# .PCD v0.7 - Point Cloud Data file format
VERSION 0.7
FIELDS x y z rgb
SIZE 4 4 4 4
TYPE F F F F
COUNT 1 1 1 1
WIDTH 893
HEIGHT 1
VIEWPOINT 0 0 0 1 0 0 0
POINTS 893
DATA ascii
0.0625 -0.4875000119 0.2250000238 9.183409486e-41
-0.150000006 -0.1374999881 0.1499999762 8.233266069e-39
0.3999999762 -0.337500006 0.2375000119 3.567951117e-39
0.2749999762 -0.4875000119 0.02499997616 9.183409486e-41
0.03750002384 -0.1125000119 -0.212500006 8.873603415e-39
-0.150000006 -0.287499994 0.1999999881 4.757149046e-39
-0.1374999881 -0.05000001192 0.2749999762 1.033723163e-38
0.05000001192 -0.01249998808 -0.212500006 1.116052251e-38
-0.1374999881 -0.474999994 0.07499998808 3.662643861e-40
0.1374999881 -0.462500006 0.2124999762 6.406946774e-40
-0.05000001192 -0.25 -0.212500006 5.58043992e-39
-0.125 -0.4875000119 -0.09999999404 9.183409486e-41
-0.0625 -0.224999994 -0.224999994 6.220777266e-39
0.2124999762 -0.25 -0.224999994 5.58043992e-39
0.1875 -0.3125 0.05000001192 4.1168117e-39
-0.1374999881 -0.01249998808 0.1750000119 1.116052251e-38
-0.1374999881 -0.349999994 -0.125 3.293520826e-39
0.1499999762 -0.0625 -0.224999994 9.97132458e-39
0.07499998808 -0.4875000119 0.08749997616 9.183409486e-41
0.2250000238 -0.1374999881 -0.212500006 8.233266069e-39
0.2624999881 -0.4875000119 -0.1999999881 9.183409486e-41
-0.150000006 0.01249998808 -0.1750000119 1.180085986e-38
-0.09999999404 -0.07499998808 -0.224999994 9.696894289e-39
0.1374999881 -0.462500006 0.02499997616 6.406946774e-40
0.3374999762 -0.337500006 0.25 3.567951117e-39
0.01249998808 -0.337500006 -0.224999994 3.567951117e-39
-0.150000006 0.02499997616 -0.212500006 1.207529015e-38
-0.150000006 -0.3125 -0.02500000596 4.1168117e-39
0.05000001192 -0.08750000596 -0.224999994 9.422463997e-39
0.2875000238 -0.4875000119 -0.1750000119 9.183409486e-41
0.0625 -0.08750000596 -0.224999994 9.422463997e-39
-0.150000006 -0.162499994 0.2124999762 7.684405486e-39
0.3000000119 -0.3874999881 -0.212500006 2.378753189e-39
0.2124999762 -0.4875000119 0.05000001192 9.183409486e-41
-0.150000006 -0.162499994 0.1125000119 7.684405486e-39
-0.1374999881 0.02499997616 0.01249998808 1.207529015e-38
-0.0625 -0.162499994 -0.224999994 7.684405486e-39
0.07499998808 -0.4875000119 -0.02500000596 9.183409486e-41
-0.1374999881 -0.4250000119 0 1.555462315e-39
-0.150000006 -0.05000001192 0.2875000238 1.033723163e-38
-0.150000006 -0.1875 -0.01249998808 7.04406814e-39
0.1875 -0.337500006 0.01249998808 3.567951117e-39
-0.1374999881 -0.09999999404 -0.09999999404 9.148033706e-39
-0.05000001192 -0.01249998808 -0.224999994 1.116052251e-38
0.1374999881 -0.03749999404 -0.212500006 1.061166193e-38
-0.05000001192 -0.25 -0.224999994 5.58043992e-39
0.25 -0.4375 -0.212500006 1.18955526e-39
-0.1374999881 -0.1374999881 0.02499997616 8.233266069e-39
0.1999999881 -0.337500006 0.2124999762 3.567951117e-39
0.1999999881 -0.375 0.02499997616 2.65318348e-39
0.05000001192 -0.212500006 -0.224999994 6.495207557e-39
-0.1374999881 -0.05000001192 -0.09999999404 1.033723163e-38
0.0625 -0.01249998808 -0.212500006 1.116052251e-38
0.2124999762 -0.2624999881 -0.212500006 5.306009629e-39
-0.1374999881 -0.3125 -0.0625 4.1168117e-39
-0.1374999881 -0.1875 0.2250000238 7.04406814e-39
-0.03749999404 -0.4875000119 -0.1999999881 9.183409486e-41
-0.150000006 -0.02500000596 0.2749999762 1.088609222e-38
0.1000000238 -0.337500006 -0.212500006 3.567951117e-39
-0.150000006 -0.212500006 -0.1374999881 6.495207557e-39
0.01249998808 -0.4875000119 0.02499997616 9.183409486e-41
-0.1374999881 -0.400000006 0.375 2.104322897e-39
-0.125 -0.4875000119 0.375 9.183409486e-41
-0.150000006 -0.3000000119 -0.05000001192 4.482718755e-39
0.2749999762 -0.375 -0.1125000119 2.65318348e-39
-0.150000006 -0.4499999881 0.3874999881 9.151249686e-40
-0.150000006 -0.2624999881 -0.08750000596 5.306009629e-39
-0.08750000596 -0.4875000119 0.1999999881 9.183409486e-41
-0.1374999881 -0.25 0.3625000119 5.58043992e-39
-0.1374999881 -0.337500006 -0.08750000596 3.567951117e-39
-0.1374999881 -0.287499994 0.125 4.757149046e-39
-0.09999999404 -0.150000006 -0.212500006 7.958835777e-39
-0.1374999881 -0.275000006 -0.1125000119 5.031579337e-39
0.2250000238 -0.212500006 -0.212500006 6.495207557e-39
-0.1374999881 -0.3874999881 0.125 2.378753189e-39
-0.1374999881 -0.3125 0.05000001192 4.1168117e-39
-0.150000006 -0.03749999404 0.1374999881 1.061166193e-38
-0.1374999881 -0.4375 0.3625000119 1.18955526e-39
0.1125000119 -0.400000006 0.1374999881 2.104322897e-39
-0.150000006 -0.4875000119 -0.212500006 9.183409486e-41
-0.02500000596 -0.02500000596 -0.212500006 1.088609222e-38
-0.1374999881 -0.412499994 -0.05000001192 1.829892606e-39
-0.05000001192 -0.4875000119 0.1000000238 9.183409486e-41
0.07499998808 -0.4875000119 0.2124999762 9.183409486e-41
0.01249998808 -0.25 -0.212500006 5.58043992e-39
-0.1125000119 -0.4875000119 -0.1999999881 9.183409486e-41
-0.150000006 -0.02500000596 0.1750000119 1.088609222e-38
-0.150000006 -0.2624999881 0.2749999762 5.306009629e-39
-0.1374999881 -0.07499998808 0.3625000119 9.696894289e-39
-0.1374999881 0.03750002384 -0.224999994 1.234972044e-38
0.0625 -0.2624999881 -0.212500006 5.306009629e-39
-0.150000006 -0.3000000119 0.1374999881 4.482718755e-39
-0.08750000596 -0.4875000119 -0.0625 9.183409486e-41
0.2124999762 -0.337500006 0.08749997616 3.567951117e-39
0.1499999762 -0.0625 0.08749997616 9.97132458e-39
-0.1374999881 -0.212500006 -0.0625 6.495207557e-39
-0.1374999881 -0.474999994 -0.02500000596 3.662643861e-40
-0.150000006 0 0.08749997616 1.14349528e-38
-0.1374999881 -0.3625000119 0.2749999762 3.019090535e-39
0.1499999762 -0.1374999881 -0.224999994 8.233266069e-39
-0.125 -0.412499994 -0.224999994 1.829892606e-39
0.07499998808 -0.412499994 -0.212500006 1.829892606e-39
-0.05000001192 -0.125 -0.212500006 8.50769636e-39
0.1125000119 -0.474999994 0.07499998808 3.662643861e-40
0.2749999762 -0.4875000119 -0.125 9.183409486e-41
-0.150000006 -0.287499994 0.3625000119 4.757149046e-39
0.25 -0.3874999881 -0.09999999404 2.378753189e-39
0.1625000238 -0.4875000119 -0.1374999881 9.183409486e-41
-0.1374999881 -0.4875000119 0.3500000238 9.183409486e-41
-0.125 0.02499997616 -0.212500006 1.207529015e-38
-0.150000006 -0.375 -0.01249998808 2.65318348e-39
-0.150000006 -0.4250000119 0.4125000238 1.555462315e-39
-0.1374999881 -0.4375 0.2124999762 1.18955526e-39
0.03750002384 -0.4875000119 0.0625 9.183409486e-41
-0.150000006 -0.3000000119 0.3374999762 4.482718755e-39
0.07499998808 -0.08750000596 -0.212500006 9.422463997e-39
-0.1374999881 -0.162499994 -0.1750000119 7.684405486e-39
0.1374999881 -0.4875000119 -0.07499998808 9.183409486e-41
-0.150000006 -0.2375000119 -0.1875 5.946346975e-39
-0.150000006 0.01249998808 0.0625 1.180085986e-38
-0.1374999881 -0.1374999881 -0.125 8.233266069e-39
0.25 -0.349999994 0.02499997616 3.293520826e-39
-0.1374999881 -0.08750000596 0.3625000119 9.422463997e-39
0.4250000119 -0.400000006 -0.01249998808 2.104322897e-39
0.08749997616 -0.09999999404 -0.212500006 9.148033706e-39
0.1499999762 -0.337500006 0.1125000119 3.567951117e-39
0.1999999881 -0.1999999881 -0.212500006 6.769637849e-39
0.25 -0.400000006 -0.02500000596 2.104322897e-39
-0.1374999881 -0.01249998808 0.3249999881 1.116052251e-38
-0.1374999881 0 0.05000001192 1.14349528e-38
0.1875 -0.412499994 -0.224999994 1.829892606e-39
0.3374999762 -0.3625000119 0.25 3.019090535e-39
-0.1374999881 -0.150000006 -0.1374999881 7.958835777e-39
-0.1374999881 -0.3125 -0.1875 4.1168117e-39
-0.1374999881 -0.07499998808 0.3874999881 9.696894289e-39
0.03750002384 -0.4875000119 -0.150000006 9.183409486e-41
-0.1374999881 -0.1374999881 -0.07499998808 8.233266069e-39
-0.1374999881 -0.400000006 0.1750000119 2.104322897e-39
0.2749999762 -0.4250000119 -0.01249998808 1.555462315e-39
0.1125000119 -0.474999994 -0.224999994 3.662643861e-40
-0.150000006 -0.3125 -0.1750000119 4.1168117e-39
0.1125000119 -0.05000001192 0.1000000238 1.033723163e-38
-0.125 -0.4875000119 0.2624999881 9.183409486e-41
0.05000001192 -0.3625000119 0.07499998808 3.019090535e-39
0.01249998808 -0.4875000119 -0.02500000596 9.183409486e-41
0.2749999762 -0.4875000119 -0.1999999881 9.183409486e-41
-0.1125000119 -0.4875000119 -0.03749999404 9.183409486e-41
-0.150000006 -0.1125000119 -0.125 8.873603415e-39
-0.1125000119 0.02499997616 -0.224999994 1.207529015e-38
-0.150000006 -0.2624999881 0.2124999762 5.306009629e-39
-0.150000006 -0.125 -0.07499998808 8.50769636e-39
-0.02500000596 -0.150000006 -0.212500006 7.958835777e-39
-0.150000006 -0.287499994 0.02499997616 4.757149046e-39
0.1374999881 -0.474999994 0.03750002384 3.662643861e-40
-0.1374999881 -0.212500006 -0.212500006 6.495207557e-39
-0.150000006 -0.09999999404 0.25 9.148033706e-39
0.375 -0.3874999881 -0.1125000119 2.378753189e-39
0.125 -0.3125 -0.224999994 4.1168117e-39
-0.150000006 -0.3000000119 0.2375000119 4.482718755e-39
0.4125000238 -0.3249999881 0.1750000119 3.842381409e-39
-0.1374999881 -0.07499998808 0.1000000238 9.696894289e-39
0.3500000238 -0.349999994 0.01249998808 3.293520826e-39
0.3374999762 -0.349999994 0.01249998808 3.293520826e-39
0.3125 -0.337500006 0.1374999881 3.567951117e-39
0.03750002384 -0.4375 -0.212500006 1.18955526e-39
-0.07499998808 -0.412499994 -0.224999994 1.829892606e-39
0.1000000238 -0.02500000596 -0.224999994 1.088609222e-38
-0.150000006 -0.0625 0.3125 9.97132458e-39
0.1374999881 -0.3249999881 -0.224999994 3.842381409e-39
0.4624999762 -0.337500006 0.1750000119 3.567951117e-39
0.01249998808 -0.375 0.1125000119 2.65318348e-39
0.25 -0.337500006 0.125 3.567951117e-39
0.375 -0.375 0.01249998808 2.65318348e-39
0.2375000119 -0.4875000119 0.1000000238 9.183409486e-41
-0.150000006 -0.375 0.2124999762 2.65318348e-39
-0.08750000596 0.03750002384 -0.224999994 1.234972044e-38
0.2375000119 -0.3249999881 -0.212500006 3.842381409e-39
0.02499997616 -0.3249999881 -0.212500006 3.842381409e-39
0.1125000119 -0.224999994 -0.212500006 6.220777266e-39
0.2749999762 -0.3625000119 0.3125 3.019090535e-39
0.1374999881 -0.4499999881 0.01249998808 9.151249686e-40
-0.1374999881 -0.1750000119 0.1125000119 7.409975195e-39
-0.01249998808 -0.1125000119 -0.224999994 8.873603415e-39
0.3500000238 -0.337500006 0.125 3.567951117e-39
-0.1374999881 -0.02500000596 0.375 1.088609222e-38
0.2124999762 -0.400000006 -0.07499998808 2.104322897e-39
-0.150000006 -0.2375000119 0.2250000238 5.946346975e-39
0.3999999762 -0.3249999881 0.1625000238 3.842381409e-39
-0.150000006 -0.375 0 2.65318348e-39
0.01249998808 -0.4875000119 0.1000000238 9.183409486e-41
-0.03749999404 -0.4875000119 0.2749999762 9.183409486e-41
0.2124999762 -0.4875000119 0.125 9.183409486e-41
0.1750000119 -0.2375000119 -0.212500006 5.946346975e-39
-0.08750000596 -0.4875000119 -0.1875 9.183409486e-41
-0.150000006 0 0.02499997616 1.14349528e-38
0.125 -0.05000001192 -0.212500006 1.033723163e-38
0.1000000238 -0.4875000119 0.1374999881 9.183409486e-41
0.1875 -0.4875000119 -0.1125000119 9.183409486e-41
0.1499999762 -0.337500006 0.05000001192 3.567951117e-39
-0.150000006 -0.162499994 0.1625000238 7.684405486e-39
-0.1374999881 -0.4499999881 0.3000000119 9.151249686e-40
0.2250000238 -0.2375000119 -0.212500006 5.946346975e-39
0.2624999881 -0.3625000119 -0.212500006 3.019090535e-39
-0.1374999881 0 0.1999999881 1.14349528e-38
-0.150000006 -0.01249998808 0.2250000238 1.116052251e-38
-0.125 -0.4875000119 0.25 9.183409486e-41
-0.1374999881 -0.01249998808 -0.0625 1.116052251e-38
-0.05000001192 -0.3000000119 -0.224999994 4.482718755e-39
0.03750002384 -0.4875000119 -0.0625 9.183409486e-41
0.2749999762 -0.3625000119 -0.224999994 3.019090535e-39
-0.150000006 -0.3125 -0.1875 4.1168117e-39
0.1625000238 -0.4875000119 0.3000000119 9.183409486e-41
-0.150000006 -0.1750000119 0.03750002384 7.409975195e-39
-0.150000006 -0.3625000119 -0.08750000596 3.019090535e-39
0.05000001192 -0.07499998808 -0.212500006 9.696894289e-39
-0.1374999881 0.02499997616 -0.1875 1.207529015e-38
0.2250000238 -0.412499994 0.2749999762 1.829892606e-39
0.1625000238 -0.4499999881 0.2250000238 9.151249686e-40
0.3500000238 -0.349999994 0.02499997616 3.293520826e-39
0.1625000238 -0.337500006 0.07499998808 3.567951117e-39
-0.150000006 -0.1374999881 0.2624999881 8.233266069e-39
-0.150000006 -0.337500006 0.07499998808 3.567951117e-39
-0.1374999881 -0.224999994 0.2749999762 6.220777266e-39
0.1374999881 -0.4875000119 -0.1875 9.183409486e-41
-0.1374999881 -0.337500006 0.1875 3.567951117e-39
0.1625000238 -0.4250000119 0.01249998808 1.555462315e-39
-0.150000006 0 -0.162499994 1.14349528e-38
0.3125 -0.337500006 0.1125000119 3.567951117e-39
0.1374999881 -0.3625000119 0.1750000119 3.019090535e-39
0.2749999762 -0.337500006 0.03750002384 3.567951117e-39
0.4250000119 -0.412499994 0 1.829892606e-39
0.1999999881 -0.4875000119 0.01249998808 9.183409486e-41
-0.02500000596 -0.2624999881 -0.224999994 5.306009629e-39
0.08749997616 -0.07499998808 0.125 9.696894289e-39
-0.150000006 -0.4875000119 0.2875000238 9.183409486e-41
-0.1374999881 0.05000001192 -0.0625 1.262415073e-38
0.2624999881 -0.150000006 -0.212500006 7.958835777e-39
-0.1374999881 -0.2624999881 0.1374999881 5.306009629e-39
-0.02500000596 -0.4875000119 0.1750000119 9.183409486e-41
0.2124999762 -0.3125 -0.125 4.1168117e-39
0.1875 -0.400000006 -0.224999994 2.104322897e-39
0.2375000119 -0.4875000119 0.1374999881 9.183409486e-41
0 -0.287499994 -0.212500006 4.757149046e-39
-0.0625 -0.150000006 -0.224999994 7.958835777e-39
0.02499997616 -0.4875000119 0.3500000238 9.183409486e-41
0.1374999881 -0.375 0.1875 2.65318348e-39
-0.1125000119 -0.375 -0.224999994 2.65318348e-39
-0.150000006 -0.2624999881 -0.1125000119 5.306009629e-39
0.1499999762 -0.3874999881 -0.224999994 2.378753189e-39
-0.150000006 -0.3874999881 -0.1875 2.378753189e-39
-0.150000006 -0.287499994 -0.0625 4.757149046e-39
-0.150000006 -0.02500000596 -0.02500000596 1.088609222e-38
0.3125 -0.3625000119 0.01249998808 3.019090535e-39
0.01249998808 -0.4875000119 -0.1374999881 9.183409486e-41
0.1999999881 -0.337500006 0.125 3.567951117e-39
0 -0.4875000119 0.3500000238 9.183409486e-41
0.1499999762 -0.349999994 0.1125000119 3.293520826e-39
-0.150000006 -0.474999994 0.0625 3.662643861e-40
-0.150000006 -0.2375000119 0.125 5.946346975e-39
0.3374999762 -0.375 0.25 2.65318348e-39
0.25 -0.474999994 -0.212500006 3.662643861e-40
-0.1374999881 -0.3249999881 -0.05000001192 3.842381409e-39
-0.1374999881 -0.1999999881 -0.07499998808 6.769637849e-39
-0.05000001192 -0.1750000119 -0.212500006 7.409975195e-39
-0.1374999881 -0.2624999881 -0.150000006 5.306009629e-39
-0.1374999881 -0.3874999881 0.3500000238 2.378753189e-39
0.02499997616 -0.08750000596 -0.224999994 9.422463997e-39
0.1125000119 -0.4875000119 -0.1374999881 9.183409486e-41
-0.1374999881 -0.2624999881 -0.01249998808 5.306009629e-39
0.2624999881 -0.162499994 -0.224999994 7.684405486e-39
-0.1374999881 -0.05000001192 0.3625000119 1.033723163e-38
0.1875 -0.337500006 0.1999999881 3.567951117e-39
-0.03749999404 -0.4375 -0.224999994 1.18955526e-39
-0.125 -0.4499999881 -0.212500006 9.151249686e-40
0.08749997616 -0.3000000119 -0.212500006 4.482718755e-39
0.2749999762 -0.08750000596 -0.212500006 9.422463997e-39
0.03750002384 -0.125 -0.212500006 8.50769636e-39
0.1125000119 -0.4875000119 -0.1999999881 9.183409486e-41
-0.1125000119 -0.08750000596 -0.224999994 9.422463997e-39
-0.150000006 -0.275000006 0.1750000119 5.031579337e-39
0.07499998808 -0.400000006 0.1000000238 2.104322897e-39
-0.1374999881 -0.4375 -0.02500000596 1.18955526e-39
-0.1374999881 -0.03749999404 0.3249999881 1.061166193e-38
-0.1374999881 -0.375 0.01249998808 2.65318348e-39
-0.05000001192 -0.287499994 -0.224999994 4.757149046e-39
-0.1374999881 -0.1750000119 0.1999999881 7.409975195e-39
0.07499998808 -0.400000006 0.1499999762 2.104322897e-39
0.02499997616 -0.4375 -0.224999994 1.18955526e-39
0.1374999881 -0.4499999881 0.2375000119 9.151249686e-40
-0.150000006 -0.4499999881 0.3374999762 9.151249686e-40
0.1499999762 -0.412499994 0.2124999762 1.829892606e-39
-0.1374999881 -0.375 -0.05000001192 2.65318348e-39
0.3874999881 -0.337500006 0.08749997616 3.567951117e-39
0.25 -0.25 -0.212500006 5.58043992e-39
-0.150000006 -0.05000001192 0.02499997616 1.033723163e-38
-0.1374999881 0.02499997616 -0.150000006 1.207529015e-38
-0.1374999881 -0.1125000119 -0.212500006 8.873603415e-39
-0.150000006 -0.3000000119 -0.162499994 4.482718755e-39
0.2624999881 -0.1999999881 -0.212500006 6.769637849e-39
-0.150000006 -0.01249998808 0.2375000119 1.116052251e-38
-0.150000006 -0.3000000119 0.3000000119 4.482718755e-39
-0.1374999881 -0.212500006 -0.08750000596 6.495207557e-39
-0.1374999881 -0.150000006 -0.08750000596 7.958835777e-39
-0.09999999404 -0.25 -0.224999994 5.58043992e-39
-0.150000006 0 0.3500000238 1.14349528e-38
-0.150000006 -0.07499998808 0.3249999881 9.696894289e-39
-0.1374999881 -0.4375 -0.05000001192 1.18955526e-39
0.1875 -0.400000006 -0.09999999404 2.104322897e-39
-0.09999999404 0.01249998808 -0.212500006 1.180085986e-38
-0.150000006 -0.4375 0.1999999881 1.18955526e-39
-0.1374999881 -0.4375 0.02499997616 1.18955526e-39
-0.150000006 -0.0625 0.01249998808 9.97132458e-39
-0.1374999881 -0.337500006 -0.01249998808 3.567951117e-39
-0.1374999881 -0.337500006 0.01249998808 3.567951117e-39
-0.1374999881 -0.275000006 0 5.031579337e-39
-0.150000006 -0.01249998808 0 1.116052251e-38
0 -0.1750000119 -0.212500006 7.409975195e-39
-0.150000006 -0.287499994 -0.02500000596 4.757149046e-39
0.2749999762 -0.4499999881 0.2875000238 9.151249686e-40
-0.150000006 -0.01249998808 -0.125 1.116052251e-38
-0.1374999881 -0.162499994 0.2250000238 7.684405486e-39
-0.1374999881 -0.287499994 0.2624999881 4.757149046e-39
0.1750000119 -0.3125 -0.212500006 4.1168117e-39
0.2375000119 -0.412499994 -0.212500006 1.829892606e-39
0.0625 -0.07499998808 -0.212500006 9.696894289e-39
-0.125 -0.4875000119 -0.03749999404 9.183409486e-41
0.1499999762 -0.337500006 0.1499999762 3.567951117e-39
0.07499998808 -0.4875000119 0.05000001192 9.183409486e-41
-0.1374999881 -0.4250000119 -0.0625 1.555462315e-39
0.0625 -0.4375 -0.212500006 1.18955526e-39
-0.02500000596 -0.474999994 -0.212500006 3.662643861e-40
-0.08750000596 -0.4875000119 0.2624999881 9.183409486e-41
-0.1125000119 0.02499997616 -0.212500006 1.207529015e-38
0.2124999762 -0.337500006 0.2250000238 3.567951117e-39
-0.1374999881 -0.1999999881 0.3500000238 6.769637849e-39
0.02499997616 -0.4875000119 0.1000000238 9.183409486e-41
-0.150000006 0.01249998808 0.3000000119 1.180085986e-38
0 -0.224999994 -0.212500006 6.220777266e-39
0.03750002384 -0.4875000119 0.1625000238 9.183409486e-41
-0.150000006 -0.400000006 0.08749997616 2.104322897e-39
-0.150000006 -0.07499998808 0.25 9.696894289e-39
-0.1374999881 -0.07499998808 -0.224999994 9.696894289e-39
-0.1374999881 0 -0.09999999404 1.14349528e-38
-0.150000006 -0.1374999881 -0.02500000596 8.233266069e-39
-0.02500000596 -0.03749999404 -0.224999994 1.061166193e-38
-0.1374999881 -0.275000006 0.3249999881 5.031579337e-39
0.25 -0.2624999881 -0.224999994 5.306009629e-39
0.3249999881 -0.337500006 0.02499997616 3.567951117e-39
-0.1374999881 -0.162499994 -0.212500006 7.684405486e-39
0.1000000238 -0.05000001192 -0.212500006 1.033723163e-38
0.05000001192 -0.400000006 0.125 2.104322897e-39
0.01249998808 -0.4875000119 0.0625 9.183409486e-41
-0.07499998808 -0.3874999881 -0.224999994 2.378753189e-39
-0.150000006 -0.4375 0.07499998808 1.18955526e-39
-0.1374999881 -0.25 0.3500000238 5.58043992e-39
0.375 -0.4499999881 -0.125 9.151249686e-40
-0.150000006 -0.412499994 0.05000001192 1.829892606e-39
-0.1374999881 -0.03749999404 0.1000000238 1.061166193e-38
0.2624999881 -0.4875000119 -0.150000006 9.183409486e-41
0.2124999762 -0.1999999881 -0.212500006 6.769637849e-39
0 -0.3625000119 -0.224999994 3.019090535e-39
0.1999999881 -0.337500006 0.1000000238 3.567951117e-39
-0.08750000596 -0.1750000119 -0.212500006 7.409975195e-39
-0.1374999881 -0.0625 -0.07499998808 9.97132458e-39
0.3374999762 -0.349999994 0.2375000119 3.293520826e-39
0.1625000238 -0.4875000119 -0.08750000596 9.183409486e-41
0.02499997616 -0.25 -0.224999994 5.58043992e-39
0.1625000238 -0.4875000119 -0.212500006 9.183409486e-41
-0.01249998808 -0.375 -0.212500006 2.65318348e-39
-0.150000006 -0.4250000119 0.01249998808 1.555462315e-39
-0.1374999881 -0.400000006 0.3625000119 2.104322897e-39
-0.1374999881 0 0.0625 1.14349528e-38
-0.150000006 -0.1374999881 -0.1750000119 8.233266069e-39
0.1374999881 -0.412499994 0.2124999762 1.829892606e-39
-0.150000006 0.01249998808 -0.07499998808 1.180085986e-38
-0.0625 -0.4875000119 -0.1125000119 9.183409486e-41
0.4375 -0.3249999881 0.1125000119 3.842381409e-39
0.1374999881 -0.375 0.2250000238 2.65318348e-39
0.02499997616 -0.4875000119 0.1999999881 9.183409486e-41
0.05000001192 0 -0.212500006 1.14349528e-38
0.1625000238 -0.0625 -0.212500006 9.97132458e-39
-0.1374999881 -0.05000001192 -0.212500006 1.033723163e-38
0.1000000238 -0.287499994 -0.224999994 4.757149046e-39
0.1000000238 -0.4875000119 0.3625000119 9.183409486e-41
-0.150000006 -0.1374999881 -0.08750000596 8.233266069e-39
-0.125 -0.01249998808 -0.224999994 1.116052251e-38
-0.1374999881 -0.03749999404 0.2749999762 1.061166193e-38
-0.1374999881 -0.2375000119 -0.224999994 5.946346975e-39
0.0625 -0.4875000119 0.3374999762 9.183409486e-41
-0.150000006 0.03750002384 0.03750002384 1.234972044e-38
0.3374999762 -0.337500006 0.125 3.567951117e-39
-0.0625 -0.4875000119 0.1499999762 9.183409486e-41
-0.150000006 -0.25 -0.0625 5.58043992e-39
0.1999999881 -0.400000006 -0.212500006 2.104322897e-39
-0.150000006 -0.474999994 0.3625000119 3.662643861e-40
0.1125000119 -0.0625 0.1499999762 9.97132458e-39
0.1875 -0.3249999881 -0.212500006 3.842381409e-39
-0.1374999881 0 0.3625000119 1.14349528e-38
0.1750000119 -0.474999994 -0.212500006 3.662643861e-40
-0.150000006 -0.412499994 -0.08750000596 1.829892606e-39
-0.150000006 -0.09999999404 0.125 9.148033706e-39
-0.05000001192 -0.4875000119 -0.150000006 9.183409486e-41
0.1000000238 -0.1125000119 -0.224999994 8.873603415e-39
-0.150000006 -0.1125000119 0.0625 8.873603415e-39
-0.150000006 -0.2375000119 0.2749999762 5.946346975e-39
0.03750002384 -0.287499994 -0.224999994 4.757149046e-39
-0.150000006 -0.275000006 0.1999999881 5.031579337e-39
-0.150000006 -0.0625 0 9.97132458e-39
-0.1374999881 -0.4875000119 -0.0625 9.183409486e-41
0.1750000119 -0.4875000119 0.2749999762 9.183409486e-41
0.05000001192 -0.4875000119 -0.01249998808 9.183409486e-41
0.05000001192 -0.4875000119 -0.02500000596 9.183409486e-41
0.1374999881 -0.3625000119 0.01249998808 3.019090535e-39
-0.150000006 -0.09999999404 0.1499999762 9.148033706e-39
-0.150000006 0.02499997616 0.1125000119 1.207529015e-38
-0.1374999881 -0.4375 0.1999999881 1.18955526e-39
-0.150000006 -0.1999999881 0.125 6.769637849e-39
-0.150000006 -0.2375000119 -0.1750000119 5.946346975e-39
-0.1374999881 -0.4875000119 -0.212500006 9.183409486e-41
-0.150000006 -0.0625 0.0625 9.97132458e-39
0.07499998808 -0.125 -0.212500006 8.50769636e-39
0.3000000119 -0.4875000119 -0.125 9.183409486e-41
-0.1374999881 -0.0625 0.2124999762 9.97132458e-39
-0.150000006 -0.125 0.2875000238 8.50769636e-39
0.25 -0.3000000119 -0.224999994 4.482718755e-39
0.2124999762 -0.337500006 0.2124999762 3.567951117e-39
-0.08750000596 -0.474999994 -0.212500006 3.662643861e-40
-0.09999999404 -0.349999994 -0.212500006 3.293520826e-39
0.2250000238 -0.375 0.25 2.65318348e-39
-0.150000006 -0.08750000596 0.3374999762 9.422463997e-39
-0.150000006 -0.25 0.2124999762 5.58043992e-39
0.2375000119 -0.412499994 0.2875000238 1.829892606e-39
-0.150000006 -0.02500000596 0.1374999881 1.088609222e-38
-0.09999999404 -0.3125 -0.212500006 4.1168117e-39
0.02499997616 -0.03749999404 -0.212500006 1.061166193e-38
-0.125 -0.125 -0.224999994 8.50769636e-39
0.07499998808 -0.0625 0.1499999762 9.97132458e-39
0.1000000238 -0.4875000119 0 9.183409486e-41
0.07499998808 -0.3125 -0.212500006 4.1168117e-39
-0.1374999881 -0.287499994 0.1875 4.757149046e-39
0.2624999881 -0.212500006 -0.224999994 6.495207557e-39
-0.1374999881 -0.375 -0.212500006 2.65318348e-39
-0.150000006 0.02499997616 -0.05000001192 1.207529015e-38
0.1499999762 -0.4250000119 0.01249998808 1.555462315e-39
-0.150000006 -0.474999994 0.3500000238 3.662643861e-40
0.07499998808 -0.4875000119 0.02499997616 9.183409486e-41
-0.150000006 -0.1999999881 0.3874999881 6.769637849e-39
-0.150000006 -0.07499998808 -0.1374999881 9.696894289e-39
-0.1374999881 -0.287499994 0.3125 4.757149046e-39
0.1875 -0.3874999881 -0.1125000119 2.378753189e-39
-0.0625 -0.08750000596 -0.224999994 9.422463997e-39
-0.150000006 -0.03749999404 -0.01249998808 1.061166193e-38
-0.1374999881 -0.462500006 0.1750000119 6.406946774e-40
0.2375000119 -0.3000000119 -0.212500006 4.482718755e-39
-0.1374999881 -0.4875000119 0.1499999762 9.183409486e-41
-0.07499998808 -0.4875000119 0.3874999881 9.183409486e-41
-0.150000006 -0.349999994 0.3000000119 3.293520826e-39
-0.150000006 -0.01249998808 -0.02500000596 1.116052251e-38
0.2375000119 -0.4875000119 0.08749997616 9.183409486e-41
-0.150000006 -0.09999999404 0.2749999762 9.148033706e-39
0.1000000238 -0.2375000119 -0.212500006 5.946346975e-39
-0.1125000119 -0.4875000119 0.03750002384 9.183409486e-41
-0.1374999881 -0.212500006 0.1374999881 6.495207557e-39
0.4499999881 -0.337500006 0.1125000119 3.567951117e-39
-0.07499998808 -0.224999994 -0.224999994 6.220777266e-39
0.1625000238 -0.400000006 -0.224999994 2.104322897e-39
0.2250000238 -0.3249999881 -0.224999994 3.842381409e-39
-0.150000006 -0.412499994 0.2875000238 1.829892606e-39
-0.150000006 -0.224999994 -0.05000001192 6.220777266e-39
-0.150000006 -0.375 -0.09999999404 2.65318348e-39
0.4750000238 -0.337500006 0.1374999881 3.567951117e-39
0.08749997616 -0.01249998808 -0.212500006 1.116052251e-38
0.2375000119 -0.4875000119 -0.162499994 9.183409486e-41
0.3999999762 -0.337500006 0.1374999881 3.567951117e-39
0.1000000238 -0.4875000119 0.08749997616 9.183409486e-41
0.2875000238 -0.4875000119 -0.07499998808 9.183409486e-41
-0.09999999404 -0.09999999404 -0.212500006 9.148033706e-39
-0.150000006 -0.02500000596 0.3374999762 1.088609222e-38
0.1499999762 -0.4875000119 0.2124999762 9.183409486e-41
-0.1374999881 -0.275000006 0.2624999881 5.031579337e-39
0.1875 -0.162499994 -0.224999994 7.684405486e-39
0.4375 -0.400000006 -0.05000001192 2.104322897e-39
-0.150000006 -0.349999994 -0.08750000596 3.293520826e-39
-0.150000006 -0.3125 0.125 4.1168117e-39
0.3125 -0.337500006 0.1499999762 3.567951117e-39
-0.150000006 0 -0.1875 1.14349528e-38
-0.1374999881 0.03750002384 -0.05000001192 1.234972044e-38
-0.1374999881 -0.0625 -0.08750000596 9.97132458e-39
-0.150000006 -0.125 -0.125 8.50769636e-39
0.2250000238 -0.4875000119 0.1750000119 9.183409486e-41
-0.02500000596 -0.4875000119 0.1499999762 9.183409486e-41
-0.1374999881 -0.3874999881 0.2749999762 2.378753189e-39
0.2749999762 -0.4875000119 -0.1875 9.183409486e-41
0.01249998808 -0.4875000119 0.01249998808 9.183409486e-41
-0.1374999881 -0.400000006 -0.03749999404 2.104322897e-39
0.1499999762 -0.2624999881 -0.224999994 5.306009629e-39
0.4499999881 -0.337500006 0.03750002384 3.567951117e-39
0.1625000238 -0.3625000119 0.01249998808 3.019090535e-39
0.2375000119 -0.1125000119 -0.224999994 8.873603415e-39
-0.03749999404 -0.400000006 -0.224999994 2.104322897e-39
-0.1374999881 -0.3000000119 0.2375000119 4.482718755e-39
-0.05000001192 -0.3625000119 -0.212500006 3.019090535e-39
0.2250000238 -0.4250000119 -0.224999994 1.555462315e-39
-0.125 -0.4875000119 0 9.183409486e-41
-0.150000006 -0.337500006 -0.1750000119 3.567951117e-39
-0.1374999881 0.01249998808 -0.1999999881 1.180085986e-38
0.2749999762 -0.2375000119 -0.224999994 5.946346975e-39
-0.150000006 -0.1374999881 0.125 8.233266069e-39
-0.1374999881 -0.03749999404 -0.162499994 1.061166193e-38
0.1499999762 -0.4875000119 0.3500000238 9.183409486e-41
0.1499999762 -0.474999994 0.25 3.662643861e-40
0.07499998808 -0.400000006 0.1125000119 2.104322897e-39
-0.150000006 -0.1750000119 -0.1875 7.409975195e-39
0.1625000238 -0.3249999881 -0.212500006 3.842381409e-39
-0.150000006 -0.07499998808 0.2124999762 9.696894289e-39
0.08749997616 -0.4875000119 0.05000001192 9.183409486e-41
0.4250000119 -0.3125 0.1750000119 4.1168117e-39
0.2250000238 -0.337500006 0.1875 3.567951117e-39
0.1374999881 -0.4875000119 -0.1999999881 9.183409486e-41
0.08749997616 -0.4875000119 0.1625000238 9.183409486e-41
-0.150000006 -0.0625 -0.08750000596 9.97132458e-39
-0.01249998808 -0.3249999881 0.1000000238 3.842381409e-39
-0.01249998808 -0.400000006 -0.212500006 2.104322897e-39
0.1625000238 -0.3874999881 -0.125 2.378753189e-39
-0.150000006 0.03750002384 0.0625 1.234972044e-38
-0.09999999404 0 -0.224999994 1.14349528e-38
-0.150000006 -0.462500006 0.02499997616 6.406946774e-40
-0.1374999881 -0.3125 0.3374999762 4.1168117e-39
-0.07499998808 -0.07499998808 -0.212500006 9.696894289e-39
0.05000001192 -0.4875000119 0.2875000238 9.183409486e-41
0.0625 -0.4250000119 0.1999999881 1.555462315e-39
0.07499998808 -0.4499999881 -0.224999994 9.151249686e-40
0.2749999762 -0.4375 -0.212500006 1.18955526e-39
-0.150000006 -0.375 -0.1125000119 2.65318348e-39
-0.150000006 -0.2375000119 -0.150000006 5.946346975e-39
-0.1374999881 0.03750002384 -0.1374999881 1.234972044e-38
0.3374999762 -0.337500006 0.08749997616 3.567951117e-39
0.1625000238 -0.375 0.05000001192 2.65318348e-39
0.1374999881 -0.375 -0.212500006 2.65318348e-39
-0.150000006 -0.01249998808 0.2749999762 1.116052251e-38
0.1499999762 -0.4875000119 0.1625000238 9.183409486e-41
0.125 -0.4875000119 0 9.183409486e-41
0.4250000119 -0.337500006 0.2375000119 3.567951117e-39
-0.1374999881 -0.2624999881 0.3249999881 5.306009629e-39
0.2375000119 -0.375 0.02499997616 2.65318348e-39
0.3000000119 -0.3625000119 0.02499997616 3.019090535e-39
0.03750002384 -0.25 -0.224999994 5.58043992e-39
0.1625000238 -0.224999994 -0.212500006 6.220777266e-39
-0.09999999404 -0.4875000119 -0.07499998808 9.183409486e-41
-0.125 -0.275000006 -0.224999994 5.031579337e-39
0.1499999762 -0.08750000596 -0.212500006 9.422463997e-39
-0.1374999881 -0.349999994 -0.1875 3.293520826e-39
-0.03749999404 -0.4250000119 -0.224999994 1.555462315e-39
-0.1374999881 -0.4499999881 0.3625000119 9.151249686e-40
-0.150000006 -0.1875 0.375 7.04406814e-39
0.25 -0.0625 -0.224999994 9.97132458e-39
0.05000001192 -0.4875000119 0.375 9.183409486e-41
0 -0.4875000119 0.2124999762 9.183409486e-41
-0.1374999881 -0.4499999881 -0.150000006 9.151249686e-40
-0.08750000596 -0.4875000119 0.01249998808 9.183409486e-41
0.1625000238 -0.4375 -0.125 1.18955526e-39
0.2624999881 -0.3874999881 -0.1125000119 2.378753189e-39
-0.1374999881 -0.1999999881 0.2375000119 6.769637849e-39
-0.1374999881 -0.400000006 0.1625000238 2.104322897e-39
0.25 -0.3249999881 -0.224999994 3.842381409e-39
-0.07499998808 -0.4875000119 0.1999999881 9.183409486e-41
0.3000000119 -0.4875000119 -0.09999999404 9.183409486e-41
0.05000001192 -0.0625 -0.224999994 9.97132458e-39
-0.1374999881 0.03750002384 -0.1875 1.234972044e-38
0.4750000238 -0.337500006 0.01249998808 3.567951117e-39
-0.01249998808 -0.4875000119 0.3249999881 9.183409486e-41
-0.150000006 -0.07499998808 0.3625000119 9.696894289e-39
-0.150000006 -0.4875000119 0 9.183409486e-41
-0.1374999881 -0.337500006 -0.1125000119 3.567951117e-39
0.08749997616 -0.09999999404 -0.224999994 9.148033706e-39
-0.1374999881 0.01249998808 0.01249998808 1.180085986e-38
-0.1374999881 -0.03749999404 0.3874999881 1.061166193e-38
0.375 -0.337500006 0.03750002384 3.567951117e-39
0.03750002384 -0.4875000119 -0.1875 9.183409486e-41
0.2749999762 -0.4875000119 -0.150000006 9.183409486e-41
-0.125 -0.4375 -0.224999994 1.18955526e-39
0.1374999881 -0.462500006 0.2375000119 6.406946774e-40
0.1625000238 -0.3000000119 -0.212500006 4.482718755e-39
-0.150000006 -0.2624999881 0.05000001192 5.306009629e-39
-0.125 -0.4875000119 0.1374999881 9.183409486e-41
-0.1374999881 -0.162499994 0.02499997616 7.684405486e-39
-0.150000006 -0.4250000119 0.3125 1.555462315e-39
-0.1374999881 -0.412499994 0.03750002384 1.829892606e-39
-0.02500000596 -0.4875000119 0.125 9.183409486e-41
0.0625 -0.337500006 -0.212500006 3.567951117e-39
-0.150000006 -0.212500006 -0.03749999404 6.495207557e-39
0.1000000238 -0.275000006 -0.224999994 5.031579337e-39
-0.1374999881 -0.3874999881 0.2124999762 2.378753189e-39
0.08749997616 -0.1999999881 -0.212500006 6.769637849e-39
0.01249998808 -0.03749999404 -0.224999994 1.061166193e-38
0.2875000238 -0.4875000119 -0.162499994 9.183409486e-41
0.1875 -0.224999994 -0.224999994 6.220777266e-39
-0.150000006 -0.375 -0.05000001192 2.65318348e-39
-0.1374999881 -0.349999994 0.3000000119 3.293520826e-39
0.1125000119 -0.0625 0.07499998808 9.97132458e-39
-0.125 -0.162499994 -0.224999994 7.684405486e-39
-0.150000006 -0.3125 0.07499998808 4.1168117e-39
-0.150000006 0.01249998808 -0.125 1.180085986e-38
-0.1374999881 -0.02500000596 -0.08750000596 1.088609222e-38
-0.150000006 -0.400000006 -0.1750000119 2.104322897e-39
0.2875000238 -0.462500006 -0.01249998808 6.406946774e-40
-0.0625 -0.3874999881 -0.224999994 2.378753189e-39
-0.1374999881 -0.1999999881 -0.09999999404 6.769637849e-39
0.2749999762 -0.1125000119 -0.224999994 8.873603415e-39
-0.150000006 -0.05000001192 0.2624999881 1.033723163e-38
-0.1374999881 0 0.03750002384 1.14349528e-38
0.2375000119 -0.3125 -0.1374999881 4.1168117e-39
0.2875000238 -0.4875000119 -0.02500000596 9.183409486e-41
-0.150000006 -0.02500000596 0.25 1.088609222e-38
-0.150000006 -0.1999999881 -0.162499994 6.769637849e-39
0.1125000119 -0.3625000119 -0.224999994 3.019090535e-39
-0.1374999881 -0.1875 -0.01249998808 7.04406814e-39
0.25 -0.400000006 0.2875000238 2.104322897e-39
0.1625000238 -0.349999994 -0.224999994 3.293520826e-39
-0.1374999881 -0.3625000119 0.2124999762 3.019090535e-39
0.25 -0.349999994 -0.1125000119 3.293520826e-39
0.1999999881 -0.400000006 -0.08750000596 2.104322897e-39
-0.150000006 -0.09999999404 0.2375000119 9.148033706e-39
-0.03749999404 -0.4875000119 -0.1374999881 9.183409486e-41
0.3500000238 -0.375 0.2375000119 2.65318348e-39
-0.09999999404 -0.4875000119 -0.162499994 9.183409486e-41
-0.1374999881 -0.07499998808 0.05000001192 9.696894289e-39
-0.0625 -0.09999999404 -0.224999994 9.148033706e-39
-0.08750000596 -0.212500006 -0.212500006 6.495207557e-39
-0.1374999881 0 0.2749999762 1.14349528e-38
-0.1374999881 -0.1750000119 -0.01249998808 7.409975195e-39
-0.150000006 -0.3249999881 -0.224999994 3.842381409e-39
0.125 -0.25 -0.224999994 5.58043992e-39
0.1125000119 -0.2375000119 -0.212500006 5.946346975e-39
-0.150000006 -0.02500000596 0.05000001192 1.088609222e-38
-0.150000006 -0.150000006 0.1625000238 7.958835777e-39
0.125 -0.4875000119 0.3249999881 9.183409486e-41
0.1625000238 -0.375 -0.1125000119 2.65318348e-39
0.3000000119 -0.337500006 -0.224999994 3.567951117e-39
-0.05000001192 -0.4875000119 -0.07499998808 9.183409486e-41
-0.01249998808 -0.4875000119 -0.05000001192 9.183409486e-41
0.1750000119 -0.1374999881 -0.224999994 8.233266069e-39
-0.1374999881 -0.462500006 0.25 6.406946774e-40
0.2124999762 -0.337500006 0.1499999762 3.567951117e-39
0.3874999881 -0.337500006 0.05000001192 3.567951117e-39
0.1499999762 -0.07499998808 -0.212500006 9.696894289e-39
-0.150000006 -0.1999999881 -0.01249998808 6.769637849e-39
0.2124999762 -0.224999994 -0.224999994 6.220777266e-39
-0.150000006 -0.162499994 0.02499997616 7.684405486e-39
-0.01249998808 -0.3000000119 -0.224999994 4.482718755e-39
0.375 -0.3625000119 -0.1125000119 3.019090535e-39
0.02499997616 -0.1750000119 -0.212500006 7.409975195e-39
0.3249999881 -0.337500006 0.1125000119 3.567951117e-39
0.08749997616 -0.224999994 -0.224999994 6.220777266e-39
-0.1374999881 0.02499997616 0.1750000119 1.207529015e-38
-0.1374999881 -0.1750000119 -0.05000001192 7.409975195e-39
-0.1374999881 -0.1125000119 0.0625 8.873603415e-39
-0.1374999881 -0.287499994 0.2124999762 4.757149046e-39
-0.08750000596 -0.0625 -0.212500006 9.97132458e-39
0 -0.4875000119 0.3125 9.183409486e-41
-0.150000006 -0.3874999881 0.3249999881 2.378753189e-39
0.3874999881 -0.337500006 0.1750000119 3.567951117e-39
-0.1374999881 -0.2624999881 -0.1125000119 5.306009629e-39
-0.1374999881 -0.150000006 0.125 7.958835777e-39
0.3125 -0.4875000119 -0.1750000119 9.183409486e-41
0.2124999762 -0.4875000119 0.2250000238 9.183409486e-41
-0.1374999881 -0.25 0.08749997616 5.58043992e-39
-0.150000006 -0.474999994 0.375 3.662643861e-40
-0.0625 -0.4875000119 0.3999999762 9.183409486e-41
0.1499999762 -0.349999994 0.125 3.293520826e-39
-0.1374999881 -0.2624999881 0.01249998808 5.306009629e-39
0.1374999881 -0.400000006 0.25 2.104322897e-39
-0.01249998808 -0.02500000596 -0.212500006 1.088609222e-38
-0.08750000596 -0.3874999881 -0.212500006 2.378753189e-39
0.1875 -0.07499998808 -0.224999994 9.696894289e-39
-0.150000006 -0.25 -0.162499994 5.58043992e-39
0.01249998808 -0.4875000119 0.08749997616 9.183409486e-41
0.1374999881 -0.462500006 0.05000001192 6.406946774e-40
0.01249998808 -0.3625000119 0.1625000238 3.019090535e-39
-0.1374999881 -0.4250000119 0.1750000119 1.555462315e-39
-0.150000006 -0.3000000119 0.4125000238 4.482718755e-39
-0.1374999881 -0.07499998808 0.3000000119 9.696894289e-39
-0.1374999881 0.02499997616 -0.162499994 1.207529015e-38
-0.1374999881 -0.3000000119 0.3625000119 4.482718755e-39
-0.1374999881 -0.150000006 0.3125 7.958835777e-39
0.4750000238 -0.337500006 0.2250000238 3.567951117e-39
-0.1374999881 -0.4875000119 -0.1750000119 9.183409486e-41
-0.150000006 -0.2624999881 0.3125 5.306009629e-39
-0.150000006 -0.3625000119 0 3.019090535e-39
0.3000000119 -0.275000006 -0.224999994 5.031579337e-39
-0.1374999881 -0.375 0.2749999762 2.65318348e-39
-0.125 0.03750002384 -0.212500006 1.234972044e-38
0.3249999881 -0.3625000119 0.2375000119 3.019090535e-39
0.1750000119 -0.4875000119 -0.08750000596 9.183409486e-41
-0.1374999881 -0.3125 0.25 4.1168117e-39
-0.1374999881 -0.287499994 0.375 4.757149046e-39
-0.0625 -0.08750000596 -0.212500006 9.422463997e-39
-0.150000006 -0.125 -0.1125000119 8.50769636e-39
0.2749999762 -0.4875000119 0.05000001192 9.183409486e-41
-0.150000006 -0.287499994 0.3874999881 4.757149046e-39
0.2624999881 -0.400000006 -0.05000001192 2.104322897e-39
0.3874999881 -0.375 0.01249998808 2.65318348e-39
-0.150000006 0 0.1000000238 1.14349528e-38
-0.1374999881 -0.349999994 0.3625000119 3.293520826e-39
0.2749999762 -0.1374999881 -0.224999994 8.233266069e-39
0.05000001192 -0.4875000119 0.1625000238 9.183409486e-41
0.1750000119 -0.4250000119 -0.01249998808 1.555462315e-39
-0.150000006 -0.474999994 0.07499998808 3.662643861e-40
-0.03749999404 -0.125 -0.212500006 8.50769636e-39
-0.150000006 -0.09999999404 0.1000000238 9.148033706e-39
-0.150000006 -0.275000006 -0.03749999404 5.031579337e-39
-0.1374999881 -0.03749999404 0.1125000119 1.061166193e-38
-0.07499998808 -0.4875000119 -0.1999999881 9.183409486e-41
-0.09999999404 -0.4875000119 0.375 9.183409486e-41
-0.150000006 -0.412499994 0.2250000238 1.829892606e-39
-0.1374999881 -0.212500006 0.1999999881 6.495207557e-39
-0.05000001192 -0.02500000596 -0.224999994 1.088609222e-38
0.1875 -0.150000006 -0.224999994 7.958835777e-39
-0.150000006 -0.1875 0.1875 7.04406814e-39
-0.1125000119 -0.3249999881 -0.224999994 3.842381409e-39
-0.150000006 0.02499997616 -0.09999999404 1.207529015e-38
-0.1374999881 -0.3125 0.3874999881 4.1168117e-39
-0.0625 -0.4875000119 -0.224999994 9.183409486e-41
-0.1374999881 -0.4250000119 0.3000000119 1.555462315e-39
-0.1374999881 -0.375 -0.1875 2.65318348e-39
-0.150000006 -0.08750000596 -0.08750000596 9.422463997e-39
-0.1374999881 -0.2375000119 -0.1750000119 5.946346975e-39
-0.150000006 -0.3625000119 -0.02500000596 3.019090535e-39
0.08749997616 -0.4875000119 0.2250000238 9.183409486e-41
-0.150000006 -0.4499999881 0.3000000119 9.151249686e-40
-0.150000006 -0.400000006 -0.1999999881 2.104322897e-39
0.2375000119 -0.3625000119 -0.1125000119 3.019090535e-39
-0.1374999881 -0.1875 0.1625000238 7.04406814e-39
0.1374999881 -0.412499994 0.03750002384 1.829892606e-39
0.2749999762 -0.2375000119 -0.212500006 5.946346975e-39
0.07499998808 -0.400000006 0.125 2.104322897e-39
0.1000000238 -0.4875000119 0.1499999762 9.183409486e-41
0.2624999881 -0.337500006 0.0625 3.567951117e-39
0.4250000119 -0.3249999881 0.1125000119 3.842381409e-39
-0.1374999881 -0.462500006 0.2624999881 6.406946774e-40
0.1499999762 -0.4499999881 0.03750002384 9.151249686e-40
-0.150000006 -0.349999994 0.05000001192 3.293520826e-39
0.1125000119 -0.412499994 0.1625000238 1.829892606e-39
-0.150000006 -0.4875000119 0.3374999762 9.183409486e-41
0.2875000238 -0.1875 -0.212500006 7.04406814e-39
0.375 -0.337500006 0.08749997616 3.567951117e-39
-0.1374999881 -0.02500000596 -0.1750000119 1.088609222e-38
0.1999999881 -0.4875000119 0.1374999881 9.183409486e-41
0.03750002384 -0.4875000119 -0.05000001192 9.183409486e-41
0.02499997616 -0.400000006 0.125 2.104322897e-39
-0.150000006 -0.4250000119 0.25 1.555462315e-39
0.3874999881 -0.337500006 0.1999999881 3.567951117e-39
0.2124999762 -0.275000006 -0.212500006 5.031579337e-39
0.1625000238 -0.4875000119 -0.0625 9.183409486e-41
0.125 -0.0625 0.08749997616 9.97132458e-39
-0.01249998808 -0.4875000119 0.0625 9.183409486e-41
-0.1374999881 -0.09999999404 0.1875 9.148033706e-39
0.01249998808 -0.4875000119 -0.125 9.183409486e-41
-0.1374999881 -0.337500006 -0.1374999881 3.567951117e-39
0.1374999881 -0.3125 -0.224999994 4.1168117e-39
-0.1374999881 -0.05000001192 -0.162499994 1.033723163e-38
0.0625 -0.4875000119 0.03750002384 9.183409486e-41
-0.150000006 -0.375 0.01249998808 2.65318348e-39
-0.150000006 -0.212500006 0.2250000238 6.495207557e-39
-0.150000006 -0.287499994 0.01249998808 4.757149046e-39
-0.150000006 -0.3125 -0.09999999404 4.1168117e-39
-0.150000006 0 0.2250000238 1.14349528e-38
0.2875000238 -0.287499994 -0.224999994 4.757149046e-39
0.0625 -0.25 -0.212500006 5.58043992e-39
-0.1374999881 -0.4875000119 0.125 9.183409486e-41
-0.150000006 -0.462500006 0.1374999881 6.406946774e-40
0.3500000238 -0.337500006 0.1875 3.567951117e-39
-0.1374999881 -0.3874999881 0.07499998808 2.378753189e-39
-0.05000001192 -0.375 -0.212500006 2.65318348e-39
-0.150000006 -0.4499999881 0.1875 9.151249686e-40
-0.1374999881 -0.212500006 -0.224999994 6.495207557e-39
0.2124999762 -0.1374999881 -0.224999994 8.233266069e-39
-0.1374999881 -0.349999994 -0.09999999404 3.293520826e-39
-0.08750000596 -0.4875000119 0.3999999762 9.183409486e-41
0.2624999881 -0.375 0.2375000119 2.65318348e-39
0.1499999762 -0.4875000119 -0.162499994 9.183409486e-41
0.1999999881 -0.07499998808 -0.212500006 9.696894289e-39
-0.150000006 -0.1125000119 0.1625000238 8.873603415e-39
0.2749999762 -0.3625000119 0.25 3.019090535e-39
-0.02500000596 -0.3249999881 -0.212500006 3.842381409e-39
0.25 -0.412499994 -0.212500006 1.829892606e-39
0.02499997616 -0.3625000119 -0.212500006 3.019090535e-39
-0.150000006 -0.25 -0.1875 5.58043992e-39
0.3999999762 -0.3625000119 0.2375000119 3.019090535e-39
-0.150000006 -0.1750000119 0.2250000238 7.409975195e-39
0.3999999762 -0.3125 0.03750002384 4.1168117e-39
-0.1374999881 -0.0625 -0.01249998808 9.97132458e-39
0.1000000238 -0.4875000119 0.1750000119 9.183409486e-41
0.2624999881 -0.4375 -0.212500006 1.18955526e-39
0.2749999762 -0.4875000119 -0.224999994 9.183409486e-41
-0.1374999881 -0.3000000119 0.08749997616 4.482718755e-39
-0.1374999881 -0.4499999881 -0.09999999404 9.151249686e-40
-0.1374999881 -0.337500006 0.1750000119 3.567951117e-39
0.05000001192 -0.1125000119 -0.212500006 8.873603415e-39
-0.1374999881 -0.212500006 -0.150000006 6.495207557e-39
-0.150000006 -0.3625000119 0.0625 3.019090535e-39
-0.1374999881 -0.150000006 0.2749999762 7.958835777e-39
0.1000000238 -0.3874999881 -0.224999994 2.378753189e-39
-0.150000006 -0.4875000119 0.03750002384 9.183409486e-41
0.3500000238 -0.337500006 0.2124999762 3.567951117e-39
0.2875000238 -0.4875000119 0.01249998808 9.183409486e-41
0.08749997616 -0.2624999881 -0.212500006 5.306009629e-39
0.3625000119 -0.337500006 0.25 3.567951117e-39
0.3874999881 -0.349999994 0.25 3.293520826e-39
0.1499999762 -0.412499994 0.05000001192 1.829892606e-39
0.1875 -0.4875000119 -0.1875 9.183409486e-41
-0.150000006 0.01249998808 0.08749997616 1.180085986e-38
0.2124999762 -0.375 0.02499997616 2.65318348e-39
0.1499999762 -0.337500006 -0.224999994 3.567951117e-39
-0.150000006 -0.4375 -0.150000006 1.18955526e-39
-0.150000006 -0.150000006 0.3000000119 7.958835777e-39
-0.150000006 -0.287499994 0.1374999881 4.757149046e-39
-0.150000006 -0.1750000119 0.07499998808 7.409975195e-39
0.1625000238 -0.337500006 0.1625000238 3.567951117e-39
-0.0625 -0.4875000119 0.125 9.183409486e-41
-0.1374999881 -0.462500006 0.2749999762 6.406946774e-40
0.1750000119 -0.3125 -0.224999994 4.1168117e-39
0.01249998808 -0.400000006 0.1499999762 2.104322897e-39
-0.1374999881 -0.1125000119 -0.02500000596 8.873603415e-39
-0.07499998808 -0.4875000119 0.3999999762 9.183409486e-41
0.1125000119 -0.400000006 0.1125000119 2.104322897e-39
0.2124999762 -0.349999994 0.25 3.293520826e-39
0.0625 -0.400000006 -0.212500006 2.104322897e-39
-0.150000006 -0.162499994 0.3125 7.684405486e-39
-0.09999999404 -0.4875000119 0.1125000119 9.183409486e-41
-0.0625 -0.1875 -0.224999994 7.04406814e-39
0 -0.4875000119 -0.162499994 9.183409486e-41
-0.0625 -0.162499994 -0.212500006 7.684405486e-39
-0.05000001192 -0.224999994 -0.212500006 6.220777266e-39
0.25 -0.4875000119 -0.1374999881 9.183409486e-41
-0.02500000596 -0.412499994 -0.224999994 1.829892606e-39
-0.150000006 0.02499997616 -0.150000006 1.207529015e-38
0.0625 -0.4875000119 -0.01249998808 9.183409486e-41
-0.150000006 -0.1374999881 -0.09999999404 8.233266069e-39
-0.150000006 -0.462500006 -0.07499998808 6.406946774e-40
-0.150000006 -0.4875000119 -0.09999999404 9.183409486e-41
-0.150000006 -0.3874999881 -0.125 2.378753189e-39
0.1374999881 -0.3874999881 0.2250000238 2.378753189e-39
0.08749997616 -0.3625000119 0.07499998808 3.019090535e-39
-0.150000006 0.03750002384 -0.1750000119 1.234972044e-38
0.1374999881 -0.412499994 0.2250000238 1.829892606e-39
0.1000000238 -0.4875000119 -0.1875 9.183409486e-41
-0.1125000119 -0.4875000119 0.1125000119 9.183409486e-41
0.07499998808 -0.3125 -0.224999994 4.1168117e-39
-0.03749999404 -0.1374999881 -0.224999994 8.233266069e-39
0.1499999762 -0.150000006 -0.224999994 7.958835777e-39
0.3999999762 -0.3125 0.125 4.1168117e-39
0.03750002384 -0.4875000119 -0.212500006 9.183409486e-41
0.2375000119 -0.462500006 -0.212500006 6.406946774e-40
-0.1374999881 0.02499997616 -0.1374999881 1.207529015e-38
-0.150000006 -0.05000001192 0.25 1.033723163e-38
0.1875 -0.474999994 -0.212500006 3.662643861e-40
-0.1374999881 0.01249998808 0.07499998808 1.180085986e-38
0.03750002384 -0.287499994 -0.212500006 4.757149046e-39
0.4750000238 -0.349999994 0.02499997616 3.293520826e-39
-0.1374999881 -0.02500000596 0.1625000238 1.088609222e-38
0.1499999762 -0.2375000119 -0.212500006 5.946346975e-39
-0.1374999881 -0.05000001192 0.1750000119 1.033723163e-38
0.1750000119 -0.4875000119 -0.1999999881 9.183409486e-41
0.1625000238 -0.3625000119 0.05000001192 3.019090535e-39
-0.1374999881 -0.3000000119 0.01249998808 4.482718755e-39
0.4125000238 -0.3249999881 0.1125000119 3.842381409e-39
0.1999999881 -0.07499998808 -0.224999994 9.696894289e-39
0.2375000119 -0.3249999881 -0.224999994 3.842381409e-39
0.1125000119 -0.224999994 -0.224999994 6.220777266e-39
-0.1374999881 -0.224999994 0.3125 6.220777266e-39
0.03750002384 -0.09999999404 -0.212500006 9.148033706e-39
-0.150000006 -0.08750000596 -0.01249998808 9.422463997e-39
-0.150000006 -0.224999994 0.02499997616 6.220777266e-39
-0.150000006 -0.3125 -0.1374999881 4.1168117e-39
0.2250000238 -0.4375 -0.224999994 1.18955526e-39
0.3500000238 -0.3625000119 0.02499997616 3.019090535e-39
0.3874999881 -0.3625000119 -0.03749999404 3.019090535e-39
-0.1374999881 -0.4375 0.1625000238 1.18955526e-39
-0.07499998808 -0.375 -0.224999994 2.65318348e-39
0.3125 -0.337500006 0.1625000238 3.567951117e-39
-0.150000006 -0.3874999881 -0.07499998808 2.378753189e-39
-0.1374999881 -0.349999994 -0.150000006 3.293520826e-39
-0.150000006 -0.1374999881 0.2375000119 8.233266069e-39
0.08749997616 -0.03749999404 -0.224999994 1.061166193e-38
0.03750002384 -0.4875000119 -0.125 9.183409486e-41
-0.1125000119 0.01249998808 -0.224999994 1.180085986e-38
-0.150000006 -0.3874999881 0.2749999762 2.378753189e-39
0.1499999762 -0.275000006 -0.212500006 5.031579337e-39
0.0625 -0.3625000119 -0.212500006 3.019090535e-39
0.1499999762 -0.337500006 0.0625 3.567951117e-39
-0.1125000119 -0.349999994 -0.224999994 3.293520826e-39
0.3249999881 -0.375 0.25 2.65318348e-39
