# .PCD v0.7 - Point Cloud Data file format
VERSION 0.7
FIELDS x y z rgb
SIZE 4 4 4 4
TYPE F F F F
COUNT 1 1 1 1
WIDTH 919
HEIGHT 1
VIEWPOINT 0 0 0 1 0 0 0
POINTS 919
DATA ascii
-0.2375000119 -0.1125000119 0.1875 9.148033706e-39
-0.07499998808 -0.4875000119 -0.3000000119 3.662643861e-40
-0.4375 -0.462500006 0.1875 9.151249686e-40
-0.0625 -0.412499994 0.1875 2.104322897e-39
-0.01249998808 -0.2624999881 0.3500000238 5.58043992e-39
-0.07499998808 -0.4875000119 0.1875 3.662643861e-40
0.03750002384 -0.4875000119 -0.1750000119 3.662643861e-40
-0.0625 -0.05000001192 0.1875 1.061166193e-38
-0.287499994 -0.03749999404 0.1750000119 1.088609222e-38
-0.462500006 0.07499998808 0 1.353891837e-38
-0.4499999881 -0.4875000119 0.1625000238 3.662643861e-40
-0.1750000119 -0.05000001192 -0.150000006 1.061166193e-38
-0.2375000119 -0.462500006 -0.275000006 9.151249686e-40
-0.01249998808 -0.02500000596 0.3874999881 1.116052251e-38
0.0625 -0.462500006 -0.275000006 9.151249686e-40
-0.3125 -0.162499994 0.1750000119 7.958835777e-39
0.1374999881 -0.3874999881 0.3625000119 2.65318348e-39
-0.1125000119 -0.412499994 -0.375 2.104322897e-39
0 -0.1999999881 0.2624999881 7.04406814e-39
-0.2624999881 0.07499998808 -0.01249998808 1.353891837e-38
-0.5 -0.4875000119 0.1125000119 3.662643861e-40
-0.4375 -0.4875000119 -0.2375000119 3.662643861e-40
0.1875 -0.0625 0.3000000119 1.033723163e-38
-0.412499994 -0.375 0.1875 3.019090535e-39
-0.212500006 -0.4499999881 -0.3249999881 1.18955526e-39
0.1875 -0.462500006 0.2875000238 9.151249686e-40
0.1000000238 0.07499998808 0.2250000238 1.353891837e-38
-0.1875 0.07499998808 -0.287499994 1.353891837e-38
0 -0.25 0.2250000238 5.946346975e-39
-0.3874999881 -0.0625 0.1750000119 1.033723163e-38
0.08749997616 -0.0625 -0.125 1.033723163e-38
-0.337500006 -0.4875000119 -0.2624999881 3.662643861e-40
0 -0.287499994 0.1750000119 5.031579337e-39
-0.4875000119 -0.4875000119 0.0625 3.662643861e-40
-0.125 -0.3874999881 0.1875 2.65318348e-39
-0.05000001192 -0.4875000119 -0.3000000119 3.662643861e-40
-0.4375 -0.4875000119 0.02499997616 3.662643861e-40
0.2124999762 -0.4875000119 0.3999999762 3.662643861e-40
0.1125000119 -0.0625 0.3625000119 1.033723163e-38
-0.4499999881 0.02499997616 0.1875 1.234972044e-38
-0.1750000119 -0.462500006 -0.287499994 9.151249686e-40
-0.4250000119 0.07499998808 0.1750000119 1.353891837e-38
0.03750002384 0.07499998808 0.07499998808 1.353891837e-38
-0.01249998808 -0.08750000596 0.3125 9.696894289e-39
-0.1125000119 -0.4875000119 0.0625 3.662643861e-40
-0.125 -0.4875000119 -0.224999994 3.662643861e-40
0.05000001192 -0.4875000119 0 3.662643861e-40
-0.05000001192 -0.462500006 0.1875 9.151249686e-40
-0.1999999881 0 0.1750000119 1.180085986e-38
-0.02500000596 -0.0625 -0.125 1.033723163e-38
0.03750002384 -0.3249999881 0.2624999881 4.1168117e-39
-0.462500006 -0.4875000119 0.05000001192 3.662643861e-40
-0.3125 -0.2375000119 0.1875 6.220777266e-39
-0.224999994 -0.474999994 -0.287499994 6.406946774e-40
-0.212500006 -0.4875000119 -0.150000006 3.662643861e-40
-0.25 -0.01249998808 0.1750000119 1.14349528e-38
0.25 -0.4875000119 0.1750000119 3.662643861e-40
-0.03749999404 0.07499998808 -0.01249998808 1.353891837e-38
0.02499997616 -0.05000001192 -0.150000006 1.061166193e-38
0.4624999762 -0.1999999881 -0.1374999881 7.04406814e-39
0.02499997616 -0.03749999404 0.4875000119 1.088609222e-38
-0.4499999881 -0.4875000119 -0.337500006 3.662643861e-40
0.125 -0.1750000119 0.3625000119 7.684405486e-39
-0.01249998808 -0.3625000119 0.4375 3.293520826e-39
-0.07499998808 0.07499998808 -0.07499998808 1.353891837e-38
-0.3625000119 0.05000001192 0.1875 1.289858102e-38
0.05000001192 -0.25 0.4875000119 5.946346975e-39
0.1499999762 -0.1125000119 -0.1125000119 9.148033706e-39
-0.03749999404 -0.05000001192 -0.150000006 1.061166193e-38
-0.25 -0.212500006 0.1875 6.769637849e-39
-0.4499999881 -0.0625 0.1750000119 1.033723163e-38
-0.3874999881 -0.4250000119 0.1750000119 1.829892606e-39
0.05000001192 0.07499998808 0.03750002384 1.353891837e-38
-0.212500006 -0.25 0.1750000119 5.946346975e-39
-0.1999999881 -0.162499994 0.1875 7.958835777e-39
0.2624999881 -0.4875000119 0.2375000119 3.662643861e-40
-0.287499994 0.03750002384 0.1875 1.262415073e-38
0 -0.4250000119 0.1875 1.829892606e-39
0 0.05000001192 0.4375 1.289858102e-38
0.0625 -0.4875000119 0.4624999762 3.662643861e-40
-0.287499994 -0.25 0.1875 5.946346975e-39
-0.3249999881 -0.4875000119 -0.09999999404 3.662643861e-40
-0.224999994 -0.0625 -0.1374999881 1.033723163e-38
0.1875 -0.337500006 0.3125 3.842381409e-39
0.1374999881 -0.08750000596 0.3625000119 9.696894289e-39
-0.125 -0.4875000119 0.1125000119 3.662643861e-40
0.08749997616 -0.287499994 0.3999999762 5.031579337e-39
-0.162499994 -0.4499999881 -0.3249999881 1.18955526e-39
0.1750000119 -0.4875000119 0.4624999762 3.662643861e-40
0.1625000238 -0.1750000119 0.2624999881 7.684405486e-39
-0.3125 0.07499998808 0.02499997616 1.353891837e-38
-0.275000006 0.05000001192 0.1750000119 1.289858102e-38
-0.5 -0.3625000119 0.1875 3.293520826e-39
0.2624999881 -0.4875000119 0.1750000119 3.662643861e-40
-0.5 0.01249998808 0.1875 1.207529015e-38
-0.1875 -0.125 0.1750000119 8.873603415e-39
0.1625000238 -0.4875000119 0.1875 3.662643861e-40
-0.0625 -0.1125000119 -0.150000006 9.148033706e-39
-0.08750000596 -0.05000001192 0.1750000119 1.061166193e-38
-0.212500006 -0.375 -0.3249999881 3.019090535e-39
-0.224999994 0.07499998808 -0.02500000596 1.353891837e-38
0.125 -0.4875000119 0.25 3.662643861e-40
-0.1374999881 -0.375 -0.337500006 3.019090535e-39
0.1875 -0.125 0.3249999881 8.873603415e-39
-0.474999994 -0.4875000119 -0.03749999404 3.662643861e-40
-0.162499994 -0.4875000119 -0.3625000119 3.662643861e-40
-0.1999999881 -0.01249998808 0.1875 1.14349528e-38
-0.5 -0.275000006 0.1875 5.306009629e-39
-0.287499994 -0.4875000119 0.08749997616 3.662643861e-40
0.02499997616 -0.287499994 0.4875000119 5.031579337e-39
-0.0625 -0.2624999881 0.1750000119 5.58043992e-39
-0.07499998808 -0.462500006 -0.275000006 9.151249686e-40
-0.01249998808 -0.224999994 0.4375 6.495207557e-39
0 -0.150000006 0.3999999762 8.233266069e-39
0.125 -0.400000006 0.3625000119 2.378753189e-39
-0.1875 -0.4875000119 0.1000000238 3.662643861e-40
0.1750000119 -0.03749999404 0.3249999881 1.088609222e-38
0.07499998808 -0.125 0.2624999881 8.873603415e-39
-0.01249998808 -0.2375000119 0.3249999881 6.220777266e-39
-0.462500006 -0.4875000119 -0.375 3.662643861e-40
-0.5 -0.08750000596 0.1875 9.696894289e-39
0.01249998808 -0.0625 -0.1374999881 1.033723163e-38
0.1625000238 -0.03749999404 0.3500000238 1.088609222e-38
0.2375000119 -0.4875000119 0.3625000119 3.662643861e-40
-0.01249998808 0.0625 0.4375 1.326448808e-38
0.1750000119 -0.07499998808 0.2624999881 9.97132458e-39
-0.01249998808 -0.3874999881 0.4250000119 2.65318348e-39
-0.0625 0.07499998808 0.03750002384 1.353891837e-38
-0.275000006 -0.4875000119 -0.1125000119 3.662643861e-40
0.05000001192 0.07499998808 0.4125000238 1.353891837e-38
-0.2375000119 -0.474999994 -0.3125 6.406946774e-40
-0.0625 -0.287499994 0.1750000119 5.031579337e-39
-0.05000001192 -0.4499999881 -0.3000000119 1.18955526e-39
0.1499999762 -0.349999994 0.2624999881 3.567951117e-39
0.1499999762 -0.4875000119 0.4250000119 3.662643861e-40
-0.08750000596 0.07499998808 -0.212500006 1.353891837e-38
-0.4375 -0.1374999881 0.1750000119 8.50769636e-39
-0.3249999881 -0.349999994 0.1875 3.567951117e-39
0 -0.1875 0.2749999762 7.409975195e-39
0 -0.02500000596 0.4875000119 1.116052251e-38
-0.01249998808 0 0.4624999762 1.180085986e-38
-0.375 0.03750002384 0.1750000119 1.262415073e-38
0 -0.1125000119 0.3000000119 9.148033706e-39
0.1875 -0.2624999881 0.3500000238 5.58043992e-39
-0.474999994 -0.349999994 0.1875 3.567951117e-39
0.1750000119 -0.162499994 0.2624999881 7.958835777e-39
-0.349999994 -0.125 0.1750000119 8.873603415e-39
-0.125 -0.1374999881 0.1750000119 8.50769636e-39
-0.01249998808 -0.02500000596 0.4125000238 1.116052251e-38
-0.1999999881 -0.375 -0.3000000119 3.019090535e-39
-0.01249998808 0.05000001192 0.3374999762 1.289858102e-38
0.03750002384 -0.4875000119 0.4250000119 3.662643861e-40
-0.0625 -0.212500006 0.1750000119 6.769637849e-39
-0.400000006 0.07499998808 0.02499997616 1.353891837e-38
-0.01249998808 -0.1999999881 0.3625000119 7.04406814e-39
-0.1875 -0.462500006 0.1875 9.151249686e-40
0.07499998808 0.07499998808 0.3374999762 1.353891837e-38
-0.3249999881 0.02499997616 0.1750000119 1.234972044e-38
0 0.05000001192 0.4875000119 1.289858102e-38
0.08749997616 -0.125 0.2624999881 8.873603415e-39
0 -0.25 0.3374999762 5.946346975e-39
0.4624999762 -0.3000000119 -0.150000006 4.757149046e-39
-0.0625 -0.349999994 0.1875 3.567951117e-39
0 -0.150000006 0.2250000238 8.233266069e-39
0.125 -0.0625 -0.125 1.033723163e-38
0 -0.3249999881 0.3500000238 4.1168117e-39
-0.01249998808 0 0.2124999762 1.180085986e-38
0.1125000119 0.07499998808 0.125 1.353891837e-38
0 -0.4375 0.1875 1.555462315e-39
0.07499998808 -0.4375 0.2624999881 1.555462315e-39
0 0.07499998808 0.1875 1.353891837e-38
-0.1374999881 0.07499998808 -0.1374999881 1.353891837e-38
-0.3874999881 0.07499998808 -0.01249998808 1.353891837e-38
0.1000000238 -0.1374999881 0.2624999881 8.50769636e-39
0.1875 -0.212500006 0.3374999762 6.769637849e-39
0.1999999881 -0.05000001192 -0.150000006 1.061166193e-38
0.08749997616 0.07499998808 0.4750000238 1.353891837e-38
-0.3874999881 -0.4875000119 0.1750000119 3.662643861e-40
-0.412499994 -0.4875000119 -0.1750000119 3.662643861e-40
-0.01249998808 -0.125 0.1750000119 8.873603415e-39
-0.05000001192 -0.4875000119 -0.212500006 3.662643861e-40
-0.07499998808 -0.337500006 0.1750000119 3.842381409e-39
0 0.0625 0.375 1.326448808e-38
0.08749997616 -0.4499999881 -0.287499994 1.18955526e-39
0.1125000119 -0.3874999881 -0.375 2.65318348e-39
-0.1999999881 -0.4875000119 0.1875 3.662643861e-40
-0.08750000596 0.07499998808 0.125 1.353891837e-38
0.1875 -0.275000006 0.2749999762 5.306009629e-39
0.1875 -0.125 0.2624999881 8.873603415e-39
-0.1750000119 -0.4875000119 -0.08750000596 3.662643861e-40
-0.08750000596 -0.4375 0.1875 1.555462315e-39
-0.03749999404 -0.4875000119 0.125 3.662643861e-40
-0.400000006 -0.4875000119 0.1625000238 3.662643861e-40
-0.375 -0.07499998808 0.1875 9.97132458e-39
-0.1125000119 0.07499998808 -0.224999994 1.353891837e-38
-0.01249998808 0.05000001192 0.4750000238 1.289858102e-38
0 0.02499997616 0.3374999762 1.234972044e-38
-0.01249998808 -0.25 0.3999999762 5.946346975e-39
-0.3874999881 0.07499998808 0.1875 1.353891837e-38
-0.349999994 0.07499998808 -0.05000001192 1.353891837e-38
-0.287499994 0.07499998808 0.05000001192 1.353891837e-38
-0.3874999881 -0.4875000119 0.1875 3.662643861e-40
-0.1999999881 -0.0625 -0.125 1.033723163e-38
-0.462500006 -0.412499994 0.1750000119 2.104322897e-39
-0.287499994 -0.3000000119 0.1750000119 4.757149046e-39
0.01249998808 -0.4875000119 0.4375 3.662643861e-40
0.1499999762 -0.4250000119 0.3625000119 1.829892606e-39
-0.474999994 -0.337500006 0.1875 3.842381409e-39
-0.349999994 0.07499998808 -0.3000000119 1.353891837e-38
-0.275000006 -0.4875000119 -0.25 3.662643861e-40
-0.05000001192 0.07499998808 0.1625000238 1.353891837e-38
-0.275000006 -0.287499994 0.1875 5.031579337e-39
-0.3874999881 0.07499998808 0.1750000119 1.353891837e-38
0.0625 -0.02500000596 -0.1374999881 1.116052251e-38
-0.25 -0.4499999881 0.1875 1.18955526e-39
0.01249998808 -0.4875000119 0.3625000119 3.662643861e-40
-0.1999999881 -0.1125000119 -0.09999999404 9.148033706e-39
0.08749997616 -0.4875000119 0.3125 3.662643861e-40
-0.4499999881 0.01249998808 0.1750000119 1.207529015e-38
-0.1875 -0.375 0.1875 3.019090535e-39
-0.01249998808 0.02499997616 0.3999999762 1.234972044e-38
-0.1999999881 -0.01249998808 0.1750000119 1.14349528e-38
-0.2624999881 0.07499998808 -0.07499998808 1.353891837e-38
-0.224999994 -0.2375000119 0.1875 6.220777266e-39
-0.1374999881 -0.4875000119 -0.287499994 3.662643861e-40
-0.2375000119 -0.4875000119 0.1875 3.662643861e-40
-0.09999999404 -0.4499999881 -0.3249999881 1.18955526e-39
0.1499999762 -0.03749999404 0.3500000238 1.088609222e-38
-0.3874999881 -0.2624999881 0.1625000238 5.58043992e-39
-0.1125000119 -0.474999994 0.1875 6.406946774e-40
-0.08750000596 -0.4875000119 -0.3249999881 3.662643861e-40
0.03750002384 -0.1125000119 -0.1750000119 9.148033706e-39
-0.287499994 -0.4875000119 -0.25 3.662643861e-40
-0.3125 -0.4875000119 -0.08750000596 3.662643861e-40
-0.3874999881 0.07499998808 0.02499997616 1.353891837e-38
0 0.02499997616 0.1999999881 1.234972044e-38
0 -0.3625000119 0.3000000119 3.293520826e-39
0.0625 0.07499998808 0.4750000238 1.353891837e-38
0.05000001192 -0.25 0.2624999881 5.946346975e-39
0.2250000238 -0.4875000119 0.2875000238 3.662643861e-40
0.1125000119 -0.3874999881 -0.3125 2.65318348e-39
0 -0.4250000119 0.1750000119 1.829892606e-39
-0.1125000119 -0.4250000119 -0.2624999881 1.829892606e-39
-0.01249998808 -0.337500006 0.3249999881 3.842381409e-39
-0.2375000119 0.07499998808 -0.08750000596 1.353891837e-38
-0.3874999881 -0.4875000119 -0.03749999404 3.662643861e-40
-0.07499998808 -0.4875000119 0.07499998808 3.662643861e-40
-0.25 -0.09999999404 -0.125 9.422463997e-39
-0.162499994 -0.4875000119 -0.212500006 3.662643861e-40
-0.03749999404 -0.150000006 0.1875 8.233266069e-39
-0.1999999881 -0.474999994 0.1750000119 6.406946774e-40
0.1875 -0.03749999404 0.3374999762 1.088609222e-38
-0.162499994 -0.4875000119 -0.275000006 3.662643861e-40
0 -0.287499994 0.4125000238 5.031579337e-39
-0.01249998808 0.0625 0.4624999762 1.326448808e-38
-0.01249998808 -0.400000006 0.2624999881 2.378753189e-39
-0.1125000119 0.07499998808 -0.1125000119 1.353891837e-38
-0.375 0.07499998808 0.1125000119 1.353891837e-38
0.1875 -0.375 0.2875000238 3.019090535e-39
0.02499997616 -0.03749999404 0.4375 1.088609222e-38
-0.03749999404 -0.4250000119 -0.2624999881 1.829892606e-39
-0.3874999881 -0.25 0.1625000238 5.946346975e-39
0.1125000119 -0.212500006 0.2624999881 6.769637849e-39
-0.1374999881 -0.3125 0.1875 4.482718755e-39
0.07499998808 -0.03749999404 0.4375 1.088609222e-38
-0.5 -0.4875000119 0.01249998808 3.662643861e-40
0.4624999762 -0.2375000119 -0.150000006 6.220777266e-39
-0.3625000119 -0.474999994 0.1875 6.406946774e-40
0 0.07499998808 0.0625 1.353891837e-38
0 -0.4375 0.1750000119 1.555462315e-39
-0.1374999881 -0.224999994 0.1875 6.495207557e-39
-0.4499999881 0.07499998808 0.08749997616 1.353891837e-38
-0.3874999881 -0.25 0.1750000119 5.946346975e-39
-0.05000001192 0.07499998808 0.1000000238 1.353891837e-38
-0.1750000119 0.07499998808 -0.2375000119 1.353891837e-38
-0.2375000119 -0.4875000119 0.05000001192 3.662643861e-40
-0.1750000119 -0.4875000119 -0.125 3.662643861e-40
-0.349999994 -0.375 0.1750000119 3.019090535e-39
-0.01249998808 -0.4875000119 0.1125000119 3.662643861e-40
-0.1125000119 -0.3249999881 0.1750000119 4.1168117e-39
-0.09999999404 -0.4250000119 0.1750000119 1.829892606e-39
0.01249998808 -0.4875000119 0.1999999881 3.662643861e-40
0.01249998808 -0.375 -0.3249999881 3.019090535e-39
0.25 -0.4875000119 0.2624999881 3.662643861e-40
-0.1125000119 -0.1125000119 0.1750000119 9.148033706e-39
0.1374999881 -0.4375 0.3625000119 1.555462315e-39
-0.01249998808 -0.4499999881 0.2124999762 1.18955526e-39
-0.07499998808 0.07499998808 0.1374999881 1.353891837e-38
-0.3625000119 0.07499998808 -0.3249999881 1.353891837e-38
0.1499999762 -0.4875000119 0.375 3.662643861e-40
0.1875 -0.1125000119 0.3500000238 9.148033706e-39
-0.125 -0.4499999881 -0.3000000119 1.18955526e-39
0.1875 -0.1125000119 -0.150000006 9.148033706e-39
0.08749997616 -0.1125000119 0.4499999881 9.148033706e-39
-0.01249998808 0.03750002384 0.2875000238 1.262415073e-38
0.08749997616 -0.349999994 0.2624999881 3.567951117e-39
-0.3125 -0.1875 0.1875 7.409975195e-39
-0.0625 -0.4499999881 -0.3249999881 1.18955526e-39
-0.1999999881 -0.3125 0.1750000119 4.482718755e-39
-0.474999994 -0.1125000119 0.1875 9.148033706e-39
0.01249998808 -0.4875000119 0.1000000238 3.662643861e-40
0 -0.0625 0.1750000119 1.033723163e-38
-0.337500006 -0.375 0.1875 3.019090535e-39
0.1625000238 -0.0625 0.3625000119 1.033723163e-38
0.125 0.07499998808 0.375 1.353891837e-38
-0.05000001192 -0.4875000119 -0.3125 3.662643861e-40
-0.01249998808 -0.4875000119 -0.1750000119 3.662643861e-40
-0.3874999881 -0.4250000119 0.1875 1.829892606e-39
0.1000000238 -0.474999994 0.4375 6.406946774e-40
-0.25 -0.400000006 -0.3625000119 2.378753189e-39
0 -0.3249999881 0.4375 4.1168117e-39
-0.0625 -0.3625000119 0.1875 3.293520826e-39
-0.412499994 -0.150000006 0.1750000119 8.233266069e-39
-0.2375000119 -0.4499999881 0.1875 1.18955526e-39
-0.162499994 -0.2375000119 0.1750000119 6.220777266e-39
-0.1750000119 0.01249998808 0.1875 1.207529015e-38
0 -0.375 0.2624999881 3.019090535e-39
-0.3249999881 0.07499998808 -0.3625000119 1.353891837e-38
-0.4499999881 -0.02500000596 0.1750000119 1.116052251e-38
0 0.03750002384 0.1750000119 1.262415073e-38
0.01249998808 0.07499998808 -0.08750000596 1.353891837e-38
-0.162499994 0.07499998808 -0.287499994 1.353891837e-38
-0.2624999881 0.07499998808 -0.09999999404 1.353891837e-38
0.0625 -0.09999999404 -0.162499994 9.422463997e-39
-0.01249998808 -0.02500000596 0.4250000119 1.116052251e-38
0 0.07499998808 0.3625000119 1.353891837e-38
0.02499997616 -0.4499999881 -0.375 1.18955526e-39
-0.05000001192 -0.375 -0.3249999881 3.019090535e-39
-0.08750000596 -0.1374999881 0.1750000119 8.50769636e-39
-0.03749999404 -0.02500000596 0.1875 1.116052251e-38
-0.3125 -0.412499994 0.1750000119 2.104322897e-39
-0.349999994 -0.412499994 0.1750000119 2.104322897e-39
-0.0625 -0.375 -0.375 3.019090535e-39
-0.03749999404 -0.4875000119 0.1125000119 3.662643861e-40
-0.275000006 0.07499998808 -0.07499998808 1.353891837e-38
-0.224999994 -0.4499999881 0.1875 1.18955526e-39
-0.01249998808 -0.25 0.1750000119 5.946346975e-39
-0.01249998808 -0.337500006 0.3500000238 3.842381409e-39
-0.4250000119 -0.4375 0.1750000119 1.555462315e-39
-0.1999999881 -0.03749999404 -0.1374999881 1.088609222e-38
-0.1374999881 -0.4875000119 -0.2375000119 3.662643861e-40
0.08749997616 -0.1875 0.3874999881 7.409975195e-39
-0.2375000119 0.07499998808 -0.337500006 1.353891837e-38
0.1000000238 -0.2375000119 0.3999999762 6.220777266e-39
-0.1125000119 0.02499997616 0.1875 1.234972044e-38
-0.01249998808 -0.375 0.1750000119 3.019090535e-39
0.08749997616 -0.05000001192 0.2624999881 1.061166193e-38
-0.01249998808 -0.1875 0.3249999881 7.409975195e-39
-0.275000006 0.07499998808 -0.287499994 1.353891837e-38
0.125 -0.337500006 0.3625000119 3.842381409e-39
-0.01249998808 0.05000001192 0.4875000119 1.289858102e-38
-0.4499999881 -0.212500006 0.1875 6.769637849e-39
-0.03749999404 -0.4875000119 -0.01249998808 3.662643861e-40
0.1374999881 -0.462500006 0.2624999881 9.151249686e-40
0 -0.3249999881 0.3249999881 4.1168117e-39
-0.212500006 -0.3625000119 0.1750000119 3.293520826e-39
0.0625 -0.4499999881 -0.3125 1.18955526e-39
-0.3625000119 -0.4875000119 -0.08750000596 3.662643861e-40
0 -0.4375 0.3125 1.555462315e-39
-0.01249998808 -0.162499994 0.3874999881 7.958835777e-39
-0.3625000119 -0.375 0.1875 3.019090535e-39
-0.400000006 -0.275000006 0.1625000238 5.306009629e-39
0 -0.400000006 0.3374999762 2.378753189e-39
-0.3874999881 0.07499998808 -0.150000006 1.353891837e-38
-0.462500006 0.05000001192 0.1875 1.289858102e-38
-0.1999999881 -0.412499994 -0.375 2.104322897e-39
-0.1999999881 -0.05000001192 0.1750000119 1.061166193e-38
-0.474999994 0.07499998808 -0.224999994 1.353891837e-38
-0.4875000119 0.07499998808 0.02499997616 1.353891837e-38
-0.2624999881 -0.4875000119 0.08749997616 3.662643861e-40
-0.1999999881 0.07499998808 -0.01249998808 1.353891837e-38
0 -0.3125 0.2250000238 4.482718755e-39
-0.5 -0.412499994 0.1750000119 2.104322897e-39
-0.01249998808 -0.4499999881 0.2250000238 1.18955526e-39
0.05000001192 -0.07499998808 -0.1374999881 9.97132458e-39
-0.09999999404 -0.375 -0.3000000119 3.019090535e-39
-0.01249998808 -0.0625 0.4499999881 1.033723163e-38
-0.474999994 -0.4875000119 -0.3249999881 3.662643861e-40
-0.1750000119 -0.03749999404 -0.1374999881 1.088609222e-38
-0.287499994 -0.0625 -0.125 1.033723163e-38
-0.462500006 0.07499998808 -0.0625 1.353891837e-38
-0.0625 -0.224999994 0.1875 6.495207557e-39
0.1499999762 0.07499998808 0.3125 1.353891837e-38
0 -0.212500006 0.3000000119 6.769637849e-39
-0.05000001192 -0.4875000119 -0.01249998808 3.662643861e-40
0 -0.4375 0.3249999881 1.555462315e-39
-0.3125 -0.4875000119 -0.1750000119 3.662643861e-40
-0.4250000119 -0.474999994 0.1875 6.406946774e-40
-0.287499994 -0.337500006 0.1750000119 3.842381409e-39
-0.01249998808 0.07499998808 -0.08750000596 1.353891837e-38
-0.01249998808 -0.1875 0.3374999762 7.409975195e-39
-0.01249998808 -0.1750000119 0.2124999762 7.684405486e-39
0.07499998808 0.07499998808 0.1625000238 1.353891837e-38
-0.375 -0.125 0.1750000119 8.873603415e-39
-0.01249998808 -0.1125000119 -0.150000006 9.148033706e-39
-0.375 -0.2624999881 0.1625000238 5.58043992e-39
-0.1750000119 0.07499998808 -0.3249999881 1.353891837e-38
-0.224999994 0.02499997616 0.1750000119 1.234972044e-38
-0.349999994 -0.4875000119 -0.1999999881 3.662643861e-40
-0.474999994 -0.224999994 0.1750000119 6.495207557e-39
0.1000000238 -0.2624999881 0.4375 5.58043992e-39
-0.25 -0.02500000596 0.1750000119 1.116052251e-38
-0.07499998808 -0.1125000119 -0.09999999404 9.148033706e-39
-0.474999994 -0.275000006 0.1750000119 5.306009629e-39
0.1000000238 -0.412499994 -0.3625000119 2.104322897e-39
-0.3625000119 -0.412499994 0.1875 2.104322897e-39
-0.01249998808 -0.0625 0.2124999762 1.033723163e-38
0.01249998808 0.07499998808 0.1499999762 1.353891837e-38
-0.337500006 0.07499998808 -0.25 1.353891837e-38
-0.337500006 0.07499998808 0 1.353891837e-38
-0.01249998808 -0.125 0.3625000119 8.873603415e-39
-0.287499994 -0.4875000119 0.1125000119 3.662643861e-40
0.1374999881 0.07499998808 0.4375 1.353891837e-38
0 -0.375 0.1875 3.019090535e-39
-0.162499994 -0.4875000119 0.125 3.662643861e-40
-0.3000000119 -0.4875000119 -0.07499998808 3.662643861e-40
0.1000000238 -0.275000006 0.375 5.306009629e-39
-0.275000006 -0.2375000119 0.1750000119 6.220777266e-39
-0.01249998808 -0.3125 0.4875000119 4.482718755e-39
0.1875 -0.224999994 0.3125 6.495207557e-39
-0.4375 -0.1374999881 0.1625000238 8.50769636e-39
-0.3125 0.07499998808 -0.224999994 1.353891837e-38
-0.4250000119 0.05000001192 0.1750000119 1.289858102e-38
0 0.07499998808 0.3999999762 1.353891837e-38
-0.3625000119 -0.01249998808 0.1875 1.14349528e-38
-0.3874999881 -0.375 0.1875 3.019090535e-39
-0.25 -0.462500006 0.1875 9.151249686e-40
-0.1374999881 -0.275000006 0.1875 5.306009629e-39
-0.3625000119 -0.125 0.1875 8.873603415e-39
-0.05000001192 0.07499998808 0.07499998808 1.353891837e-38
-0.1750000119 -0.4875000119 -0.1125000119 3.662643861e-40
0.01249998808 -0.03749999404 0.3374999762 1.088609222e-38
-0.01249998808 -0.4250000119 0.2749999762 1.829892606e-39
0.1125000119 0.07499998808 0.3374999762 1.353891837e-38
0.0625 0.07499998808 0.2749999762 1.353891837e-38
-0.3625000119 0.07499998808 -0.08750000596 1.353891837e-38
0.05000001192 -0.4250000119 -0.375 1.829892606e-39
0 -0.25 0.3000000119 5.946346975e-39
-0.05000001192 -0.4875000119 -0.05000001192 3.662643861e-40
-0.3000000119 0.07499998808 -0.09999999404 1.353891837e-38
-0.150000006 -0.4875000119 0.0625 3.662643861e-40
-0.1875 -0.05000001192 -0.150000006 1.061166193e-38
-0.01249998808 0.01249998808 0.4875000119 1.207529015e-38
0.03750002384 0.07499998808 0.3874999881 1.353891837e-38
0.05000001192 -0.375 -0.349999994 3.019090535e-39
-0.162499994 0.0625 0.1875 1.326448808e-38
0.125 0.07499998808 0.1499999762 1.353891837e-38
-0.4375 -0.4875000119 -0.224999994 3.662643861e-40
-0.0625 -0.09999999404 -0.09999999404 9.422463997e-39
0.1000000238 -0.4375 -0.287499994 1.555462315e-39
-0.337500006 0.03750002384 0.1750000119 1.262415073e-38
-0.1750000119 -0.4875000119 -0.09999999404 3.662643861e-40
0.02499997616 0.07499998808 0.08749997616 1.353891837e-38
-0.1999999881 0.07499998808 0.1750000119 1.353891837e-38
-0.01249998808 -0.1125000119 0.2250000238 9.148033706e-39
-0.2375000119 -0.4875000119 -0.3249999881 3.662643861e-40
-0.412499994 -0.08750000596 0.1875 9.696894289e-39
-0.162499994 -0.05000001192 0.1750000119 1.061166193e-38
-0.05000001192 -0.3249999881 0.1750000119 4.1168117e-39
-0.2624999881 -0.4875000119 0.07499998808 3.662643861e-40
-0.275000006 0.07499998808 0.1000000238 1.353891837e-38
-0.3625000119 0.07499998808 0.1875 1.353891837e-38
-0.02500000596 -0.4499999881 -0.349999994 1.18955526e-39
-0.400000006 -0.400000006 0.1750000119 2.378753189e-39
-0.125 0.07499998808 -0.1125000119 1.353891837e-38
-0.212500006 0.05000001192 0.1875 1.289858102e-38
-0.3125 -0.3000000119 0.1875 4.757149046e-39
-0.4375 -0.4875000119 -0.3125 3.662643861e-40
0.01249998808 -0.2624999881 0.4875000119 5.58043992e-39
-0.3874999881 -0.474999994 0.1875 6.406946774e-40
0.08749997616 -0.287499994 0.4499999881 5.031579337e-39
-0.1750000119 0.07499998808 -0.07499998808 1.353891837e-38
-0.400000006 -0.25 0.1750000119 5.946346975e-39
-0.1875 -0.337500006 0.1750000119 3.842381409e-39
-0.3000000119 -0.4875000119 -0.349999994 3.662643861e-40
-0.125 -0.2624999881 0.1875 5.58043992e-39
0.1000000238 -0.3000000119 0.4375 4.757149046e-39
0.1000000238 -0.1750000119 0.2624999881 7.684405486e-39
-0.08750000596 -0.462500006 0.1875 9.151249686e-40
-0.4250000119 -0.4875000119 0.1750000119 3.662643861e-40
-0.375 -0.4875000119 0.1125000119 3.662643861e-40
-0.1999999881 -0.150000006 0.1750000119 8.233266069e-39
-0.1750000119 -0.4875000119 -0.3249999881 3.662643861e-40
-0.01249998808 -0.125 0.25 8.873603415e-39
-0.2375000119 -0.3249999881 0.1750000119 4.1168117e-39
0.07499998808 -0.4875000119 -0.03749999404 3.662643861e-40
0.02499997616 -0.4875000119 -0.05000001192 3.662643861e-40
-0.2375000119 0.07499998808 -0.224999994 1.353891837e-38
0 -0.05000001192 0.3125 1.061166193e-38
-0.125 -0.150000006 0.1875 8.233266069e-39
-0.1374999881 -0.474999994 -0.275000006 6.406946774e-40
-0.01249998808 -0.05000001192 0.2375000119 1.061166193e-38
0 -0.01249998808 0.3125 1.14349528e-38
0.07499998808 -0.4875000119 0.2375000119 3.662643861e-40
-0.01249998808 0.0625 0.2250000238 1.326448808e-38
0.4750000238 -0.1750000119 -0.1374999881 7.684405486e-39
-0.337500006 -0.4875000119 -0.08750000596 3.662643861e-40
-0.1750000119 -0.3874999881 0.1750000119 2.65318348e-39
-0.4375 0.07499998808 -0.07499998808 1.353891837e-38
-0.01249998808 0.01249998808 0.4624999762 1.207529015e-38
0.1499999762 -0.1125000119 -0.162499994 9.148033706e-39
0 -0.09999999404 0.3249999881 9.422463997e-39
0.0625 -0.4875000119 0.05000001192 3.662643861e-40
-0.287499994 -0.4875000119 -0.02500000596 3.662643861e-40
-0.01249998808 -0.2624999881 0.3374999762 5.58043992e-39
0.0625 -0.3874999881 0.2624999881 2.65318348e-39
-0.3249999881 -0.4875000119 -0.125 3.662643861e-40
-0.01249998808 -0.03749999404 0.375 1.088609222e-38
0.1750000119 -0.4875000119 0.1750000119 3.662643861e-40
0.07499998808 -0.25 0.2624999881 5.946346975e-39
0.1875 -0.150000006 0.3125 8.233266069e-39
0 -0.4875000119 -0.275000006 3.662643861e-40
-0.375 -0.4875000119 0.02499997616 3.662643861e-40
0.25 -0.4875000119 0.1999999881 3.662643861e-40
-0.09999999404 -0.01249998808 0.1875 1.14349528e-38
0.1750000119 -0.4875000119 0.4499999881 3.662643861e-40
-0.4250000119 0.07499998808 -0.3000000119 1.353891837e-38
0 -0.162499994 0.4624999762 7.958835777e-39
0.1875 -0.08750000596 0.3500000238 9.696894289e-39
-0.474999994 -0.4875000119 -0.1750000119 3.662643861e-40
-0.2624999881 -0.05000001192 -0.150000006 1.061166193e-38
-0.4375 -0.3125 0.1625000238 4.482718755e-39
0 -0.4875000119 0.05000001192 3.662643861e-40
-0.212500006 -0.412499994 -0.375 2.104322897e-39
-0.3249999881 -0.1125000119 -0.162499994 9.148033706e-39
-0.3874999881 -0.3625000119 0.1875 3.293520826e-39
-0.150000006 -0.4875000119 -0.224999994 3.662643861e-40
-0.01249998808 -0.4875000119 0.2875000238 3.662643861e-40
-0.3249999881 0.07499998808 -0.09999999404 1.353891837e-38
-0.1999999881 0.07499998808 -0.02500000596 1.353891837e-38
-0.3125 -0.4875000119 -0.2624999881 3.662643861e-40
-0.287499994 -0.4875000119 0.1000000238 3.662643861e-40
0.03750002384 -0.3874999881 -0.375 2.65318348e-39
0 -0.3625000119 0.4125000238 3.293520826e-39
-0.4375 -0.4875000119 0.1875 3.662643861e-40
-0.4375 -0.4875000119 -0.1374999881 3.662643861e-40
-0.1374999881 -0.4375 -0.2624999881 1.555462315e-39
-0.287499994 -0.09999999404 0.1875 9.422463997e-39
-0.3249999881 -0.05000001192 0.1750000119 1.061166193e-38
-0.474999994 -0.4875000119 -0.2624999881 3.662643861e-40
0.05000001192 0.07499998808 0.2250000238 1.353891837e-38
-0.3000000119 -0.4875000119 -0.03749999404 3.662643861e-40
0.0625 -0.4499999881 -0.275000006 1.18955526e-39
-0.4250000119 -0.2375000119 0.1750000119 6.220777266e-39
-0.1125000119 0.07499998808 0.1625000238 1.353891837e-38
-0.162499994 0.07499998808 -0.2375000119 1.353891837e-38
-0.125 -0.1374999881 0.1875 8.50769636e-39
0 -0.05000001192 -0.125 1.061166193e-38
0.1000000238 -0.4875000119 0.3874999881 3.662643861e-40
-0.1125000119 -0.337500006 0.1750000119 3.842381409e-39
0 -0.212500006 0.3625000119 6.769637849e-39
0.02499997616 -0.09999999404 0.4875000119 9.422463997e-39
0.1625000238 -0.4875000119 0.01249998808 3.662643861e-40
-0.01249998808 -0.1875 0.4499999881 7.409975195e-39
-0.349999994 -0.4499999881 0.1875 1.18955526e-39
-0.1750000119 -0.150000006 0.1875 8.233266069e-39
-0.349999994 -0.337500006 0.1750000119 3.842381409e-39
0.03750002384 -0.462500006 -0.287499994 9.151249686e-40
-0.3249999881 -0.375 0.1750000119 3.019090535e-39
-0.25 -0.4875000119 -0.1875 3.662643861e-40
-0.01249998808 -0.400000006 0.3000000119 2.378753189e-39
0.1125000119 -0.3125 0.2624999881 4.482718755e-39
-0.2624999881 -0.2624999881 0.1750000119 5.58043992e-39
0 -0.462500006 0.375 9.151249686e-40
-0.25 -0.400000006 -0.287499994 2.378753189e-39
-0.3000000119 -0.474999994 0.1750000119 6.406946774e-40
0.1000000238 -0.4875000119 -0.0625 3.662643861e-40
0.08749997616 -0.07499998808 0.4125000238 9.97132458e-39
0.08749997616 -0.1374999881 0.4499999881 8.50769636e-39
-0.4375 -0.4375 0.1750000119 1.555462315e-39
-0.4375 -0.3874999881 0.1875 2.65318348e-39
-0.1875 0.07499998808 -0.09999999404 1.353891837e-38
-0.125 0.03750002384 0.1750000119 1.262415073e-38
-0.4375 -0.1750000119 0.1875 7.684405486e-39
0.1125000119 -0.3874999881 -0.3625000119 2.65318348e-39
0.1000000238 -0.2624999881 0.3999999762 5.58043992e-39
0.1625000238 -0.4875000119 0.1374999881 3.662643861e-40
0.1000000238 0.07499998808 0.2749999762 1.353891837e-38
0 0.0625 0.3874999881 1.326448808e-38
0.08749997616 -0.125 0.3999999762 8.873603415e-39
0.1875 -0.212500006 0.3249999881 6.769637849e-39
-0.125 -0.05000001192 0.1750000119 1.061166193e-38
-0.474999994 0.07499998808 -0.1750000119 1.353891837e-38
-0.275000006 -0.03749999404 0.1875 1.088609222e-38
0 -0.4499999881 0.1875 1.18955526e-39
-0.4375 -0.224999994 0.1875 6.495207557e-39
-0.4375 -0.4875000119 -0.09999999404 3.662643861e-40
-0.2624999881 0.07499998808 0.07499998808 1.353891837e-38
-0.01249998808 -0.3625000119 0.4250000119 3.293520826e-39
-0.3125 -0.4875000119 -0.1875 3.662643861e-40
-0.224999994 -0.4250000119 0.1875 1.829892606e-39
0.1875 -0.462500006 0.3125 9.151249686e-40
0.07499998808 -0.03749999404 0.2875000238 1.088609222e-38
-0.462500006 -0.4499999881 0.1625000238 1.18955526e-39
-0.05000001192 -0.4875000119 0.07499998808 3.662643861e-40
0.1000000238 -0.4375 0.3625000119 1.555462315e-39
-0.3125 -0.3874999881 0.1750000119 2.65318348e-39
0.1125000119 -0.4875000119 0.07499998808 3.662643861e-40
-0.162499994 0.07499998808 0.01249998808 1.353891837e-38
-0.3000000119 0.0625 0.1875 1.326448808e-38
-0.4875000119 0.07499998808 -0.07499998808 1.353891837e-38
0.07499998808 -0.212500006 0.2624999881 6.769637849e-39
-0.2624999881 0.07499998808 -0.03749999404 1.353891837e-38
0 -0.412499994 0.375 2.104322897e-39
0 -0.375 0.4375 3.019090535e-39
-0.2375000119 0.07499998808 -0.3625000119 1.353891837e-38
-0.462500006 0.07499998808 0.08749997616 1.353891837e-38
-0.3249999881 -0.337500006 0.1875 3.842381409e-39
0.08749997616 -0.4875000119 0.1374999881 3.662643861e-40
-0.162499994 0.07499998808 -0.349999994 1.353891837e-38
0 -0.3625000119 0.375 3.293520826e-39
-0.287499994 -0.1125000119 -0.162499994 9.148033706e-39
-0.4499999881 -0.162499994 0.1875 7.958835777e-39
-0.02500000596 -0.3874999881 -0.275000006 2.65318348e-39
0 0.02499997616 0.3999999762 1.234972044e-38
-0.4499999881 -0.4875000119 0.05000001192 3.662643861e-40
0 -0.3874999881 -0.375 2.65318348e-39
-0.09999999404 -0.349999994 0.1750000119 3.567951117e-39
-0.1125000119 -0.474999994 -0.275000006 6.406946774e-40
-0.01249998808 0.0625 0.2375000119 1.326448808e-38
-0.1125000119 0.07499998808 0.05000001192 1.353891837e-38
-0.1125000119 -0.0625 -0.150000006 1.033723163e-38
-0.01249998808 -0.150000006 0.1999999881 8.233266069e-39
0.1875 -0.05000001192 0.3374999762 1.061166193e-38
0.125 -0.375 0.3625000119 3.019090535e-39
-0.150000006 -0.4875000119 0.1374999881 3.662643861e-40
0.1125000119 -0.462500006 0.3625000119 9.151249686e-40
-0.125 -0.0625 -0.125 1.033723163e-38
0 0.03750002384 0.3374999762 1.262415073e-38
0 0 0.3999999762 1.180085986e-38
0.1750000119 -0.4499999881 0.3625000119 1.18955526e-39
0.1750000119 -0.1374999881 0.2624999881 8.50769636e-39
-0.01249998808 -0.01249998808 0.3374999762 1.14349528e-38
-0.1875 -0.4875000119 -0.150000006 3.662643861e-40
-0.162499994 -0.4250000119 0.1875 1.829892606e-39
0.1625000238 -0.3249999881 0.2624999881 4.1168117e-39
-0.462500006 0.07499998808 -0.03749999404 1.353891837e-38
0.1125000119 0.07499998808 0.3999999762 1.353891837e-38
-0.08750000596 0.07499998808 -0.1999999881 1.353891837e-38
-0.3125 0.01249998808 0.1750000119 1.207529015e-38
0.03750002384 0.07499998808 0.4624999762 1.353891837e-38
0.02499997616 -0.03749999404 0.4499999881 1.088609222e-38
-0.0625 0.07499998808 -0.1125000119 1.353891837e-38
-0.375 -0.4875000119 -0.162499994 3.662643861e-40
-0.462500006 -0.1374999881 0.1875 8.50769636e-39
0.07499998808 -0.08750000596 0.4875000119 9.696894289e-39
0 -0.01249998808 0.4125000238 1.14349528e-38
-0.224999994 -0.3625000119 0.1750000119 3.293520826e-39
-0.4375 0.07499998808 0.08749997616 1.353891837e-38
-0.400000006 -0.4250000119 0.1750000119 1.829892606e-39
0.1499999762 -0.4875000119 0.0625 3.662643861e-40
-0.3125 -0.4875000119 -0.375 3.662643861e-40
-0.01249998808 0.07499998808 0.05000001192 1.353891837e-38
-0.0625 -0.1125000119 0.1875 9.148033706e-39
-0.0625 -0.4875000119 0.1625000238 3.662643861e-40
0.1499999762 -0.4875000119 0.2250000238 3.662643861e-40
0 -0.125 0.2749999762 8.873603415e-39
-0.3874999881 -0.224999994 0.1625000238 6.495207557e-39
0 -0.1750000119 0.4125000238 7.684405486e-39
-0.412499994 -0.4875000119 -0.1125000119 3.662643861e-40
0.1000000238 -0.0625 -0.1374999881 1.033723163e-38
-0.287499994 -0.3125 0.1875 4.482718755e-39
-0.349999994 0.07499998808 0.01249998808 1.353891837e-38
0.1875 0.07499998808 0.3625000119 1.353891837e-38
-0.4875000119 0.07499998808 -0.125 1.353891837e-38
-0.275000006 0.0625 0.1875 1.326448808e-38
0.03750002384 0.07499998808 0.3000000119 1.353891837e-38
-0.1750000119 0.07499998808 -0.162499994 1.353891837e-38
0.1499999762 -0.3874999881 0.2624999881 2.65318348e-39
-0.0625 -0.4875000119 -0.0625 3.662643861e-40
0 -0.462500006 0.2250000238 9.151249686e-40
0.1625000238 -0.05000001192 -0.150000006 1.061166193e-38
0.1999999881 -0.1125000119 -0.125 9.148033706e-39
-0.4250000119 -0.462500006 0.1750000119 9.151249686e-40
-0.275000006 -0.02500000596 0.1750000119 1.116052251e-38
-0.349999994 -0.400000006 0.1750000119 2.378753189e-39
0.1125000119 -0.1374999881 0.3625000119 8.50769636e-39
-0.1750000119 -0.4875000119 -0.2375000119 3.662643861e-40
-0.400000006 -0.3125 0.1625000238 4.482718755e-39
-0.474999994 -0.4875000119 -0.3000000119 3.662643861e-40
-0.25 -0.4875000119 0.1374999881 3.662643861e-40
0 -0.4250000119 0.2624999881 1.829892606e-39
0.1374999881 -0.400000006 -0.3000000119 2.378753189e-39
-0.375 -0.375 0.1750000119 3.019090535e-39
0.1374999881 -0.4875000119 0.2749999762 3.662643861e-40
-0.09999999404 -0.4499999881 -0.3125 1.18955526e-39
-0.412499994 -0.01249998808 0.1875 1.14349528e-38
0.1750000119 -0.1999999881 0.3625000119 7.04406814e-39
-0.05000001192 -0.4499999881 0.1875 1.18955526e-39
0.1125000119 0.07499998808 0.4750000238 1.353891837e-38
-0.3125 -0.2624999881 0.1750000119 5.58043992e-39
-0.4250000119 0.01249998808 0.1875 1.207529015e-38
-0.474999994 -0.4875000119 0.07499998808 3.662643861e-40
-0.08750000596 -0.125 0.1875 8.873603415e-39
-0.1875 -0.4875000119 -0.05000001192 3.662643861e-40
-0.01249998808 -0.162499994 0.4125000238 7.958835777e-39
-0.09999999404 -0.1875 0.1875 7.409975195e-39
-0.375 -0.1374999881 0.1875 8.50769636e-39
0.1750000119 -0.03749999404 0.3625000119 1.088609222e-38
-0.3249999881 0.01249998808 0.1750000119 1.207529015e-38
-0.3249999881 0.07499998808 -0.1750000119 1.353891837e-38
-0.275000006 0.07499998808 -0.03749999404 1.353891837e-38
-0.2375000119 -0.3874999881 -0.3125 2.65318348e-39
-0.4875000119 -0.3625000119 0.1750000119 3.293520826e-39
-0.162499994 -0.0625 -0.150000006 1.033723163e-38
0.02499997616 -0.0625 -0.150000006 1.033723163e-38
-0.1750000119 0.07499998808 -0.3125 1.353891837e-38
-0.212500006 0.07499998808 0 1.353891837e-38
-0.1999999881 -0.05000001192 0.1875 1.061166193e-38
-0.25 0.07499998808 -0.162499994 1.353891837e-38
-0.462500006 0.07499998808 0.125 1.353891837e-38
-0.0625 0.07499998808 -0.125 1.353891837e-38
-0.3000000119 -0.4875000119 0.1875 3.662643861e-40
-0.412499994 0.05000001192 0.1875 1.289858102e-38
-0.02500000596 0.07499998808 0.1499999762 1.353891837e-38
0.1625000238 -0.1999999881 0.2624999881 7.04406814e-39
0 -0.212500006 0.4125000238 6.769637849e-39
0 -0.02500000596 0.3874999881 1.116052251e-38
0.0625 0.07499998808 0.2250000238 1.353891837e-38
0.1875 -0.4875000119 0.3000000119 3.662643861e-40
0.1499999762 -0.150000006 0.3625000119 8.233266069e-39
0.1000000238 -0.4250000119 -0.25 1.829892606e-39
0.1875 -0.08750000596 0.3625000119 9.696894289e-39
-0.224999994 -0.07499998808 0.1875 9.97132458e-39
0.05000001192 0.07499998808 -0.02500000596 1.353891837e-38
-0.1374999881 -0.4499999881 -0.349999994 1.18955526e-39
-0.3125 -0.1750000119 0.1750000119 7.684405486e-39
-0.212500006 -0.2624999881 0.1875 5.58043992e-39
-0.09999999404 -0.4875000119 0.03750002384 3.662643861e-40
-0.25 0.07499998808 -0.2375000119 1.353891837e-38
-0.4375 -0.224999994 0.1625000238 6.495207557e-39
-0.08750000596 -0.1125000119 0.1750000119 9.148033706e-39
-0.150000006 0.07499998808 -0.1374999881 1.353891837e-38
0.05000001192 0.07499998808 0.3999999762 1.353891837e-38
0 -0.400000006 0.4375 2.378753189e-39
0.03750002384 -0.4875000119 -0.162499994 3.662643861e-40
0.0625 -0.03749999404 0.3249999881 1.088609222e-38
-0.1999999881 -0.224999994 0.1875 6.495207557e-39
0.1374999881 -0.1125000119 0.2624999881 9.148033706e-39
0.1750000119 -0.4875000119 0.1499999762 3.662643861e-40
-0.0625 -0.4875000119 -0.287499994 3.662643861e-40
-0.125 -0.4875000119 -0.1374999881 3.662643861e-40
-0.4250000119 -0.4875000119 0.1374999881 3.662643861e-40
-0.1374999881 0.07499998808 0.1000000238 1.353891837e-38
-0.4250000119 0.07499998808 0.0625 1.353891837e-38
0.07499998808 -0.4250000119 -0.3625000119 1.829892606e-39
-0.3000000119 -0.4499999881 0.1750000119 1.18955526e-39
-0.349999994 -0.224999994 0.1750000119 6.495207557e-39
-0.1374999881 -0.4499999881 -0.3625000119 1.18955526e-39
-0.4250000119 0.07499998808 -0.224999994 1.353891837e-38
-0.462500006 0.07499998808 -0.1875 1.353891837e-38
-0.09999999404 0.07499998808 0.1625000238 1.353891837e-38
-0.01249998808 -0.3125 0.3000000119 4.482718755e-39
-0.25 -0.4499999881 -0.2624999881 1.18955526e-39
-0.287499994 -0.07499998808 -0.125 9.97132458e-39
-0.3249999881 0.07499998808 -0.0625 1.353891837e-38
0.1625000238 -0.05000001192 0.2624999881 1.061166193e-38
0.1125000119 -0.4875000119 0.2250000238 3.662643861e-40
0 -0.474999994 0.25 6.406946774e-40
-0.1750000119 -0.03749999404 0.1750000119 1.088609222e-38
-0.150000006 -0.349999994 0.1750000119 3.567951117e-39
-0.1750000119 -0.05000001192 -0.125 1.061166193e-38
-0.474999994 -0.4875000119 -0.3125 3.662643861e-40
-0.462500006 0.07499998808 -0.05000001192 1.353891837e-38
0 -0.2375000119 0.25 6.220777266e-39
-0.212500006 -0.3874999881 -0.275000006 2.65318348e-39
-0.3874999881 0.07499998808 -0.3625000119 1.353891837e-38
-0.01249998808 -0.125 0.3999999762 8.873603415e-39
0 0.03750002384 0.4250000119 1.262415073e-38
-0.349999994 -0.4875000119 -0.162499994 3.662643861e-40
0.0625 -0.1125000119 0.2624999881 9.148033706e-39
-0.4499999881 -0.4875000119 -0.349999994 3.662643861e-40
-0.02500000596 0.07499998808 -0.02500000596 1.353891837e-38
-0.5 0.07499998808 0.1625000238 1.353891837e-38
0.1875 -0.4875000119 0.4499999881 3.662643861e-40
-0.0625 -0.412499994 0.1750000119 2.104322897e-39
-0.400000006 0.07499998808 -0.09999999404 1.353891837e-38
-0.462500006 -0.4375 0.1875 1.555462315e-39
-0.1374999881 -0.4499999881 -0.375 1.18955526e-39
0 -0.462500006 -0.275000006 9.151249686e-40
0.1875 -0.1125000119 0.2624999881 9.148033706e-39
-0.08750000596 -0.474999994 0.1875 6.406946774e-40
-0.375 0.07499998808 0.125 1.353891837e-38
-0.09999999404 -0.212500006 0.1875 6.769637849e-39
0.2124999762 0.07499998808 0.3249999881 1.353891837e-38
0.08749997616 -0.4875000119 0.4750000238 3.662643861e-40
0 -0.1374999881 0.3249999881 8.50769636e-39
-0.337500006 -0.412499994 0.1750000119 2.104322897e-39
0 -0.1875 0.4750000238 7.409975195e-39
-0.3874999881 -0.400000006 0.1625000238 2.378753189e-39
0.1000000238 -0.4499999881 0.4375 1.18955526e-39
0.05000001192 -0.03749999404 0.2624999881 1.088609222e-38
-0.3625000119 0.03750002384 0.1875 1.262415073e-38
-0.4375 -0.275000006 0.1625000238 5.306009629e-39
0.0625 -0.03749999404 0.3500000238 1.088609222e-38
-0.1875 -0.375 -0.3125 3.019090535e-39
0.08749997616 -0.1374999881 0.4750000238 8.50769636e-39
-0.01249998808 -0.02500000596 0.4375 1.116052251e-38
-0.125 -0.224999994 0.1875 6.495207557e-39
0.4624999762 -0.275000006 -0.150000006 5.306009629e-39
-0.1750000119 -0.1750000119 0.1750000119 7.684405486e-39
-0.224999994 -0.212500006 0.1875 6.769637849e-39
0.03750002384 -0.1125000119 -0.125 9.148033706e-39
-0.162499994 -0.4499999881 0.1750000119 1.18955526e-39
-0.212500006 -0.474999994 -0.275000006 6.406946774e-40
-0.1374999881 -0.3874999881 -0.375 2.65318348e-39
-0.3125 0.02499997616 0.1750000119 1.234972044e-38
-0.1875 -0.01249998808 0.1875 1.14349528e-38
-0.07499998808 -0.07499998808 -0.150000006 9.97132458e-39
-0.150000006 -0.1125000119 0.1875 9.148033706e-39
0.1374999881 -0.4875000119 0.1499999762 3.662643861e-40
0.1374999881 -0.4875000119 0.2124999762 3.662643861e-40
-0.224999994 -0.224999994 0.1875 6.495207557e-39
0.05000001192 -0.412499994 0.2624999881 2.104322897e-39
0.1000000238 -0.474999994 0.4125000238 6.406946774e-40
0.02499997616 -0.3125 0.4875000119 4.482718755e-39
-0.1999999881 -0.3625000119 0.1750000119 3.293520826e-39
-0.01249998808 -0.412499994 0.2375000119 2.104322897e-39
-0.4250000119 -0.412499994 0.1625000238 2.104322897e-39
-0.2375000119 -0.474999994 -0.349999994 6.406946774e-40
0.01249998808 -0.375 0.4875000119 3.019090535e-39
0 -0.212500006 0.2124999762 6.769637849e-39
0.1625000238 -0.1125000119 0.3625000119 9.148033706e-39
-0.349999994 -0.2624999881 0.1750000119 5.58043992e-39
-0.01249998808 -0.349999994 0.3999999762 3.567951117e-39
0.1000000238 -0.03749999404 0.3000000119 1.088609222e-38
0.4624999762 -0.275000006 -0.125 5.306009629e-39
0.07499998808 -0.3874999881 -0.375 2.65318348e-39
0.03750002384 -0.1125000119 -0.162499994 9.148033706e-39
0.4624999762 -0.3249999881 -0.1374999881 4.1168117e-39
-0.01249998808 0.05000001192 0.375 1.289858102e-38
-0.1875 0.07499998808 0.1125000119 1.353891837e-38
-0.09999999404 -0.2375000119 0.1875 6.220777266e-39
0.03750002384 -0.4875000119 0 3.662643861e-40
0.2749999762 -0.4875000119 0.1875 3.662643861e-40
-0.474999994 -0.03749999404 0.1875 1.088609222e-38
-0.4875000119 -0.1125000119 0.1875 9.148033706e-39
-0.212500006 0.07499998808 -0.3000000119 1.353891837e-38
-0.07499998808 -0.3874999881 0.1875 2.65318348e-39
0 0.0625 0.1750000119 1.326448808e-38
0.1374999881 0.07499998808 0.2375000119 1.353891837e-38
-0.01249998808 -0.0625 0.4125000238 1.033723163e-38
0.08749997616 -0.1125000119 0.4875000119 9.148033706e-39
0.07499998808 -0.4875000119 0.1125000119 3.662643861e-40
-0.09999999404 -0.4375 -0.2624999881 1.555462315e-39
0.125 -0.4875000119 -0.02500000596 3.662643861e-40
-0.01249998808 0.07499998808 -0.09999999404 1.353891837e-38
-0.1999999881 0.07499998808 -0.275000006 1.353891837e-38
-0.3125 -0.4875000119 -0.212500006 3.662643861e-40
-0.3125 0.05000001192 0.1750000119 1.289858102e-38
-0.3249999881 -0.02500000596 0.1750000119 1.116052251e-38
-0.400000006 -0.3249999881 0.1750000119 4.1168117e-39
0.08749997616 -0.3249999881 0.4875000119 4.1168117e-39
-0.1875 -0.0625 -0.125 1.033723163e-38
-0.375 0.07499998808 -0.3125 1.353891837e-38
-0.4875000119 -0.150000006 0.1625000238 8.233266069e-39
0.1000000238 0.07499998808 0.4375 1.353891837e-38
-0.25 -0.1750000119 0.1750000119 7.684405486e-39
0.05000001192 -0.4875000119 0.2875000238 3.662643861e-40
-0.3625000119 0.07499998808 0.07499998808 1.353891837e-38
0.01249998808 -0.4499999881 -0.349999994 1.18955526e-39
0.1125000119 -0.4375 -0.287499994 1.555462315e-39
-0.3625000119 -0.162499994 0.1750000119 7.958835777e-39
-0.1125000119 -0.4875000119 -0.1125000119 3.662643861e-40
-0.150000006 -0.4250000119 0.1875 1.829892606e-39
-0.1374999881 -0.4875000119 -0.3249999881 3.662643861e-40
-0.349999994 0.07499998808 -0.02500000596 1.353891837e-38
-0.5 0.05000001192 0.1750000119 1.289858102e-38
0 -0.4250000119 0.25 1.829892606e-39
0.1125000119 -0.1374999881 0.2624999881 8.50769636e-39
0 -0.4875000119 0.1499999762 3.662643861e-40
-0.2375000119 -0.1999999881 0.1875 7.04406814e-39
-0.2375000119 -0.3625000119 0.1750000119 3.293520826e-39
-0.162499994 0.07499998808 -0.337500006 1.353891837e-38
-0.01249998808 0.01249998808 0.3125 1.207529015e-38
-0.01249998808 -0.02500000596 0.4499999881 1.116052251e-38
0.05000001192 -0.4375 0.2624999881 1.555462315e-39
-0.1875 -0.4875000119 -0.3000000119 3.662643861e-40
0.25 -0.4875000119 0.1374999881 3.662643861e-40
0.05000001192 0.07499998808 0.4624999762 1.353891837e-38
-0.3625000119 -0.1999999881 0.1750000119 7.04406814e-39
-0.462500006 -0.4875000119 -0.287499994 3.662643861e-40
-0.01249998808 0.07499998808 0.1499999762 1.353891837e-38
-0.462500006 -0.275000006 0.1875 5.306009629e-39
-0.1374999881 0 0.1750000119 1.180085986e-38
-0.474999994 0.07499998808 -0.09999999404 1.353891837e-38
-0.0625 -0.08750000596 -0.1125000119 9.696894289e-39
-0.162499994 -0.4375 0.1750000119 1.555462315e-39
-0.462500006 -0.4499999881 0.1750000119 1.18955526e-39
-0.4499999881 0.07499998808 -0.1875 1.353891837e-38
-0.5 -0.224999994 0.1875 6.495207557e-39
0 -0.02500000596 0.2375000119 1.116052251e-38
-0.3125 -0.09999999404 -0.162499994 9.422463997e-39
-0.224999994 0.01249998808 0.1750000119 1.207529015e-38
-0.337500006 -0.400000006 0.1750000119 2.378753189e-39
-0.349999994 -0.4875000119 -0.375 3.662643861e-40
-0.224999994 -0.02500000596 0.1875 1.116052251e-38
0.1374999881 -0.412499994 -0.3000000119 2.104322897e-39
0 -0.25 0.2875000238 5.946346975e-39
0 -0.400000006 0.1999999881 2.378753189e-39
0.125 -0.2624999881 0.2624999881 5.58043992e-39
-0.05000001192 -0.4499999881 -0.349999994 1.18955526e-39
-0.1750000119 -0.4875000119 0.1125000119 3.662643861e-40
0 -0.224999994 0.4499999881 6.495207557e-39
-0.07499998808 -0.07499998808 0.1750000119 9.97132458e-39
0.125 -0.03749999404 0.3500000238 1.088609222e-38
-0.3249999881 -0.349999994 0.1750000119 3.567951117e-39
-0.1999999881 0.07499998808 0.02499997616 1.353891837e-38
0.1499999762 -0.2624999881 0.2624999881 5.58043992e-39
-0.01249998808 -0.0625 0.4250000119 1.033723163e-38
-0.462500006 -0.212500006 0.1750000119 6.769637849e-39
-0.07499998808 0.07499998808 -0.1374999881 1.353891837e-38
0.08749997616 -0.337500006 0.2624999881 3.842381409e-39
-0.0625 0.07499998808 -0.0625 1.353891837e-38
-0.125 -0.1999999881 0.1875 7.04406814e-39
-0.275000006 -0.4875000119 0.1750000119 3.662643861e-40
-0.4375 0.07499998808 0.05000001192 1.353891837e-38
0.1750000119 -0.150000006 0.3625000119 8.233266069e-39
-0.462500006 -0.400000006 0.1750000119 2.378753189e-39
