# .PCD v0.7 - Point Cloud Data file format
VERSION 0.7
FIELDS x y z rgb
SIZE 4 4 4 4
TYPE F F F F
COUNT 1 1 1 1
WIDTH 904
HEIGHT 1
VIEWPOINT 0 0 0 1 0 0 0
POINTS 904
DATA ascii
-0.03749999404 -0.3000000119 0.2624999881 4.482718755e-39
-0.162499994 -0.462500006 -0.3125 6.406946774e-40
-0.162499994 -0.3874999881 -0.1750000119 2.378753189e-39
0.1125000119 -0.474999994 0.1875 3.662643861e-40
-0.1374999881 -0.375 -0.275000006 2.65318348e-39
0.4624999762 -0.349999994 -0.275000006 3.293520826e-39
0.1125000119 -0.4250000119 0.1875 1.555462315e-39
-0.09999999404 -0.3125 -0.287499994 4.1168117e-39
0.05000001192 -0.4875000119 0.3249999881 9.183409486e-41
0.07499998808 -0.4875000119 0.2250000238 9.183409486e-41
0.375 -0.349999994 -0.1875 3.293520826e-39
0.3125 -0.474999994 0.07499998808 3.662643861e-40
0.4624999762 -0.4875000119 -0.150000006 9.183409486e-41
0.02499997616 -0.4875000119 0.3374999762 9.183409486e-41
-0.09999999404 -0.287499994 -0.3249999881 4.757149046e-39
0.2624999881 -0.375 0.1750000119 2.65318348e-39
0.02499997616 -0.4875000119 -0.08750000596 9.183409486e-41
-0.09999999404 -0.3249999881 0.4250000119 3.842381409e-39
0.03750002384 -0.4250000119 0.1125000119 1.555462315e-39
-0.09999999404 -0.375 -0.25 2.65318348e-39
0.1999999881 -0.4875000119 -0.4250000119 9.183409486e-41
-0.162499994 -0.4375 0.1000000238 1.18955526e-39
0.4125000238 -0.4875000119 -0.09999999404 9.183409486e-41
-0.03749999404 -0.4875000119 0.3374999762 9.183409486e-41
-0.162499994 -0.275000006 0.2375000119 5.031579337e-39
0.3125 -0.4875000119 -0.09999999404 9.183409486e-41
-0.1374999881 -0.375 -0.224999994 2.65318348e-39
0.01249998808 -0.4250000119 0.1875 1.555462315e-39
0.2749999762 -0.4875000119 -0.07499998808 9.183409486e-41
0.08749997616 -0.474999994 0.2875000238 3.662643861e-40
0.2624999881 -0.4875000119 -0.349999994 9.183409486e-41
-0.125 -0.3000000119 0.2749999762 4.482718755e-39
0.2375000119 -0.275000006 0.1999999881 5.031579337e-39
0.1999999881 -0.337500006 -0.412499994 3.567951117e-39
-0.07499998808 -0.3000000119 -0.4375 4.482718755e-39
-0.150000006 -0.3125 -0.1875 4.1168117e-39
0.08749997616 -0.474999994 0.3125 3.662643861e-40
-0.1125000119 -0.400000006 -0.1875 2.104322897e-39
0.08749997616 -0.349999994 -0.287499994 3.293520826e-39
-0.0625 -0.2375000119 0.1875 5.946346975e-39
0.2875000238 -0.4875000119 -0.1875 9.183409486e-41
0.08749997616 -0.4499999881 0.1499999762 9.151249686e-40
0.3000000119 -0.3000000119 0.1000000238 4.482718755e-39
0 -0.2375000119 0.1999999881 5.946346975e-39
0.08749997616 -0.349999994 -0.337500006 3.293520826e-39
-0.150000006 -0.3249999881 -0.125 3.842381409e-39
0.1750000119 -0.337500006 -0.3000000119 3.567951117e-39
0.0625 -0.2375000119 0.1875 5.946346975e-39
-0.150000006 -0.4875000119 0.07499998808 9.183409486e-41
0.3374999762 -0.4875000119 -0.224999994 9.183409486e-41
0.3249999881 -0.337500006 -0.3874999881 3.567951117e-39
0.1999999881 -0.375 0.1999999881 2.65318348e-39
0.3249999881 -0.474999994 0.1374999881 3.662643861e-40
-0.02500000596 -0.3125 0.1875 4.1168117e-39
-0.162499994 -0.4875000119 0.03750002384 9.183409486e-41
0.3374999762 -0.3249999881 0.0625 3.842381409e-39
-0.162499994 -0.3625000119 0.2250000238 3.019090535e-39
-0.162499994 -0.3625000119 -0.4250000119 3.019090535e-39
0.2375000119 -0.4875000119 0.05000001192 9.183409486e-41
-0.1374999881 -0.4875000119 -0.2375000119 9.183409486e-41
-0.162499994 -0.3874999881 0.0625 2.378753189e-39
-0.162499994 -0.2624999881 0.1374999881 5.306009629e-39
-0.08750000596 -0.4875000119 0.1625000238 9.183409486e-41
-0.125 -0.474999994 -0.4375 3.662643861e-40
0.07499998808 -0.4875000119 -0.3249999881 9.183409486e-41
0.2624999881 -0.462500006 0.07499998808 6.406946774e-40
0.4499999881 -0.275000006 -0.212500006 5.031579337e-39
0 -0.4875000119 -0.0625 9.183409486e-41
0.1125000119 -0.4875000119 0.1000000238 9.183409486e-41
-0.1374999881 -0.400000006 0.1875 2.104322897e-39
-0.162499994 -0.212500006 -0.212500006 6.495207557e-39
0.3000000119 -0.375 0.1750000119 2.65318348e-39
0.1499999762 -0.3125 0.3249999881 4.1168117e-39
0.3374999762 -0.474999994 0.1499999762 3.662643861e-40
0.3625000119 -0.4875000119 0.07499998808 9.183409486e-41
-0.07499998808 -0.4875000119 0.125 9.183409486e-41
0.07499998808 -0.3874999881 0.1374999881 2.378753189e-39
-0.1374999881 -0.4875000119 -0.1125000119 9.183409486e-41
0.375 -0.337500006 -0.349999994 3.567951117e-39
-0.01249998808 -0.4875000119 0.2624999881 9.183409486e-41
0.3500000238 -0.337500006 -0.275000006 3.567951117e-39
-0.162499994 -0.25 -0.125 5.58043992e-39
0.4125000238 -0.349999994 -0.400000006 3.293520826e-39
0.02499997616 -0.3249999881 -0.2624999881 3.842381409e-39
-0.08750000596 -0.3625000119 -0.3625000119 3.019090535e-39
0.1625000238 -0.349999994 0.2250000238 3.293520826e-39
0.2250000238 -0.4875000119 -0.4375 9.183409486e-41
-0.05000001192 -0.349999994 -0.01249998808 3.293520826e-39
0.3500000238 -0.3000000119 0.0625 4.482718755e-39
0.2875000238 -0.3000000119 0.1374999881 4.482718755e-39
0.1750000119 -0.4875000119 -0.337500006 9.183409486e-41
0.3249999881 -0.349999994 0.05000001192 3.293520826e-39
0.2875000238 -0.4875000119 -0.212500006 9.183409486e-41
0.07499998808 -0.4875000119 -0.3874999881 9.183409486e-41
-0.02500000596 -0.462500006 0.2250000238 6.406946774e-40
0.3874999881 -0.4875000119 -0.2624999881 9.183409486e-41
-0.0625 -0.412499994 -0.02500000596 1.829892606e-39
0.25 -0.3125 0.1125000119 4.1168117e-39
-0.02500000596 -0.474999994 0.3000000119 3.662643861e-40
-0.150000006 -0.3625000119 -0.08750000596 3.019090535e-39
0.05000001192 -0.337500006 -0.4250000119 3.567951117e-39
0.125 -0.337500006 -0.25 3.567951117e-39
0.1499999762 -0.400000006 0.125 2.104322897e-39
-0.162499994 -0.3000000119 0.1750000119 4.482718755e-39
0.3249999881 -0.3874999881 0.1499999762 2.378753189e-39
0.1125000119 -0.1999999881 -0.412499994 6.769637849e-39
0.1000000238 -0.337500006 0.1999999881 3.567951117e-39
0.3374999762 -0.1999999881 -0.4250000119 6.769637849e-39
-0.1125000119 -0.3000000119 -0.412499994 4.482718755e-39
-0.1125000119 -0.2624999881 -0.4250000119 5.306009629e-39
-0.162499994 -0.4499999881 0.3125 9.151249686e-40
-0.125 -0.3874999881 0.3999999762 2.378753189e-39
-0.162499994 -0.3125 -0.3625000119 4.1168117e-39
-0.08750000596 -0.3874999881 0.4875000119 2.378753189e-39
0.2124999762 -0.4875000119 -0.1125000119 9.183409486e-41
0.3625000119 -0.349999994 0.08749997616 3.293520826e-39
-0.150000006 -0.3625000119 -0.25 3.019090535e-39
-0.07499998808 -0.224999994 -0.03749999404 6.220777266e-39
-0.0625 -0.412499994 0.3249999881 1.829892606e-39
-0.05000001192 -0.287499994 -0.01249998808 4.757149046e-39
0.1750000119 -0.4875000119 0.07499998808 9.183409486e-41
-0.162499994 -0.3125 0.2124999762 4.1168117e-39
-0.02500000596 -0.3874999881 0.4624999762 2.378753189e-39
-0.162499994 -0.3625000119 -0.287499994 3.019090535e-39
-0.1374999881 -0.275000006 -0.1875 5.031579337e-39
-0.125 -0.3000000119 -0.400000006 4.482718755e-39
0.07499998808 -0.25 -0.4375 5.58043992e-39
-0.162499994 -0.2375000119 0.1000000238 5.946346975e-39
-0.09999999404 -0.4875000119 -0.09999999404 9.183409486e-41
0.2375000119 -0.349999994 -0.349999994 3.293520826e-39
-0.150000006 -0.3000000119 -0.2375000119 4.482718755e-39
-0.125 -0.224999994 -0.2375000119 6.220777266e-39
0.1374999881 -0.474999994 0.3249999881 3.662643861e-40
-0.05000001192 -0.4875000119 0.2124999762 9.183409486e-41
0.2875000238 -0.3874999881 0.1875 2.378753189e-39
0.1125000119 -0.4250000119 0.2250000238 1.555462315e-39
0.0625 -0.4875000119 0.2124999762 9.183409486e-41
0.3249999881 -0.4875000119 -0.02500000596 9.183409486e-41
-0.162499994 -0.337500006 -0.3000000119 3.567951117e-39
-0.09999999404 -0.462500006 -0.4375 6.406946774e-40
0.1125000119 -0.4375 0.1999999881 1.18955526e-39
0.125 -0.400000006 0.2250000238 2.104322897e-39
-0.07499998808 -0.4875000119 0.3500000238 9.183409486e-41
-0.08750000596 -0.4875000119 -0.224999994 9.183409486e-41
0.3000000119 -0.4250000119 0.1875 1.555462315e-39
-0.05000001192 -0.4375 0.01249998808 1.18955526e-39
-0.09999999404 -0.4250000119 0.375 1.555462315e-39
0.3374999762 -0.474999994 0.125 3.662643861e-40
0.2250000238 -0.4875000119 -0.3000000119 9.183409486e-41
-0.150000006 -0.4499999881 -0.3000000119 9.151249686e-40
-0.162499994 -0.212500006 -0.3000000119 6.495207557e-39
-0.09999999404 -0.349999994 0.4499999881 3.293520826e-39
0.02499997616 -0.3874999881 -0.4375 2.378753189e-39
0.2375000119 -0.1999999881 -0.3874999881 6.769637849e-39
0.01249998808 -0.4875000119 0.2124999762 9.183409486e-41
0.3374999762 -0.349999994 0.1125000119 3.293520826e-39
0.05000001192 -0.400000006 0.1875 2.104322897e-39
0.1125000119 -0.212500006 -0.4375 6.495207557e-39
-0.1125000119 -0.3625000119 0.1875 3.019090535e-39
0.25 -0.3125 0.1000000238 4.1168117e-39
0.1625000238 -0.3249999881 0.2749999762 3.842381409e-39
0.3125 -0.1999999881 -0.3874999881 6.769637849e-39
0.2375000119 -0.462500006 -0.4375 6.406946774e-40
0.3249999881 -0.3249999881 0.125 3.842381409e-39
-0.1125000119 -0.3625000119 -0.1875 3.019090535e-39
-0.162499994 -0.287499994 -0.25 4.757149046e-39
0.08749997616 -0.4875000119 0 9.183409486e-41
0.1999999881 -0.4375 0.1125000119 1.18955526e-39
-0.150000006 -0.3000000119 -0.2624999881 4.482718755e-39
-0.1125000119 -0.337500006 0.1875 3.567951117e-39
-0.125 -0.4875000119 0.1999999881 9.183409486e-41
-0.162499994 -0.4375 0.1374999881 1.18955526e-39
0.4375 -0.4875000119 -0.212500006 9.183409486e-41
-0.07499998808 -0.3000000119 -0.01249998808 4.482718755e-39
0.08749997616 -0.337500006 -0.349999994 3.567951117e-39
-0.162499994 -0.212500006 -0.3249999881 6.495207557e-39
-0.1374999881 -0.349999994 -0.1875 3.293520826e-39
-0.162499994 -0.4875000119 -0.224999994 9.183409486e-41
-0.1125000119 -0.400000006 -0.3249999881 2.104322897e-39
0.05000001192 -0.337500006 0.1875 3.567951117e-39
-0.02500000596 -0.4875000119 -0.1125000119 9.183409486e-41
-0.125 -0.4499999881 0.3249999881 9.151249686e-40
0.25 -0.349999994 -0.275000006 3.293520826e-39
-0.09999999404 -0.1999999881 -0.4375 6.769637849e-39
0.1999999881 -0.400000006 0.1750000119 2.104322897e-39
0.4499999881 -0.349999994 -0.337500006 3.293520826e-39
0.4624999762 -0.287499994 -0.2375000119 4.757149046e-39
0.1000000238 -0.224999994 0.1875 6.220777266e-39
-0.02500000596 -0.4875000119 -0.03749999404 9.183409486e-41
0.1875 -0.400000006 0.08749997616 2.104322897e-39
0.3500000238 -0.375 0.1125000119 2.65318348e-39
0.4375 -0.462500006 -0.4375 6.406946774e-40
0.08749997616 -0.3874999881 0.1374999881 2.378753189e-39
-0.01249998808 -0.4875000119 0.2124999762 9.183409486e-41
-0.162499994 -0.3874999881 0.1875 2.378753189e-39
-0.125 -0.1999999881 -0.4250000119 6.769637849e-39
0.0625 -0.4499999881 0.3249999881 9.151249686e-40
-0.0625 -0.400000006 0.4750000238 2.104322897e-39
-0.162499994 -0.349999994 0.375 3.293520826e-39
0.07499998808 -0.337500006 -0.275000006 3.567951117e-39
-0.05000001192 -0.4875000119 -0.400000006 9.183409486e-41
0.25 -0.3000000119 0.07499998808 4.482718755e-39
-0.1125000119 -0.4250000119 -0.1875 1.555462315e-39
0.05000001192 -0.4499999881 0.1125000119 9.151249686e-40
0.08749997616 -0.337500006 0.2250000238 3.567951117e-39
-0.08750000596 -0.349999994 0.2250000238 3.293520826e-39
0.08749997616 -0.337500006 -0.4375 3.567951117e-39
-0.162499994 -0.4499999881 -0.287499994 9.151249686e-40
-0.08750000596 -0.287499994 -0.2624999881 4.757149046e-39
0.3999999762 -0.4875000119 -0.3000000119 9.183409486e-41
0.08749997616 -0.4875000119 -0.03749999404 9.183409486e-41
0.3999999762 -0.337500006 -0.3000000119 3.567951117e-39
-0.1374999881 -0.349999994 0.3249999881 3.293520826e-39
0.25 -0.4875000119 -0.4375 9.183409486e-41
-0.125 -0.3874999881 -0.4375 2.378753189e-39
-0.08750000596 -0.349999994 -0.287499994 3.293520826e-39
0.05000001192 -0.4875000119 -0.3000000119 9.183409486e-41
0.3874999881 -0.4875000119 0.07499998808 9.183409486e-41
-0.07499998808 -0.3000000119 0.2749999762 4.482718755e-39
-0.09999999404 -0.375 0.4375 2.65318348e-39
-0.162499994 -0.2624999881 0.3374999762 5.306009629e-39
-0.08750000596 -0.375 -0.2375000119 2.65318348e-39
0.4624999762 -0.4875000119 -0.2624999881 9.183409486e-41
0.3625000119 -0.4875000119 -0.05000001192 9.183409486e-41
0.3500000238 -0.3625000119 -0.4375 3.019090535e-39
-0.1374999881 -0.3000000119 -0.337500006 4.482718755e-39
0.25 -0.4875000119 -0.3874999881 9.183409486e-41
0.2749999762 -0.349999994 -0.3625000119 3.293520826e-39
-0.1125000119 -0.474999994 0.2250000238 3.662643861e-40
0.1125000119 -0.4875000119 0.3249999881 9.183409486e-41
0.05000001192 -0.412499994 0.1750000119 1.829892606e-39
0.1999999881 -0.412499994 0.1000000238 1.829892606e-39
0.03750002384 -0.287499994 -0.4375 4.757149046e-39
-0.1374999881 -0.4875000119 0.1000000238 9.183409486e-41
0.1750000119 -0.4875000119 0.01249998808 9.183409486e-41
0.3625000119 -0.4875000119 -0.4250000119 9.183409486e-41
0.2749999762 -0.3000000119 0.1125000119 4.482718755e-39
0.3000000119 -0.4875000119 -0.2624999881 9.183409486e-41
-0.162499994 -0.3874999881 -0.2375000119 2.378753189e-39
-0.162499994 -0.400000006 0.3874999881 2.104322897e-39
-0.125 -0.224999994 -0.1875 6.220777266e-39
0.1625000238 -0.337500006 0.2375000119 3.567951117e-39
-0.08750000596 -0.3874999881 0.1875 2.378753189e-39
-0.07499998808 -0.4375 -0.03749999404 1.18955526e-39
0.01249998808 -0.4875000119 -0.349999994 9.183409486e-41
-0.08750000596 -0.275000006 0.1999999881 5.031579337e-39
0.08749997616 -0.474999994 0.1875 3.662643861e-40
-0.09999999404 -0.3125 -0.1875 4.1168117e-39
0.1875 -0.4499999881 0.1499999762 9.151249686e-40
-0.1374999881 -0.462500006 -0.1875 6.406946774e-40
-0.08750000596 -0.25 -0.02500000596 5.58043992e-39
0.2749999762 -0.3625000119 0.0625 3.019090535e-39
-0.150000006 -0.4250000119 -0.4375 1.555462315e-39
0 -0.4875000119 0.3500000238 9.183409486e-41
0.1125000119 -0.349999994 -0.3249999881 3.293520826e-39
0.0625 -0.4875000119 0.03750002384 9.183409486e-41
-0.162499994 -0.287499994 -0.150000006 4.757149046e-39
-0.162499994 -0.275000006 -0.3249999881 5.031579337e-39
0.4875000119 -0.4875000119 -0.1125000119 9.183409486e-41
-0.03749999404 -0.25 0.1875 5.58043992e-39
-0.162499994 -0.4875000119 0.2749999762 9.183409486e-41
-0.162499994 -0.3000000119 0.4624999762 4.482718755e-39
-0.07499998808 -0.4875000119 0.4125000238 9.183409486e-41
-0.09999999404 -0.375 -0.2624999881 2.65318348e-39
0.3125 -0.287499994 -0.4375 4.757149046e-39
0.125 -0.4875000119 0.1625000238 9.183409486e-41
-0.150000006 -0.4875000119 -0.212500006 9.183409486e-41
-0.09999999404 -0.3625000119 0.2250000238 3.019090535e-39
-0.1125000119 -0.3000000119 -0.224999994 4.482718755e-39
0.05000001192 -0.4499999881 0.1374999881 9.151249686e-40
0.1125000119 -0.4499999881 0.08749997616 9.151249686e-40
-0.07499998808 -0.3625000119 0.3249999881 3.019090535e-39
0.07499998808 -0.4875000119 0.2875000238 9.183409486e-41
0.02499997616 -0.375 -0.4375 2.65318348e-39
0.1000000238 -0.4875000119 -0.275000006 9.183409486e-41
-0.1374999881 -0.462500006 -0.287499994 6.406946774e-40
0.05000001192 -0.412499994 0.3249999881 1.829892606e-39
-0.05000001192 -0.212500006 -0.01249998808 6.495207557e-39
0.1374999881 -0.287499994 0.1875 4.757149046e-39
0.2749999762 -0.3249999881 0.0625 3.842381409e-39
-0.162499994 -0.400000006 0.4624999762 2.104322897e-39
0.0625 -0.4875000119 0 9.183409486e-41
0.2375000119 -0.337500006 -0.375 3.567951117e-39
0.1125000119 -0.337500006 0.3374999762 3.567951117e-39
-0.162499994 -0.275000006 -0.1875 5.031579337e-39
0.2375000119 -0.4875000119 -0.0625 9.183409486e-41
0.1750000119 -0.4875000119 0.3374999762 9.183409486e-41
-0.1125000119 -0.275000006 0.1875 5.031579337e-39
-0.162499994 -0.349999994 0.1875 3.293520826e-39
-0.162499994 -0.462500006 -0.4250000119 6.406946774e-40
0.1625000238 -0.4499999881 0.08749997616 9.151249686e-40
-0.162499994 -0.4250000119 0.2124999762 1.555462315e-39
0.07499998808 -0.4875000119 0.4250000119 9.183409486e-41
-0.0625 -0.4875000119 -0.2375000119 9.183409486e-41
0.25 -0.1999999881 -0.375 6.769637849e-39
0 -0.4875000119 0.1875 9.183409486e-41
0.1875 -0.349999994 -0.2624999881 3.293520826e-39
0.1000000238 -0.4875000119 -0.1999999881 9.183409486e-41
0.1125000119 -0.3000000119 0.3000000119 4.482718755e-39
-0.162499994 -0.4499999881 0.2124999762 9.151249686e-40
0.3500000238 -0.4375 -0.4375 1.18955526e-39
-0.1374999881 -0.3625000119 -0.224999994 3.019090535e-39
-0.08750000596 -0.4875000119 -0.3249999881 9.183409486e-41
0.3125 -0.224999994 -0.4250000119 6.220777266e-39
0.07499998808 -0.375 0.3249999881 2.65318348e-39
0.4499999881 -0.4875000119 -0.08750000596 9.183409486e-41
-0.09999999404 -0.4499999881 -0.3874999881 9.151249686e-40
-0.09999999404 -0.3625000119 -0.2624999881 3.019090535e-39
0.1000000238 -0.4875000119 -0.375 9.183409486e-41
-0.1125000119 -0.4375 -0.3874999881 1.18955526e-39
-0.162499994 -0.4250000119 -0.375 1.555462315e-39
0.375 -0.412499994 -0.4375 1.829892606e-39
0.01249998808 -0.400000006 0.1999999881 2.104322897e-39
-0.1374999881 -0.4375 -0.287499994 1.18955526e-39
0.3500000238 -0.474999994 0.08749997616 3.662643861e-40
0.3249999881 -0.400000006 0.0625 2.104322897e-39
-0.08750000596 -0.474999994 0.2749999762 3.662643861e-40
0.125 -0.400000006 0.125 2.104322897e-39
0.1625000238 -0.4375 0.1999999881 1.18955526e-39
-0.162499994 -0.3625000119 -0.400000006 3.019090535e-39
0.1000000238 -0.1999999881 -0.375 6.769637849e-39
0.02499997616 -0.400000006 -0.2375000119 2.104322897e-39
0.2250000238 -0.349999994 0.1999999881 3.293520826e-39
-0.02500000596 -0.4875000119 0.2250000238 9.183409486e-41
-0.162499994 -0.412499994 0.0625 1.829892606e-39
0.3125 -0.337500006 -0.3125 3.567951117e-39
0.4375 -0.287499994 -0.4375 4.757149046e-39
0.0625 -0.4875000119 -0.337500006 9.183409486e-41
0.125 -0.4875000119 -0.337500006 9.183409486e-41
0.1625000238 -0.3000000119 0.3249999881 4.482718755e-39
-0.125 -0.287499994 -0.25 4.757149046e-39
0.1750000119 -0.4499999881 0.1750000119 9.151249686e-40
0.1999999881 -0.337500006 -0.337500006 3.567951117e-39
0.2375000119 -0.4875000119 -0.3125 9.183409486e-41
0.2124999762 -0.4875000119 -0.3625000119 9.183409486e-41
0.02499997616 -0.4875000119 0.1125000119 9.183409486e-41
0.25 -0.287499994 0.1999999881 4.757149046e-39
-0.09999999404 -0.287499994 -0.0625 4.757149046e-39
0.01249998808 -0.400000006 0.1875 2.104322897e-39
0.4375 -0.349999994 -0.4375 3.293520826e-39
0.1374999881 -0.4875000119 0.3249999881 9.183409486e-41
0.05000001192 -0.4875000119 -0.400000006 9.183409486e-41
0.1125000119 -0.337500006 -0.3249999881 3.567951117e-39
0.3000000119 -0.4875000119 0 9.183409486e-41
0.0625 -0.4499999881 0.08749997616 9.151249686e-40
-0.08750000596 -0.462500006 -0.05000001192 6.406946774e-40
0.2624999881 -0.349999994 -0.3000000119 3.293520826e-39
-0.09999999404 -0.4499999881 0.1875 9.151249686e-40
0.03750002384 -0.4875000119 0.25 9.183409486e-41
0.25 -0.4250000119 -0.4375 1.555462315e-39
0.3374999762 -0.4875000119 0.08749997616 9.183409486e-41
0.125 -0.4250000119 -0.4375 1.555462315e-39
-0.125 -0.3000000119 0.2875000238 4.482718755e-39
-0.09999999404 -0.3249999881 -0.4250000119 3.842381409e-39
0.1999999881 -0.4875000119 -0.3249999881 9.183409486e-41
-0.1374999881 -0.3000000119 -0.375 4.482718755e-39
0.25 -0.4875000119 -0.224999994 9.183409486e-41
0.25 -0.349999994 -0.3125 3.293520826e-39
0.01249998808 -0.4875000119 -0.150000006 9.183409486e-41
-0.150000006 -0.3000000119 -0.287499994 4.482718755e-39
0.2875000238 -0.349999994 -0.3125 3.293520826e-39
0.2624999881 -0.3249999881 0.2124999762 3.842381409e-39
0.3874999881 -0.4875000119 -0.1125000119 9.183409486e-41
0.1750000119 -0.337500006 0.125 3.567951117e-39
-0.162499994 -0.412499994 0.2375000119 1.829892606e-39
0.03750002384 -0.349999994 -0.2375000119 3.293520826e-39
0.2624999881 -0.4875000119 -0.01249998808 9.183409486e-41
0.3625000119 -0.337500006 -0.3000000119 3.567951117e-39
-0.162499994 -0.4375 -0.4375 1.18955526e-39
0.0625 -0.337500006 -0.4250000119 3.567951117e-39
0.3374999762 -0.474999994 0.07499998808 3.662643861e-40
0.1499999762 -0.349999994 -0.4375 3.293520826e-39
0.4624999762 -0.349999994 -0.412499994 3.293520826e-39
0.07499998808 -0.3000000119 0.1875 4.482718755e-39
-0.07499998808 -0.412499994 -0.01249998808 1.829892606e-39
0.4250000119 -0.2375000119 -0.4375 5.946346975e-39
0.02499997616 -0.3625000119 0.1499999762 3.019090535e-39
-0.162499994 -0.4499999881 0.3249999881 9.151249686e-40
0.3374999762 -0.3874999881 -0.4375 2.378753189e-39
-0.162499994 -0.3249999881 0.3000000119 3.842381409e-39
0.1750000119 -0.337500006 0.1999999881 3.567951117e-39
-0.162499994 -0.275000006 0.4125000238 5.031579337e-39
0.1000000238 -0.4875000119 -0.07499998808 9.183409486e-41
-0.07499998808 -0.4875000119 -0.162499994 9.183409486e-41
0.1625000238 -0.4250000119 0.2875000238 1.555462315e-39
0.2875000238 -0.349999994 -0.3874999881 3.293520826e-39
-0.162499994 -0.375 -0.275000006 2.65318348e-39
0.1125000119 -0.474999994 0.3000000119 3.662643861e-40
-0.162499994 -0.4375 0.1125000119 1.18955526e-39
-0.162499994 -0.337500006 -0.337500006 3.567951117e-39
-0.08750000596 -0.287499994 -0.4375 4.757149046e-39
-0.162499994 -0.4250000119 0.4375 1.555462315e-39
-0.0625 -0.4875000119 0.2124999762 9.183409486e-41
0.08749997616 -0.224999994 0.1875 6.220777266e-39
0.3374999762 -0.3625000119 0.1125000119 3.019090535e-39
0.1625000238 -0.3874999881 0.1000000238 2.378753189e-39
0.1750000119 -0.349999994 -0.3125 3.293520826e-39
-0.150000006 -0.25 -0.1374999881 5.58043992e-39
0.4375 -0.224999994 -0.4250000119 6.220777266e-39
-0.08750000596 -0.4499999881 -0.4375 9.151249686e-40
0.2875000238 -0.337500006 -0.3874999881 3.567951117e-39
-0.09999999404 -0.375 -0.224999994 2.65318348e-39
0.125 -0.4375 0.2250000238 1.18955526e-39
0.1625000238 -0.3249999881 -0.4375 3.842381409e-39
0.2875000238 -0.412499994 0.1999999881 1.829892606e-39
-0.08750000596 -0.4875000119 0.3999999762 9.183409486e-41
-0.125 -0.25 -0.0625 5.58043992e-39
0.1499999762 -0.3874999881 0.2250000238 2.378753189e-39
-0.1125000119 -0.3000000119 -0.2375000119 4.482718755e-39
0.2250000238 -0.3625000119 -0.4375 3.019090535e-39
-0.08750000596 -0.3625000119 -0.412499994 3.019090535e-39
0.08749997616 -0.4875000119 -0.1125000119 9.183409486e-41
0.3374999762 -0.337500006 -0.3625000119 3.567951117e-39
0.0625 -0.412499994 0.2250000238 1.829892606e-39
0.1499999762 -0.349999994 0.125 3.293520826e-39
0.03750002384 -0.25 -0.2375000119 5.58043992e-39
-0.162499994 -0.212500006 -0.375 6.495207557e-39
0.1625000238 -0.337500006 -0.275000006 3.567951117e-39
-0.1125000119 -0.287499994 -0.2624999881 4.757149046e-39
0.125 -0.3249999881 0.2250000238 3.842381409e-39
0.3625000119 -0.337500006 -0.3249999881 3.567951117e-39
0.3374999762 -0.4875000119 0.03750002384 9.183409486e-41
-0.09999999404 -0.3000000119 -0.1999999881 4.482718755e-39
-0.07499998808 -0.3625000119 -0.03749999404 3.019090535e-39
-0.09999999404 -0.474999994 0.2624999881 3.662643861e-40
-0.162499994 -0.474999994 -0.05000001192 3.662643861e-40
-0.1374999881 -0.375 -0.1875 2.65318348e-39
-0.125 -0.4875000119 -0.3874999881 9.183409486e-41
0.3000000119 -0.4875000119 -0.3874999881 9.183409486e-41
0.1125000119 -0.224999994 -0.4375 6.220777266e-39
-0.09999999404 -0.2624999881 -0.03749999404 5.306009629e-39
-0.08750000596 -0.4875000119 -0.4375 9.183409486e-41
0.4250000119 -0.3874999881 -0.4375 2.378753189e-39
0.375 -0.287499994 -0.212500006 4.757149046e-39
0.1125000119 -0.474999994 0.2250000238 3.662643861e-40
0.2875000238 -0.375 -0.4375 2.65318348e-39
-0.150000006 -0.349999994 -0.08750000596 3.293520826e-39
0.3249999881 -0.412499994 -0.4375 1.829892606e-39
-0.08750000596 -0.4875000119 -0.3874999881 9.183409486e-41
-0.162499994 -0.474999994 -0.2624999881 3.662643861e-40
0.1499999762 -0.4875000119 0.1000000238 9.183409486e-41
-0.162499994 -0.349999994 0.0625 3.293520826e-39
-0.05000001192 -0.2375000119 0.1875 5.946346975e-39
0.03750002384 -0.462500006 0.2250000238 6.406946774e-40
0.0625 -0.349999994 0.3249999881 3.293520826e-39
0.1374999881 -0.2624999881 -0.4375 5.306009629e-39
0.4499999881 -0.4875000119 -0.3249999881 9.183409486e-41
-0.05000001192 -0.400000006 -0.01249998808 2.104322897e-39
-0.01249998808 -0.275000006 -0.4375 5.031579337e-39
-0.1125000119 -0.375 -0.3000000119 2.65318348e-39
-0.08750000596 -0.224999994 -0.287499994 6.220777266e-39
0.1125000119 -0.3125 0.3249999881 4.1168117e-39
0.3625000119 -0.349999994 -0.3000000119 3.293520826e-39
0.1374999881 -0.3874999881 0.08749997616 2.378753189e-39
0.01249998808 -0.412499994 0.3249999881 1.829892606e-39
-0.162499994 -0.337500006 0.125 3.567951117e-39
0.125 -0.337500006 0.3249999881 3.567951117e-39
0.1374999881 -0.349999994 0.3249999881 3.293520826e-39
-0.09999999404 -0.2624999881 -0.0625 5.306009629e-39
0.3000000119 -0.3625000119 -0.4375 3.019090535e-39
-0.02500000596 -0.4875000119 -0.07499998808 9.183409486e-41
0.4499999881 -0.474999994 -0.1750000119 3.662643861e-40
0.1000000238 -0.337500006 -0.287499994 3.567951117e-39
0.2749999762 -0.4875000119 0.0625 9.183409486e-41
0.125 -0.3625000119 0.3249999881 3.019090535e-39
-0.162499994 -0.212500006 -0.337500006 6.495207557e-39
-0.03749999404 -0.4875000119 0.2749999762 9.183409486e-41
-0.162499994 -0.462500006 -0.3249999881 6.406946774e-40
0.4375 -0.337500006 -0.287499994 3.567951117e-39
-0.1374999881 -0.3625000119 0.3249999881 3.019090535e-39
-0.150000006 -0.4250000119 0.07499998808 1.555462315e-39
0.1000000238 -0.3000000119 0.2624999881 4.482718755e-39
-0.01249998808 -0.4875000119 -0.3874999881 9.183409486e-41
0.4499999881 -0.212500006 -0.212500006 6.495207557e-39
-0.162499994 -0.337500006 0.4750000238 3.567951117e-39
0.1000000238 -0.337500006 -0.3625000119 3.567951117e-39
0.03750002384 -0.3874999881 -0.2375000119 2.378753189e-39
0.2124999762 -0.349999994 -0.275000006 3.293520826e-39
-0.162499994 -0.3874999881 0.1499999762 2.378753189e-39
-0.162499994 -0.25 0.2124999762 5.58043992e-39
-0.1374999881 -0.3000000119 -0.2375000119 4.482718755e-39
0.1000000238 -0.4875000119 -0.4250000119 9.183409486e-41
-0.125 -0.2375000119 -0.4250000119 5.946346975e-39
-0.09999999404 -0.4875000119 -0.2624999881 9.183409486e-41
0.2124999762 -0.4375 -0.4375 1.18955526e-39
0.4125000238 -0.4875000119 -0.3125 9.183409486e-41
0.1374999881 -0.4875000119 0.1000000238 9.183409486e-41
0.25 -0.412499994 -0.4375 1.829892606e-39
0 -0.3874999881 0.1000000238 2.378753189e-39
0.3374999762 -0.349999994 -0.3874999881 3.293520826e-39
-0.150000006 -0.3000000119 -0.375 4.482718755e-39
-0.1374999881 -0.4499999881 -0.337500006 9.151249686e-40
-0.150000006 -0.25 0.07499998808 5.58043992e-39
0.2375000119 -0.4499999881 0.1999999881 9.151249686e-40
0.3625000119 -0.4875000119 -0.08750000596 9.183409486e-41
0.02499997616 -0.4499999881 0.3249999881 9.151249686e-40
0.1625000238 -0.349999994 -0.25 3.293520826e-39
0.2624999881 -0.4375 0.1125000119 1.18955526e-39
0.0625 -0.4875000119 0.4250000119 9.183409486e-41
0.1999999881 -0.4875000119 -0.212500006 9.183409486e-41
0.2749999762 -0.3000000119 0.125 4.482718755e-39
0.4750000238 -0.4875000119 -0.400000006 9.183409486e-41
0.1625000238 -0.4875000119 -0.1999999881 9.183409486e-41
-0.1125000119 -0.3625000119 -0.2375000119 3.019090535e-39
0.1999999881 -0.224999994 -0.4375 6.220777266e-39
0.4125000238 -0.4875000119 -0.03749999404 9.183409486e-41
0.1374999881 -0.400000006 0.1999999881 2.104322897e-39
-0.05000001192 -0.4875000119 0.3125 9.183409486e-41
0.05000001192 -0.4499999881 0.1625000238 9.151249686e-40
-0.162499994 -0.4250000119 -0.337500006 1.555462315e-39
-0.07499998808 -0.4875000119 0.2250000238 9.183409486e-41
-0.05000001192 -0.25 -0.01249998808 5.58043992e-39
-0.08750000596 -0.3000000119 0.3000000119 4.482718755e-39
-0.03749999404 -0.4875000119 -0.09999999404 9.183409486e-41
0.2624999881 -0.4375 0.2124999762 1.18955526e-39
0.07499998808 -0.3000000119 0.3000000119 4.482718755e-39
0.125 -0.4875000119 -0.1125000119 9.183409486e-41
0.08749997616 -0.4875000119 -0.05000001192 9.183409486e-41
-0.162499994 -0.4499999881 -0.3000000119 9.151249686e-40
0 -0.3000000119 0.1999999881 4.482718755e-39
0.05000001192 -0.4499999881 0.1875 9.151249686e-40
0.1625000238 -0.400000006 0.08749997616 2.104322897e-39
-0.162499994 -0.3625000119 0.4125000238 3.019090535e-39
-0.08750000596 -0.4499999881 -0.287499994 9.151249686e-40
0.1999999881 -0.2375000119 -0.4250000119 5.946346975e-39
0.3625000119 -0.4875000119 -0.125 9.183409486e-41
-0.125 -0.4499999881 0.3874999881 9.151249686e-40
-0.1125000119 -0.3000000119 -0.337500006 4.482718755e-39
-0.08750000596 -0.275000006 -0.1875 5.031579337e-39
0.2749999762 -0.4875000119 -0.1374999881 9.183409486e-41
0.05000001192 -0.224999994 -0.4250000119 6.220777266e-39
0.3374999762 -0.3874999881 0.125 2.378753189e-39
0.3000000119 -0.4875000119 -0.3125 9.183409486e-41
-0.05000001192 -0.4875000119 -0.03749999404 9.183409486e-41
-0.0625 -0.2375000119 0 5.946346975e-39
0.3874999881 -0.337500006 -0.275000006 3.567951117e-39
0.08749997616 -0.4875000119 0.4250000119 9.183409486e-41
0.3125 -0.3249999881 0.1499999762 3.842381409e-39
0.1374999881 -0.4875000119 -0.1750000119 9.183409486e-41
-0.05000001192 -0.400000006 0.4875000119 2.104322897e-39
-0.162499994 -0.287499994 0.1625000238 4.757149046e-39
0.2250000238 -0.4875000119 0.1000000238 9.183409486e-41
-0.07499998808 -0.4875000119 0.2749999762 9.183409486e-41
-0.03749999404 -0.3000000119 0.01249998808 4.482718755e-39
-0.0625 -0.287499994 0 4.757149046e-39
-0.150000006 -0.287499994 -0.125 4.757149046e-39
0.2749999762 -0.3874999881 0.1875 2.378753189e-39
0.2749999762 -0.3874999881 0.1999999881 2.378753189e-39
0.1000000238 -0.4875000119 0.1125000119 9.183409486e-41
-0.162499994 -0.462500006 0.3000000119 6.406946774e-40
-0.162499994 -0.4250000119 -0.1374999881 1.555462315e-39
0.1125000119 -0.400000006 0.1625000238 2.104322897e-39
0.1125000119 -0.474999994 0.3249999881 3.662643861e-40
0.01249998808 -0.275000006 0.1875 5.031579337e-39
0.1875 -0.337500006 -0.349999994 3.567951117e-39
0.25 -0.4875000119 0.25 9.183409486e-41
-0.162499994 -0.2375000119 0.1625000238 5.946346975e-39
0.07499998808 -0.4250000119 0.1875 1.555462315e-39
0.125 -0.349999994 -0.2624999881 3.293520826e-39
0.05000001192 -0.3125 -0.4375 4.1168117e-39
-0.02500000596 -0.4875000119 0.0625 9.183409486e-41
0.2749999762 -0.4875000119 -0.412499994 9.183409486e-41
0.0625 -0.337500006 0.2250000238 3.567951117e-39
0.4624999762 -0.3249999881 -0.1999999881 3.842381409e-39
0.4624999762 -0.4499999881 -0.1750000119 9.151249686e-40
0.3374999762 -0.3000000119 0.08749997616 4.482718755e-39
-0.162499994 -0.4375 -0.1374999881 1.18955526e-39
0.1499999762 -0.4875000119 0.1999999881 9.183409486e-41
-0.150000006 -0.275000006 0.0625 5.031579337e-39
-0.02500000596 -0.25 -0.4375 5.58043992e-39
-0.125 -0.3000000119 -0.3000000119 4.482718755e-39
-0.162499994 -0.3000000119 0.4125000238 4.482718755e-39
-0.05000001192 -0.474999994 0.1875 3.662643861e-40
-0.125 -0.4375 0.375 1.18955526e-39
-0.1125000119 -0.4875000119 -0.275000006 9.183409486e-41
0.1374999881 -0.349999994 -0.4375 3.293520826e-39
0.375 -0.4875000119 -0.01249998808 9.183409486e-41
-0.150000006 -0.4250000119 -0.4250000119 1.555462315e-39
0.4624999762 -0.3249999881 -0.4250000119 3.842381409e-39
0.02499997616 -0.4375 0.1875 1.18955526e-39
0.2250000238 -0.4250000119 0.1999999881 1.555462315e-39
0.01249998808 -0.4875000119 0.125 9.183409486e-41
0.3500000238 -0.337500006 -0.3874999881 3.567951117e-39
-0.125 -0.4375 -0.4250000119 1.18955526e-39
0.1499999762 -0.400000006 0.1000000238 2.104322897e-39
0.01249998808 -0.4875000119 -0.4250000119 9.183409486e-41
-0.05000001192 -0.4875000119 -0.07499998808 9.183409486e-41
-0.09999999404 -0.4375 -0.224999994 1.18955526e-39
-0.02500000596 -0.287499994 0.1999999881 4.757149046e-39
-0.05000001192 -0.4875000119 -0.412499994 9.183409486e-41
-0.162499994 -0.349999994 0.25 3.293520826e-39
0.1499999762 -0.287499994 0.1875 4.757149046e-39
0.2250000238 -0.349999994 -0.275000006 3.293520826e-39
-0.02500000596 -0.287499994 -0.4375 4.757149046e-39
0.3000000119 -0.337500006 -0.4250000119 3.567951117e-39
0.1125000119 -0.4875000119 -0.337500006 9.183409486e-41
-0.05000001192 -0.3000000119 0.2749999762 4.482718755e-39
0.0625 -0.474999994 0.2624999881 3.662643861e-40
-0.162499994 -0.4375 0.1750000119 1.18955526e-39
-0.162499994 -0.412499994 -0.375 1.829892606e-39
0.01249998808 -0.474999994 0.3249999881 3.662643861e-40
0.2624999881 -0.3000000119 0.1750000119 4.482718755e-39
0.2375000119 -0.4875000119 0.1625000238 9.183409486e-41
0.08749997616 -0.4875000119 -0.375 9.183409486e-41
0.1499999762 -0.400000006 0.1625000238 2.104322897e-39
-0.05000001192 -0.287499994 0.1875 4.757149046e-39
0.1999999881 -0.3874999881 0.1625000238 2.378753189e-39
-0.162499994 -0.3000000119 0.25 4.482718755e-39
0.125 -0.3874999881 0.1875 2.378753189e-39
-0.08750000596 -0.3874999881 -0.4250000119 2.378753189e-39
0.1499999762 -0.4499999881 0.1000000238 9.151249686e-40
0.05000001192 -0.337500006 -0.412499994 3.567951117e-39
0.1499999762 -0.375 0.1875 2.65318348e-39
0.03750002384 -0.349999994 -0.4375 3.293520826e-39
-0.1125000119 -0.3000000119 -0.1999999881 4.482718755e-39
0.4125000238 -0.349999994 -0.3625000119 3.293520826e-39
-0.162499994 -0.474999994 -0.3874999881 3.662643861e-40
-0.162499994 -0.4499999881 0.1374999881 9.151249686e-40
0.4375 -0.349999994 -0.337500006 3.293520826e-39
-0.05000001192 -0.4875000119 0 9.183409486e-41
-0.07499998808 -0.3000000119 0.25 4.482718755e-39
0.2875000238 -0.3125 0.1750000119 4.1168117e-39
-0.162499994 -0.474999994 -0.349999994 3.662643861e-40
-0.162499994 -0.4250000119 0.3125 1.555462315e-39
0.1750000119 -0.4250000119 0.1999999881 1.555462315e-39
-0.09999999404 -0.4499999881 -0.400000006 9.151249686e-40
0.3874999881 -0.3874999881 0.0625 2.378753189e-39
0.1125000119 -0.3625000119 0.1875 3.019090535e-39
0.1499999762 -0.4875000119 0.3125 9.183409486e-41
0.08749997616 -0.375 0.125 2.65318348e-39
0.1999999881 -0.3874999881 0.1499999762 2.378753189e-39
0.08749997616 -0.3000000119 0.25 4.482718755e-39
0.2624999881 -0.4875000119 0.1625000238 9.183409486e-41
-0.150000006 -0.3000000119 0.25 4.482718755e-39
0.03750002384 -0.337500006 -0.4375 3.567951117e-39
-0.07499998808 -0.462500006 0.2250000238 6.406946774e-40
0.4250000119 -0.3874999881 -0.1875 2.378753189e-39
-0.0625 -0.4875000119 -0.3125 9.183409486e-41
-0.1125000119 -0.2624999881 0.1875 5.306009629e-39
-0.1125000119 -0.337500006 -0.287499994 3.567951117e-39
0.2124999762 -0.224999994 -0.4250000119 6.220777266e-39
-0.07499998808 -0.4875000119 -0.150000006 9.183409486e-41
-0.162499994 -0.224999994 -0.1125000119 6.220777266e-39
-0.162499994 -0.3125 0.08749997616 4.1168117e-39
0.3625000119 -0.474999994 -0.4375 3.662643861e-40
0.2875000238 -0.4499999881 0.0625 9.151249686e-40
0.2624999881 -0.4875000119 -0.150000006 9.183409486e-41
-0.09999999404 -0.4375 -0.03749999404 1.18955526e-39
0.4499999881 -0.3249999881 -0.3249999881 3.842381409e-39
0.03750002384 -0.4875000119 -0.3874999881 9.183409486e-41
-0.162499994 -0.3249999881 -0.1750000119 3.842381409e-39
0.0625 -0.4875000119 0.2375000119 9.183409486e-41
-0.162499994 -0.462500006 0.1125000119 6.406946774e-40
0.3000000119 -0.3125 -0.4375 4.1168117e-39
0.1999999881 -0.4875000119 -0.08750000596 9.183409486e-41
0.1374999881 -0.412499994 0.3249999881 1.829892606e-39
0.1000000238 -0.4499999881 0.1499999762 9.151249686e-40
-0.1374999881 -0.400000006 0.2250000238 2.104322897e-39
0.3500000238 -0.349999994 -0.4375 3.293520826e-39
0.1374999881 -0.3125 0.1875 4.1168117e-39
-0.162499994 -0.375 0.4499999881 2.65318348e-39
-0.0625 -0.4875000119 -0.1875 9.183409486e-41
0.01249998808 -0.4499999881 0.1999999881 9.151249686e-40
0.25 -0.287499994 0.2124999762 4.757149046e-39
0.1499999762 -0.3000000119 0.125 4.482718755e-39
-0.08750000596 -0.3625000119 -0.337500006 3.019090535e-39
-0.07499998808 -0.474999994 -0.4375 3.662643861e-40
0.2250000238 -0.337500006 -0.3125 3.567951117e-39
-0.08750000596 -0.400000006 0.3999999762 2.104322897e-39
-0.162499994 -0.4499999881 -0.375 9.151249686e-40
0.2124999762 -0.3625000119 -0.4375 3.019090535e-39
-0.162499994 -0.474999994 -0.2375000119 3.662643861e-40
-0.162499994 -0.474999994 -0.1875 3.662643861e-40
0.3125 -0.349999994 -0.412499994 3.293520826e-39
0.1125000119 -0.4250000119 -0.4375 1.555462315e-39
0.1374999881 -0.1999999881 -0.4250000119 6.769637849e-39
0.1999999881 -0.4499999881 -0.4375 9.151249686e-40
0.375 -0.375 0.07499998808 2.65318348e-39
0.2875000238 -0.3000000119 0.1125000119 4.482718755e-39
-0.0625 -0.3000000119 0.25 4.482718755e-39
0.1125000119 -0.2375000119 -0.4375 5.946346975e-39
-0.1125000119 -0.375 -0.3249999881 2.65318348e-39
0.2375000119 -0.4875000119 0.1125000119 9.183409486e-41
-0.03749999404 -0.224999994 0.1875 6.220777266e-39
0.1000000238 -0.412499994 0.3374999762 1.829892606e-39
0.3874999881 -0.337500006 -0.3249999881 3.567951117e-39
0.2624999881 -0.474999994 0.07499998808 3.662643861e-40
-0.125 -0.2624999881 -0.0625 5.306009629e-39
0.2124999762 -0.4875000119 -0.09999999404 9.183409486e-41
-0.150000006 -0.400000006 -0.1875 2.104322897e-39
0.2875000238 -0.4875000119 0.2375000119 9.183409486e-41
-0.0625 -0.400000006 0.3999999762 2.104322897e-39
-0.01249998808 -0.3874999881 0.125 2.378753189e-39
0.375 -0.287499994 -0.4375 4.757149046e-39
0.4624999762 -0.4875000119 -0.275000006 9.183409486e-41
-0.1125000119 -0.4250000119 0.3374999762 1.555462315e-39
-0.02500000596 -0.4875000119 -0.08750000596 9.183409486e-41
0.2124999762 -0.4875000119 0.2375000119 9.183409486e-41
0.2124999762 -0.4875000119 0.25 9.183409486e-41
-0.08750000596 -0.212500006 -0.05000001192 6.495207557e-39
-0.125 -0.3000000119 -0.2624999881 4.482718755e-39
0.1999999881 -0.337500006 -0.3625000119 3.567951117e-39
-0.03749999404 -0.4875000119 0.05000001192 9.183409486e-41
-0.162499994 -0.412499994 -0.3874999881 1.829892606e-39
-0.08750000596 -0.3249999881 -0.275000006 3.842381409e-39
0.1374999881 -0.4875000119 0.3500000238 9.183409486e-41
-0.02500000596 -0.4499999881 0.3249999881 9.151249686e-40
-0.162499994 -0.4499999881 -0.2375000119 9.151249686e-40
-0.1374999881 -0.4499999881 -0.275000006 9.151249686e-40
0.2624999881 -0.375 0.2124999762 2.65318348e-39
0.02499997616 -0.4875000119 -0.224999994 9.183409486e-41
0.2250000238 -0.349999994 -0.3249999881 3.293520826e-39
0.03750002384 -0.3000000119 -0.4375 4.482718755e-39
-0.08750000596 -0.3000000119 0.2749999762 4.482718755e-39
-0.162499994 -0.3125 0.2624999881 4.1168117e-39
0.1999999881 -0.3874999881 0.1999999881 2.378753189e-39
-0.0625 -0.3874999881 0.4875000119 2.378753189e-39
0.05000001192 -0.4875000119 0.01249998808 9.183409486e-41
-0.150000006 -0.224999994 -0.400000006 6.220777266e-39
0.3500000238 -0.4875000119 -0.1125000119 9.183409486e-41
-0.03749999404 -0.4875000119 -0.3125 9.183409486e-41
-0.07499998808 -0.3249999881 0.3249999881 3.842381409e-39
0.2375000119 -0.3249999881 -0.4375 3.842381409e-39
-0.05000001192 -0.4875000119 -0.01249998808 9.183409486e-41
-0.162499994 -0.25 -0.1125000119 5.58043992e-39
0.01249998808 -0.4875000119 -0.05000001192 9.183409486e-41
0.125 -0.4875000119 -0.1875 9.183409486e-41
0.1625000238 -0.462500006 -0.4375 6.406946774e-40
-0.162499994 -0.3125 0.3625000119 4.1168117e-39
0.4624999762 -0.212500006 -0.4375 6.495207557e-39
0.4375 -0.4875000119 -0.08750000596 9.183409486e-41
0.03750002384 -0.25 -0.4250000119 5.58043992e-39
-0.162499994 -0.25 -0.4375 5.58043992e-39
-0.125 -0.3625000119 -0.212500006 3.019090535e-39
0.1000000238 -0.337500006 0.125 3.567951117e-39
0.1625000238 -0.412499994 0.1875 1.829892606e-39
0.25 -0.337500006 -0.3000000119 3.567951117e-39
-0.1374999881 -0.375 -0.287499994 2.65318348e-39
-0.125 -0.400000006 -0.3249999881 2.104322897e-39
0.01249998808 -0.412499994 -0.4375 1.829892606e-39
-0.150000006 -0.375 -0.1999999881 2.65318348e-39
-0.03749999404 -0.349999994 -0.4375 3.293520826e-39
0.4125000238 -0.4875000119 -0.150000006 9.183409486e-41
0.4375 -0.4875000119 -0.2375000119 9.183409486e-41
0.3500000238 -0.349999994 -0.400000006 3.293520826e-39
0.125 -0.349999994 -0.3874999881 3.293520826e-39
-0.08750000596 -0.3000000119 0.3125 4.482718755e-39
-0.162499994 -0.412499994 0.08749997616 1.829892606e-39
0.1499999762 -0.4499999881 -0.4375 9.151249686e-40
0.3374999762 -0.224999994 -0.4375 6.220777266e-39
-0.03749999404 -0.3000000119 0.25 4.482718755e-39
0.01249998808 -0.4875000119 0.3374999762 9.183409486e-41
-0.162499994 -0.4875000119 0.2624999881 9.183409486e-41
0.1875 -0.4875000119 -0.349999994 9.183409486e-41
0.3374999762 -0.4875000119 -0.3000000119 9.183409486e-41
0.1625000238 -0.349999994 -0.3249999881 3.293520826e-39
0.02499997616 -0.4875000119 0.2250000238 9.183409486e-41
0.3625000119 -0.287499994 -0.4375 4.757149046e-39
0.125 -0.4875000119 -0.3625000119 9.183409486e-41
-0.1125000119 -0.4375 0.3249999881 1.18955526e-39
0.2624999881 -0.337500006 -0.400000006 3.567951117e-39
0.125 -0.1999999881 -0.375 6.769637849e-39
0.1499999762 -0.3000000119 0.2624999881 4.482718755e-39
0.1499999762 -0.4875000119 -0.349999994 9.183409486e-41
-0.162499994 -0.4250000119 0.1875 1.555462315e-39
-0.08750000596 -0.2624999881 -0.1875 5.306009629e-39
-0.1125000119 -0.400000006 0.4624999762 2.104322897e-39
-0.09999999404 -0.3000000119 0.3125 4.482718755e-39
-0.125 -0.4875000119 -0.03749999404 9.183409486e-41
0.1750000119 -0.4875000119 -0.1374999881 9.183409486e-41
-0.125 -0.287499994 -0.212500006 4.757149046e-39
-0.162499994 -0.3625000119 0.2875000238 3.019090535e-39
-0.03749999404 -0.3625000119 0.3249999881 3.019090535e-39
-0.09999999404 -0.474999994 -0.1875 3.662643861e-40
0.1000000238 -0.3000000119 0.25 4.482718755e-39
0.4624999762 -0.4875000119 -0.412499994 9.183409486e-41
0.03750002384 -0.3000000119 0.1875 4.482718755e-39
0.2875000238 -0.224999994 -0.4250000119 6.220777266e-39
0.1125000119 -0.3125 0.1999999881 4.1168117e-39
-0.08750000596 -0.3874999881 -0.1875 2.378753189e-39
-0.162499994 -0.4875000119 0.4125000238 9.183409486e-41
-0.162499994 -0.1999999881 -0.375 6.769637849e-39
0.1750000119 -0.4250000119 -0.4375 1.555462315e-39
0.3999999762 -0.4875000119 -0.05000001192 9.183409486e-41
-0.150000006 -0.212500006 -0.1125000119 6.495207557e-39
0.05000001192 -0.474999994 -0.4375 3.662643861e-40
-0.09999999404 -0.2624999881 0.1875 5.306009629e-39
-0.03749999404 -0.4875000119 -0.3000000119 9.183409486e-41
0.1374999881 -0.4499999881 0.1374999881 9.151249686e-40
0.01249998808 -0.2375000119 0.1999999881 5.946346975e-39
0.2624999881 -0.4875000119 -0.08750000596 9.183409486e-41
-0.150000006 -0.3000000119 0.3000000119 4.482718755e-39
0.0625 -0.4875000119 -0.25 9.183409486e-41
-0.162499994 -0.2375000119 0.1125000119 5.946346975e-39
0.3000000119 -0.474999994 0.1374999881 3.662643861e-40
-0.01249998808 -0.4875000119 0 9.183409486e-41
0.4875000119 -0.4875000119 -0.1750000119 9.183409486e-41
0 -0.474999994 0.2875000238 3.662643861e-40
0.2624999881 -0.349999994 -0.337500006 3.293520826e-39
-0.1374999881 -0.462500006 -0.4375 6.406946774e-40
-0.162499994 -0.25 -0.09999999404 5.58043992e-39
0.3249999881 -0.224999994 -0.4250000119 6.220777266e-39
0.2375000119 -0.4875000119 -0.2375000119 9.183409486e-41
0.1750000119 -0.4875000119 0.1125000119 9.183409486e-41
0.4499999881 -0.224999994 -0.4250000119 6.220777266e-39
-0.162499994 -0.3249999881 0.2624999881 3.842381409e-39
0.4499999881 -0.3249999881 -0.400000006 3.842381409e-39
-0.09999999404 -0.3000000119 -0.3625000119 4.482718755e-39
0.1625000238 -0.3249999881 0.3000000119 3.842381409e-39
-0.07499998808 -0.3125 0.1875 4.1168117e-39
-0.1125000119 -0.275000006 0.1999999881 5.031579337e-39
-0.1125000119 -0.3000000119 0.3125 4.482718755e-39
-0.162499994 -0.4875000119 -0.4375 9.183409486e-41
0.1000000238 -0.474999994 0.2749999762 3.662643861e-40
0.2749999762 -0.462500006 0.1999999881 6.406946774e-40
0.1625000238 -0.4875000119 0.3374999762 9.183409486e-41
-0.09999999404 -0.3125 0.4499999881 4.1168117e-39
0.2875000238 -0.4875000119 0.02499997616 9.183409486e-41
-0.150000006 -0.25 0.0625 5.58043992e-39
0.01249998808 -0.4875000119 -0.412499994 9.183409486e-41
-0.1374999881 -0.375 0.3249999881 2.65318348e-39
0.01249998808 -0.462500006 -0.4375 6.406946774e-40
-0.1125000119 -0.4875000119 -0.125 9.183409486e-41
-0.05000001192 -0.3000000119 0.2624999881 4.482718755e-39
0.1374999881 -0.212500006 -0.4375 6.495207557e-39
0.1499999762 -0.3125 0.1875 4.1168117e-39
0.2624999881 -0.337500006 0.0625 3.567951117e-39
0.125 -0.4499999881 0.1625000238 9.151249686e-40
-0.162499994 -0.3125 -0.4375 4.1168117e-39
-0.03749999404 -0.3874999881 0.2250000238 2.378753189e-39
0.2375000119 -0.212500006 -0.4375 6.495207557e-39
-0.162499994 -0.474999994 0.4125000238 3.662643861e-40
-0.162499994 -0.3125 0.125 4.1168117e-39
-0.09999999404 -0.337500006 0.4875000119 3.567951117e-39
-0.03749999404 -0.462500006 0 6.406946774e-40
0.1374999881 -0.4875000119 -0.02500000596 9.183409486e-41
0.03750002384 -0.4250000119 0.2250000238 1.555462315e-39
0.05000001192 -0.4875000119 0.1875 9.183409486e-41
0.3999999762 -0.4375 0.0625 1.18955526e-39
0.1875 -0.400000006 0.1125000119 2.104322897e-39
0.01249998808 -0.3000000119 0.2749999762 4.482718755e-39
0.1125000119 -0.462500006 -0.4375 6.406946774e-40
-0.150000006 -0.275000006 -0.1875 5.031579337e-39
0.08749997616 -0.4875000119 0.2624999881 9.183409486e-41
-0.02500000596 -0.349999994 -0.4375 3.293520826e-39
0.2250000238 -0.4875000119 -0.287499994 9.183409486e-41
-0.162499994 -0.4499999881 0.3000000119 9.151249686e-40
0.03750002384 -0.3125 -0.2375000119 4.1168117e-39
0.03750002384 -0.3000000119 -0.4250000119 4.482718755e-39
0.3249999881 -0.349999994 0.125 3.293520826e-39
0.4250000119 -0.4375 -0.1750000119 1.18955526e-39
0.05000001192 -0.4875000119 0.4250000119 9.183409486e-41
0.4499999881 -0.212500006 -0.4375 6.495207557e-39
-0.162499994 -0.4250000119 0.08749997616 1.555462315e-39
0.2624999881 -0.3874999881 -0.4375 2.378753189e-39
-0.162499994 -0.474999994 -0.1999999881 3.662643861e-40
0.4250000119 -0.337500006 -0.412499994 3.567951117e-39
0.375 -0.3125 -0.4375 4.1168117e-39
-0.162499994 -0.224999994 -0.09999999404 6.220777266e-39
0.1125000119 -0.375 0.1999999881 2.65318348e-39
-0.125 -0.287499994 0.1875 4.757149046e-39
0.1000000238 -0.3249999881 0.1875 3.842381409e-39
0.0625 -0.4875000119 -0.125 9.183409486e-41
0.05000001192 -0.337500006 -0.25 3.567951117e-39
0.1125000119 -0.3000000119 0.2375000119 4.482718755e-39
0.2375000119 -0.287499994 0.2124999762 4.757149046e-39
-0.0625 -0.474999994 0.2250000238 3.662643861e-40
-0.150000006 -0.4875000119 0.1625000238 9.183409486e-41
-0.03749999404 -0.4875000119 0.02499997616 9.183409486e-41
-0.09999999404 -0.400000006 0.3374999762 2.104322897e-39
0.1125000119 -0.462500006 0.3249999881 6.406946774e-40
0.1999999881 -0.4875000119 0.3249999881 9.183409486e-41
0.0625 -0.349999994 -0.3874999881 3.293520826e-39
0.3374999762 -0.4875000119 -0.25 9.183409486e-41
-0.08750000596 -0.474999994 0.3249999881 3.662643861e-40
0.3625000119 -0.3625000119 -0.4375 3.019090535e-39
0.125 -0.4250000119 0.2250000238 1.555462315e-39
-0.08750000596 -0.3625000119 -0.25 3.019090535e-39
0.07499998808 -0.400000006 -0.4375 2.104322897e-39
-0.08750000596 -0.4375 -0.412499994 1.18955526e-39
-0.1125000119 -0.4875000119 0.03750002384 9.183409486e-41
-0.162499994 -0.3249999881 -0.4250000119 3.842381409e-39
0 -0.4875000119 0.2749999762 9.183409486e-41
-0.02500000596 -0.224999994 -0.4375 6.220777266e-39
-0.125 -0.4375 0.3249999881 1.18955526e-39
-0.01249998808 -0.4875000119 0.01249998808 9.183409486e-41
-0.150000006 -0.3125 0.0625 4.1168117e-39
0.05000001192 -0.3874999881 0.1125000119 2.378753189e-39
-0.162499994 -0.3000000119 0.2375000119 4.482718755e-39
-0.1374999881 -0.4875000119 -0.08750000596 9.183409486e-41
-0.1125000119 -0.3000000119 -0.3625000119 4.482718755e-39
0.2250000238 -0.4875000119 0.2375000119 9.183409486e-41
0.07499998808 -0.3874999881 0.2250000238 2.378753189e-39
0.3249999881 -0.4875000119 -0.3625000119 9.183409486e-41
-0.125 -0.337500006 -0.0625 3.567951117e-39
-0.08750000596 -0.4499999881 0.1875 9.151249686e-40
-0.1374999881 -0.4375 -0.1999999881 1.18955526e-39
0.3125 -0.474999994 0.0625 3.662643861e-40
0.08749997616 -0.3000000119 0.1875 4.482718755e-39
-0.1125000119 -0.4499999881 -0.4250000119 9.151249686e-40
0.3625000119 -0.4875000119 -0.337500006 9.183409486e-41
0.3125 -0.3625000119 0.1625000238 3.019090535e-39
-0.162499994 -0.25 -0.224999994 5.58043992e-39
0.02499997616 -0.275000006 0.1875 5.031579337e-39
