# .PCD v0.7 - Point Cloud Data file format
VERSION 0.7
FIELDS x y z rgb
SIZE 4 4 4 4
TYPE F F F F
COUNT 1 1 1 1
WIDTH 829
HEIGHT 1
VIEWPOINT 0 0 0 1 0 0 0
POINTS 829
DATA ascii
0.1050768048 -0.4295440316 0.01737218723 3.015101038e-39
0.1499018371 -0.4559762776 0.02910076454 3.015101038e-39
0.2054268718 -0.4658636153 0.0662240386 3.015101038e-39
0.2646509111 -0.4803352356 0.1081874222 3.015101038e-39
0.3068660498 -0.4797229767 0.1334457099 3.015101038e-39
0.3462935984 -0.4793303907 0.1515536159 3.015101038e-39
0.3548706472 -0.447830677 0.1338197291 3.015101038e-39
0.3442734778 -0.3969254494 0.09449966252 3.015101038e-39
-0.1629897505 -0.4870510697 0.2152168751 5.962428276e-39
-0.2112841457 -0.4858390391 0.156311214 5.962428276e-39
-0.253557235 -0.4858601987 0.09621593356 5.962428276e-39
-0.2879471481 -0.4865705669 0.04186306149 5.962428276e-39
-0.3257656097 -0.4871357381 -0.0004683509469 5.962428276e-39
-0.3657552898 -0.4876025617 -0.03637720272 5.962428276e-39
-0.4060690403 -0.4881042242 -0.08555299044 5.962428276e-39
-0.4429654181 -0.4883268476 -0.1324881464 5.962428276e-39
-0.4752105474 -0.4883684516 -0.1756058037 5.962428276e-39
-0.4957810938 -0.4612674415 -0.2027232051 5.962428276e-39
-0.4889884889 -0.3913245797 -0.1890208125 5.962428276e-39
-0.487446636 -0.3282845914 -0.1781715006 5.962428276e-39
-0.4688751698 -0.2736316621 -0.1607704014 5.962428276e-39
-0.4081270993 -0.2680581808 -0.1336844563 5.962428276e-39
-0.3491130769 -0.2697644532 -0.1196567416 5.962428276e-39
-0.265876472 -0.2608367205 -0.10649468 5.962428276e-39
-0.1494442523 -0.2429317534 -0.1049617529 5.962428276e-39
-0.05909506604 -0.2349232137 -0.09394876659 5.962428276e-39
-0.03235762939 -0.2565876544 -0.05642153695 5.962428276e-39
-0.02272798121 -0.27453655 -0.03371812776 5.962428276e-39
-0.002868873999 -0.2909772098 -0.03205166385 5.962428276e-39
0.009401628748 -0.3169013858 -0.02246885747 5.962428276e-39
0.04896444082 -0.3326478302 -0.002524718642 5.962428276e-39
0.07741457969 -0.3720227182 -0.001078102738 5.962428276e-39
0.1074893028 -0.4171876609 0.000595472753 5.962428276e-39
0.1454821527 -0.4528390169 0.009902074933 5.962428276e-39
0.2017933875 -0.4610643983 0.04014684632 5.962428276e-39
0.2585088313 -0.4744487107 0.0792376399 5.962428276e-39
0.305580318 -0.4784250557 0.1115881652 5.962428276e-39
0.345372349 -0.478153795 0.1293842047 5.962428276e-39
0.3593362272 -0.4523850381 0.1174470037 5.962428276e-39
0.3484801352 -0.4008357823 0.07729677856 5.962428276e-39
-0.1553560793 -0.487082243 0.2132023573 5.962428276e-39
-0.1985455602 -0.4859469831 0.1561684608 5.962428276e-39
-0.2370042801 -0.4858659208 0.09794469178 5.962428276e-39
-0.2708923519 -0.4865100682 0.04327707738 5.962428276e-39
-0.3094361722 -0.4870770276 -9.220466018e-05 5.962428276e-39
-0.3501469791 -0.4873918593 -0.03592343256 5.962428276e-39
-0.3896684051 -0.4878066778 -0.07708510756 5.962428276e-39
-0.4276235104 -0.4880955815 -0.1254111677 5.962428276e-39
-0.4595044553 -0.4879992008 -0.1685284972 5.962428276e-39
-0.4880176485 -0.4790939093 -0.2054942995 5.962428276e-39
-0.4844137132 -0.4091097713 -0.1948601454 5.962428276e-39
-0.4798299074 -0.3485850096 -0.1796238124 5.962428276e-39
-0.4759809375 -0.2768561244 -0.1659090817 5.962428276e-39
-0.4428677261 -0.2567215264 -0.1446163356 5.962428276e-39
-0.3861445189 -0.2634207606 -0.1295438707 5.962428276e-39
-0.3280145526 -0.2514676452 -0.1134712994 5.962428276e-39
-0.2305257171 -0.2447655201 -0.1171092242 5.962428276e-39
-0.1075543612 -0.2254286557 -0.1092372388 5.962428276e-39
-0.04008252174 -0.2553606331 -0.09075397253 5.962428276e-39
-0.02216125652 -0.2692442536 -0.0526429899 5.962428276e-39
-0.005994228646 -0.2847750485 -0.04599462077 5.962428276e-39
0.01413793489 -0.3071165085 -0.03864716366 5.962428276e-39
0.04812902957 -0.3269515932 -0.02070953324 5.962428276e-39
0.08363339305 -0.3582176566 -0.01012417674 5.962428276e-39
0.1065308303 -0.407122463 -0.01706171408 5.962428276e-39
0.1383835971 -0.4498769343 -0.006078910083 5.962428276e-39
0.196414277 -0.4571270645 0.01624251157 5.962428276e-39
0.2526096404 -0.4686748385 0.05128836632 5.962428276e-39
0.3044137955 -0.4772046506 0.08833920956 5.962428276e-39
0.3450525403 -0.4768015444 0.1071875244 5.962428276e-39
0.3636616766 -0.4564599395 0.1005546898 5.962428276e-39
0.3524213731 -0.4047614038 0.0599302724 5.962428276e-39
-0.1478405744 -0.4870369136 0.2112368792 5.962428276e-39
-0.1854326576 -0.4861053228 0.1556310058 5.962428276e-39
-0.220921427 -0.4858952761 0.09854793549 5.962428276e-39
-0.2539369762 -0.4864140153 0.04339422286 5.962428276e-39
-0.2923702598 -0.487015754 -0.001529194415 5.962428276e-39
-0.3330575228 -0.4873631299 -0.03594833985 5.962428276e-39
-0.3727416694 -0.4874812961 -0.07178235054 5.962428276e-39
-0.4111203551 -0.4879793525 -0.1184056252 5.962428276e-39
-0.4434729517 -0.4878928065 -0.1614482403 5.962428276e-39
-0.4740130603 -0.48723948 -0.1998989433 5.962428276e-39
-0.4799329937 -0.4267174304 -0.2015645653 5.962428276e-39
-0.4734526873 -0.3650538921 -0.182728827 5.962428276e-39
-0.473726958 -0.2926246524 -0.1724772006 5.962428276e-39
-0.4586994648 -0.2490083575 -0.1538116336 5.962428276e-39
-0.4188161492 -0.2520552278 -0.1366869211 5.962428276e-39
-0.3679561913 -0.2468600273 -0.125845328 5.962428276e-39
-0.2938807607 -0.2366131246 -0.1181717217 5.962428276e-39
-0.1720660031 -0.2277013958 -0.11845918 5.962428276e-39
-0.07072636485 -0.2446034849 -0.1105965972 5.962428276e-39
-0.02296227217 -0.2612904012 -0.07685056329 5.962428276e-39
-0.009778685868 -0.2786737084 -0.06304940581 5.962428276e-39
0.01690239087 -0.2969621122 -0.05298064277 5.962428276e-39
0.04309181124 -0.3230498731 -0.03753073141 5.962428276e-39
0.08238653839 -0.3478274643 -0.02872071043 5.962428276e-39
0.1043095142 -0.3946746886 -0.03363033012 5.962428276e-39
0.1381982267 -0.4374422133 -0.0192553401 5.962428276e-39
0.1883759499 -0.4539151192 -0.006850797683 5.962428276e-39
0.2454327345 -0.4644129872 0.02704290301 5.962428276e-39
0.3023922145 -0.4768315852 0.06445727497 5.962428276e-39
0.3442188203 -0.4755750597 0.08703705668 5.962428276e-39
0.3682126999 -0.4607544541 0.08379369974 5.962428276e-39
0.3565814793 -0.4089499712 0.04206145182 5.962428276e-39
-0.1395357251 -0.4869933724 0.2083111405 5.962428276e-39
-0.1729935706 -0.4863009155 0.152714178 5.962428276e-39
-0.2048460543 -0.4859125614 0.09754730761 5.962428276e-39
-0.2373507917 -0.4864137471 0.04321638867 5.962428276e-39
-0.2750847042 -0.4870477319 -0.002515438944 5.962428276e-39
-0.3163603544 -0.4873553813 -0.03645114228 5.962428276e-39
-0.3552618027 -0.487457931 -0.07102833688 5.962428276e-39
-0.3939696848 -0.4876796603 -0.1120641828 5.962428276e-39
-0.4270320833 -0.4878133833 -0.1542548388 5.962428276e-39
-0.4583002329 -0.4869175553 -0.1927023977 5.962428276e-39
-0.4716940224 -0.4414011538 -0.1964324564 5.962428276e-39
-0.4683780372 -0.3796123862 -0.1840769798 5.962428276e-39
-0.468131274 -0.3109055758 -0.1754204333 5.962428276e-39
-0.459261775 -0.2558459342 -0.1591845304 5.962428276e-39
-0.4450155795 -0.2394450903 -0.1476360112 5.962428276e-39
-0.4019848704 -0.2359167337 -0.1378888637 5.962428276e-39
-0.339628458 -0.2288681269 -0.1256744713 5.962428276e-39
-0.2435209155 -0.2268774807 -0.1261584759 5.962428276e-39
-0.1160500646 -0.2222200632 -0.1213485748 5.962428276e-39
-0.03755016252 -0.2530073822 -0.10065943 5.962428276e-39
-0.008520398289 -0.2692448497 -0.07756134868 5.962428276e-39
0.02037269063 -0.2850666344 -0.06863161922 5.962428276e-39
0.04586892948 -0.3131402731 -0.05385554954 5.962428276e-39
0.08028097451 -0.336319834 -0.04272742197 5.962428276e-39
0.1067727655 -0.378609091 -0.04416699335 5.962428276e-39
0.1383658051 -0.4227029979 -0.03353108838 5.962428276e-39
0.1804197133 -0.4532262981 -0.02699625492 5.962428276e-39
0.2385409176 -0.4610536695 0.004095520824 5.962428276e-39
0.2982029021 -0.4743267596 0.04183868691 5.962428276e-39
0.3425504267 -0.4749177098 0.07019535452 5.962428276e-39
0.3729732633 -0.4667722583 0.07269189507 5.962428276e-39
0.360806793 -0.4143531322 0.02646765299 5.962428276e-39
-0.1300578415 -0.4869946539 0.2048363239 8.906165387e-39
-0.1620887667 -0.4865920842 0.1502808183 8.906165387e-39
-0.1910948753 -0.4861372709 0.09644520283 8.906165387e-39
-0.2217829078 -0.4865623415 0.0429074131 8.906165387e-39
-0.2581725419 -0.4871171713 -0.003389813006 8.906165387e-39
-0.2996023595 -0.4873536229 -0.03700025007 8.906165387e-39
-0.3374298215 -0.4874326587 -0.07043816149 8.906165387e-39
-0.3762484491 -0.4875132143 -0.1067564189 8.906165387e-39
-0.4109499753 -0.4876506329 -0.1486008614 8.906165387e-39
-0.4423065186 -0.4855410755 -0.1848393232 8.906165387e-39
-0.4614331424 -0.4550385475 -0.1909077764 8.906165387e-39
-0.4621369541 -0.39262712 -0.1823693365 8.906165387e-39
-0.4616163373 -0.3302037418 -0.1719917655 8.906165387e-39
-0.4589488208 -0.268935442 -0.1626490504 8.906165387e-39
-0.449775368 -0.238048166 -0.1549489945 8.906165387e-39
-0.4286752939 -0.2239533365 -0.1452530026 8.906165387e-39
-0.3739035428 -0.221694231 -0.1358916014 8.906165387e-39
-0.2968080044 -0.2234227359 -0.1286850721 8.906165387e-39
-0.1729635894 -0.2219986767 -0.1264589429 8.906165387e-39
-0.08348417282 -0.2500623167 -0.1200840026 8.906165387e-39
-0.006623094901 -0.2593513131 -0.09274111688 8.906165387e-39
0.01890531182 -0.276740104 -0.08209578693 8.906165387e-39
0.04652179033 -0.3013356924 -0.07052358985 8.906165387e-39
0.08020700514 -0.3273559511 -0.05685957894 8.906165387e-39
0.1122616976 -0.3615135849 -0.05025791004 8.906165387e-39
0.1368609071 -0.4086923897 -0.04886044934 8.906165387e-39
0.1722070724 -0.4503353238 -0.04285049811 8.906165387e-39
0.2301486582 -0.4579779506 -0.01897859946 8.906165387e-39
0.2903182805 -0.4706625044 0.0186868906 8.906165387e-39
0.3405557275 -0.4743905365 0.05286477134 8.906165387e-39
0.3775111735 -0.4736217856 0.06190126017 8.906165387e-39
0.3646164834 -0.4223381281 0.01610096544 8.906165387e-39
-0.1197850704 -0.4871490896 0.2026746571 8.906165387e-39
-0.1515268087 -0.4869637787 0.1481401771 8.906165387e-39
-0.179882735 -0.4864197969 0.09508526325 8.906165387e-39
-0.2064028531 -0.4867771864 0.04215709865 8.906165387e-39
-0.2417432666 -0.4872546494 -0.004404757172 8.906165387e-39
-0.2825831175 -0.4873683751 -0.03738528118 8.906165387e-39
-0.3200115263 -0.4874562621 -0.07030695677 8.906165387e-39
-0.3594287038 -0.4875226319 -0.1073694527 8.906165387e-39
-0.395312041 -0.4876082838 -0.1434559524 8.906165387e-39
-0.4270264506 -0.4844082296 -0.1781501472 8.906165387e-39
-0.4500479698 -0.4611215591 -0.1838491559 8.906165387e-39
-0.4528889954 -0.405619055 -0.1777827591 8.906165387e-39
-0.4539122581 -0.3483520746 -0.1690702736 8.906165387e-39
-0.4572200477 -0.2802480757 -0.1655615717 8.906165387e-39
-0.4502832592 -0.2413111329 -0.1548435837 8.906165387e-39
-0.4378326833 -0.2162754834 -0.1497044116 8.906165387e-39
-0.4012996256 -0.2129070461 -0.143689692 8.906165387e-39
-0.3288598061 -0.215921402 -0.1318228692 8.906165387e-39
-0.2409428358 -0.2199007422 -0.1276469827 8.906165387e-39
-0.1301880628 -0.2280476242 -0.1296531558 8.906165387e-39
-0.04251538962 -0.2507441938 -0.1110898852 8.906165387e-39
0.02083770372 -0.2665935755 -0.09731198847 8.906165387e-39
0.0521231778 -0.2884241343 -0.08340404928 8.906165387e-39
0.08158767223 -0.3164142966 -0.07046279311 8.906165387e-39
0.1184716672 -0.3437981606 -0.05506041273 8.906165387e-39
0.1374001056 -0.3936765194 -0.06011383608 8.906165387e-39
0.1680034995 -0.4393256903 -0.05549099669 8.906165387e-39
0.2229374051 -0.4550201595 -0.04155589268 8.906165387e-39
0.2829241157 -0.4669688344 -0.004432283342 8.906165387e-39
0.3372493684 -0.4744282365 0.03096551634 8.906165387e-39
0.3748888969 -0.4733681679 0.04350199923 8.906165387e-39
0.3696038723 -0.430016607 0.005410777405 8.906165387e-39
-0.1097056568 -0.4873787463 0.2007650286 8.906165387e-39
-0.1411717385 -0.4873723686 0.1461290717 8.906165387e-39
-0.1702501625 -0.4867323935 0.09351637959 8.906165387e-39
-0.1907609403 -0.4869910777 0.04134174436 8.906165387e-39
-0.226257056 -0.487449646 -0.005726456642 8.906165387e-39
-0.2652051151 -0.4873799086 -0.03814830258 8.906165387e-39
-0.3031837642 -0.4874805212 -0.07136484981 8.906165387e-39
-0.3436924219 -0.4875432253 -0.1088659763 8.906165387e-39
-0.3799851835 -0.4875383377 -0.1407426894 8.906165387e-39
-0.4114628732 -0.4831146598 -0.1714762896 8.906165387e-39
-0.4384745061 -0.4619129598 -0.1764600128 8.906165387e-39
-0.4422361255 -0.4192055166 -0.1743703038 8.906165387e-39
-0.4448197186 -0.3603747189 -0.165880546 8.906165387e-39
-0.4509970844 -0.2940084934 -0.1639305204 8.906165387e-39
-0.4504111409 -0.2502007484 -0.15748173 8.906165387e-39
-0.4396035373 -0.2198848575 -0.1505192369 8.906165387e-39
-0.4160061181 -0.2057406902 -0.1478654444 8.906165387e-39
-0.3618444204 -0.2091329992 -0.1391072422 8.906165387e-39
-0.2768587172 -0.2162196636 -0.129972741 8.906165387e-39
-0.1764560938 -0.2145199776 -0.1294741482 8.906165387e-39
-0.08785200119 -0.2466791272 -0.1260503381 8.906165387e-39
0.008993704803 -0.2559400201 -0.1102635562 8.906165387e-39
0.05773759633 -0.2734158039 -0.09902539849 8.906165387e-39
0.08562646806 -0.3017034829 -0.08383883536 8.906165387e-39
0.1160722971 -0.3328030109 -0.06441707909 8.906165387e-39
0.146512717 -0.3754609227 -0.06467431784 8.906165387e-39
0.1697455794 -0.4249753654 -0.06553927064 8.906165387e-39
0.2168285102 -0.4527276754 -0.06398811936 8.906165387e-39
0.2753640711 -0.4632696807 -0.02849951386 8.906165387e-39
0.3310158849 -0.4749104381 0.007260646671 8.906165387e-39
0.3720448315 -0.4725578725 0.02448613755 8.906165387e-39
0.3754140139 -0.4374683499 -0.005194403231 8.906165387e-39
-0.0983736217 -0.4874782264 0.1990554333 8.906165387e-39
-0.1322925091 -0.487657994 0.1437647641 8.906165387e-39
-0.1605162174 -0.4871434271 0.09129143506 8.906165387e-39
-0.1784237027 -0.4871936142 0.04024366289 8.906165387e-39
-0.2101780623 -0.4875689447 -0.006596479565 8.906165387e-39
-0.2484425008 -0.4874501824 -0.03949253634 8.906165387e-39
-0.2876628637 -0.4874780774 -0.07358445227 8.906165387e-39
-0.3281655908 -0.4875278771 -0.1102200598 8.906165387e-39
-0.3647883534 -0.4875088036 -0.1409583688 8.906165387e-39
-0.3954563737 -0.4817849398 -0.1654108316 8.906165387e-39
-0.42314592 -0.4607211649 -0.169781521 8.906165387e-39
-0.4314752817 -0.430208087 -0.1716140658 8.906165387e-39
-0.4333264232 -0.3709002733 -0.1619655341 8.906165387e-39
-0.441041857 -0.309841007 -0.1600539386 8.906165387e-39
-0.44826895 -0.2615181506 -0.1613028347 8.906165387e-39
-0.4400111437 -0.2260414213 -0.1524641514 8.906165387e-39
-0.4215668142 -0.2042354643 -0.1491359025 8.906165387e-39
-0.3892504275 -0.2013359964 -0.1455603242 8.906165387e-39
-0.3109052181 -0.2076706588 -0.1336938292 8.906165387e-39
-0.222661823 -0.2119054049 -0.1290874779 8.906165387e-39
-0.1302356571 -0.2289657146 -0.1345542669 8.906165387e-39
-0.02578290552 -0.2440467477 -0.1223407537 8.906165387e-39
0.05401290581 -0.2626388073 -0.1139711738 8.906165387e-39
0.09151606262 -0.2872833312 -0.09571301937 8.906165387e-39
0.1149633974 -0.3226101696 -0.07988774776 8.906165387e-39
0.1538200378 -0.3585707247 -0.06941482425 8.906165387e-39
0.1715775281 -0.409293592 -0.07519720495 8.906165387e-39
0.2088564485 -0.4503999054 -0.078438133 8.906165387e-39
0.2647930086 -0.4599909186 -0.05262450501 8.906165387e-39
0.3232045472 -0.473140955 -0.01757697389 8.906165387e-39
0.3695018888 -0.4718322754 0.00534620136 8.906165387e-39
0.3815097809 -0.4446680546 -0.01496720314 8.906165387e-39
-0.0872387141 -0.4875180721 0.1969591528 1.184631237e-38
-0.1228410304 -0.4879634678 0.1412254423 1.184631237e-38
-0.15041776 -0.4875806272 0.08901540935 1.184631237e-38
-0.167261526 -0.4874659479 0.03892580047 1.184631237e-38
-0.1935547739 -0.4876616001 -0.008005578071 1.184631237e-38
-0.233101815 -0.4875581563 -0.04152389243 1.184631237e-38
-0.2721137702 -0.4874562919 -0.07556557655 1.184631237e-38
-0.312212199 -0.4875296652 -0.1110412627 1.184631237e-38
-0.3492962718 -0.4875025153 -0.1413737684 1.184631237e-38
-0.38021034 -0.4804434478 -0.1631738544 1.184631237e-38
-0.4071926475 -0.4597507715 -0.1651654243 1.184631237e-38
-0.4190713763 -0.4325661361 -0.1654099226 1.184631237e-38
-0.4219790995 -0.3813207448 -0.1585705429 1.184631237e-38
-0.4280133545 -0.3263105154 -0.1554014236 1.184631237e-38
-0.4400373101 -0.276693821 -0.1598890573 1.184631237e-38
-0.4395233095 -0.2367068827 -0.1550308168 1.184631237e-38
-0.4219384491 -0.2087031901 -0.1494790465 1.184631237e-38
-0.4004153609 -0.1966507286 -0.1457504481 1.184631237e-38
-0.3471676409 -0.1998339295 -0.1386377066 1.184631237e-38
-0.254738301 -0.208421886 -0.1327444464 1.184631237e-38
-0.1612511426 -0.204516381 -0.1327589005 1.184631237e-38
-0.07647906244 -0.2411904335 -0.1368630975 1.184631237e-38
0.01734981686 -0.250395149 -0.1274042726 1.184631237e-38
0.09847742319 -0.271138519 -0.1095659733 1.184631237e-38
0.1188699752 -0.3059897125 -0.09355078638 1.184631237e-38
0.15863581 -0.342377007 -0.07248403132 1.184631237e-38
0.1745788157 -0.3937397897 -0.08562853932 1.184631237e-38
0.2016312033 -0.4403827786 -0.08738160133 1.184631237e-38
0.2547770441 -0.4573413432 -0.07729870081 1.184631237e-38
0.313616991 -0.4695473015 -0.04266085103 1.184631237e-38
0.3653373122 -0.4718340635 -0.01630285755 1.184631237e-38
0.3876447678 -0.4522779584 -0.02327915654 1.184631237e-38
-0.07369685173 -0.4874735177 0.1944271624 1.184631237e-38
-0.1132179797 -0.4882006943 0.1389137954 1.184631237e-38
-0.1395545304 -0.4879958332 0.08670720458 1.184631237e-38
-0.1574898958 -0.4877783656 0.0368013531 1.184631237e-38
-0.1813313812 -0.4877423048 -0.00978179276 1.184631237e-38
-0.2179299444 -0.4876295924 -0.04342819378 1.184631237e-38
-0.2566155195 -0.4874800742 -0.07745711505 1.184631237e-38
-0.2956881225 -0.4874908328 -0.1109596491 1.184631237e-38
-0.3339093029 -0.4873969257 -0.1415526122 1.184631237e-38
-0.3648027778 -0.479480505 -0.1611599773 1.184631237e-38
-0.3914453685 -0.4588842392 -0.1629157513 1.184631237e-38
-0.4058079123 -0.4340570569 -0.1613524705 1.184631237e-38
-0.4109482765 -0.3914866447 -0.1564762443 1.184631237e-38
-0.4148764014 -0.3429569602 -0.1525590718 1.184631237e-38
-0.428171128 -0.2907478809 -0.1571817547 1.184631237e-38
-0.4359978139 -0.2486931086 -0.1603750437 1.184631237e-38
-0.4214943349 -0.2146774828 -0.1506182104 1.184631237e-38
-0.4026071727 -0.1968874037 -0.1468968689 1.184631237e-38
-0.3733823597 -0.1916047335 -0.1445755213 1.184631237e-38
-0.2897951901 -0.1976313591 -0.1389276534 1.184631237e-38
-0.1954658478 -0.2032750398 -0.1355734169 1.184631237e-38
-0.1177846491 -0.2346230447 -0.1475238502 1.184631237e-38
-0.008419135585 -0.2386015654 -0.1372628063 1.184631237e-38
0.08216804266 -0.2553232014 -0.1220646203 1.184631237e-38
0.1244523227 -0.290594548 -0.1030731648 1.184631237e-38
0.15516904 -0.3310174346 -0.08079385757 1.184631237e-38
0.181760028 -0.3760469258 -0.08805394173 1.184631237e-38
0.1970188767 -0.4275330603 -0.09496243298 1.184631237e-38
0.2460483611 -0.4549357891 -0.09837384522 1.184631237e-38
0.3058594465 -0.4665175676 -0.0652153939 1.184631237e-38
0.3594439328 -0.4723705053 -0.03778272495 1.184631237e-38
0.3946400285 -0.4607308507 -0.02957426757 1.184631237e-38
-0.05951740965 -0.4873894453 0.1914580166 1.184631237e-38
-0.1023301333 -0.4884034395 0.1366706342 1.184631237e-38
-0.1278821528 -0.4884262383 0.08463327587 1.184631237e-38
-0.1484072357 -0.4880464375 0.03357701749 1.184631237e-38
-0.1699928194 -0.4878203571 -0.01145701855 1.184631237e-38
-0.2024192065 -0.4876548648 -0.04539043084 1.184631237e-38
-0.2421469986 -0.4875134826 -0.07937538624 1.184631237e-38
-0.2795523703 -0.4874352813 -0.1117954105 1.184631237e-38
-0.3184316158 -0.4871982932 -0.1410467178 1.184631237e-38
-0.3491852582 -0.4782772362 -0.1593342125 1.184631237e-38
-0.375744164 -0.4583073556 -0.1608284563 1.184631237e-38
-0.3929260969 -0.4356678426 -0.1592666358 1.184631237e-38
-0.3986753225 -0.4011389613 -0.1570924222 1.184631237e-38
-0.4044728279 -0.3540830016 -0.1532779038 1.184631237e-38
-0.4144068956 -0.3036187291 -0.1554386765 1.184631237e-38
-0.4262648523 -0.263263762 -0.1590257585 1.184631237e-38
-0.4218466878 -0.2272977829 -0.1547159106 1.184631237e-38
-0.403470099 -0.2013417631 -0.1499424279 1.184631237e-38
-0.3834736049 -0.1883944273 -0.1473843604 1.184631237e-38
-0.3285471797 -0.1873647571 -0.143609941 1.184631237e-38
-0.2280761302 -0.2013218403 -0.1399770379 1.184631237e-38
-0.1393358707 -0.2106595784 -0.1451141983 1.184631237e-38
-0.04807497934 -0.2322606146 -0.1454737782 1.184631237e-38
0.04870009422 -0.2392634153 -0.1338672489 1.184631237e-38
0.1228046864 -0.2750549018 -0.1108220816 1.184631237e-38
0.1534814686 -0.3194938898 -0.0910242945 1.184631237e-38
0.1914025694 -0.3558714688 -0.08300836384 1.184631237e-38
0.199761048 -0.4095100462 -0.1033112556 1.184631237e-38
0.239573434 -0.4454362392 -0.1083945036 1.184631237e-38
0.2983523607 -0.4634937644 -0.08682891726 1.184631237e-38
0.3533525765 -0.4736361504 -0.05920587108 1.184631237e-38
0.3994367123 -0.4684683681 -0.03864711896 1.184631237e-38
-0.04655675218 -0.4872945845 0.1882887483 1.184631237e-38
-0.08786728978 -0.4883950353 0.1335325539 1.184631237e-38
-0.1160039306 -0.4887827337 0.08235609531 1.184631237e-38
-0.1381510198 -0.4883244932 0.03036496788 1.184631237e-38
-0.1582756788 -0.4878437817 -0.01287288219 1.184631237e-38
-0.190375641 -0.4876360595 -0.0476016216 1.184631237e-38
-0.22757487 -0.4875276387 -0.08137786388 1.184631237e-38
-0.2634170353 -0.4873544574 -0.113161236 1.184631237e-38
-0.3022896945 -0.4870023429 -0.1402068138 1.184631237e-38
-0.3335892856 -0.4770711958 -0.1573749036 1.184631237e-38
-0.3602319658 -0.4578244686 -0.1587716788 1.184631237e-38
-0.3801499307 -0.437695235 -0.1575820595 1.184631237e-38
-0.3856415451 -0.4051594436 -0.1559077054 1.184631237e-38
-0.3926341236 -0.3644641638 -0.1539181173 1.184631237e-38
-0.40074417 -0.3162165582 -0.1539431512 1.184631237e-38
-0.4126508236 -0.2776898742 -0.1568156779 1.184631237e-38
-0.4173330963 -0.2400323451 -0.157895714 1.184631237e-38
-0.402715534 -0.2072173953 -0.1516022533 1.184631237e-38
-0.3819329143 -0.190577209 -0.147834599 1.184631237e-38
-0.3544979692 -0.1782417744 -0.1487078667 1.184631237e-38
-0.2658194602 -0.1881555021 -0.1471137106 1.184631237e-38
-0.1679327786 -0.1981268525 -0.1443617046 1.184631237e-38
-0.07654243708 -0.2288168967 -0.1552242637 1.184631237e-38
0.01629200391 -0.2279103845 -0.1426654756 1.184631237e-38
0.100363344 -0.2602806389 -0.1210567802 1.184631237e-38
0.154169336 -0.30413872 -0.1008720249 1.184631237e-38
0.1965708584 -0.3372449577 -0.08378440142 1.184631237e-38
0.2046802491 -0.3916104436 -0.1079453379 1.184631237e-38
0.2339548469 -0.434207201 -0.1157144308 1.184631237e-38
0.2913306057 -0.4608039558 -0.1070886403 1.184631237e-38
0.3469479978 -0.4730531275 -0.08010877669 1.184631237e-38
0.3955094516 -0.4691396654 -0.0579146035 1.184631237e-38
-0.03365315497 -0.4871998727 0.184380427 1.478322936e-38
-0.07413671911 -0.488309145 0.1292910576 1.478322936e-38
-0.1042842567 -0.4888877571 0.07820034027 1.478322936e-38
-0.1275578439 -0.4885921478 0.02753334865 1.478322936e-38
-0.1473892033 -0.4879161716 -0.01419433579 1.478322936e-38
-0.1784366667 -0.4876025319 -0.04923712835 1.478322936e-38
-0.212701425 -0.487493813 -0.08356773853 1.478322936e-38
-0.2490957975 -0.4873629212 -0.1145681739 1.478322936e-38
-0.2855722904 -0.486774534 -0.1393712461 1.478322936e-38
-0.3182055652 -0.4759736061 -0.1555287242 1.478322936e-38
-0.3448669314 -0.4573608339 -0.1571745425 1.478322936e-38
-0.3675341308 -0.439639926 -0.1561394781 1.478322936e-38
-0.3731142282 -0.4080268145 -0.1550499201 1.478322936e-38
-0.3798556626 -0.3714359999 -0.1531972736 1.478322936e-38
-0.3868103027 -0.3279490471 -0.1527941227 1.478322936e-38
-0.3994527459 -0.2915566564 -0.1550066173 1.478322936e-38
-0.4083580077 -0.2534222007 -0.1574715823 1.478322936e-38
-0.4006084204 -0.2181361914 -0.1524310261 1.478322936e-38
-0.383823812 -0.1946243048 -0.1522946954 1.478322936e-38
-0.3658739924 -0.1757681519 -0.1522384435 1.478322936e-38
-0.3037962914 -0.1770336479 -0.1515491456 1.478322936e-38
-0.1968435049 -0.1924427003 -0.1491028666 1.478322936e-38
-0.1023067385 -0.216801554 -0.1577385068 1.478322936e-38
-0.008109487593 -0.2223362923 -0.150349319 1.478322936e-38
0.06884492934 -0.2440659702 -0.132480666 1.478322936e-38
0.1495226771 -0.2883386314 -0.1058124304 1.478322936e-38
0.1948560178 -0.3263344467 -0.08907432854 1.478322936e-38
0.2176527679 -0.3706095517 -0.1024505049 1.478322936e-38
0.2308390588 -0.4215354621 -0.1189078391 1.478322936e-38
0.2839984894 -0.4567019045 -0.1243590415 1.478322936e-38
0.3396141529 -0.4707281888 -0.1000141501 1.478322936e-38
0.3908466697 -0.4698916972 -0.07607889175 1.478322936e-38
-0.02103955299 -0.4870641828 0.1805488914 1.478322936e-38
-0.06280824542 -0.4881454706 0.124591738 1.478322936e-38
-0.09397335351 -0.4889129996 0.07334297895 1.478322936e-38
-0.1149377972 -0.4888462424 0.02480911463 1.478322936e-38
-0.1382775903 -0.4880760908 -0.01614066213 1.478322936e-38
-0.1664782465 -0.4875798821 -0.05066219345 1.478322936e-38
-0.1985181421 -0.4874447584 -0.08474709094 1.478322936e-38
-0.2341890037 -0.4872912467 -0.1157999039 1.478322936e-38
-0.2696157992 -0.4864490032 -0.1398494095 1.478322936e-38
-0.3026772738 -0.4749971628 -0.1543937922 1.478322936e-38
-0.3294886053 -0.457144469 -0.1558711827 1.478322936e-38
-0.3524615169 -0.4397715628 -0.1548543572 1.478322936e-38
-0.3603946269 -0.4104403257 -0.1537133157 1.478322936e-38
-0.3665981293 -0.3760728836 -0.151669234 1.478322936e-38
-0.3723849058 -0.3421492577 -0.1516145617 1.478322936e-38
-0.3852320313 -0.3051264584 -0.1533100456 1.478322936e-38
-0.395619005 -0.2679588795 -0.1550425142 1.478322936e-38
-0.396338433 -0.2312554568 -0.1560674459 1.478322936e-38
-0.3827114403 -0.1987994015 -0.1549221426 1.478322936e-38
-0.3639726639 -0.1823103428 -0.1543716639 1.478322936e-38
-0.3213146329 -0.1698376834 -0.1562803388 1.478322936e-38
-0.2297969609 -0.1811639667 -0.1525428742 1.478322936e-38
-0.1251112372 -0.1940718293 -0.1532237232 1.478322936e-38
-0.03828924894 -0.2171443701 -0.1599991471 1.478322936e-38
0.05193263292 -0.2288418561 -0.1430943608 1.478322936e-38
0.128850013 -0.2726234496 -0.1155325621 1.478322936e-38
0.1976289451 -0.3140936494 -0.0947085917 1.478322936e-38
0.2323492616 -0.3484562337 -0.09529900551 1.478322936e-38
0.2362135053 -0.4042231441 -0.1217657626 1.478322936e-38
0.2765985131 -0.4427038729 -0.1295797825 1.478322936e-38
0.3312383294 -0.4679193795 -0.1187451929 1.478322936e-38
0.3836376369 -0.4707632959 -0.09307524562 1.478322936e-38
-0.01111187413 -0.4869792163 0.1759556085 1.478322936e-38
-0.05154890195 -0.4879544079 0.1198445559 1.478322936e-38
-0.08137620986 -0.4887408018 0.06846745312 1.478322936e-38
-0.1023882478 -0.4889503121 0.02089873701 1.478322936e-38
-0.1272636652 -0.4883011281 -0.01866521314 1.478322936e-38
-0.1545234919 -0.4875929654 -0.05229103193 1.478322936e-38
-0.1861412972 -0.4873898029 -0.08584730327 1.478322936e-38
-0.2191450596 -0.4872034192 -0.1174182743 1.478322936e-38
-0.2544306517 -0.4862844348 -0.1408443004 1.478322936e-38
-0.2869721055 -0.4746091962 -0.1542517096 1.478322936e-38
-0.3140361607 -0.4569524229 -0.1555798799 1.478322936e-38
-0.3370111883 -0.4397642016 -0.1538655609 1.478322936e-38
-0.3474192321 -0.4128152132 -0.1526843905 1.478322936e-38
-0.352932781 -0.3815686107 -0.1510808021 1.478322936e-38
-0.3590328991 -0.3483011127 -0.150467217 1.478322936e-38
-0.3704409897 -0.3180807233 -0.1519205868 1.478322936e-38
-0.3810945749 -0.2818046808 -0.1533210874 1.478322936e-38
-0.3843895495 -0.2464243174 -0.1543607563 1.478322936e-38
-0.380074501 -0.2101056576 -0.1573201865 1.478322936e-38
-0.3641010225 -0.1890214682 -0.1581696719 1.478322936e-38
-0.3327042758 -0.1683363914 -0.1595851481 1.478322936e-38
-0.2664800882 -0.1704120934 -0.1569226086 1.478322936e-38
-0.1550670415 -0.1848275065 -0.1568273902 1.478322936e-38
-0.0675727427 -0.211147964 -0.163312465 1.478322936e-38
0.03470246121 -0.2176479846 -0.1534451097 1.478322936e-38
0.1024372876 -0.257378757 -0.1243882626 1.478322936e-38
0.1885304004 -0.3025238812 -0.1019740105 1.478322936e-38
0.2386051416 -0.3332065344 -0.09494705498 1.478322936e-38
0.239379257 -0.3874123096 -0.125187099 1.478322936e-38
0.2673345506 -0.4318022132 -0.1335266083 1.478322936e-38
0.321252197 -0.4648201466 -0.1341536641 1.478322936e-38
0.3752312064 -0.4715463221 -0.1101838648 1.478322936e-38
-0.001705436036 -0.4868849516 0.1713213474 1.478322936e-38
-0.04033512995 -0.4877783954 0.1149377227 1.478322936e-38
-0.06954665482 -0.4885571301 0.0635541454 1.478322936e-38
-0.08968274295 -0.4890498519 0.01656887867 1.478322936e-38
-0.1152103543 -0.4884933829 -0.02281690389 1.478322936e-38
-0.1440829933 -0.4877047837 -0.05527918413 1.478322936e-38
-0.1737179905 -0.4874095619 -0.08826947212 1.478322936e-38
-0.2041196376 -0.4871466756 -0.1194270551 1.478322936e-38
-0.2382307649 -0.486236155 -0.1423489153 1.478322936e-38
-0.2702304125 -0.4743735194 -0.1546022147 1.478322936e-38
-0.2979479432 -0.4569254518 -0.155982092 1.478322936e-38
-0.3214529157 -0.4398918748 -0.1546529531 1.478322936e-38
-0.3344287276 -0.4153083265 -0.1527056098 1.478322936e-38
-0.3397959471 -0.3858503699 -0.1511669755 1.478322936e-38
-0.3460420072 -0.3552379608 -0.1493884325 1.478322936e-38
-0.3548175395 -0.3276663423 -0.1503102481 1.478322936e-38
-0.3656874001 -0.2957489789 -0.1520725787 1.478322936e-38
-0.3709239364 -0.2607493997 -0.1524723023 1.478322936e-38
-0.3705349863 -0.2246773541 -0.1555051357 1.478322936e-38
-0.3608973324 -0.196717605 -0.1580781341 1.478322936e-38
-0.332619369 -0.1756825447 -0.1601108313 1.478322936e-38
-0.2854577303 -0.1585697532 -0.1618930101 1.478322936e-38
-0.1900257617 -0.1732988656 -0.1588819474 1.478322936e-38
-0.09683376551 -0.1963607967 -0.1629402637 1.478322936e-38
0.01173114218 -0.2088586986 -0.1620425582 1.478322936e-38
0.0929069519 -0.2407736182 -0.1333204359 1.478322936e-38
0.167687133 -0.2861789763 -0.1098197103 1.478322936e-38
0.242511034 -0.3226567209 -0.09895068407 1.478322936e-38
0.2507812381 -0.3667708337 -0.1177963167 1.478322936e-38
0.259683609 -0.4200880527 -0.1375304163 1.478322936e-38
0.3119183779 -0.459915936 -0.1452669501 1.478322936e-38
0.3675697744 -0.4719683528 -0.1248704791 1.478322936e-38
0.007949366234 -0.4868140221 0.1657138616 1.771655483e-38
-0.02883272246 -0.4876635671 0.1088435799 1.771655483e-38
-0.05833315477 -0.4884482026 0.05674027652 1.771655483e-38
-0.07655218244 -0.4889334142 0.009810142219 1.771655483e-38
-0.102978617 -0.4886076748 -0.02825510129 1.771655483e-38
-0.1320940405 -0.4878286123 -0.05901320651 1.771655483e-38
-0.1616890281 -0.4874888659 -0.09154359996 1.771655483e-38
-0.1914690137 -0.4871237576 -0.120843187 1.771655483e-38
-0.2213890702 -0.4862304032 -0.1436521113 1.771655483e-38
-0.2545927167 -0.4740071893 -0.1551074088 1.771655483e-38
-0.2816199958 -0.4569768906 -0.1562929899 1.771655483e-38
-0.3049906194 -0.4400315583 -0.1553541273 1.771655483e-38
-0.3217479289 -0.4176012576 -0.1532163769 1.771655483e-38
-0.3271104395 -0.3892095685 -0.1514496803 1.771655483e-38
-0.3327578604 -0.3622533381 -0.149591282 1.771655483e-38
-0.3404904306 -0.3337280154 -0.1493486911 1.771655483e-38
-0.3506994545 -0.3089677393 -0.1519585252 1.771655483e-38
-0.3566038907 -0.2751258016 -0.1521549821 1.771655483e-38
-0.3577102125 -0.2404329777 -0.1533436179 1.771655483e-38
-0.352736026 -0.2108358592 -0.156995669 1.771655483e-38
-0.3292037547 -0.183573395 -0.1603109241 1.771655483e-38
-0.2953377664 -0.1560171247 -0.1658870578 1.771655483e-38
-0.2310270369 -0.1600321233 -0.165073663 1.771655483e-38
-0.1331880242 -0.1716347039 -0.1652969122 1.771655483e-38
-0.01557648182 -0.1992280632 -0.1641825736 1.771655483e-38
0.07930972427 -0.2285864949 -0.1436417699 1.771655483e-38
0.1489761472 -0.27008757 -0.1203265786 1.771655483e-38
0.2367097288 -0.3121454716 -0.1008698493 1.771655483e-38
0.2627910376 -0.3467234075 -0.1100148112 1.771655483e-38
0.2622003555 -0.403303504 -0.1404640675 1.771655483e-38
0.3034689128 -0.4487799406 -0.1493819803 1.771655483e-38
0.3609678745 -0.4693612456 -0.1373243779 1.771655483e-38
0.01754430868 -0.4867586792 0.1596963257 1.771655483e-38
-0.01742649823 -0.4875401556 0.1015289724 1.771655483e-38
-0.04715673253 -0.4883078635 0.04890642315 1.771655483e-38
-0.06534521282 -0.4887550771 0.002636428922 1.771655483e-38
-0.08974507451 -0.4885587692 -0.03336842731 1.771655483e-38
-0.1197431087 -0.4879526198 -0.06339237094 1.771655483e-38
-0.1483448297 -0.4875458777 -0.09516556561 1.771655483e-38
-0.1788556576 -0.4871531427 -0.1224652231 1.771655483e-38
-0.2052896917 -0.4862405658 -0.1449022293 1.771655483e-38
-0.2392621338 -0.4738578796 -0.1554228067 1.771655483e-38
-0.2650682032 -0.4570221901 -0.1565639526 1.771655483e-38
-0.2885715365 -0.4401298463 -0.1560652107 1.771655483e-38
-0.3090600371 -0.4206154943 -0.1541188657 1.771655483e-38
-0.3147179782 -0.3919805288 -0.1523262113 1.771655483e-38
-0.3202055991 -0.3675400913 -0.1502390951 1.771655483e-38
-0.3274297714 -0.3402432203 -0.1498063803 1.771655483e-38
-0.3354921937 -0.3174225986 -0.1509235203 1.771655483e-38
-0.3427017927 -0.2892574668 -0.1522392035 1.771655483e-38
-0.3438144922 -0.2559199631 -0.1529625803 1.771655483e-38
-0.3428849876 -0.2239434421 -0.1549011618 1.771655483e-38
-0.3202646375 -0.1927398145 -0.1572886556 1.771655483e-38
-0.2952827513 -0.161116004 -0.1648838669 1.771655483e-38
-0.2549545765 -0.1481656283 -0.1694052666 1.771655483e-38
-0.1654077768 -0.1648544818 -0.1684628129 1.771655483e-38
-0.04586645588 -0.1883270144 -0.1669674218 1.771655483e-38
0.06682214141 -0.2137572169 -0.1563285291 1.771655483e-38
0.1365228146 -0.2523902059 -0.1300587058 1.771655483e-38
0.2191574872 -0.3006429672 -0.1058343947 1.771655483e-38
0.2706617415 -0.3327507675 -0.1094738096 1.771655483e-38
0.2674111724 -0.3860785961 -0.1405028403 1.771655483e-38
0.2977181673 -0.4339458644 -0.1507932693 1.771655483e-38
0.353476584 -0.4654470086 -0.1507799029 1.771655483e-38
0.02687141299 -0.4866660237 0.1526139677 1.771655483e-38
-0.006331047043 -0.4873988926 0.09400504827 1.771655483e-38
-0.03590358794 -0.4881155193 0.04221104085 1.771655483e-38
-0.05422203615 -0.4885537326 -0.003715220839 1.771655483e-38
-0.07606720924 -0.4884268939 -0.03823420033 1.771655483e-38
-0.1067197025 -0.4880733788 -0.06831669807 1.771655483e-38
-0.1354179978 -0.4877007306 -0.09827533364 1.771655483e-38
-0.1650780886 -0.4871485233 -0.1242926717 1.771655483e-38
-0.1924341619 -0.4862613976 -0.1461901665 1.771655483e-38
-0.2223035693 -0.4741055667 -0.1557184756 1.771655483e-38
-0.2486699224 -0.4571613669 -0.1569748819 1.771655483e-38
-0.2719632089 -0.440787673 -0.1573481858 1.771655483e-38
-0.2965811789 -0.4239003658 -0.155257374 1.771655483e-38
-0.3023173511 -0.394939959 -0.1534913182 1.771655483e-38
-0.3082313836 -0.3722990751 -0.1511467546 1.771655483e-38
-0.3145056367 -0.346958369 -0.150216192 1.771655483e-38
-0.3207431436 -0.3237302899 -0.1501313746 1.771655483e-38
-0.3291306198 -0.3024767935 -0.1526522636 1.771655483e-38
-0.3292869031 -0.2704834938 -0.1529572308 1.771655483e-38
-0.3287386596 -0.2338814586 -0.1540769339 1.771655483e-38
-0.3120096326 -0.2063049972 -0.1548323333 1.771655483e-38
-0.2900877297 -0.1715855747 -0.1599298865 1.771655483e-38
-0.2646846473 -0.1461437941 -0.1688773334 1.771655483e-38
-0.1967790425 -0.1556429714 -0.1695404053 1.771655483e-38
-0.079516083 -0.1744370162 -0.1717942357 1.771655483e-38
0.04711686075 -0.1979682893 -0.1627763212 1.771655483e-38
0.1290829629 -0.2363671958 -0.1392870396 1.771655483e-38
0.189525798 -0.2858026922 -0.1159386784 1.771655483e-38
0.2731325626 -0.3218028545 -0.1150439382 1.771655483e-38
0.2766464651 -0.3681265414 -0.1360302269 1.771655483e-38
0.2923130989 -0.4234431684 -0.1516212523 1.771655483e-38
0.3463541567 -0.4587236345 -0.1593295932 1.771655483e-38
0.03630735725 -0.4865698516 0.145394057 1.771655483e-38
0.004764860496 -0.48725757 0.08648129553 1.771655483e-38
-0.02454078943 -0.487919122 0.03577131778 1.771655483e-38
-0.04322725534 -0.4883370101 -0.009739547968 1.771655483e-38
-0.06375175714 -0.4883059561 -0.04303817078 1.771655483e-38
-0.0918597281 -0.4881120622 -0.072891891 1.771655483e-38
-0.1211864352 -0.4878022671 -0.1007968783 1.771655483e-38
-0.1502674371 -0.4871298969 -0.1256558001 1.771655483e-38
-0.178399682 -0.4862492979 -0.1476052254 1.771655483e-38
-0.2057775855 -0.4747130871 -0.1559978276 1.771655483e-38
-0.2325085998 -0.4576764405 -0.1573873162 1.771655483e-38
-0.2552565634 -0.4415029287 -0.1577934176 1.771655483e-38
-0.2808366716 -0.4248704314 -0.1571328193 1.771655483e-38
-0.2901238799 -0.3981922567 -0.15474087 1.771655483e-38
-0.2961780727 -0.3767638206 -0.1526713967 1.771655483e-38
-0.301391989 -0.3530351222 -0.1508540362 1.771655483e-38
-0.3066154718 -0.3284700811 -0.150215596 1.771655483e-38
-0.3138877451 -0.3116081357 -0.1511773914 1.771655483e-38
-0.3142471015 -0.2836378813 -0.1529579163 1.771655483e-38
-0.3148554564 -0.2457555532 -0.1533140838 1.771655483e-38
-0.3018921912 -0.216811955 -0.1537496746 1.771655483e-38
-0.2841861844 -0.1825311035 -0.1555227935 1.771655483e-38
-0.2635911703 -0.1511741281 -0.1647869945 1.771655483e-38
-0.216435656 -0.1474258453 -0.1670622528 1.771655483e-38
-0.1233357489 -0.1611676365 -0.17105937 1.771655483e-38
0.02351235971 -0.1805432141 -0.1662528664 1.771655483e-38
0.116453886 -0.22154212 -0.1505747586 1.771655483e-38
0.1817918718 -0.2683555782 -0.1262882054 1.771655483e-38
0.2660391033 -0.3110055625 -0.1195051521 1.771655483e-38
0.2897095382 -0.3480023742 -0.1281797737 1.771655483e-38
0.2960127592 -0.4081065953 -0.1500653028 1.771655483e-38
0.3415434361 -0.4476771653 -0.1607652158 1.771655483e-38
0.04583264142 -0.4864242375 0.138583377 2.06466517e-38
0.01493021287 -0.4871458709 0.07908395678 2.06466517e-38
-0.01292737946 -0.4876940548 0.03007601015 2.06466517e-38
-0.03181054816 -0.4881159067 -0.01547553763 2.06466517e-38
-0.0534957163 -0.4880980551 -0.04813240841 2.06466517e-38
-0.07745435834 -0.4881138504 -0.07752689719 2.06466517e-38
-0.1053752452 -0.4878292382 -0.1040770113 2.06466517e-38
-0.1353973448 -0.4871339202 -0.1271877587 2.06466517e-38
-0.1643565893 -0.4862208962 -0.1491424441 2.06466517e-38
-0.1901644021 -0.4756113887 -0.1565415263 2.06466517e-38
-0.214651823 -0.4589115977 -0.1575796604 2.06466517e-38
-0.2388056815 -0.4425882101 -0.1585471481 2.06466517e-38
-0.2648891211 -0.4256894886 -0.1576635092 2.06466517e-38
-0.2780780792 -0.4015227556 -0.1562270373 2.06466517e-38
-0.2837379277 -0.3805705309 -0.1544760913 2.06466517e-38
-0.2887916863 -0.3588290215 -0.152171731 2.06466517e-38
-0.2928675115 -0.3348659575 -0.1508797109 2.06466517e-38
-0.2981105745 -0.3163683712 -0.1510517746 2.06466517e-38
-0.29943645 -0.2923536003 -0.1520071775 2.06466517e-38
-0.3002909422 -0.2591917813 -0.1531055719 2.06466517e-38
-0.2893364131 -0.2255951166 -0.1536201835 2.06466517e-38
-0.2772518098 -0.1964700669 -0.1542567164 2.06466517e-38
-0.2594657242 -0.1616262197 -0.1588290036 2.06466517e-38
-0.229269281 -0.1441670507 -0.1658092737 2.06466517e-38
-0.1472598165 -0.1564448029 -0.1648221314 2.06466517e-38
-0.003343893215 -0.1619591117 -0.1679897457 2.06466517e-38
0.1068668216 -0.2025137097 -0.1546557993 2.06466517e-38
0.1802290529 -0.247299701 -0.1336537898 2.06466517e-38
0.2453897893 -0.298836112 -0.1200498641 2.06466517e-38
0.2987197638 -0.333904624 -0.1246972084 2.06466517e-38
0.3021064997 -0.391033262 -0.1458420008 2.06466517e-38
0.3358459771 -0.4362095296 -0.159556061 2.06466517e-38
0.05534603074 -0.4862748086 0.131697014 2.06466517e-38
0.02465536445 -0.4870375097 0.07241371274 2.06466517e-38
-0.001436788589 -0.4874725342 0.02432388812 2.06466517e-38
-0.0204368867 -0.4879211485 -0.0210323818 2.06466517e-38
-0.04248236492 -0.4879291058 -0.05312630162 2.06466517e-38
-0.06368608773 -0.4881116748 -0.08216008544 2.06466517e-38
-0.09009422362 -0.4879130125 -0.1077807844 2.06466517e-38
-0.1198513806 -0.4870501161 -0.1293137372 2.06466517e-38
-0.1498217583 -0.4862138629 -0.1503180861 2.06466517e-38
-0.1753547341 -0.4764675498 -0.1570669264 2.06466517e-38
-0.1955481917 -0.4599872828 -0.1576551497 2.06466517e-38
-0.2191939503 -0.4431477487 -0.1583190262 2.06466517e-38
-0.2456923425 -0.4263488948 -0.1580834389 2.06466517e-38
-0.2640053034 -0.405197829 -0.1570092589 2.06466517e-38
-0.271132201 -0.3839438856 -0.1560457349 2.06466517e-38
-0.2763389647 -0.3648635447 -0.1538543403 2.06466517e-38
-0.2792783082 -0.3418717086 -0.1524128467 2.06466517e-38
-0.2830898762 -0.3206011355 -0.151836127 2.06466517e-38
-0.2839714587 -0.3003417552 -0.1513275653 2.06466517e-38
-0.2839895487 -0.2708548903 -0.1536710858 2.06466517e-38
-0.2747479677 -0.2355057895 -0.1542530209 2.06466517e-38
-0.2685892582 -0.2083420455 -0.1542745531 2.06466517e-38
-0.2544031143 -0.173270151 -0.1558578908 2.06466517e-38
-0.2325606346 -0.1446647346 -0.1629582345 2.06466517e-38
-0.1684753895 -0.1494989842 -0.1650824696 2.06466517e-38
-0.0321864076 -0.1533781737 -0.1643996388 2.06466517e-38
0.09134507179 -0.1825315356 -0.1583235413 2.06466517e-38
0.1672069728 -0.2315754741 -0.1433338225 2.06466517e-38
0.2342163026 -0.2834940851 -0.1236269027 2.06466517e-38
0.2943636179 -0.3228348792 -0.1214943379 2.06466517e-38
0.3080068529 -0.3739985824 -0.141619578 2.06466517e-38
0.3326189816 -0.4212604463 -0.1558496207 2.06466517e-38
0.06486468017 -0.4861041009 0.1244669557 2.06466517e-38
0.03467436135 -0.4868229628 0.06676706672 2.06466517e-38
0.009957241826 -0.4872261584 0.01830267906 2.06466517e-38
-0.009138140827 -0.4876802862 -0.02652867883 2.06466517e-38
-0.03135646507 -0.4877426326 -0.05837817863 2.06466517e-38
-0.0512197949 -0.4879902601 -0.08706597984 2.06466517e-38
-0.0755994767 -0.4879904091 -0.1112956256 2.06466517e-38
-0.1034674048 -0.4869647324 -0.1312998831 2.06466517e-38
-0.1331038773 -0.4861175716 -0.1513370425 2.06466517e-38
-0.1600454003 -0.4770801067 -0.1574392617 2.06466517e-38
-0.1806354374 -0.4607775807 -0.158043623 2.06466517e-38
-0.2005516887 -0.443836838 -0.1582162678 2.06466517e-38
-0.2260944545 -0.4269407392 -0.1588283777 2.06466517e-38
-0.2468453646 -0.408808738 -0.1578431129 2.06466517e-38
-0.2536396384 -0.3883473277 -0.1570384353 2.06466517e-38
-0.2597672343 -0.368940562 -0.1555941552 2.06466517e-38
-0.2628334463 -0.3475185335 -0.153767854 2.06466517e-38
-0.2643958628 -0.3244206011 -0.1528718024 2.06466517e-38
-0.2670577765 -0.3047698736 -0.152618289 2.06466517e-38
-0.2653702796 -0.2784047723 -0.1530640125 2.06466517e-38
-0.2584218085 -0.2468170226 -0.1561896652 2.06466517e-38
-0.2540477514 -0.2188092321 -0.1546180993 2.06466517e-38
-0.2442301214 -0.1888808608 -0.155463621 2.06466517e-38
-0.2266435772 -0.1535573304 -0.1596976221 2.06466517e-38
-0.183024615 -0.1457388401 -0.1629269421 2.06466517e-38
-0.07167047262 -0.1495689005 -0.1633697748 2.06466517e-38
0.06243212149 -0.1650441289 -0.1642016619 2.06466517e-38
0.1515390575 -0.2126663774 -0.1518720835 2.06466517e-38
0.2313864976 -0.2661980689 -0.1319887489 2.06466517e-38
0.2886810601 -0.3109266162 -0.1226684749 2.06466517e-38
0.3137174547 -0.3570311964 -0.1376013905 2.06466517e-38
0.3307919204 -0.4095249474 -0.1516922414 2.06466517e-38
0.07602131367 -0.4858750105 0.117591694 2.06466517e-38
0.04478649423 -0.486566335 0.06141078472 2.06466517e-38
0.02124112844 -0.4870074391 0.01242778637 2.06466517e-38
0.002517454326 -0.4874608219 -0.03176758066 2.06466517e-38
-0.02026664466 -0.4875503182 -0.06366287172 2.06466517e-38
-0.03969508037 -0.487796694 -0.09129497409 2.06466517e-38
-0.06132897362 -0.4880762994 -0.1145292521 2.06466517e-38
-0.08781832457 -0.4870010018 -0.133947134 2.06466517e-38
-0.1166151762 -0.4860310853 -0.1528317481 2.06466517e-38
-0.1441104561 -0.4772897065 -0.157900542 2.06466517e-38
-0.1656443924 -0.4616518617 -0.1583249271 2.06466517e-38
-0.1848771423 -0.444691211 -0.1584518254 2.06466517e-38
-0.2056982368 -0.427560091 -0.1586896181 2.06466517e-38
-0.2286855429 -0.4127236605 -0.1590218693 2.06466517e-38
-0.2354579568 -0.3919416368 -0.1587304473 2.06466517e-38
-0.242072463 -0.3739326 -0.1577310115 2.06466517e-38
-0.2451031208 -0.3520718515 -0.1562260687 2.06466517e-38
-0.2457290292 -0.3288388252 -0.1554181278 2.06466517e-38
-0.2498515844 -0.3092747033 -0.1544755846 2.06466517e-38
-0.2472708523 -0.2856946886 -0.1534887552 2.06466517e-38
-0.2405434847 -0.2568124533 -0.1564380676 2.06466517e-38
-0.2384970486 -0.2295426726 -0.1568517238 2.06466517e-38
-0.2322888076 -0.2024416924 -0.1551558375 2.06466517e-38
-0.216283828 -0.1629278362 -0.1578583866 2.06466517e-38
-0.1903948635 -0.1422290057 -0.1609726399 2.06466517e-38
-0.1078816652 -0.1527614444 -0.1609144211 2.06466517e-38
0.03893470764 -0.1522225589 -0.1605582088 2.06466517e-38
0.1422538459 -0.1932213604 -0.1576000005 2.06466517e-38
0.2265072167 -0.2487924397 -0.1387907416 2.06466517e-38
0.2736825347 -0.2988679707 -0.124920547 2.06466517e-38
0.3135477602 -0.3438150287 -0.1344760209 2.06466517e-38
0.3299822211 -0.3980706632 -0.1478089243 2.06466517e-38
0.08784526587 -0.4856500328 0.1102974266 2.348204041e-38
0.05538836867 -0.4863233864 0.0563384667 2.348204041e-38
0.03258614242 -0.4867886901 0.006755867973 2.348204041e-38
0.01376892999 -0.4872604609 -0.03682943806 2.348204041e-38
-0.009017294273 -0.487364918 -0.06899006665 2.348204041e-38
-0.02814734727 -0.4876490235 -0.09523487091 2.348204041e-38
-0.04736570641 -0.4880599082 -0.1178346723 2.348204041e-38
-0.07288780808 -0.4870483577 -0.1364545524 2.348204041e-38
-0.09996365011 -0.4860341251 -0.1541959196 2.348204041e-38
-0.1257001758 -0.4775226414 -0.1581984609 2.348204041e-38
-0.1503502578 -0.4625222683 -0.1584517211 2.348204041e-38
-0.1699197292 -0.4452703297 -0.1583446562 2.348204041e-38
-0.186651364 -0.4281462431 -0.1582802534 2.348204041e-38
-0.2081311941 -0.4130251408 -0.1592205614 2.348204041e-38
-0.217263326 -0.395231694 -0.1606307775 2.348204041e-38
-0.2242936194 -0.3775208592 -0.1598446071 2.348204041e-38
-0.2273982018 -0.35656479 -0.1582940519 2.348204041e-38
-0.2279820293 -0.3352541625 -0.1580605954 2.348204041e-38
-0.2321172953 -0.3138261139 -0.1564009786 2.348204041e-38
-0.2308268696 -0.2904778123 -0.1556533873 2.348204041e-38
-0.2226567566 -0.2657951117 -0.1564703733 2.348204041e-38
-0.2227869481 -0.239594996 -0.1589701325 2.348204041e-38
-0.2175424546 -0.2133765817 -0.1572421044 2.348204041e-38
-0.2078855038 -0.1781799793 -0.1576753408 2.348204041e-38
-0.1881296486 -0.1447676867 -0.1625438631 2.348204041e-38
-0.1212435961 -0.1507224292 -0.1580446959 2.348204041e-38
0.01499130577 -0.1475384235 -0.1588369012 2.348204041e-38
0.1357420981 -0.1738649309 -0.1601578444 2.348204041e-38
0.2173959315 -0.2321981937 -0.1521655619 2.348204041e-38
0.2693175077 -0.286250025 -0.1299604923 2.348204041e-38
0.3084151149 -0.3315637112 -0.1328692436 2.348204041e-38
0.334235698 -0.3836221993 -0.1445025057 2.348204041e-38
0.09956178069 -0.4854397178 0.1035823673 2.348204041e-38
0.06721101701 -0.4860626757 0.05064802989 2.348204041e-38
0.04258707538 -0.4866527617 0.001798246056 2.348204041e-38
0.02553057112 -0.4870683253 -0.04167133942 2.348204041e-38
0.003104932606 -0.4872166216 -0.07380798459 2.348204041e-38
-0.01555250213 -0.4875222445 -0.09868513048 2.348204041e-38
-0.03334780782 -0.4879734814 -0.1206859648 2.348204041e-38
-0.0568404533 -0.4872068465 -0.1385909766 2.348204041e-38
-0.08302229643 -0.4861305952 -0.1551578045 2.348204041e-38
-0.1072684377 -0.4778082967 -0.1586829573 2.348204041e-38
-0.1327669173 -0.4629273415 -0.1585883945 2.348204041e-38
-0.1545164436 -0.4459333718 -0.1580968648 2.348204041e-38
-0.171077922 -0.4283201993 -0.1578861326 2.348204041e-38
-0.1888360083 -0.4125108123 -0.1591883898 2.348204041e-38
-0.1995475441 -0.3981527388 -0.1613446772 2.348204041e-38
-0.205467701 -0.3807908893 -0.1619126201 2.348204041e-38
-0.2096422166 -0.3609459102 -0.1607954651 2.348204041e-38
-0.2116744518 -0.3403028846 -0.1599570811 2.348204041e-38
-0.213966161 -0.3181972504 -0.1587469131 2.348204041e-38
-0.2152232081 -0.2955836356 -0.1578149945 2.348204041e-38
-0.2061450779 -0.2740542293 -0.1569054425 2.348204041e-38
