# .PCD v0.7 - Point Cloud Data file format
VERSION 0.7
FIELDS x y z rgb
SIZE 4 4 4 4
TYPE F F F F
COUNT 1 1 1 1
WIDTH 829
HEIGHT 1
VIEWPOINT 0 0 0 1 0 0 0
POINTS 829
DATA ascii
-0.2584978044 -0.2006984055 -0.1649374366 6.490113838e-41
-0.2732718289 -0.1971365511 -0.1660924256 6.490113838e-41
-0.2809681594 -0.1936343908 -0.1722638905 6.490113838e-41
-0.2848002017 -0.188953951 -0.1815417707 6.490113838e-41
-0.2880135477 -0.1846766174 -0.1946219802 6.490113838e-41
-0.2874040306 -0.1777209193 -0.2098221481 6.490113838e-41
-0.285138011 -0.170572713 -0.226195544 6.490113838e-41
-0.282466203 -0.1617444158 -0.2433731854 6.490113838e-41
-0.2850125432 -0.1543955803 -0.264972955 6.490113838e-41
-0.2830704749 -0.1478895396 -0.2912409902 6.490113838e-41
-0.2794335485 -0.1399724185 -0.3163263202 6.490113838e-41
0.2310940027 -0.1691437513 -0.1637791991 6.490113838e-41
0.1972168088 -0.17390275 -0.1679107249 6.490113838e-41
0.1642910093 -0.1800071746 -0.1686465442 6.490113838e-41
0.1309179962 -0.1858347654 -0.1693655252 6.490113838e-41
0.09889732301 -0.1904770732 -0.1679047048 6.490113838e-41
0.06774650514 -0.1930238754 -0.1668673456 6.490113838e-41
0.03923336044 -0.1935817301 -0.1650395691 6.490113838e-41
0.01396567002 -0.1918312758 -0.1657287478 6.490113838e-41
-0.01494650543 -0.1905887425 -0.1658805311 6.490113838e-41
-0.04075466841 -0.1912106872 -0.1662974656 6.490113838e-41
-0.0638351962 -0.1921148747 -0.1665895581 6.490113838e-41
-0.08391781896 -0.1951454729 -0.1657150686 6.490113838e-41
-0.1047800928 -0.2000819296 -0.1657292247 6.490113838e-41
-0.125290513 -0.2079667449 -0.1647943556 6.490113838e-41
-0.1456791759 -0.2162531614 -0.1641674936 6.490113838e-41
-0.1641290933 -0.2233077586 -0.1626569629 6.490113838e-41
-0.181027025 -0.2274135947 -0.1602938771 6.490113838e-41
-0.1957430989 -0.2286778539 -0.1595420837 6.490113838e-41
-0.2109062523 -0.2272027731 -0.1608511209 6.490113838e-41
-0.2259000987 -0.2248575985 -0.1625769734 6.490113838e-41
-0.2415624112 -0.2209154963 -0.1648331285 6.490113838e-41
-0.2593494654 -0.2166835666 -0.1655128598 6.490113838e-41
-0.2739093602 -0.2131554484 -0.1671918631 6.490113838e-41
-0.2823038995 -0.209359169 -0.173933804 6.490113838e-41
-0.2865849733 -0.205022037 -0.1831599474 6.490113838e-41
-0.2894014716 -0.1997490674 -0.1971465349 6.490113838e-41
-0.2892316282 -0.1935205013 -0.2118021548 6.490113838e-41
-0.2867855132 -0.1861652434 -0.2282149196 6.490113838e-41
-0.2842152715 -0.1767907143 -0.2453549504 6.490113838e-41
-0.2853453457 -0.1682062149 -0.2648378611 6.490113838e-41
-0.2828351557 -0.1631848365 -0.2911836207 6.490113838e-41
-0.2791601717 -0.1575803757 -0.3160637915 6.490113838e-41
0.2315658331 -0.1789367795 -0.1661871672 6.490113838e-41
0.1965278387 -0.1855451614 -0.1685002148 6.490113838e-41
0.1629725695 -0.1918953657 -0.1691310108 6.490113838e-41
0.1292840242 -0.198476553 -0.1704555154 6.490113838e-41
0.09771643579 -0.2039561719 -0.1700985134 6.490113838e-41
0.06716999412 -0.2068737447 -0.169033587 6.490113838e-41
0.03877772018 -0.2083798498 -0.1680999994 6.490113838e-41
0.0139731802 -0.2061907947 -0.168372184 6.490113838e-41
-0.01367649063 -0.2052558511 -0.1679843962 6.490113838e-41
-0.04106065631 -0.2059199065 -0.1681378186 6.490113838e-41
-0.06114081293 -0.206781745 -0.1675223112 6.490113838e-41
-0.08360374719 -0.2096166909 -0.1671383977 6.490113838e-41
-0.1049212664 -0.2153664231 -0.1674508452 6.490113838e-41
-0.125247404 -0.2236889303 -0.1671448946 6.490113838e-41
-0.1451237202 -0.2318277061 -0.1662070155 6.490113838e-41
-0.1632943004 -0.2387779355 -0.1647074819 6.490113838e-41
-0.1802796721 -0.2448235452 -0.1624057889 6.490113838e-41
-0.1949581951 -0.2461167872 -0.1611410975 6.490113838e-41
-0.2096229941 -0.2450927645 -0.1624757946 6.490113838e-41
-0.2253621668 -0.2424591482 -0.1634602249 6.490113838e-41
-0.2414047122 -0.2372195572 -0.1657207906 6.490113838e-41
-0.2593129873 -0.2326828837 -0.1655893028 6.490113838e-41
-0.274563998 -0.2290472388 -0.1679014266 6.490113838e-41
-0.2832979262 -0.2254320681 -0.175185293 6.490113838e-41
-0.288161844 -0.2206902653 -0.1842205524 6.490113838e-41
-0.2902515233 -0.2145026326 -0.199154675 6.490113838e-41
-0.2900913954 -0.2085331529 -0.2138691843 6.490113838e-41
-0.2884384692 -0.201505065 -0.2302144766 6.490113838e-41
-0.2859480679 -0.1918058693 -0.2471253574 6.490113838e-41
-0.2852957547 -0.183387965 -0.2654393613 6.490113838e-41
-0.2825598121 -0.1783621907 -0.2911066413 6.490113838e-41
-0.2789513171 -0.1727609038 -0.3187637329 6.490113838e-41
0.2329235971 -0.1894016564 -0.1684105992 6.490113838e-41
0.1956122518 -0.1973932981 -0.1699730456 6.490113838e-41
0.161517933 -0.2041112781 -0.1703545451 6.490113838e-41
0.1281130761 -0.210670054 -0.1723846197 6.490113838e-41
0.09650345147 -0.2164496779 -0.1724776328 6.490113838e-41
0.06624244153 -0.2200313956 -0.1715608239 6.490113838e-41
0.03854015842 -0.2215656936 -0.1709883809 6.490113838e-41
0.01388371363 -0.2198252678 -0.1706243753 6.490113838e-41
-0.01245576143 -0.2195726335 -0.1704156101 6.490113838e-41
-0.0414775908 -0.2203305662 -0.1695945263 6.490113838e-41
-0.06182181835 -0.2211912274 -0.1688064635 6.490113838e-41
-0.08408169448 -0.2246266007 -0.168597877 6.490113838e-41
-0.1055805683 -0.2308608741 -0.1693377793 6.490113838e-41
-0.1257143915 -0.2394248843 -0.169348985 6.490113838e-41
-0.1450557709 -0.2474451959 -0.1683583856 6.490113838e-41
-0.1618807763 -0.2544465661 -0.1666099131 6.490113838e-41
-0.1785777211 -0.2608335018 -0.1645276845 6.490113838e-41
-0.1943652183 -0.2631643414 -0.1631217003 6.490113838e-41
-0.208932668 -0.2622700632 -0.1644106209 6.490113838e-41
-0.2245871872 -0.2592229843 -0.1649374962 6.490113838e-41
-0.2412507087 -0.2536205649 -0.1664185226 6.490113838e-41
-0.2592698038 -0.2488140017 -0.1657269895 6.490113838e-41
-0.2745820582 -0.2449370027 -0.1685649753 6.490113838e-41
-0.2835488617 -0.2409637421 -0.1760261655 6.490113838e-41
-0.2898854017 -0.2356738895 -0.1857182384 6.490113838e-41
-0.2904236019 -0.2293586731 -0.2006986141 6.490113838e-41
-0.2901891768 -0.2231868505 -0.2153810263 6.490113838e-41
-0.2896057069 -0.2163797021 -0.2318839729 6.490113838e-41
-0.2869298756 -0.2079246044 -0.2480311692 6.490113838e-41
-0.2851042449 -0.200275287 -0.2660903931 6.490113838e-41
-0.2823035717 -0.1950306594 -0.291030407 6.490113838e-41
-0.2787185311 -0.1867776364 -0.3202325106 6.490113838e-41
0.2346992791 -0.2000273019 -0.1696427763 6.490113838e-41
0.1950953305 -0.2088202834 -0.1714366972 6.490113838e-41
0.1604994088 -0.215403825 -0.1725372374 6.490113838e-41
0.1269998699 -0.2225787789 -0.1743871868 6.490113838e-41
0.09519135952 -0.2283440977 -0.1748592257 6.490113838e-41
0.06538197398 -0.2318557054 -0.174169004 6.490113838e-41
0.03779035434 -0.2334334552 -0.1732608974 6.490113838e-41
0.01347859576 -0.2322241366 -0.1727607846 6.490113838e-41
-0.01249400154 -0.2330105901 -0.172097683 6.490113838e-41
-0.04147678614 -0.2345611155 -0.1713677645 6.490113838e-41
-0.06246156245 -0.2364646494 -0.1703197658 6.490113838e-41
-0.08389990777 -0.2396784425 -0.1700764894 6.490113838e-41
-0.1063064635 -0.2464603335 -0.1712163091 6.490113838e-41
-0.1261352301 -0.255132705 -0.1713968515 6.490113838e-41
-0.1449100375 -0.263160795 -0.1704809964 6.490113838e-41
-0.1604119539 -0.2700637579 -0.1683360636 6.490113838e-41
-0.1770328879 -0.2764187455 -0.1661322415 6.490113838e-41
-0.1937229931 -0.2802370489 -0.1654908359 6.490113838e-41
-0.2083583772 -0.2794406712 -0.1662194133 6.490113838e-41
-0.2241772413 -0.2756301463 -0.1670912504 6.490113838e-41
-0.2414062768 -0.2701751888 -0.1670024991 6.490113838e-41
-0.259363085 -0.265255928 -0.1660473943 6.490113838e-41
-0.2742268443 -0.261171639 -0.1692789197 6.490113838e-41
-0.2839002013 -0.2566577792 -0.1770248115 6.490113838e-41
-0.2909870446 -0.250867188 -0.1874808371 6.490113838e-41
-0.2906556726 -0.2445891798 -0.2025166452 6.490113838e-41
-0.2902772725 -0.2379621863 -0.2168754935 6.490113838e-41
-0.2891350985 -0.2313914001 -0.2325892746 6.490113838e-41
-0.2873643339 -0.2244637609 -0.2487750649 6.490113838e-41
-0.2854422629 -0.2179296315 -0.2666929662 6.490113838e-41
-0.282125622 -0.2108265758 -0.2925671637 6.490113838e-41
-0.2786490023 -0.2010503858 -0.322039783 6.490113838e-41
0.2364652753 -0.2108074725 -0.170633316 5.962428276e-39
0.1961280107 -0.2193416655 -0.173273176 5.962428276e-39
0.1599897891 -0.2257916629 -0.1750874817 5.962428276e-39
0.1255169064 -0.2335403264 -0.1765391827 5.962428276e-39
0.09444473684 -0.2396082878 -0.1769723296 5.962428276e-39
0.06458254158 -0.242724061 -0.1764609218 5.962428276e-39
0.03665460274 -0.2453747094 -0.1751428843 5.962428276e-39
0.01266182587 -0.2449172139 -0.1738929451 5.962428276e-39
-0.01291721314 -0.2457480431 -0.1733156443 5.962428276e-39
-0.04221598804 -0.249052316 -0.1733674705 5.962428276e-39
-0.06306581199 -0.2511416376 -0.172278285 5.962428276e-39
-0.08469416201 -0.2547926903 -0.1722010076 5.962428276e-39
-0.106917806 -0.2621077001 -0.1730716228 5.962428276e-39
-0.1264349818 -0.2707149386 -0.1733022332 5.962428276e-39
-0.1446201801 -0.2787760198 -0.1723563075 5.962428276e-39
-0.1599083096 -0.2858207226 -0.170086354 5.962428276e-39
-0.1755865514 -0.2925186157 -0.1678523421 5.962428276e-39
-0.1934061646 -0.2976485491 -0.1677499115 5.962428276e-39
-0.2078365386 -0.2966901362 -0.1682443619 5.962428276e-39
-0.2239022106 -0.292314589 -0.1688006222 5.962428276e-39
-0.2418669164 -0.2867036164 -0.1680032313 5.962428276e-39
-0.2595695257 -0.281662941 -0.1668570936 5.962428276e-39
-0.2738717198 -0.2774062157 -0.1699928939 5.962428276e-39
-0.2844048142 -0.2718218565 -0.1784109771 5.962428276e-39
-0.2904714048 -0.2658610642 -0.1891990006 5.962428276e-39
-0.2902519405 -0.2600383162 -0.2040441632 5.962428276e-39
-0.2896314561 -0.2530623376 -0.2175278366 5.962428276e-39
-0.2882558405 -0.2469721138 -0.2332419753 5.962428276e-39
-0.287026763 -0.2409449071 -0.2491340041 5.962428276e-39
-0.2857134044 -0.2350474894 -0.2671403885 5.962428276e-39
-0.2818095088 -0.2259372771 -0.2947970927 5.962428276e-39
-0.2788126469 -0.2157500833 -0.3242213428 5.962428276e-39
0.2388251424 -0.2214232683 -0.1719616652 5.962428276e-39
0.1978076994 -0.2288325876 -0.1752296686 5.962428276e-39
0.1594300866 -0.2355724722 -0.1777584255 5.962428276e-39
0.1246053427 -0.2437285483 -0.1787124872 5.962428276e-39
0.09338060021 -0.2506416142 -0.1791423261 5.962428276e-39
0.06395463645 -0.2535776496 -0.1783734858 5.962428276e-39
0.03539070114 -0.2563606501 -0.176184088 5.962428276e-39
0.0114072375 -0.2574442029 -0.1743848026 5.962428276e-39
-0.0139994882 -0.2592384219 -0.1744219363 5.962428276e-39
-0.0436194241 -0.2628066838 -0.1751511991 5.962428276e-39
-0.06410425156 -0.2656154037 -0.1743868291 5.962428276e-39
-0.08553393185 -0.2701483965 -0.1745761931 5.962428276e-39
-0.1072806716 -0.277880609 -0.1750994623 5.962428276e-39
-0.1263222247 -0.2862485945 -0.1748651862 5.962428276e-39
-0.1436191797 -0.2943820357 -0.1736231744 5.962428276e-39
-0.1591182649 -0.3014129996 -0.1714220345 5.962428276e-39
-0.174184218 -0.3080461323 -0.1691623628 5.962428276e-39
-0.1917467117 -0.313203752 -0.1692652404 5.962428276e-39
-0.2072244436 -0.3130806983 -0.1703571677 5.962428276e-39
-0.2234192491 -0.3093802035 -0.1702181995 5.962428276e-39
-0.241919443 -0.3040394187 -0.1693639159 5.962428276e-39
-0.2600413561 -0.2989832163 -0.1682163477 5.962428276e-39
-0.2741291523 -0.2942436934 -0.1717203259 5.962428276e-39
-0.2835540175 -0.2883491814 -0.1801633239 5.962428276e-39
-0.2890095115 -0.2817254066 -0.1904692054 5.962428276e-39
-0.2895583212 -0.2752674818 -0.2049371302 5.962428276e-39
-0.2888554633 -0.2688224614 -0.218365252 5.962428276e-39
-0.2874307334 -0.2630527318 -0.2335536182 5.962428276e-39
-0.2864599526 -0.2575162351 -0.2490077317 5.962428276e-39
-0.2859309316 -0.2517669201 -0.2698423564 5.962428276e-39
-0.2814844847 -0.2410681546 -0.2972631752 5.962428276e-39
-0.2790624499 -0.2296684384 -0.3263459802 5.962428276e-39
0.2421471179 -0.2316685319 -0.1741135716 5.962428276e-39
0.1993026137 -0.2383946776 -0.1776996255 5.962428276e-39
0.1607889235 -0.2443654239 -0.1797870398 5.962428276e-39
0.1243652403 -0.2537965477 -0.181045413 5.962428276e-39
0.09245324135 -0.2615272999 -0.1813520491 5.962428276e-39
0.06251990795 -0.2644661665 -0.1795328557 5.962428276e-39
0.03421231732 -0.267408967 -0.1765854955 5.962428276e-39
0.01012819633 -0.269331038 -0.1748201251 5.962428276e-39
-0.01552249864 -0.2731207609 -0.1753689945 5.962428276e-39
-0.04425376654 -0.2765697241 -0.1766470373 5.962428276e-39
-0.06668683141 -0.2803022563 -0.1765410006 5.962428276e-39
-0.08720520139 -0.285404712 -0.1765383184 5.962428276e-39
-0.107537806 -0.2931506932 -0.1765869856 5.962428276e-39
-0.1259034127 -0.301266849 -0.1765199602 5.962428276e-39
-0.1430820078 -0.3094603419 -0.174949199 5.962428276e-39
-0.158669278 -0.317044735 -0.1730089784 5.962428276e-39
-0.1728264987 -0.3237394392 -0.1707585752 5.962428276e-39
-0.190220058 -0.3287739158 -0.1707859337 5.962428276e-39
-0.2067983001 -0.329117924 -0.1716346145 5.962428276e-39
-0.2226267457 -0.3255541325 -0.1717705727 5.962428276e-39
-0.24096255 -0.3207008541 -0.170630306 5.962428276e-39
-0.2597336173 -0.3155173659 -0.1691393852 5.962428276e-39
-0.2739574313 -0.3102897406 -0.1730517745 5.962428276e-39
-0.281811595 -0.3052466214 -0.1817802191 5.962428276e-39
-0.2880540192 -0.2985059619 -0.1917783916 5.962428276e-39
-0.2894600332 -0.2915341258 -0.2059068382 5.962428276e-39
-0.2880621552 -0.2855228484 -0.2191883028 5.962428276e-39
-0.2868575454 -0.2797209024 -0.2334935069 5.962428276e-39
-0.2861472964 -0.274207592 -0.2503520846 5.962428276e-39
-0.2859271765 -0.2680924833 -0.2724126577 5.962428276e-39
-0.2812405229 -0.2563558817 -0.2997303903 5.962428276e-39
-0.2791498899 -0.2431377172 -0.3278894424 5.962428276e-39
0.2460916638 -0.2404761612 -0.1756652296 5.962428276e-39
0.2018674016 -0.2479873598 -0.1801574528 5.962428276e-39
0.161936 -0.2539877892 -0.1818753183 5.962428276e-39
0.1251120716 -0.2635190785 -0.1833820939 5.962428276e-39
0.09220559895 -0.2721278667 -0.1829098463 5.962428276e-39
0.06087826565 -0.2761691213 -0.1802017987 5.962428276e-39
0.03227877244 -0.2790403664 -0.1768985093 5.962428276e-39
0.008636530489 -0.2811918557 -0.1752097905 5.962428276e-39
-0.01753606647 -0.2870218754 -0.1759119928 5.962428276e-39
-0.04486384988 -0.2909964025 -0.1775995195 5.962428276e-39
-0.06754612923 -0.2940914035 -0.1776327193 5.962428276e-39
-0.0897641778 -0.2994937599 -0.1778647006 5.962428276e-39
-0.1092037186 -0.307634443 -0.177918762 5.962428276e-39
-0.1259558052 -0.3163186908 -0.1779953241 5.962428276e-39
-0.142064929 -0.3247851729 -0.1767335236 5.962428276e-39
-0.1580504477 -0.3322914839 -0.1747951508 5.962428276e-39
-0.1716150939 -0.3388873637 -0.1728151739 5.962428276e-39
-0.189302057 -0.3440597653 -0.1724408269 5.962428276e-39
-0.2064471394 -0.3454931378 -0.1728494167 5.962428276e-39
-0.2219569534 -0.3420748413 -0.1732755005 5.962428276e-39
-0.2400766909 -0.3377825618 -0.172096312 5.962428276e-39
-0.25966084 -0.3323734403 -0.1696479619 5.962428276e-39
-0.2723572254 -0.326801002 -0.1744907796 5.962428276e-39
-0.2800566852 -0.3213075697 -0.183260113 5.962428276e-39
-0.2870155275 -0.3153525591 -0.1930351853 5.962428276e-39
-0.288572073 -0.3088117838 -0.2069941461 5.962428276e-39
-0.2877510488 -0.3039920032 -0.2196827829 5.962428276e-39
-0.2867393196 -0.2978883088 -0.2330337763 5.962428276e-39
-0.2862019539 -0.2918506265 -0.253139168 5.962428276e-39
-0.2862178981 -0.2852762341 -0.2751773298 5.962428276e-39
-0.2808948457 -0.270031184 -0.3020006418 5.962428276e-39
-0.2791817784 -0.2566040754 -0.3296454847 5.962428276e-39
0.2505008578 -0.247623533 -0.1774951816 5.962428276e-39
0.2058754861 -0.2555316091 -0.1821044683 5.962428276e-39
0.1635299623 -0.2627637684 -0.1838258803 5.962428276e-39
0.1264732778 -0.2738977671 -0.1853619516 5.962428276e-39
0.09145317972 -0.2835625112 -0.18429178 5.962428276e-39
0.05991208926 -0.2867613137 -0.1811235249 5.962428276e-39
0.0307267718 -0.2894597054 -0.1775103807 5.962428276e-39
0.006856191903 -0.2923657 -0.1761424541 5.962428276e-39
-0.01825685054 -0.2990705371 -0.1767513752 5.962428276e-39
-0.04479074478 -0.3037831783 -0.1781118214 5.962428276e-39
-0.06731946021 -0.3073699474 -0.1792640388 5.962428276e-39
-0.09170441329 -0.3125711083 -0.1799477041 5.962428276e-39
-0.1102653816 -0.3203124106 -0.1803933978 5.962428276e-39
-0.126401633 -0.3282233775 -0.1805120707 5.962428276e-39
-0.1415052265 -0.3367598653 -0.1794626117 5.962428276e-39
-0.156560123 -0.3449718058 -0.1777448356 5.962428276e-39
-0.1700609624 -0.3521136343 -0.1757311523 5.962428276e-39
-0.1875434071 -0.3563073575 -0.1749857366 5.962428276e-39
-0.2055936456 -0.3585624397 -0.1751190126 5.962428276e-39
-0.221573174 -0.3575267196 -0.174931109 5.962428276e-39
-0.2387932539 -0.3549182117 -0.1733501554 5.962428276e-39
-0.2588178217 -0.3490842283 -0.1702997684 5.962428276e-39
-0.2705059648 -0.3435389996 -0.1760024428 5.962428276e-39
-0.2784793973 -0.3380260468 -0.1846854687 5.962428276e-39
-0.2854758203 -0.3329025507 -0.1948036253 5.962428276e-39
-0.2877458334 -0.3269197047 -0.207921654 5.962428276e-39
-0.2880479991 -0.3220086694 -0.2190823257 5.962428276e-39
-0.2867711484 -0.3159018755 -0.2368243337 5.962428276e-39
-0.2864814103 -0.3093779683 -0.2555591464 5.962428276e-39
-0.2867545187 -0.3019181192 -0.2761972845 5.962428276e-39
-0.2800236344 -0.284160763 -0.3045628071 5.962428276e-39
-0.2792137861 -0.2700758278 -0.3313844204 5.962428276e-39
0.2548653185 -0.2533550858 -0.1800712049 5.962428276e-39
0.209598273 -0.261334002 -0.1849006712 5.962428276e-39
0.1671625376 -0.2695913911 -0.1863447726 5.962428276e-39
0.1288769543 -0.2820924819 -0.1866599321 5.962428276e-39
0.0928376317 -0.2926137745 -0.1858169138 5.962428276e-39
0.05884903297 -0.2967502177 -0.1825447083 5.962428276e-39
0.02976186946 -0.2999040186 -0.1788215041 5.962428276e-39
0.005845565349 -0.3028483391 -0.1771667898 5.962428276e-39
-0.01845447347 -0.3090106547 -0.1774514318 5.962428276e-39
-0.04474481568 -0.3145795763 -0.178811878 5.962428276e-39
-0.06712625921 -0.319454819 -0.1813250184 5.962428276e-39
-0.09121386707 -0.3252193332 -0.1824164987 5.962428276e-39
-0.1112396419 -0.332627058 -0.1830237806 5.962428276e-39
-0.1271225512 -0.3400934935 -0.1828861833 5.962428276e-39
-0.1413033903 -0.348668009 -0.1817044318 5.962428276e-39
-0.1563019156 -0.3568047285 -0.1801458001 5.962428276e-39
-0.1696862429 -0.3642147481 -0.1782025993 5.962428276e-39
-0.1861025989 -0.3684219122 -0.1773142219 5.962428276e-39
-0.2043867111 -0.3710510135 -0.1770260334 5.962428276e-39
-0.2213213593 -0.3714027107 -0.1763736308 5.962428276e-39
-0.2386955768 -0.3689958751 -0.1751998961 5.962428276e-39
-0.257045269 -0.3643989563 -0.1731060445 5.962428276e-39
-0.2688438892 -0.3598114252 -0.177777946 5.962428276e-39
-0.2770225406 -0.3551873863 -0.1861882806 5.962428276e-39
-0.2835536003 -0.3503774405 -0.1961184442 5.962428276e-39
-0.2877217233 -0.3442040086 -0.2077908814 5.962428276e-39
-0.2887563109 -0.3395042121 -0.2217162549 5.962428276e-39
-0.2873337865 -0.3335757852 -0.2397872806 5.962428276e-39
-0.2869252264 -0.3266275525 -0.2577722371 5.962428276e-39
-0.2865717113 -0.3175193071 -0.2777087092 5.962428276e-39
-0.2794831693 -0.2980418205 -0.3061071634 5.962428276e-39
-0.27925843 -0.2836108208 -0.3328539431 5.962428276e-39
0.2590869963 -0.2591776848 -0.1829682589 5.962428276e-39
0.2133381665 -0.2682439983 -0.187880218 5.962428276e-39
0.1719365269 -0.2767177522 -0.1881609857 5.962428276e-39
0.131407544 -0.2898164392 -0.1873126924 5.962428276e-39
0.09309919178 -0.2997505367 -0.1851607561 5.962428276e-39
0.05696469918 -0.3049774766 -0.1821806431 5.962428276e-39
0.02777903154 -0.3082977235 -0.1783335805 5.962428276e-39
0.003181949258 -0.3113963008 -0.1766668856 5.962428276e-39
-0.02016023546 -0.3180420399 -0.1774803102 5.962428276e-39
-0.04545169324 -0.3249285519 -0.1794559658 5.962428276e-39
-0.06811094284 -0.3313739598 -0.1827200651 5.962428276e-39
-0.09012942016 -0.3382160962 -0.1848064959 5.962428276e-39
-0.112082839 -0.3442566395 -0.1850224137 5.962428276e-39
-0.128697291 -0.3506897092 -0.1843313873 5.962428276e-39
-0.1429471672 -0.3584409058 -0.1826080978 5.962428276e-39
-0.1583334208 -0.3655732274 -0.1803189516 5.962428276e-39
-0.1719412357 -0.3729524314 -0.1783021092 5.962428276e-39
-0.1874382794 -0.3769736886 -0.1771911085 5.962428276e-39
-0.2055256218 -0.3803388476 -0.1767053604 5.962428276e-39
-0.223133415 -0.3833486736 -0.1762098372 5.962428276e-39
-0.2395352274 -0.3821254969 -0.1756334901 5.962428276e-39
-0.255227536 -0.378733933 -0.1763322055 5.962428276e-39
-0.2681910396 -0.3748420179 -0.1800423265 5.962428276e-39
-0.2760532498 -0.3721134961 -0.1874313354 5.962428276e-39
-0.2825335562 -0.367141068 -0.1958858371 5.962428276e-39
-0.2870360315 -0.3618260026 -0.2106485069 5.962428276e-39
-0.2893452048 -0.3563888371 -0.225694567 5.962428276e-39
-0.2885507941 -0.3504866362 -0.2424682379 5.962428276e-39
-0.2868534327 -0.3431245387 -0.2590104938 5.962428276e-39
-0.2862896621 -0.3324838579 -0.2791008055 5.962428276e-39
-0.2791884542 -0.3128710389 -0.3068273067 5.962428276e-39
-0.2793814242 -0.2973222435 -0.3332641125 5.962428276e-39
0.2620479167 -0.2662087083 -0.1859562397 5.962428276e-39
0.217431277 -0.2757702768 -0.189987123 5.962428276e-39
0.1758437753 -0.2836716473 -0.1885524094 5.962428276e-39
0.1358515918 -0.2965082526 -0.1866369247 5.962428276e-39
0.09358388186 -0.307603687 -0.1842584014 5.962428276e-39
0.05735014006 -0.3120251 -0.1814884245 5.962428276e-39
0.02610213682 -0.316201359 -0.1775357127 5.962428276e-39
0.0007400214672 -0.3196228743 -0.1758807302 5.962428276e-39
-0.02316176891 -0.3262731731 -0.1764549315 5.962428276e-39
-0.04821728915 -0.3333973587 -0.1788735688 5.962428276e-39
-0.07182340324 -0.3399334848 -0.1822107136 5.962428276e-39
-0.09178555012 -0.3474111557 -0.1848929524 5.962428276e-39
-0.1127083227 -0.3535021842 -0.185302943 5.962428276e-39
-0.1303742081 -0.3594363034 -0.1844289303 5.962428276e-39
-0.1437233984 -0.3670996428 -0.1827885211 5.962428276e-39
-0.1587933749 -0.3744470179 -0.1808919609 5.962428276e-39
-0.1720036417 -0.3808764815 -0.1788780093 5.962428276e-39
-0.1874159276 -0.3850617111 -0.177873075 5.962428276e-39
-0.2064376324 -0.3882045746 -0.1769163907 5.962428276e-39
-0.2257396877 -0.3923094273 -0.1761060357 5.962428276e-39
-0.2419158518 -0.3922735453 -0.1754147708 5.962428276e-39
-0.2559619546 -0.391210556 -0.1773068011 5.962428276e-39
-0.2678429186 -0.3896152675 -0.182348609 5.962428276e-39
-0.2752884626 -0.3869745135 -0.1882264018 5.962428276e-39
-0.2819147408 -0.3834990859 -0.1990552545 5.962428276e-39
-0.2867413461 -0.37890625 -0.2144049406 5.962428276e-39
-0.2900445461 -0.3731426299 -0.2282008827 5.962428276e-39
-0.2897434533 -0.366884768 -0.2451508641 5.962428276e-39
-0.2872203588 -0.3586914837 -0.2602361441 5.962428276e-39
-0.2859618962 -0.3475142121 -0.2801813185 5.962428276e-39
-0.2797208726 -0.3279165924 -0.3063956201 5.962428276e-39
-0.2793974876 -0.3109884262 -0.3330802619 5.962428276e-39
0.2653897405 -0.2742652893 -0.1881653965 1.184631237e-38
0.2216130197 -0.2824953496 -0.1903049648 1.184631237e-38
0.1797767133 -0.2907413244 -0.1870211661 1.184631237e-38
0.1407980472 -0.303734988 -0.1849121749 1.184631237e-38
0.09677477181 -0.315527916 -0.1826218665 1.184631237e-38
0.0581782572 -0.3196230829 -0.1803988516 1.184631237e-38
0.02541141585 -0.3233723044 -0.1764147878 1.184631237e-38
-0.001644957811 -0.3280534744 -0.1754327714 1.184631237e-38
-0.02564282343 -0.3346781135 -0.1760317385 1.184631237e-38
-0.04991540313 -0.3423543274 -0.1785168648 1.184631237e-38
-0.07525503635 -0.3490800858 -0.1824350953 1.184631237e-38
-0.09333047271 -0.35574615 -0.1855501235 1.184631237e-38
-0.111447826 -0.3621323705 -0.1855052114 1.184631237e-38
-0.1295350641 -0.3683665395 -0.1844584048 1.184631237e-38
-0.1444036514 -0.3757733405 -0.1834655404 1.184631237e-38
-0.1589758247 -0.3830234408 -0.181902051 1.184631237e-38
-0.1721134782 -0.3887737691 -0.1796546876 1.184631237e-38
-0.1872013956 -0.3925412297 -0.1784732342 1.184631237e-38
-0.2062783688 -0.3954979777 -0.1773350835 1.184631237e-38
-0.225992918 -0.3995683789 -0.1764576137 1.184631237e-38
-0.2431733608 -0.4014234543 -0.1763319671 1.184631237e-38
-0.2574106753 -0.4019700587 -0.1780442894 1.184631237e-38
-0.2694705427 -0.4027432799 -0.1816376746 1.184631237e-38
-0.2755163014 -0.4018741846 -0.1909776032 1.184631237e-38
-0.2814949453 -0.3993589878 -0.2030131817 1.184631237e-38
-0.2864128351 -0.3953835666 -0.2162454128 1.184631237e-38
-0.2909650207 -0.3899132013 -0.2292521 1.184631237e-38
-0.2906435132 -0.3823601902 -0.2463237047 1.184631237e-38
-0.287789464 -0.3725956678 -0.2613660693 1.184631237e-38
-0.285759151 -0.3611279726 -0.2806240916 1.184631237e-38
-0.2803703845 -0.34287256 -0.3056953847 1.184631237e-38
-0.2800217867 -0.3243162036 -0.3321761191 1.184631237e-38
0.269875437 -0.2797153592 -0.189442575 1.184631237e-38
0.2248481214 -0.2877799869 -0.1893808544 1.184631237e-38
0.182462886 -0.2986931503 -0.1853399873 1.184631237e-38
0.1448816359 -0.3110747337 -0.182954371 1.184631237e-38
0.1027409881 -0.3231223524 -0.1809610724 1.184631237e-38
0.06026263162 -0.3279855251 -0.1789306998 1.184631237e-38
0.02551521733 -0.3308302164 -0.1755116284 1.184631237e-38
-0.003880988806 -0.3360794187 -0.174521476 1.184631237e-38
-0.02804137208 -0.3434648514 -0.1753450334 1.184631237e-38
-0.05027918145 -0.3512628973 -0.1783228815 1.184631237e-38
-0.07669311762 -0.3585119843 -0.1827092767 1.184631237e-38
-0.09460668266 -0.3651174903 -0.1857839525 1.184631237e-38
-0.1116626635 -0.371540308 -0.1860772371 1.184631237e-38
-0.1281489581 -0.3781691492 -0.184972167 1.184631237e-38
-0.1453476399 -0.3844496012 -0.1837724745 1.184631237e-38
-0.1591515541 -0.3909155726 -0.182769686 1.184631237e-38
-0.1721328199 -0.3960725963 -0.1802651882 1.184631237e-38
-0.1869500428 -0.3995314538 -0.1788698137 1.184631237e-38
-0.206455037 -0.4025519192 -0.1777137518 1.184631237e-38
-0.2260342836 -0.4070487618 -0.177131623 1.184631237e-38
-0.244132027 -0.4127531052 -0.176509589 1.184631237e-38
-0.2584762275 -0.4161017537 -0.1775042713 1.184631237e-38
-0.2707746029 -0.4202214479 -0.1833234727 1.184631237e-38
-0.2764969468 -0.4204701185 -0.191485852 1.184631237e-38
-0.2825763226 -0.4175974131 -0.2013272345 1.184631237e-38
-0.28766343 -0.4139301181 -0.2145462334 1.184631237e-38
-0.2905157804 -0.4092472792 -0.2290420532 1.184631237e-38
-0.2913939655 -0.3984010518 -0.2463592291 1.184631237e-38
-0.2880794704 -0.3859376907 -0.2623024285 1.184631237e-38
-0.2861563563 -0.3737100661 -0.2811163068 1.184631237e-38
-0.2816764414 -0.3556924164 -0.3062640429 1.184631237e-38
-0.2810270786 -0.3364160657 -0.3320388198 1.184631237e-38
0.2711909711 -0.2836690545 -0.1890685558 1.184631237e-38
0.226817131 -0.2937653065 -0.1882526278 1.184631237e-38
0.185112536 -0.3055953383 -0.1835241914 1.184631237e-38
0.1461000293 -0.3188327551 -0.1807868779 1.184631237e-38
0.1069255322 -0.3315936327 -0.1787504852 1.184631237e-38
0.06410615146 -0.3367045522 -0.1768520176 1.184631237e-38
0.02555879578 -0.3391533792 -0.174665302 1.184631237e-38
-0.004309404641 -0.3435716927 -0.1737087369 1.184631237e-38
-0.02899622545 -0.3514403701 -0.1750937402 1.184631237e-38
-0.0514209792 -0.3600644469 -0.1781927049 1.184631237e-38
-0.07745213062 -0.3690437675 -0.1822127402 1.184631237e-38
-0.09549020231 -0.3759210706 -0.1852739155 1.184631237e-38
-0.1112023294 -0.3823333979 -0.1858240664 1.184631237e-38
-0.1274569333 -0.3888076246 -0.1852658987 1.184631237e-38
-0.1454330087 -0.3952838182 -0.1838666201 1.184631237e-38
-0.1620634496 -0.4005583525 -0.1824968457 1.184631237e-38
-0.1764151454 -0.4052750468 -0.1794258654 1.184631237e-38
-0.1898916811 -0.4094744623 -0.1779741645 1.184631237e-38
-0.2091484219 -0.4137488008 -0.1764994264 1.184631237e-38
-0.2282823622 -0.4201722741 -0.1758338213 1.184631237e-38
-0.2464334518 -0.4272038937 -0.1759152114 1.184631237e-38
-0.2616340518 -0.432240665 -0.1802562773 1.184631237e-38
-0.2731601 -0.4376564026 -0.1857108772 1.184631237e-38
-0.2789873481 -0.4398463964 -0.1904090345 1.184631237e-38
-0.2836613655 -0.4366742671 -0.2003502548 1.184631237e-38
-0.2881483436 -0.433346957 -0.2127193511 1.184631237e-38
-0.2912543118 -0.42809093 -0.2279296815 1.184631237e-38
-0.2912752032 -0.4181905389 -0.2452662587 1.184631237e-38
-0.2889891267 -0.4016208053 -0.262147665 1.184631237e-38
-0.2871387601 -0.3860200047 -0.2813891768 1.184631237e-38
-0.2828756869 -0.3686231673 -0.3061528504 1.184631237e-38
-0.282053858 -0.3494262099 -0.3321216702 1.184631237e-38
0.272189647 -0.2884473801 -0.1868050992 1.184631237e-38
0.2312606871 -0.2992696762 -0.1861826777 1.184631237e-38
0.1872550249 -0.3118927479 -0.1817492545 1.184631237e-38
0.1490739435 -0.3248393238 -0.1788884699 1.184631237e-38
0.111510694 -0.3384687603 -0.1767806113 1.184631237e-38
0.06721152365 -0.345823735 -0.1747326553 1.184631237e-38
0.02829975262 -0.3479222059 -0.1737750471 1.184631237e-38
-0.003525711596 -0.3509542346 -0.1734487414 1.184631237e-38
-0.02931505255 -0.3595901132 -0.1746789217 1.184631237e-38
-0.05268341675 -0.3690191507 -0.177936852 1.184631237e-38
-0.07481759787 -0.3789314628 -0.1814827025 1.184631237e-38
-0.09547828883 -0.3867688775 -0.184405297 1.184631237e-38
-0.1104938388 -0.3934682012 -0.1849187613 1.184631237e-38
-0.1288717836 -0.4021149278 -0.1842042506 1.184631237e-38
-0.1481034905 -0.4101231396 -0.1821340919 1.184631237e-38
-0.1669566482 -0.4181638956 -0.1786997914 1.184631237e-38
-0.1825179458 -0.4247225821 -0.1748757362 1.184631237e-38
-0.1966695338 -0.4285845459 -0.1735465229 1.184631237e-38
-0.2145327777 -0.4324541688 -0.1728012264 1.184631237e-38
-0.2332067341 -0.4371405244 -0.1730704308 1.184631237e-38
-0.2504688799 -0.4412330687 -0.1761776805 1.184631237e-38
-0.2659750581 -0.4499095976 -0.1820321083 1.184631237e-38
-0.2766548693 -0.4560892582 -0.1858149469 1.184631237e-38
-0.283215642 -0.4583103061 -0.1897875667 1.184631237e-38
-0.2860946357 -0.4559825659 -0.2001023889 1.184631237e-38
-0.2882999778 -0.4514642358 -0.2129594684 1.184631237e-38
-0.2912980616 -0.4452680349 -0.2274022996 1.184631237e-38
-0.2913366258 -0.4345731437 -0.2446395159 1.184631237e-38
-0.2902285755 -0.4189053774 -0.2607408762 1.184631237e-38
-0.2883066237 -0.401994288 -0.2798696458 1.184631237e-38
-0.2837530673 -0.3815343976 -0.3055476844 1.184631237e-38
-0.2829843163 -0.3605344892 -0.3302744925 1.184631237e-38
0.2775285542 -0.2890455723 -0.1853978932 1.184631237e-38
0.235403955 -0.3045690358 -0.1836418509 1.184631237e-38
0.1908422709 -0.3177765012 -0.1795019507 1.184631237e-38
0.1524212211 -0.3307485878 -0.1768788099 1.184631237e-38
0.1141896248 -0.3446711898 -0.1750245988 1.184631237e-38
0.07281756401 -0.3525168002 -0.1731140614 1.184631237e-38
0.03134702519 -0.3551372886 -0.1731466353 1.184631237e-38
-0.001078676432 -0.3592326641 -0.1724830568 1.184631237e-38
-0.02854948677 -0.3673726916 -0.1743785441 1.184631237e-38
-0.05404435471 -0.3780171871 -0.1776509583 1.184631237e-38
-0.07345087826 -0.3877421319 -0.1806965172 1.184631237e-38
-0.09464885294 -0.3982282281 -0.1830115318 1.184631237e-38
-0.1105509847 -0.4084443152 -0.1826451719 1.184631237e-38
-0.1278700531 -0.4194502831 -0.1809651852 1.184631237e-38
-0.1468464732 -0.4262966812 -0.178260237 1.184631237e-38
-0.1672265232 -0.4356784821 -0.1746877134 1.184631237e-38
-0.186092332 -0.4420031905 -0.1710578799 1.184631237e-38
-0.2025759816 -0.4479904473 -0.1685105562 1.184631237e-38
-0.2211123854 -0.4539851546 -0.1685825288 1.184631237e-38
-0.2394720316 -0.4572031498 -0.17233181 1.184631237e-38
-0.2565023303 -0.4617108107 -0.1744754016 1.184631237e-38
-0.2725211084 -0.4719582796 -0.1800789237 1.184631237e-38
-0.2811311483 -0.4773307443 -0.1857880056 1.184631237e-38
-0.286475122 -0.4755838513 -0.1911352575 1.184631237e-38
-0.2893476188 -0.4732871354 -0.2037373185 1.184631237e-38
-0.2919504642 -0.4697594941 -0.2166503072 1.184631237e-38
-0.2926910818 -0.4618293941 -0.2299448848 1.184631237e-38
-0.2921601236 -0.4501612186 -0.2445297539 1.184631237e-38
-0.2908290327 -0.4351221919 -0.2600876391 1.184631237e-38
-0.2892420292 -0.4206725061 -0.2772325575 1.184631237e-38
-0.2843597829 -0.3995978832 -0.3019728363 1.184631237e-38
-0.2848121226 -0.376290828 -0.326576978 1.184631237e-38
0.2872420549 -0.2868350148 -0.1852264106 1.184631237e-38
0.244117409 -0.3078452647 -0.1823322475 1.184631237e-38
0.199562639 -0.3216475844 -0.1780509055 1.184631237e-38
0.158774659 -0.3353242576 -0.1752125323 1.184631237e-38
0.1196870357 -0.3500395715 -0.1729238927 1.184631237e-38
0.08002306521 -0.3583592772 -0.1720916331 1.184631237e-38
0.03500247374 -0.361947149 -0.1720129251 1.184631237e-38
0.002849280834 -0.3659879267 -0.1715004146 1.184631237e-38
-0.02583261579 -0.3737106919 -0.1737908721 1.184631237e-38
-0.05187128484 -0.384424299 -0.1774366498 1.184631237e-38
-0.07274904102 -0.3971999884 -0.1790445745 1.184631237e-38
-0.09282161295 -0.4122332335 -0.1804299355 1.184631237e-38
-0.1049380451 -0.4241874814 -0.1798846722 1.184631237e-38
-0.1179844961 -0.4336721897 -0.1784036756 1.184631237e-38
-0.1348816752 -0.4408522248 -0.1760010719 1.184631237e-38
-0.1531159431 -0.4487721622 -0.1729035676 1.184631237e-38
-0.1761934757 -0.4573349059 -0.1680871844 1.184631237e-38
-0.1951845586 -0.463891089 -0.1672768593 1.184631237e-38
-0.2144904733 -0.4696190357 -0.1702721715 1.184631237e-38
-0.2363449782 -0.4751145244 -0.1726350486 1.184631237e-38
-0.2565386593 -0.4820585251 -0.1734593809 1.184631237e-38
-0.2683515251 -0.4845341444 -0.1820181906 1.184631237e-38
-0.2731443048 -0.4852407873 -0.1920116544 1.184631237e-38
-0.2805817127 -0.4841714501 -0.2048524916 1.184631237e-38
-0.289127022 -0.4822638035 -0.215426594 1.184631237e-38
-0.2916734815 -0.4793460667 -0.2263743877 1.184631237e-38
-0.2925255895 -0.4736821055 -0.2361766994 1.184631237e-38
-0.2936240137 -0.4659320712 -0.2486841679 1.184631237e-38
-0.2922952175 -0.4527242184 -0.263227582 1.184631237e-38
-0.2901432216 -0.4415584207 -0.2765126824 1.184631237e-38
-0.2866114974 -0.4236220717 -0.2989014387 1.184631237e-38
-0.2872206271 -0.3993167877 -0.323120445 1.184631237e-38
0.2976813912 -0.2850359976 -0.1852084994 1.184631237e-38
0.2525959313 -0.3066281676 -0.182549715 1.184631237e-38
0.2098457813 -0.3253261745 -0.1772622764 1.184631237e-38
0.1689596921 -0.3384258747 -0.1740314066 1.184631237e-38
0.1313528717 -0.3528377414 -0.1724433601 1.184631237e-38
0.09155026078 -0.3626744747 -0.1721688807 1.184631237e-38
0.04247784987 -0.3681547046 -0.1705731153 1.184631237e-38
0.007306922227 -0.3726373613 -0.1705536246 1.184631237e-38
-0.02187242359 -0.3822259605 -0.1729871333 1.184631237e-38
-0.04478415102 -0.3944084346 -0.1756455302 1.184631237e-38
-0.06367452443 -0.408501029 -0.1774834692 1.184631237e-38
-0.08149731904 -0.4255225956 -0.1785511672 1.184631237e-38
-0.09271390736 -0.4378195405 -0.1781830788 1.184631237e-38
-0.102211982 -0.445530951 -0.1765725613 1.184631237e-38
-0.1163401976 -0.452300787 -0.1739626229 1.184631237e-38
-0.1339990795 -0.4600967169 -0.170452565 1.184631237e-38
-0.1589336395 -0.469802618 -0.1678565443 1.184631237e-38
-0.1801584214 -0.4771073461 -0.1688581407 1.184631237e-38
-0.1984811425 -0.4800562263 -0.1739318967 1.184631237e-38
-0.2184229046 -0.4833908081 -0.1767757833 1.184631237e-38
-0.2354134917 -0.484031409 -0.1826474369 1.184631237e-38
-0.2453689277 -0.4839051962 -0.1945404708 1.184631237e-38
-0.253625989 -0.4842954278 -0.2107926905 1.184631237e-38
-0.2672120333 -0.4849312603 -0.2265839279 1.184631237e-38
-0.2791156769 -0.4847589135 -0.2380200326 1.184631237e-38
-0.2900075912 -0.4839367867 -0.2484063208 1.184631237e-38
-0.2922469676 -0.4808126688 -0.2558501959 1.184631237e-38
-0.2923898697 -0.4762800038 -0.2659162879 1.184631237e-38
-0.292539686 -0.4713043272 -0.2770931721 1.184631237e-38
-0.2933161557 -0.4635378122 -0.2854134738 1.184631237e-38
-0.2891040146 -0.4448735714 -0.3063895702 1.184631237e-38
-0.2904933095 -0.4254671037 -0.3312605917 1.184631237e-38
0.308013618 -0.2848609984 -0.1854317784 1.184631237e-38
0.2613392174 -0.305293262 -0.1839076579 1.184631237e-38
0.2209612727 -0.3277171254 -0.1780495942 1.184631237e-38
0.185831666 -0.3419461846 -0.1743456721 1.184631237e-38
0.1517354697 -0.3549227715 -0.1737825274 1.184631237e-38
0.1132183224 -0.36538589 -0.1737902164 1.184631237e-38
0.06299677491 -0.3720579147 -0.170448035 1.184631237e-38
0.01939671859 -0.3797657192 -0.1699804366 1.184631237e-38
-0.006882976741 -0.3905819356 -0.1725951135 1.184631237e-38
-0.03007179685 -0.4022464156 -0.1746694446 1.184631237e-38
-0.04773653299 -0.4179127514 -0.1767578721 1.184631237e-38
-0.06347567588 -0.4349226952 -0.1774202883 1.184631237e-38
-0.07727498561 -0.4466381967 -0.1762340367 1.184631237e-38
-0.0898162052 -0.4535135925 -0.1744287312 1.184631237e-38
-0.1035337672 -0.4591095448 -0.1714344025 1.184631237e-38
-0.1211883724 -0.467025727 -0.170674324 1.184631237e-38
-0.1459803134 -0.475246042 -0.1709848642 1.184631237e-38
-0.1685032398 -0.4789717197 -0.1762182117 1.184631237e-38
-0.184999913 -0.4801434875 -0.1804523468 1.184631237e-38
-0.2021330595 -0.4806460142 -0.1882535219 1.184631237e-38
-0.2193745375 -0.4811829329 -0.2000502646 1.184631237e-38
-0.2321038395 -0.4818122089 -0.215438664 1.184631237e-38
-0.2431605309 -0.4823016524 -0.2307620645 1.184631237e-38
-0.257681489 -0.4825426936 -0.2462784648 1.184631237e-38
-0.2733306885 -0.4835596681 -0.257457912 1.184631237e-38
-0.2841263115 -0.4826974273 -0.2692763209 1.184631237e-38
-0.2880735099 -0.4809737802 -0.2802658975 1.184631237e-38
-0.2887275219 -0.4789061248 -0.2871315181 1.184631237e-38
-0.2908756733 -0.4756752551 -0.2990570366 1.184631237e-38
-0.2942915857 -0.4687091112 -0.3059410751 1.184631237e-38
-0.2912812531 -0.4572494626 -0.3213979602 1.184631237e-38
-0.2927082777 -0.4375014007 -0.3429060578 1.184631237e-38
0.3171180487 -0.2895633578 -0.1881778538 1.771655483e-38
0.2737208307 -0.3072646558 -0.185405612 1.771655483e-38
0.2416664958 -0.3262197971 -0.1812822521 1.771655483e-38
0.207657367 -0.3453960419 -0.1765058339 1.771655483e-38
0.1728369147 -0.3576927185 -0.1748714745 1.771655483e-38
0.1328757256 -0.3702675402 -0.1742164493 1.771655483e-38
0.08600503206 -0.3777836263 -0.1705766618 1.771655483e-38
0.03932762519 -0.3857267201 -0.1705493927 1.771655483e-38
0.0124422051 -0.3968866765 -0.1726105213 1.771655483e-38
-0.01054994017 -0.41020751 -0.1741069853 1.771655483e-38
-0.02942559309 -0.4267894328 -0.175915271 1.771655483e-38
-0.0484756045 -0.4418429434 -0.1759212911 1.771655483e-38
-0.06589853019 -0.4520664215 -0.1748331487 1.771655483e-38
-0.08000341058 -0.4602712691 -0.1739301085 1.771655483e-38
-0.0919598341 -0.4668200612 -0.1754678488 1.771655483e-38
-0.1089690551 -0.4717377722 -0.1768372059 1.771655483e-38
-0.1303502768 -0.4741218686 -0.1810452044 1.771655483e-38
-0.1539815366 -0.4757819772 -0.1859355867 1.771655483e-38
-0.1723293066 -0.4771175981 -0.1962081492 1.771655483e-38
-0.1899583638 -0.4782444239 -0.2084722519 1.771655483e-38
-0.2069248557 -0.4790552557 -0.2220562696 1.771655483e-38
-0.2204108685 -0.4799618721 -0.2356603742 1.771655483e-38
-0.2328796685 -0.480271399 -0.2492111623 1.771655483e-38
-0.2480992228 -0.4805060029 -0.2661619186 1.771655483e-38
-0.2639673054 -0.4817587733 -0.2788307667 1.771655483e-38
-0.2759235799 -0.48116377 -0.2942928374 1.771655483e-38
-0.2829944789 -0.4797532558 -0.3036877513 1.771655483e-38
-0.2880348563 -0.4780730605 -0.3002076149 1.771655483e-38
-0.2919216752 -0.4748244882 -0.3082499504 1.771655483e-38
-0.2970321476 -0.4684154093 -0.3171996474 1.771655483e-38
-0.2933027744 -0.4587513208 -0.3334882259 1.771655483e-38
-0.2915239036 -0.4392261803 -0.3527524769 1.771655483e-38
0.3219259977 -0.2909217477 -0.1989504397 1.771655483e-38
0.2912069261 -0.3118063509 -0.1952502728 1.771655483e-38
0.261223346 -0.3282653987 -0.1842033863 1.771655483e-38
0.2316464782 -0.3459154963 -0.1800040007 1.771655483e-38
0.1953884363 -0.3635033369 -0.1764402092 1.771655483e-38
0.1555315405 -0.3786579072 -0.1735788584 1.771655483e-38
0.1106168479 -0.3844826519 -0.171114713 1.771655483e-38
0.06362463534 -0.3923427165 -0.1705588996 1.771655483e-38
0.03214563057 -0.404558301 -0.17251724 1.771655483e-38
0.007707674056 -0.418759048 -0.1737226248 1.771655483e-38
-0.01492100209 -0.4330835938 -0.1748040915 1.771655483e-38
-0.03595678508 -0.4476228952 -0.1758478582 1.771655483e-38
-0.05396648124 -0.4584063292 -0.1758722663 1.771655483e-38
-0.06934888661 -0.4629377127 -0.1768882275 1.771655483e-38
-0.08136752993 -0.4674734473 -0.1809489131 1.771655483e-38
-0.09537974 -0.4692656994 -0.1867927611 1.771655483e-38
-0.1171631664 -0.4710939527 -0.1948457658 1.771655483e-38
-0.1377217323 -0.4726911783 -0.2048934102 1.771655483e-38
-0.161276415 -0.4744294286 -0.2174398899 1.771655483e-38
-0.1785709411 -0.4761087298 -0.2326904833 1.771655483e-38
-0.1952390671 -0.4772260785 -0.2463455498 1.771655483e-38
-0.2077785581 -0.4780008197 -0.2594897747 1.771655483e-38
-0.2204206884 -0.4785906374 -0.2723893225 1.771655483e-38
-0.2367402464 -0.4792312384 -0.2883787453 1.771655483e-38
-0.2532571554 -0.479670316 -0.3040438592 1.771655483e-38
-0.2667094767 -0.4794519544 -0.3122418225 1.771655483e-38
-0.2800684571 -0.4783617556 -0.3120914102 1.771655483e-38
-0.2888912559 -0.4764738679 -0.309571147 1.771655483e-38
-0.2935585082 -0.4722767472 -0.3173425198 1.771655483e-38
-0.2985465229 -0.4616715312 -0.3275653124 1.771655483e-38
-0.2902372181 -0.4426218271 -0.3450177908 1.771655483e-38
-0.2859640419 -0.4129930139 -0.3609616458 1.771655483e-38
0.3376221955 -0.2881020606 -0.2058165967 1.771655483e-38
0.3064055741 -0.308496803 -0.2041501403 1.771655483e-38
0.2756601572 -0.3269214034 -0.1958477795 1.771655483e-38
0.2481915355 -0.3467569947 -0.1893879473 1.771655483e-38
0.2150355279 -0.3705996573 -0.1817446351 1.771655483e-38
0.1757234186 -0.3855621815 -0.1752789021 1.771655483e-38
0.1320824921 -0.3917298019 -0.1717454493 1.771655483e-38
0.08787119389 -0.3987063766 -0.1713264287 1.771655483e-38
0.05087654665 -0.4124272168 -0.1728712916 1.771655483e-38
0.02358462289 -0.4263356328 -0.1742097735 1.771655483e-38
-0.0003104172647 -0.4393390417 -0.1756553948 1.771655483e-38
-0.02236611769 -0.4482240081 -0.176632911 1.771655483e-38
-0.04123108089 -0.455278337 -0.1771712303 1.771655483e-38
-0.05655829236 -0.4598156214 -0.1823385656 1.771655483e-38
-0.07144594193 -0.4621291757 -0.1913917959 1.771655483e-38
-0.08480687439 -0.463751018 -0.2037459314 1.771655483e-38
-0.1039588302 -0.4653205872 -0.2148753405 1.771655483e-38
-0.1241486222 -0.4662581682 -0.2274298072 1.771655483e-38
-0.1486204416 -0.467458725 -0.2420282364 1.771655483e-38
-0.1675133854 -0.4707666636 -0.2550145686 1.771655483e-38
-0.1821085215 -0.4741819501 -0.2691794038 1.771655483e-38
-0.1946235448 -0.4759052992 -0.2826822102 1.771655483e-38
-0.2074701488 -0.4761863947 -0.293766737 1.771655483e-38
-0.224876672 -0.4770292044 -0.305003792 1.771655483e-38
-0.2433132678 -0.4776130617 -0.3116263449 1.771655483e-38
-0.263908416 -0.4779167771 -0.3199577928 1.771655483e-38
-0.2776786685 -0.4764308929 -0.3183038533 1.771655483e-38
-0.2898743451 -0.4723957777 -0.319052875 1.771655483e-38
-0.2914358377 -0.457028687 -0.3250587881 1.771655483e-38
-0.2952966392 -0.4351638556 -0.3340659738 1.771655483e-38
-0.2872132659 -0.4083549678 -0.3481889665 1.771655483e-38
-0.2814140022 -0.3747688532 -0.3640904725 1.771655483e-38
0.3525044322 -0.2899793983 -0.2126221955 1.771655483e-38
0.3236365616 -0.3077307642 -0.2111157775 1.771655483e-38
0.29571262 -0.3255013824 -0.2027544975 1.771655483e-38
0.2632544041 -0.3457791209 -0.1969732046 1.771655483e-38
0.2286370993 -0.3693835437 -0.1909030974 1.771655483e-38
0.1887344271 -0.3876846731 -0.1860707402 1.771655483e-38
0.1460618377 -0.3941690028 -0.1819164157 1.771655483e-38
0.1052308977 -0.4017271996 -0.1788268089 1.771655483e-38
0.06689453125 -0.4153674543 -0.179797262 1.771655483e-38
0.03739288077 -0.4262155592 -0.1802102327 1.771655483e-38
0.01389716193 -0.434286356 -0.1812247932 1.771655483e-38
-0.007766094059 -0.4433396161 -0.1827702522 1.771655483e-38
-0.02601983771 -0.451180011 -0.1887548566 1.771655483e-38
-0.0434439145 -0.4532111585 -0.1956129968 1.771655483e-38
-0.0597862415 -0.4535437226 -0.2102995515 1.771655483e-38
-0.07154656947 -0.4540641606 -0.2244921923 1.771655483e-38
-0.08719214052 -0.4560703635 -0.2369449437 1.771655483e-38
-0.1050145477 -0.4573236704 -0.2496099472 1.771655483e-38
-0.1276946366 -0.4580669403 -0.260899812 1.771655483e-38
-0.1488342881 -0.459759295 -0.2693590224 1.771655483e-38
-0.1602481902 -0.4621059299 -0.2810786366 1.771655483e-38
-0.1738456339 -0.4634057283 -0.2927431762 1.771655483e-38
-0.1882535368 -0.4653705955 -0.3013505638 1.771655483e-38
-0.2089688629 -0.4681766629 -0.3048790395 1.771655483e-38
-0.2331410646 -0.4701497257 -0.3109761178 1.771655483e-38
-0.2578864694 -0.4702308774 -0.3180144429 1.771655483e-38
-0.2721710205 -0.4557993412 -0.3145925105 1.771655483e-38
-0.2884589434 -0.4389190078 -0.3093549013 1.771655483e-38
-0.2912632525 -0.4198880196 -0.3175522089 1.771655483e-38
-0.295065999 -0.4034298062 -0.3293894231 1.771655483e-38
-0.28811571 -0.3826096058 -0.3432118893 1.771655483e-38
-0.281711936 -0.3483201265 -0.3570355475 1.771655483e-38
0.3635618985 -0.2784157991 -0.2226371169 1.771655483e-38
0.3405736089 -0.3040511906 -0.2168074846 1.771655483e-38
0.3158878982 -0.3232061863 -0.2095493078 1.771655483e-38
0.2863028646 -0.3456396461 -0.2013704181 1.771655483e-38
0.2477313876 -0.3680886626 -0.1989532411 1.771655483e-38
0.2088828981 -0.3878234625 -0.1943854392 1.771655483e-38
0.1684131622 -0.3966020346 -0.1889461279 1.771655483e-38
0.1274375767 -0.4044092 -0.1867028773 1.771655483e-38
0.09073457122 -0.4129068851 -0.1866457164 1.771655483e-38
0.05977394059 -0.4203808308 -0.1869901419 1.771655483e-38
0.03315095231 -0.4287222624 -0.1880089343 1.771655483e-38
0.008521076292 -0.4372091889 -0.1931202114 1.771655483e-38
-0.009659782052 -0.4425451458 -0.2014978528 1.771655483e-38
-0.02479658276 -0.4425655603 -0.2148782611 1.771655483e-38
-0.03958825022 -0.4419693351 -0.2304705083 1.771655483e-38
-0.04982401431 -0.441780895 -0.2452719808 1.771655483e-38
-0.06055177748 -0.4425086677 -0.2559195757 1.771655483e-38
-0.07832050323 -0.4459605813 -0.2651064694 1.771655483e-38
-0.1006503552 -0.4482980669 -0.2716166079 1.771655483e-38
-0.1259706616 -0.450841248 -0.2776802778 1.771655483e-38
-0.1383438259 -0.451625973 -0.2873482108 1.771655483e-38
-0.152780965 -0.4522989392 -0.2931085527 1.771655483e-38
-0.1715690196 -0.4535542727 -0.2965370119 1.771655483e-38
-0.1947342604 -0.4532532692 -0.2975433767 1.771655483e-38
-0.2243118733 -0.4517423511 -0.2999426126 1.771655483e-38
-0.2497975677 -0.4322536588 -0.2987557352 1.771655483e-38
-0.2708729804 -0.4215673804 -0.2931109965 1.771655483e-38
-0.2870737612 -0.4111017585 -0.2978533506 1.771655483e-38
-0.2916429937 -0.3946753442 -0.3065917194 1.771655483e-38
-0.2974878252 -0.3759000599 -0.3189124167 1.771655483e-38
-0.2910868824 -0.3533896506 -0.3341518641 1.771655483e-38
-0.2832158804 -0.3232313395 -0.3488150835 1.771655483e-38
0.3717181683 -0.2653315067 -0.2293409705 1.771655483e-38
0.3505481482 -0.2909353375 -0.2251338363 1.771655483e-38
0.3294930756 -0.3141541481 -0.2134412527 1.771655483e-38
0.3063350618 -0.3407550752 -0.2063307166 1.771655483e-38
0.272775203 -0.3623571694 -0.2023655474 1.771655483e-38
0.2330510616 -0.3819786906 -0.1968135238 1.771655483e-38
0.1905537248 -0.3902900815 -0.1936230659 1.771655483e-38
0.150732711 -0.3986012638 -0.1901429296 1.771655483e-38
0.1168892831 -0.4082262516 -0.1898145676 1.771655483e-38
0.08353489637 -0.4153231084 -0.190585494 1.771655483e-38
0.05552994087 -0.4227047563 -0.1952363253 1.771655483e-38
0.03158702329 -0.4296974242 -0.2044129372 1.771655483e-38
0.01348109916 -0.4313412309 -0.217672497 1.771655483e-38
-0.0001893416047 -0.4310182333 -0.2327469587 1.771655483e-38
-0.01335517317 -0.4300841391 -0.2451972365 1.771655483e-38
-0.02540874109 -0.4291238785 -0.2558552921 1.771655483e-38
-0.03613670543 -0.4289385974 -0.2657226622 1.771655483e-38
-0.05196901038 -0.4320784807 -0.2724989355 1.771655483e-38
