# .PCD v0.7 - Point Cloud Data file format
VERSION 0.7
FIELDS x y z
SIZE 4 4 4
TYPE F F F
COUNT 1 1 1
WIDTH 1142
HEIGHT 1
VIEWPOINT 0 0 0 1 0 0 0
POINTS 1142
DATA ascii
-0.3042340279 -0.1061607301 -0.2816809118
-0.07376398146 -0.4243763089 -0.1886980534
-0.08973244578 -0.4887501895 -0.1879879236
-0.075344868 -0.4737802744 -0.1882727891
-0.07028675824 -0.449649781 -0.1879375875
-0.09065691382 -0.4104327261 -0.1888089776
-0.09985715896 -0.4627193511 -0.186966747
-0.09020970762 -0.4245249331 -0.1879767925
-0.09532722831 -0.4381768405 -0.1890414357
-0.1423046589 0.0563262701 -0.1866904497
-0.156565994 0.05488233641 -0.1863269508
-0.1239635795 0.05618739128 -0.1895842701
-0.099198699 0.05574315041 -0.1876753718
-0.1825511456 0.05549445748 -0.188967824
-0.2316799164 0.05513364077 -0.1873899996
-0.1601561308 0.05565113202 -0.1886673123
-0.2018260062 0.05446597934 -0.1863036901
0.02916243486 -0.2521021366 -0.2009363174
0.01291906834 -0.314119041 -0.1996879727
0.02595088258 -0.2995767295 -0.2011393756
0.02682506479 -0.2759809494 -0.2002010792
0.0162698403 -0.2379445732 -0.2013390511
0.01316971332 -0.2886377573 -0.1995774209
0.01325119659 -0.2520260513 -0.2006933093
0.01377663203 -0.2652350664 -0.2004828155
-0.09636490047 -0.3147737384 -0.2015093118
-0.1122747958 -0.374126941 -0.2002204657
-0.09900724888 -0.3603150845 -0.2017799765
-0.09803317487 -0.3376870453 -0.2008024901
-0.1093591601 -0.3013043702 -0.2019416839
-0.1130761206 -0.3499332368 -0.2001979351
-0.112063162 -0.3145694137 -0.2012311667
-0.1120570675 -0.3273652494 -0.2009969056
-0.189475596 -0.0970081985 -0.1984772682
-0.2059566379 -0.1576080024 -0.1972178221
-0.1923929304 -0.1434369981 -0.1988102645
-0.1912654936 -0.1204102039 -0.1976007223
-0.2030619383 -0.08322630078 -0.1989692152
-0.2068192363 -0.1328447014 -0.1970974505
-0.2058014423 -0.09686787426 -0.1981428117
-0.2057950348 -0.1098667085 -0.197933048
0.2918364704 -0.01336905733 -0.1913455725
0.2750645578 -0.04057591036 -0.1911990047
0.2976631522 -0.03249952942 -0.1940297335
0.3101192117 -0.02279763669 -0.1914695799
0.2636284828 -0.007909079082 -0.1934382021
0.2402612865 -0.0275972113 -0.1914903075
0.2739191353 -0.01473417599 -0.194396317
0.2538683712 -0.01986352541 -0.191169709
-0.08595041931 -0.4838694334 -0.2063277364
-0.08939741552 -0.4875700772 -0.2132097334
-0.07459160686 -0.4853059947 -0.2117776275
-0.06038018316 -0.485550195 -0.2165440023
-0.1012613624 -0.482578516 -0.2164156437
-0.1295827031 -0.4851126075 -0.2131529152
-0.09056703746 -0.4843301177 -0.2218571901
-0.1118647829 -0.4856762588 -0.2130991518
-0.0749284476 0.03753639013 -0.1912034154
-0.08962181956 -0.02177477628 -0.1905296445
-0.07618703693 -0.008249349892 -0.1908918619
-0.07213347405 0.01408999972 -0.190587908
-0.08998306841 0.05017389357 -0.1913881898
-0.09818898886 0.00179301016 -0.1896135211
-0.09010851383 0.03771018982 -0.1905859113
-0.09416917711 0.02482074127 -0.1916118562
0.122870639 -0.2522071898 -0.2004998475
0.1067237779 -0.3130040169 -0.199231118
0.1200124249 -0.2988007665 -0.2007314116
0.1210873798 -0.2756594718 -0.1997561753
0.1096886843 -0.2383792996 -0.2009145021
0.1060310826 -0.2881321013 -0.1991470456
0.1069580317 -0.2520733476 -0.2002072036
0.1069953293 -0.2650991976 -0.2000134736
-0.09639403969 -0.4097616374 -0.1996943504
-0.1128533185 -0.4708554745 -0.1984169185
-0.09954334795 -0.456538111 -0.2000175565
-0.09871778637 -0.4333027303 -0.1988541484
-0.1095612943 -0.3958090246 -0.2001744211
-0.1127424911 -0.4458082318 -0.1983347088
-0.1125944629 -0.4096428752 -0.1994162053
-0.112086542 -0.4227072001 -0.199142009
0.4146962762 -0.05696376786 -0.1956800073
0.4041835368 -0.08531171829 -0.1951621473
0.4167176485 -0.07567370683 -0.1970034689
0.4241514504 -0.06770414114 -0.1942541897
0.4021171629 -0.04858390987 -0.1969841421
0.3885917068 -0.07104613632 -0.1942687333
0.4038679898 -0.05888903141 -0.1964256465
0.3963695168 -0.06399223953 -0.1963815242
-0.2751681209 -0.05021417886 -0.1957428455
-0.2898665369 -0.109752737 -0.1948288381
-0.2781475782 -0.09599273652 -0.1957272291
-0.2771839499 -0.07333920896 -0.1952832043
-0.2866781652 -0.03700246662 -0.1960676461
-0.2897846401 -0.08560164273 -0.1944309771
-0.2895844281 -0.05002417415 -0.1956321895
-0.2890021801 -0.06284019351 -0.1958105564
-0.08742843568 0.06253642589 -0.1912034154
-0.1021218076 0.003225259483 -0.1905296445
-0.08868702501 0.01675068587 -0.1908918619
-0.08463346213 0.03909003735 -0.190587908
-0.1024830565 0.07517392933 -0.1913881898
-0.1106889769 0.02679304592 -0.1896135211
-0.1026085019 0.06271022558 -0.1905859113
-0.1066691652 0.04982077703 -0.1916118562
-0.2108471394 -0.04955707118 -0.1866388917
-0.2267648727 -0.1126677543 -0.1859102249
-0.2114478648 -0.09804695845 -0.1861515939
-0.2052103579 -0.07441177964 -0.1859332323
-0.2291521877 -0.03603038192 -0.1866981685
-0.2405807078 -0.08729209006 -0.1849001795
-0.2274733484 -0.04970101267 -0.1858001202
-0.2346597612 -0.06314945966 -0.1869773865
-0.2924945951 -0.4090220034 -0.1972145438
-0.2988092303 -0.4730788767 -0.1979579628
-0.2958147526 -0.4587553144 -0.1946543604
-0.2936947346 -0.4343519211 -0.1990834326
-0.2954711914 -0.3963101804 -0.1961292624
-0.2973264754 -0.4473130107 -0.1959705651
-0.2977203727 -0.4091562033 -0.1980083883
-0.2966666222 -0.4225721955 -0.2005910873
0.1892192215 -0.1744870842 -0.1892642528
0.1732065976 -0.2381211221 -0.1884389669
0.1890133172 -0.2233224511 -0.1886856705
0.1957861483 -0.1994639635 -0.1886684299
0.1702564359 -0.1607931554 -0.1892315149
0.15789029 -0.2124180794 -0.1875447631
0.1725174785 -0.1747139096 -0.1884135306
0.1643531322 -0.188207522 -0.1895332485
-0.3090680838 0.06272137165 -0.189406991
-0.314080894 -0.002113983035 -0.1931023002
-0.3122316599 0.01236870512 -0.1875625104
-0.3100971878 0.0370105058 -0.1964780688
-0.3109944463 0.07546711713 -0.1922867298
-0.3126021922 0.02400174364 -0.1913906634
-0.3130731583 0.06251348555 -0.1963872313
-0.3119991124 0.04901587218 -0.1950614303
0.1220263839 -0.3456899524 -0.200343132
0.1055374742 -0.4076092243 -0.1989340037
0.1203054637 -0.3930944204 -0.2003628612
0.1231300905 -0.3695528805 -0.1996800601
0.1065512076 -0.3316341341 -0.2005709559
0.09986957908 -0.3822188973 -0.198919788
0.1055671424 -0.3456955552 -0.1998360157
0.1026416868 -0.3588843346 -0.1997691989
0.1231976449 -0.03493112698 -0.206702292
0.1079636961 -0.09658074379 -0.2059772909
0.1229368597 -0.08240638673 -0.2061248869
0.1291082054 -0.05926981196 -0.2061380744
0.1054505482 -0.02182842605 -0.2066902816
0.09391862154 -0.07193692029 -0.2049974203
0.107247293 -0.03498664126 -0.2058683634
0.09994055331 -0.04821677506 -0.2071231008
-0.09865324199 -0.1495317072 -0.1870586574
-0.1142253578 -0.2121305466 -0.1863233
-0.09874479473 -0.1976737082 -0.186451152
-0.09200327843 -0.1742098331 -0.1864880621
-0.1172440425 -0.1361958981 -0.1870267093
-0.1296205223 -0.1870198846 -0.1853344142
-0.114983879 -0.1496736258 -0.1861953735
-0.1231002659 -0.1630372405 -0.1874579191
-0.2236436903 -0.3872330189 -0.1950696409
-0.2401244491 -0.4480577409 -0.1938275397
-0.2256526798 -0.433862716 -0.1952321231
-0.2230813354 -0.4107972085 -0.1942604631
-0.2388385981 -0.3735399246 -0.1954462975
-0.2450373322 -0.4232883155 -0.1936318129
-0.2401980311 -0.3871528506 -0.1945826411
-0.2424997687 -0.4001977146 -0.1946038902
-0.07458026707 -0.3249683082 -0.2015093118
-0.09049016237 -0.3843215108 -0.2002204657
-0.07722261548 -0.3705096543 -0.2017799765
-0.07624854147 -0.3478816152 -0.2008024901
-0.08757452667 -0.31149894 -0.2019416839
-0.09129148722 -0.3601278067 -0.2001979351
-0.09027852863 -0.3247639835 -0.2012311667
-0.09027243406 -0.3375598192 -0.2009969056
-0.2524375618 -0.4888035357 -0.2072065771
-0.249072358 -0.4892127216 -0.2471633852
-0.2395047098 -0.4878457785 -0.2238239795
-0.2301997989 -0.4906519353 -0.2770111859
-0.2670005858 -0.4888315499 -0.2680362761
-0.2857881188 -0.4884563088 -0.2521000504
-0.2550770342 -0.4890531003 -0.2940362692
-0.271348834 -0.4899479747 -0.2370635867
0.2539886236 -0.3529433012 -0.1814199835
0.2466076761 -0.3705494106 -0.1805970669
0.2603744864 -0.3608313501 -0.1822023392
0.2749214768 -0.3589463234 -0.1800121367
0.2392803878 -0.3450248539 -0.1822647154
0.2150685787 -0.3578678668 -0.1796546876
0.2463375181 -0.3570478857 -0.1821214706
0.229604736 -0.3584683239 -0.1825484931
-0.06450867653 -0.3466854393 -0.206319347
-0.08025881648 -0.4128378034 -0.205606252
-0.06491468102 -0.3974087238 -0.2054721564
-0.05778742582 -0.3726315796 -0.2058589458
-0.08329208195 -0.3324739933 -0.2061288357
-0.09574145079 -0.3859870136 -0.2045411319
-0.08086535335 -0.3470432162 -0.2054865658
-0.08921863884 -0.3609325588 -0.2068395317
-0.3151015639 -0.09640668333 -0.2603740394
-0.3145228326 -0.1573495865 -0.2867306173
-0.3153712749 -0.1439534724 -0.2665008605
-0.3149952292 -0.1210202277 -0.3086410165
-0.3137566745 -0.08457137644 -0.2969666123
-0.3142676651 -0.1329050809 -0.2890160382
-0.3149412274 -0.09648938477 -0.3174436986
-0.3140466213 -0.1092269272 -0.2818837762
-0.08626396954 -0.399376303 -0.1886980534
-0.1022324339 -0.4637501836 -0.1879879236
-0.08784485608 -0.4487802684 -0.1882727891
-0.08278674632 -0.424649775 -0.1879375875
-0.1031569019 -0.3854327202 -0.1888089776
-0.112357147 -0.4377193451 -0.186966747
-0.1027096957 -0.3995249271 -0.1879767925
-0.1078272164 -0.4131768346 -0.1890414357
0.1166754141 -0.3775116503 -0.188526243
0.1092154086 -0.3955264688 -0.1875937432
0.1217752099 -0.3855904937 -0.189284727
0.1347562075 -0.3836751878 -0.186734274
0.1036842167 -0.369367063 -0.1893333197
0.08239810169 -0.3825621009 -0.1865456551
0.1090743542 -0.3816531599 -0.1889849901
0.09512545913 -0.3830927908 -0.189529568
0.01400009543 -0.187117368 -0.1884551942
-0.001670882106 -0.2494949996 -0.1876607835
0.01409935765 -0.2350685 -0.18785882
0.02100584656 -0.2116732448 -0.1879065037
-0.004906777292 -0.1738009453 -0.1884141862
-0.0176565703 -0.2244406939 -0.1867507696
-0.002432806417 -0.1872761697 -0.1875885725
-0.01092266943 -0.2005849183 -0.1887801588
-0.1366151273 -0.06242612377 -0.200362131
-0.1528570205 -0.121451363 -0.1990008801
-0.1386459172 -0.1077193022 -0.200647831
-0.1368650794 -0.08523802459 -0.1996004283
-0.1509374231 -0.04905113578 -0.2007874846
-0.156206876 -0.09744526446 -0.1990199238
-0.15282242 -0.06223289296 -0.199952364
-0.1542527825 -0.0749861896 -0.1997401416
-0.3248230517 -0.1802543402 -0.3046469092
-0.329767853 -0.2485592663 -0.3106538057
-0.3286736608 -0.2319585979 -0.3037113547
-0.3246733248 -0.2070840448 -0.3151034713
-0.3253941536 -0.1651649475 -0.3107396364
-0.3285436034 -0.2195730507 -0.3089923263
-0.3282036781 -0.181483224 -0.31628865
-0.3268941045 -0.194953382 -0.312120378
0.3630318344 -0.2209431082 -0.1914420128
0.3547264636 -0.2696602941 -0.1903609335
0.3601747155 -0.256374687 -0.1900505722
0.3615446687 -0.2396925986 -0.1904650331
0.3587357402 -0.209041059 -0.1906783879
0.3572439849 -0.2476994395 -0.1890560985
0.3554285169 -0.2224609554 -0.1907000393
0.3574060798 -0.2317560166 -0.1925477386
-0.1986044794 -0.4244279861 -0.1907024086
-0.2145336121 -0.4886648357 -0.1899561435
-0.2000941336 -0.4737094641 -0.1902712882
-0.195020169 -0.4496011138 -0.1900151968
-0.2154696584 -0.4104805887 -0.1907981038
-0.2247507572 -0.4626415372 -0.1890141368
-0.2149589658 -0.4245914519 -0.1900292188
-0.2201803774 -0.4381997287 -0.1910137832
0.3661338091 -0.2210815996 -0.191655457
0.3528262377 -0.282476604 -0.1914026439
0.3626452982 -0.2684674859 -0.1911696792
0.3642190993 -0.2453099936 -0.1912935972
0.3557758927 -0.2080150247 -0.1918267608
0.3527602553 -0.2578959763 -0.1901453733
0.3529394269 -0.2209150344 -0.1915297806
0.3537005186 -0.2341123819 -0.1926856637
0.0004907846451 -0.1752055287 -0.2000614405
-0.01529334113 -0.2330358028 -0.1988081634
-0.002104694024 -0.2196534276 -0.2004349828
-0.001341447234 -0.1976031959 -0.1992898285
-0.01230072416 -0.1621422768 -0.2005745173
-0.01585101523 -0.2096165419 -0.1987623274
-0.01515897922 -0.1748997867 -0.1997734308
-0.01490185596 -0.1874778569 -0.1995465755
-0.2701899707 -0.2872996032 -0.2199709415
-0.2768334448 -0.3515439332 -0.2206673324
-0.2735423446 -0.3371523321 -0.2174887061
-0.2714335918 -0.3126858175 -0.2217563689
-0.2734911442 -0.2744875848 -0.2189314961
-0.2753868997 -0.3256799877 -0.2187175155
-0.2757678032 -0.2874347568 -0.2207330167
-0.2747273743 -0.300889045 -0.2232469916
-0.1892162263 -0.2524487972 -0.1970913708
-0.2053420693 -0.3134798408 -0.1959177852
-0.1920050532 -0.29922387 -0.1972682923
-0.1905200183 -0.2760460079 -0.1963368058
-0.2027476877 -0.2386631817 -0.1974939853
-0.2069193274 -0.2885479033 -0.1957021207
-0.2051858008 -0.2523505688 -0.1967763305
-0.2056093216 -0.2654086351 -0.1967215538
-0.09038302302 0.0760884583 -0.2555693388
-0.09272941947 0.07473874092 -0.2909719348
-0.08070730418 0.0759145245 -0.2709470689
-0.07388305664 0.07439009845 -0.317510128
-0.1027758121 0.07586408406 -0.3096849322
-0.1207782626 0.07497510314 -0.2961274981
-0.09645064175 0.07604068518 -0.334035933
-0.1091844216 0.07487170398 -0.2808533609
-0.30567801 -0.06085924804 -0.2314834595
-0.3060726523 -0.1231547445 -0.2594797611
-0.306291908 -0.108727403 -0.2387246341
-0.3046342134 -0.08563574404 -0.2823370099
-0.3044525087 -0.04777029157 -0.2705472708
-0.3064351082 -0.09726134688 -0.2621816993
-0.3059251308 -0.06146389991 -0.2922748327
-0.3052577078 -0.07408241183 -0.2540148497
0.07678129524 -0.3949292302 -0.2061659992
0.06750088185 -0.4162513912 -0.2045598626
0.08184958249 -0.4061892927 -0.2058901787
0.09538248926 -0.4025118351 -0.204262808
0.06084502116 -0.3870656788 -0.2061215639
0.03838838637 -0.4028526545 -0.2037953734
0.06704309583 -0.3988476396 -0.2052210271
0.05176588893 -0.4012123346 -0.2063556015
-0.0239408724 -0.3747799098 -0.200553
-0.04061998799 -0.4362624288 -0.1992401481
-0.02710309811 -0.4218240678 -0.2008964717
-0.02621325105 -0.3984494209 -0.1996719241
-0.037379127 -0.3606996238 -0.2010397464
-0.04066203162 -0.4110146165 -0.1991798282
-0.04036756605 -0.3746851087 -0.2002500892
-0.03996391594 -0.3878087699 -0.1999423653
-0.04950922728 -0.1627055407 -0.2000614405
-0.06529335678 -0.2205358148 -0.1988081634
-0.05210470408 -0.2071534395 -0.2004349828
-0.05134145916 -0.1851032078 -0.1992898285
-0.06230073422 -0.1496422887 -0.2005745173
-0.06585102528 -0.1971165538 -0.1987623274
-0.06515899301 -0.1623997986 -0.1997734308
-0.06490186602 -0.1749778688 -0.1995465755
-0.2725827694 -0.2220508307 -0.1891977787
-0.2792464197 -0.2677613199 -0.1910733581
-0.2732966244 -0.2585066855 -0.1894795001
-0.2706970572 -0.2403842807 -0.1925815195
-0.2754026651 -0.213101536 -0.1905413419
-0.2814697325 -0.2508192062 -0.1903452128
-0.2778821588 -0.2209091783 -0.1927607656
-0.2778639197 -0.2317825556 -0.1926179975
0.07472675294 -0.1251439303 -0.1998090148
0.05963807553 -0.1840626448 -0.1986916363
0.07196567953 -0.1704261303 -0.1999212801
0.07278227061 -0.1479579955 -0.1992714107
0.06278450042 -0.1119315177 -0.2001691163
0.05954286456 -0.1601304859 -0.1985167563
0.05990937352 -0.1249162555 -0.1996296942
0.0603460297 -0.137636885 -0.1995900869
0.1415127963 0.009075799957 -0.1898418218
0.1256916821 -0.03097865731 -0.1884925067
0.1421478838 -0.0209310092 -0.1896709055
0.1485270709 -0.006352314726 -0.1884300709
0.1210023165 0.01654695533 -0.1897894144
0.1088727862 -0.01443090476 -0.1879517287
0.1245209426 0.008303387091 -0.1888589263
0.1155195534 3.178417683e-05 -0.1891043484
-0.2195313573 -0.3470471501 -0.195613414
-0.2356698662 -0.4064207673 -0.1944559664
-0.2223720849 -0.3926318884 -0.1959634274
-0.2212906182 -0.3700837195 -0.1947238296
-0.2328257263 -0.3336686194 -0.1961428672
-0.2365736961 -0.3823386431 -0.1942304075
-0.2356030345 -0.346816659 -0.1952705085
-0.2355005741 -0.3596527576 -0.1951849014
-0.2114335299 -0.08740499616 -0.1984772682
-0.2279145718 -0.1480047852 -0.1972178221
-0.2143508643 -0.1338337809 -0.1988102645
-0.2132234275 -0.1108069941 -0.1976007223
-0.2250198722 -0.07362309098 -0.1989692152
-0.2287771702 -0.1232414916 -0.1970974505
-0.2277593762 -0.08726467192 -0.1981428117
-0.2277529687 -0.1002635062 -0.197933048
0.1872656643 -0.01218107343 -0.1991662979
0.1717033982 -0.07379125059 -0.1979608983
0.1850891858 -0.0594063215 -0.1990341842
0.1873429418 -0.03597193956 -0.1986827701
0.1734611839 0.001660907641 -0.1993339658
0.1680618227 -0.04856831208 -0.1977757215
0.1718817353 -0.0121682696 -0.1988260597
0.1701303571 -0.02528581396 -0.1989251822
-0.3261558115 -0.2686008513 -0.3513821661
-0.3310651481 -0.3359721601 -0.3583431542
-0.3294359744 -0.3207215965 -0.3509347737
-0.3262094855 -0.2954246104 -0.3633571565
-0.3276029229 -0.254802376 -0.35866642
-0.3305634856 -0.3086865842 -0.3567909002
-0.3299613297 -0.268917799 -0.3647159636
-0.3289878964 -0.2828956842 -0.3594279885
-0.2104006112 -0.1742879748 -0.1876482964
-0.2266637087 -0.2393494546 -0.1868363619
-0.2104466259 -0.224159658 -0.1869707257
-0.2030041218 -0.199804008 -0.1870633662
-0.2301919609 -0.1602794975 -0.1875531673
-0.2434733212 -0.2129814327 -0.1858826727
-0.2273989618 -0.1746203303 -0.1867469549
-0.2364643514 -0.1883296371 -0.1879553497
0.05146805197 -0.3366208375 -0.1880377233
0.03532791883 -0.4028134346 -0.1873469353
0.04987758398 -0.3873456419 -0.187487483
0.05540984869 -0.3625573516 -0.1873266697
0.03409899026 -0.3222492933 -0.1880692244
0.02439079434 -0.3759081066 -0.1862719953
0.03487770259 -0.3368909359 -0.1873092949
0.02921318822 -0.3508131802 -0.1884447038
0.1100174785 0.02244350687 -0.1972795725
0.09400378168 -0.03425563499 -0.195847854
0.1085330769 -0.02091304958 -0.1972942054
0.1112738252 0.0005580410361 -0.1964266449
0.09455111623 0.03499814868 -0.1974609494
0.08793019503 -0.011080686 -0.1957536936
0.09383346885 0.02240455896 -0.1966518462
0.09077605605 0.01028890721 -0.196650967
-0.01085144281 -0.1998113692 -0.187708348
-0.02654090896 -0.2601371109 -0.1868581772
-0.01019744016 -0.2462759912 -0.1872206926
-0.003015942872 -0.2236481458 -0.1870896816
-0.03037089668 -0.1870169193 -0.1877268553
-0.04400545359 -0.2361111641 -0.1860120147
-0.02748298272 -0.1998595744 -0.1867433041
-0.0367151238 -0.2128716707 -0.1879204512
-0.02335143089 -0.1998113692 -0.187708348
-0.03904089704 -0.2601371109 -0.1868581772
-0.02269742824 -0.2462759912 -0.1872206926
-0.01551593095 -0.2236481458 -0.1870896816
-0.04287088662 -0.1870169193 -0.1877268553
-0.05650544167 -0.2361111641 -0.1860120147
-0.0399829708 -0.1998595744 -0.1867433041
-0.04921511188 -0.2128716707 -0.1879204512
0.3993569911 -0.151756525 -0.1902667433
0.3881069422 -0.1976971924 -0.189976871
0.397759825 -0.1858966053 -0.1913785785
0.3991937339 -0.1695599258 -0.1894443482
0.3908507526 -0.140461117 -0.1914412975
0.3870629668 -0.1778213084 -0.1890600771
0.3882947564 -0.1521534175 -0.1913357377
0.3885234296 -0.1617432088 -0.1912232339
-0.3000785112 -0.3126219213 -0.1896426678
-0.3145726323 -0.3761059344 -0.1890323758
-0.3037390709 -0.3612967432 -0.1892767847
-0.30224213 -0.3372735977 -0.1893157959
-0.3113191128 -0.2986512482 -0.1898062229
-0.3142306805 -0.3501130342 -0.1882347465
-0.3141632974 -0.3126971424 -0.1896393895
-0.3135190904 -0.3260806203 -0.1901845932
-0.2534707487 -0.2524117827 -0.189703092
-0.2673884034 -0.3168940246 -0.1891999394
-0.2572217882 -0.3018476963 -0.1891081184
-0.255610615 -0.2774378657 -0.1895901859
-0.264072001 -0.2382908612 -0.1897296906
-0.2668452561 -0.2904255092 -0.188306272
-0.2668609023 -0.2525604367 -0.1897938848
-0.2661854625 -0.2660753429 -0.1904902011
-0.001483515836 -0.315005511 -0.2006269544
-0.01771117374 -0.3754006922 -0.1993639767
-0.004537637345 -0.361276269 -0.2009362876
-0.003748976626 -0.3382896185 -0.1998371184
-0.01443653274 -0.3012495339 -0.2010977417
-0.01761857793 -0.3506813943 -0.1992902458
-0.01745034009 -0.3148597777 -0.2003730536
-0.01694277674 -0.3278059363 -0.200107336
-0.00401950255 -0.4249748886 -0.1868973374
-0.01207122952 -0.4438851774 -0.1857384592
0.003659638576 -0.4334102869 -0.187879011
0.01981417276 -0.4314976633 -0.1848089695
-0.02149280161 -0.416105777 -0.1877706051
-0.04868084192 -0.4301870763 -0.1847045273
-0.01282834448 -0.4293541312 -0.1871076077
-0.03249529377 -0.4308669865 -0.1877449155
0.1529498994 -0.06485891342 -0.1986404359
0.1373238564 -0.1260807812 -0.1975140274
0.149997592 -0.1117882431 -0.1986935288
0.1512133181 -0.08850546926 -0.1980395466
0.1402802616 -0.05105764419 -0.1989631057
0.1367039382 -0.1010272503 -0.1972819269
0.1376092434 -0.06477743387 -0.1984192431
0.137670204 -0.07784308493 -0.1984054446
-0.3185243905 -0.05931510776 -0.2319269031
-0.3242551088 -0.1323815882 -0.2353380024
-0.3221018016 -0.1160725281 -0.2301819921
-0.3185491562 -0.08797698468 -0.2382691205
-0.3198974431 -0.04410599172 -0.2337374985
-0.3232678771 -0.1027005166 -0.2336412221
-0.3222736418 -0.05948322639 -0.2379674315
-0.3215838671 -0.0746755451 -0.2375932485
0.3252831995 -0.1250702739 -0.1938145757
0.3099124134 -0.1855928898 -0.1928623766
0.3221017718 -0.1715434641 -0.1939035058
0.3231323957 -0.1485747397 -0.1931442022
0.3130790293 -0.1115665585 -0.194210425
0.3099283874 -0.1609937996 -0.1924302876
0.3101199567 -0.1249150336 -0.1936052293
0.3106990755 -0.137905553 -0.1937577873
-0.110242337 -0.1996316016 -0.1869460642
-0.126406014 -0.2616596222 -0.1861130297
-0.1100560352 -0.2473102063 -0.1865005046
-0.1030102894 -0.2240775526 -0.1862343252
-0.1298630089 -0.1863623261 -0.1870064735
-0.1429973841 -0.2367982566 -0.1852200776
-0.1272843331 -0.1997606903 -0.1860042214
-0.1360456795 -0.2130370736 -0.1871346384
0.05681950971 0.08037470281 -0.1775606573
0.04197600484 0.05363765359 -0.1775791347
0.06178653985 0.06118533388 -0.1791796386
0.07357111573 0.07046285272 -0.1771637499
0.03079143167 0.08476084471 -0.1789457947
0.009342931211 0.06558583677 -0.1768958867
0.04032857716 0.07917141169 -0.1794005632
0.02200606093 0.07394737005 -0.1779579818
0.09111565351 -0.06512669474 -0.1981069446
0.07527828217 -0.1253954172 -0.1969302744
0.08847067505 -0.1113524288 -0.1982561946
0.08990739286 -0.08843460679 -0.1974266768
0.07784605771 -0.05154558271 -0.1984848827
0.0736566335 -0.1008155569 -0.1967475414
0.07544772327 -0.06499683857 -0.1978167593
0.07499372959 -0.07792682946 -0.1977617294
-0.1116439253 -0.1749959737 -0.169384703
-0.1278733164 -0.2338667512 -0.168046385
-0.1140385196 -0.2201732546 -0.1697428524
-0.112790823 -0.1977446526 -0.1685787439
-0.1253557205 -0.1616271436 -0.1698679328
-0.129704684 -0.2099227309 -0.1680564284
-0.1277757436 -0.1747688353 -0.1690268964
-0.1283112615 -0.1875025928 -0.1687604636
0.3092747033 -0.1605751365 -0.1981643438
0.2941561341 -0.2193237841 -0.1971051842
0.3063871861 -0.2057047337 -0.1982920766
0.3072167337 -0.1833331436 -0.1975968778
0.2973403037 -0.1474429071 -0.1985501945
0.2942008376 -0.1954518259 -0.1968651414
0.2944172621 -0.1603732705 -0.1980120391
0.2949623764 -0.173038125 -0.1979912519
0.008726388216 -0.3723302484 -0.2001152039
-0.006866073236 -0.4237905145 -0.1979906112
0.008839113638 -0.4107853174 -0.199992612
0.01321526617 -0.392082572 -0.1986754537
-0.007579656318 -0.3599535823 -0.200054273
-0.01738781109 -0.401984036 -0.1981750578
-0.007214525715 -0.3729582131 -0.1986546069
-0.0126260072 -0.3836770058 -0.1989185512
-0.03644089028 -0.4247799218 -0.200553
-0.05312000588 -0.4862624407 -0.1992401481
-0.03960311413 -0.4718240798 -0.2008964717
-0.03871326894 -0.4484494328 -0.1996719241
-0.04987914488 -0.4106996357 -0.2010397464
-0.0531620495 -0.4610146284 -0.1991798282
-0.05286758393 -0.4246851206 -0.2002500892
-0.05246393383 -0.4378087819 -0.1999423653
-0.1576304138 -0.468650043 -0.1981253177
-0.1659755409 -0.4856470525 -0.1974375546
-0.1527325511 -0.4765510261 -0.199803561
-0.1413989514 -0.4739715755 -0.197629869
-0.169713527 -0.4608178437 -0.199650228
-0.1893963516 -0.4734202027 -0.1974361837
-0.1653243303 -0.4721797109 -0.200250119
-0.1777085811 -0.4737845361 -0.198908031
-0.1608348042 -0.2739869654 -0.1872505099
-0.1769137532 -0.3402251899 -0.1864399016
-0.1604432166 -0.3247465789 -0.1863410622
-0.1521749198 -0.299955368 -0.1868066937
-0.181264773 -0.2597723901 -0.1869903803
-0.1957794577 -0.3133279085 -0.1854448766
-0.1776852012 -0.2744143605 -0.1862859428
-0.1880164593 -0.2883009613 -0.1876657307
-0.3127681315 -0.05054201186 -0.2930506468
-0.3144799173 -0.1020619124 -0.3120401502
-0.3139352798 -0.09019696712 -0.2971837819
-0.3126331866 -0.07161269337 -0.3267295957
-0.3133459985 -0.04066282511 -0.3191424608
-0.3148536086 -0.08132775128 -0.3126434684
-0.315064162 -0.05094861239 -0.3333233595
-0.3139086366 -0.06166165322 -0.309080869
0.02646801621 -0.3366208375 -0.1880377233
0.01032788306 -0.4028134346 -0.1873469353
0.02487754636 -0.3873456419 -0.187487483
0.03040981293 -0.3625573516 -0.1873266697
0.009098954499 -0.3222492933 -0.1880692244
-0.0006092423573 -0.3759081066 -0.1862719953
0.009877668694 -0.3368909359 -0.1873092949
0.004213152453 -0.3508131802 -0.1884447038
0.2499340326 0.01788094267 -0.1913455725
0.2331621051 -0.00932591036 -0.1911990047
0.2557606995 -0.001249529421 -0.1940297335
0.268216759 0.008452363312 -0.1914695799
0.2217260152 0.02334092185 -0.1934382021
0.1983588338 0.003652788699 -0.1914903075
0.2320166975 0.01651582494 -0.194396317
0.2119659334 0.01138647459 -0.191169709
-0.252702117 -0.03594674543 -0.1957428455
-0.2674005032 -0.09548529983 -0.1948288381
-0.2556815445 -0.08172529936 -0.1957272291
-0.2547179461 -0.05907177925 -0.1952832043
-0.2642121315 -0.02273503505 -0.1960676461
-0.2673186064 -0.07133421302 -0.1944309771
-0.2671183944 -0.03575674072 -0.1956321895
-0.2665361464 -0.0485727638 -0.1958105564
0.2387440205 -0.1119504422 -0.1892551482
0.2232693136 -0.1756003052 -0.1885737479
0.2377529591 -0.1608479023 -0.1886851937
0.2434261441 -0.1369598061 -0.1887090057
0.2216329426 -0.09827119857 -0.189266175
0.2113221884 -0.1499193311 -0.1875741929
0.2227639854 -0.1121063828 -0.1885667443
0.2165672928 -0.125624314 -0.1897141635
-0.1993075907 -0.4680356085 -0.3284346163
-0.2001773268 -0.4684971571 -0.3483107686
-0.1880049407 -0.4677738547 -0.3404830098
-0.1780849099 -0.469167769 -0.3589240015
-0.2109940052 -0.4674322605 -0.3576365113
-0.2337395847 -0.4681271613 -0.3493597209
-0.2025119364 -0.4672894478 -0.3713271916
-0.2192578465 -0.4687190056 -0.3442746997
-0.1999744475 0.06268583983 -0.196952492
-0.2154676467 0.0005674734712 -0.1959253848
-0.2032787204 0.01507854089 -0.1969437003
-0.2022290975 0.03867443278 -0.1963648051
-0.2121744305 0.07665729523 -0.1972597241
-0.2151964456 0.02601461485 -0.1955711842
-0.2151272148 0.0627367273 -0.1967743784
-0.2145512253 0.04952536151 -0.1968579441
-0.1110863462 -0.2615767419 -0.18762514
-0.1270418316 -0.3275431693 -0.1868768632
-0.1114731357 -0.3121469021 -0.1868421733
-0.104351595 -0.2874452472 -0.1871019304
-0.1301083714 -0.2473791093 -0.1874717772
-0.1426248252 -0.3007698953 -0.1858427376
-0.1276780814 -0.2619259953 -0.1867668182
-0.1360734999 -0.2757872641 -0.1880680919
0.03774732724 -0.09982804954 -0.1987598836
0.02189637348 -0.1606222391 -0.197535187
0.03537946194 -0.1464394033 -0.1988144219
0.03723324835 -0.1233197302 -0.198130101
0.02400664799 -0.08612687141 -0.1990570724
0.01912006363 -0.1357884258 -0.1973794699
0.0220417846 -0.09974522889 -0.1984158307
0.02086797357 -0.1127519682 -0.1984027922
0.1166754141 -0.3650116324 -0.188526243
0.1092154086 -0.3830264509 -0.1875937432
0.1217752099 -0.3730904758 -0.189284727
0.1347562075 -0.3711751699 -0.186734274
0.1036842167 -0.3568670452 -0.1893333197
0.08239810169 -0.370062083 -0.1865456551
0.1090743542 -0.369153142 -0.1889849901
0.09512545913 -0.370592773 -0.189529568
-0.02651870996 -0.4310338497 -0.1832149029
-0.03283101693 -0.4459683299 -0.1832591295
-0.01870266162 -0.4376561642 -0.1846078336
-0.00353448838 -0.436271131 -0.182725966
-0.04195142537 -0.4244321287 -0.1847601831
-0.06800416857 -0.4352202415 -0.1821706295
-0.03342628479 -0.4344773293 -0.185209468
-0.05221126229 -0.4358597398 -0.1851444542
-0.06126395985 -0.4243763089 -0.1886980534
-0.0772324279 -0.4887501895 -0.1879879236
-0.06284485012 -0.4737802744 -0.1882727891
-0.05778674036 -0.449649781 -0.1879375875
-0.07815689594 -0.4104327261 -0.1888089776
-0.08735714108 -0.4627193511 -0.186966747
-0.07770968974 -0.4245249331 -0.1879767925
-0.08282721043 -0.4381768405 -0.1890414357
-0.2048469484 -0.2683293521 -0.2401977777
-0.2206743807 -0.3318849206 -0.2394570857
-0.2061086595 -0.3171148896 -0.2397602499
-0.2008355558 -0.2932644188 -0.2395292968
-0.2219000459 -0.2545844615 -0.2402882427
-0.2316007465 -0.3061960638 -0.2385158241
-0.2211539298 -0.2684744895 -0.2395083159
-0.2267571986 -0.2819705606 -0.240519017
-0.2201935053 -0.2513372302 -0.2092996985
-0.2360209376 -0.3148927689 -0.2085590065
-0.2214552164 -0.3001227677 -0.2088621706
-0.2161821127 -0.2762722969 -0.2086312175
-0.2372466028 -0.2375923395 -0.2093901634
-0.2469473034 -0.2892039418 -0.2076177448
-0.2365004867 -0.2514823675 -0.2086102366
-0.2421037555 -0.2649784386 -0.2096209228
-0.1652812958 0.06380699575 -0.2860633135
-0.1683692932 0.06240543351 -0.3174717128
-0.1527625024 0.06362457573 -0.2999548912
-0.1415954828 0.06214869022 -0.3412237763
-0.1828738749 0.0635638833 -0.3341656327
-0.2084914297 0.06270243227 -0.322060287
-0.1723633856 0.06361313164 -0.3558248281
-0.1923180521 0.06244099885 -0.308701247
-0.1620679796 -0.1244360581 -0.186942026
-0.1778506637 -0.1870231628 -0.1860058755
-0.1607558131 -0.1725577116 -0.1861097366
-0.1522106528 -0.1491205692 -0.1864069253
-0.1831044853 -0.1111824438 -0.1866911054
-0.1987855583 -0.161939472 -0.1851107329
-0.1789028198 -0.1246749908 -0.1857644767
-0.1902780086 -0.1380167902 -0.1871964186
0.4088851511 -0.06577034295 -0.2013216317
0.4063582718 -0.06518416107 -0.2062850296
0.4210645258 -0.06495727599 -0.2091098726
0.4329381287 -0.06593181193 -0.2047953308
0.3949021101 -0.06516681612 -0.2081325203
0.3686922193 -0.06504638493 -0.2050172687
0.4051949382 -0.06460215151 -0.2119870186
0.3850585222 -0.06606248021 -0.2070666552
-0.1847614944 -0.4985359609 -0.1813016832
-0.1829582751 -0.4994574189 -0.2201455534
-0.1724957675 -0.4981018305 -0.1972077489
-0.1627536416 -0.500351429 -0.2485195398
-0.1970787495 -0.4989547729 -0.2392023653
-0.219238326 -0.498919785 -0.2247830033
-0.187285468 -0.4989854395 -0.2662221193
-0.2048977166 -0.4997437596 -0.2099884152
0.3606027365 -0.1248307228 -0.203463763
0.3479125798 -0.1873495281 -0.2033319324
0.3570116162 -0.1730827987 -0.2027311325
0.3587102592 -0.1494951546 -0.2033165842
0.350920856 -0.1115980521 -0.2034895718
0.3480508924 -0.1622544527 -0.2019550502
0.3481379151 -0.1247348636 -0.2034232914
0.3489383459 -0.1380919963 -0.2047643065
-0.04950922728 -0.1377055347 -0.2000614405
-0.06529335678 -0.1955358088 -0.1988081634
-0.05210470408 -0.1821534336 -0.2004349828
-0.05134145916 -0.1601032019 -0.1992898285
-0.06230073422 -0.1246422827 -0.2005745173
-0.06585102528 -0.1721165478 -0.1987623274
-0.06515899301 -0.1373997927 -0.1997734308
-0.06490186602 -0.1499778628 -0.1995465755
-0.2250821143 -0.2125008851 -0.1989289522
-0.2403956652 -0.2732554376 -0.1978082657
-0.227619499 -0.2590977252 -0.1988712847
-0.2259553969 -0.2359767407 -0.1984557956
-0.2379764766 -0.1988778859 -0.199170202
-0.2423518747 -0.2484227568 -0.1975874454
-0.2401420623 -0.2124336064 -0.198704794
-0.2408752143 -0.2254064679 -0.1987602711
0.2311573625 -0.004293542355 -0.2069774717
0.214732036 -0.0400862582 -0.2055783719
0.2330571711 -0.03055314347 -0.2068069875
0.241845876 -0.0177857168 -0.20559147
0.2072366625 0.001986100338 -0.2068588436
0.191427514 -0.02474072203 -0.2051123679
0.2133427113 -0.005603509955 -0.2061644197
0.2003973573 -0.01260699518 -0.2060865909
-0.1617753208 -0.02504936606 -0.1990783364
-0.1778140813 -0.08404427767 -0.1978099644
-0.1641791761 -0.07033540308 -0.1993690878
-0.1628091037 -0.04787820578 -0.1983085722
-0.1753811836 -0.01171980239 -0.1995316893
-0.179808706 -0.06007239968 -0.1977361441
-0.1777272969 -0.02483638003 -0.1987299472
-0.1783415377 -0.03758668154 -0.1985644847
0.1467648745 -0.4131920934 -0.1940194815
0.1386359334 -0.4331899881 -0.1932825595
0.1510799974 -0.422264725 -0.1960237771
0.162512511 -0.4195383787 -0.1926047802
0.135547772 -0.4033110142 -0.195741266
0.1166724116 -0.4183521271 -0.1927855164
0.1393056214 -0.4174529016 -0.1960619092
0.1277242601 -0.41905123 -0.1949926466
-0.2624310851 -0.07499404252 -0.1961420625
-0.2775383592 -0.1361698508 -0.1951911002
-0.2656264603 -0.1219377071 -0.1961105615
-0.2645761371 -0.09868758917 -0.1956357658
-0.2742819488 -0.06132254004 -0.1964505911
-0.2773389816 -0.1111998037 -0.1947967857
-0.2772077322 -0.07489767671 -0.1960173249
-0.2766289115 -0.08796015382 -0.1961569637
-0.1112889946 -0.3115288615 -0.1875693351
-0.1270391345 -0.3776812553 -0.18685624
-0.111694999 -0.362252146 -0.1867221445
-0.1045677438 -0.3374750018 -0.1871089339
-0.1300724 -0.2973174155 -0.1873788238
-0.1425217688 -0.3508304358 -0.1857911199
-0.1276456714 -0.3118866384 -0.1867365539
-0.1359989494 -0.3257759809 -0.1880895197
-0.282381773 0.06640935689 -0.2218515277
-0.2901797891 0.06541387737 -0.227361232
-0.2789335847 0.06650054455 -0.2277722359
-0.2749068141 0.065962255 -0.2291164398
-0.2914826572 0.06631501764 -0.2312066853
-0.3024972081 0.0659282282 -0.227598086
-0.2905470729 0.0667194277 -0.2350344956
-0.2954417169 0.06554149091 -0.2263171375
0.3706118464 -0.1745080054 -0.190705061
0.3567167222 -0.2333906144 -0.1894847453
0.3679228425 -0.2200888246 -0.1901113093
0.3685949445 -0.1980606019 -0.1889869571
0.358553499 -0.1619699597 -0.1904926896
0.3557426333 -0.2102307528 -0.188268289
0.3559505939 -0.1740656793 -0.1889410913
0.3563483357 -0.1870194376 -0.1907417774
-0.3092417717 0.02945357934 -0.2945068181
-0.3138500452 0.01629481465 -0.3065707982
-0.3096595407 0.02354776859 -0.3002445698
-0.3071994185 0.02455728501 -0.3144756854
-0.3104382455 0.03495132923 -0.3139884174
-0.3145545423 0.0254303664 -0.3072324395
-0.3138652742 0.02679638192 -0.3224064112
-0.3118584156 0.0254395362 -0.3042479157
-0.0871168375 0.06944750994 -0.2178761363
-0.1010097265 0.0678211078 -0.2172814906
-0.06835473329 0.06919741631 -0.2202879786
-0.04297022521 0.06874953955 -0.2188827991
-0.1275155544 0.06861944497 -0.2197756767
-0.1776681095 0.06811206043 -0.2183863819
-0.1046394706 0.0686654374 -0.2193649113
-0.1471778005 0.06747849286 -0.2174022198
-0.3135685325 -0.411034286 -0.3061343729
-0.3157851994 -0.4773830473 -0.3215871751
-0.315771997 -0.4626592994 -0.3081199527
-0.3142443895 -0.4377086759 -0.3340485096
-0.31396541 -0.3980976343 -0.326121062
-0.3148519099 -0.4507475495 -0.3214786053
-0.3156423867 -0.4112463892 -0.338460356
-0.3145287931 -0.4250170887 -0.3201822639
-0.00224246271 0.02665516362 -0.1910796762
-0.01724855043 -0.03365501016 -0.1903835833
-0.003486741334 -0.01982672513 -0.1907546371
0.0008731950074 0.002874592319 -0.1904663742
-0.01781482436 0.03957121074 -0.1912526339
-0.02641823888 -0.00956980139 -0.1894861758
-0.01771930978 0.02674767748 -0.190467447
-0.02218066156 0.01372114941 -0.1914516687
-0.2249744534 0.05018585175 -0.196952492
-0.2404676527 -0.01193251461 -0.1959253848
-0.2282787263 0.002578552812 -0.1969437003
-0.2272291034 0.02617444471 -0.1963648051
-0.2371744365 0.06415730715 -0.1972597241
-0.2401964515 0.01351462677 -0.1955711842
-0.2401272207 0.05023673922 -0.1967743784
-0.2395512313 0.03702537343 -0.1968579441
-0.2915995717 -0.05933677405 -0.1982967556
-0.2973302901 -0.1324032545 -0.2017078549
-0.2951769829 -0.1160941944 -0.1965518445
-0.2916243374 -0.08799865097 -0.2046389729
-0.2929726243 -0.04412765801 -0.2001073658
-0.2963430583 -0.1027221829 -0.2000110745
-0.2953488231 -0.05950489268 -0.2043372691
-0.2946590185 -0.07469721138 -0.2039631009
-0.3019416332 -0.4344720244 -0.2461340129
-0.3007676899 -0.4453298748 -0.2862530947
-0.2997045219 -0.4372956753 -0.2607395053
-0.2977307141 -0.4381896257 -0.3190774918
-0.2990859449 -0.4285103381 -0.3078726828
-0.3029903769 -0.4354645014 -0.2927728295
-0.3016164005 -0.4385383129 -0.3373650908
-0.3001072705 -0.4383149445 -0.2752793431
-0.2870676517 -0.4893527329 -0.3254891634
-0.2929151952 -0.5002918243 -0.3371422291
-0.2864870727 -0.493906796 -0.3310663998
-0.2828798294 -0.493973285 -0.3454516232
-0.2956835628 -0.4849668443 -0.345979929
-0.2993452847 -0.4927096665 -0.3379012346
-0.2954773605 -0.4916140735 -0.351462543
-0.2946812809 -0.4930803478 -0.3347882032
-0.06453189254 -0.3763822913 -0.2074480951
-0.0805003643 -0.4407561719 -0.2067379355
-0.06611278653 -0.4257862568 -0.2070228159
-0.06105467677 -0.4016557634 -0.2066876292
-0.08142483234 -0.3624387085 -0.2075590044
-0.09062507749 -0.4147253335 -0.2057167739
-0.08097762614 -0.3765309155 -0.2067268193
-0.08609515429 -0.3901828229 -0.2077914774
-0.2202937603 -0.2846321464 -0.1970913708
-0.2364196181 -0.3456631899 -0.1959177852
-0.223082602 -0.3314071894 -0.1972682774
-0.2215975672 -0.3082293272 -0.196336776
-0.2338252366 -0.2708464861 -0.1974939704
-0.2379968762 -0.3207312226 -0.1957021058
-0.2362633497 -0.2845338881 -0.1967763156
-0.2366868705 -0.2975919545 -0.1967215389
-0.159082517 -0.3148604035 -0.1999423057
-0.1750126481 -0.3731620014 -0.1986539066
-0.1614529043 -0.3596532643 -0.2002760619
-0.1602965593 -0.3374333084 -0.1991735697
-0.1724411249 -0.3016825616 -0.2004193664
-0.1766594499 -0.3495288491 -0.1986219883
-0.1749248207 -0.314589262 -0.1995994002
-0.175317347 -0.327245295 -0.1993979514
-0.1509745717 -0.491967231 -0.2965264916
-0.1526933759 -0.4922530651 -0.3139803112
-0.1391580999 -0.4916685224 -0.3070826828
-0.1289759129 -0.493252784 -0.3235931098
-0.1650455743 -0.4918067753 -0.3227575421
-0.188683629 -0.4923525453 -0.3148288429
-0.1556922644 -0.4912484884 -0.3344068527
-0.1738143265 -0.4927124977 -0.3104707897
-0.3010566831 -0.2115492821 -0.3066344857
-0.3060014844 -0.2798542082 -0.3126414418
-0.3049072921 -0.2632535398 -0.305698961
-0.3009069562 -0.2383789867 -0.3170910478
-0.301627785 -0.1964598894 -0.3127272129
-0.3047772348 -0.2508679926 -0.3109799325
-0.3044373095 -0.2127781659 -0.3182762563
-0.3031277359 -0.2262483239 -0.3141080141
0.262037158 -0.300096184 -0.1958577931
0.2468959987 -0.3588060439 -0.1947519481
0.2599049509 -0.3452628851 -0.1958800256
0.2616879046 -0.3229303658 -0.195268333
0.2488707602 -0.287063539 -0.1961570233
0.2439479977 -0.3350882232 -0.1944783479
0.2469301671 -0.2998772264 -0.1954956353
0.245799765 -0.3125892878 -0.1956743002
-0.3242456615 -0.4811079502 -0.3409817517
-0.3268068433 -0.4937325418 -0.3541384041
-0.3249505758 -0.4855233729 -0.3458876014
-0.3210491538 -0.4855467677 -0.3643516898
-0.3242788315 -0.4750809669 -0.362241447
-0.3276869059 -0.4835453331 -0.3552747369
-0.3268486261 -0.4848377109 -0.3711376786
-0.3241043091 -0.4853895605 -0.3519536257
-0.07358635217 -0.2865767479 -0.18762514
-0.08954184502 -0.3525431752 -0.1868768632
-0.07397314161 -0.337146908 -0.1868421733
-0.066851601 -0.3124452531 -0.1871019304
-0.09260837734 -0.2723791301 -0.1874717772
-0.1051248237 -0.3257699013 -0.1858427376
-0.09017808735 -0.2869260013 -0.1867668182
-0.09857350588 -0.3007872701 -0.1880680919
-0.2732013464 -0.2375184596 -0.1901634336
-0.2893106639 -0.2992607951 -0.1892681718
-0.276687175 -0.2848492265 -0.1903848946
-0.2754510045 -0.2614998817 -0.189306885
-0.2861607075 -0.2236920446 -0.1906797886
-0.2894381285 -0.2741035819 -0.1887382269
-0.2891661823 -0.2374260128 -0.1899380982
-0.2886077762 -0.2506177723 -0.1900642514
-0.06416324526 -0.2508262098 -0.2063751519
-0.08011873811 -0.3167926371 -0.2056268752
-0.0645500347 -0.3013963699 -0.2055921853
-0.0574284941 -0.276694715 -0.2058519423
-0.08318527043 -0.2366285771 -0.2062217891
-0.09570171684 -0.2900193632 -0.2045927495
-0.08075498044 -0.2511754632 -0.2055168301
-0.08915039897 -0.265036732 -0.2068181038
0.09063835442 -0.252700001 -0.2004998475
0.0744914934 -0.3134968281 -0.199231118
0.08778014034 -0.2992935777 -0.2007314116
0.08885509521 -0.276152283 -0.1997561753
0.0774563998 -0.2388721108 -0.2009145021
0.07379879802 -0.2886249125 -0.1991470456
0.07472574711 -0.2525661588 -0.2002072036
0.07476304471 -0.2655920088 -0.2000134736
-0.2415266484 -0.4989121854 -0.2948462665
-0.2418071479 -0.4995928407 -0.3222693801
-0.2281458825 -0.4986876845 -0.3079442382
-0.215462178 -0.500312984 -0.3407410979
-0.2567022741 -0.4990484416 -0.3353717327
-0.284132719 -0.4993347228 -0.3250439167
-0.2451316118 -0.4988092184 -0.354524672
-0.2666574419 -0.4999599159 -0.315748781
-0.3064490259 -0.4550767541 -0.2072577924
-0.3041478395 -0.4555383325 -0.2544897795
-0.2996021509 -0.4548487365 -0.2278267145
-0.3013166487 -0.4562742114 -0.2900946736
-0.3067532778 -0.4547036886 -0.2789978087
-0.3113179505 -0.4553279281 -0.2618578672
-0.3070619702 -0.4544253349 -0.3125209808
-0.3078635037 -0.4556019008 -0.2409564853
-0.1864335239 -0.1124050021 -0.1984772682
-0.2029145658 -0.1730047911 -0.1972178221
-0.1893508583 -0.1588337868 -0.1988102645
-0.1882234216 -0.1358070076 -0.1976007223
-0.2000198662 -0.09862309694 -0.1989692152
-0.2037771642 -0.148241505 -0.1970974505
-0.2027593702 -0.1122646779 -0.1981428117
-0.2027529627 -0.1252635121 -0.197933048
0.07564984262 -0.3368785083 -0.200343132
0.0591609329 -0.3987977803 -0.1989340037
0.07392892241 -0.3842829764 -0.2003628612
0.07675354928 -0.3607414365 -0.1996800601
0.06017466635 -0.32282269 -0.2005709559
0.05349304155 -0.3734074235 -0.198919788
0.05919060111 -0.3368840814 -0.1998360157
0.05626514554 -0.3500729203 -0.1997691989
-0.2354006171 -0.1242879629 -0.1876482964
-0.2516637146 -0.1893494427 -0.1868363619
-0.2354466319 -0.174159646 -0.1869707257
-0.2280041277 -0.1498039961 -0.1870633662
-0.2551919818 -0.1102794781 -0.1875531673
-0.2684733272 -0.1629814208 -0.1858826727
-0.2523989677 -0.1246203184 -0.1867469549
-0.2614643574 -0.1383296251 -0.1879553497
0.0850174427 0.05994353071 -0.1972795725
0.06900374591 0.003244388849 -0.195847854
0.08353304118 0.01658697426 -0.1972942054
0.08627378941 0.03805806488 -0.1964266449
0.06955108047 0.07249817252 -0.1974609494
0.06293015927 0.02641933784 -0.1957536936
0.06883343309 0.0599045828 -0.1966518462
0.06577602029 0.04778893292 -0.196650967
-0.101228565 0.06358847022 -0.2812382877
-0.1035749614 0.06223875284 -0.3166408837
-0.09155284613 0.06341453642 -0.2966160178
-0.08472859859 0.06189010665 -0.3431791067
-0.1136213541 0.06336409599 -0.3353538811
-0.1316238046 0.06247511879 -0.3217964172
-0.1072961837 0.0635406971 -0.3597049117
-0.1200299636 0.0623717159 -0.3065223098
-0.1268915236 -0.06371037662 -0.1870570779
-0.1426839232 -0.1264457554 -0.1862079054
-0.1266138405 -0.1119310856 -0.1864126176
-0.1194383949 -0.08841654658 -0.1864572912
-0.1462792456 -0.05031764507 -0.1869668812
-0.1595088094 -0.1012488157 -0.1852936149
-0.143517077 -0.06388711929 -0.1860798597
-0.1524988115 -0.07726339251 -0.1873359829
-0.1365455091 -0.06197918579 -0.1880322099
-0.1523379236 -0.1247145683 -0.1871830225
-0.1362678409 -0.1101998985 -0.1873877347
-0.1290923953 -0.08668535948 -0.1874324083
-0.155933246 -0.04858645797 -0.1879419982
-0.1691628098 -0.09951762855 -0.1862687469
-0.1531710774 -0.06215593219 -0.1870549619
-0.1621528119 -0.0755322054 -0.1883111
-0.2620874047 -0.1603532284 -0.1875076741
-0.2678000927 -0.2270245701 -0.1897121072
-0.2657013535 -0.2120507956 -0.1850893795
-0.2633401752 -0.1867608875 -0.1917159259
-0.2645722926 -0.1471808255 -0.1881268024
-0.2661847174 -0.2000931054 -0.1876205206
-0.2667365372 -0.1606367826 -0.1910659671
-0.2656188309 -0.1744484305 -0.1921226978
-0.2522214651 -0.06450757384 -0.1961420625
-0.2673287392 -0.1256833822 -0.1951911002
-0.2554168105 -0.1114512384 -0.1961105615
-0.2543664873 -0.0882011205 -0.1956357658
-0.264072299 -0.05083607137 -0.1964505911
-0.2671293318 -0.100713335 -0.1947967857
-0.2669980824 -0.06441120803 -0.1960173249
-0.2664192617 -0.07747368515 -0.1961569637
0.1839491278 -0.3216272295 -0.1966325343
0.1746204197 -0.3403019309 -0.1968979537
0.1892472208 -0.332007736 -0.2002354264
0.1989675909 -0.3279431164 -0.1963778436
0.1707476676 -0.3136951923 -0.1996724606
0.1520597041 -0.3285505474 -0.1967921853
0.1748243272 -0.3238157332 -0.2004214525
0.1630124003 -0.3267002106 -0.1978954971
0.02656826004 -0.1744556725 -0.1883378625
0.01100183092 -0.2378546894 -0.1876214445
0.02620070986 -0.2231671959 -0.1877102107
0.03272520751 -0.1993879825 -0.1878261864
0.008369298652 -0.1608859599 -0.1882983297
-0.00348482281 -0.2123142183 -0.1866428852
0.01036103442 -0.1746420264 -0.1875633895
0.002705798484 -0.18811436 -0.188771069
0.1501437724 -0.09990052879 -0.1986404359
0.1345177293 -0.1611223966 -0.1975140274
0.1471914649 -0.1468298584 -0.1986935437
0.148407191 -0.1235470846 -0.1980395615
0.1374741346 -0.08609925956 -0.1989631206
0.1338978112 -0.1360688657 -0.1972819418
0.1348031163 -0.09981904924 -0.198419258
0.134864077 -0.1128847003 -0.1984054744
-0.06579811126 0.09326709062 -0.312425077
-0.06578791887 0.09272318333 -0.3453836441
-0.05728603899 0.09370120615 -0.3277309835
-0.0523782149 0.09199513495 -0.3681658506
-0.07322122902 0.09328019619 -0.3619050682
-0.08731470257 0.0930814445 -0.3492796123
-0.06869871914 0.09351877868 -0.3848615885
-0.07801923156 0.09248318523 -0.3367086351
-0.174544856 0.05013989285 -0.1972361058
-0.1905000955 -0.01184376329 -0.1961328685
-0.1778618544 0.002668045461 -0.1973570138
-0.1768515408 0.02620199323 -0.1965164691
-0.1872198582 0.06415430456 -0.1976177692
-0.1903050989 0.01356613636 -0.1958436966
-0.1902059615 0.05019843206 -0.1970085055
-0.1896529943 0.03700532019 -0.1969786584
0.04622641206 -0.3848302662 -0.2001152039
0.03063395061 -0.4362905324 -0.1979906112
0.04633913934 -0.4232853353 -0.199992612
0.05071529001 -0.4045825899 -0.1986754537
0.02992036752 -0.3724536002 -0.200054273
0.02011221275 -0.4144840539 -0.1981750578
0.03028549813 -0.385458231 -0.1986546069
0.02487401664 -0.3961770236 -0.1989185512
0.3004965782 -0.2872755229 -0.1899431646
0.2857165933 -0.3452094197 -0.189309597
0.2987457514 -0.3321157694 -0.1899171174
0.3017400801 -0.3102848828 -0.1891224384
0.2863588333 -0.2749134302 -0.1903465092
0.2796568274 -0.3224093914 -0.188375473
0.2852042317 -0.286895901 -0.189341113
0.2827678621 -0.2996633649 -0.190278694
0.02984158136 -0.2842429578 -0.1866850108
0.01377690956 -0.3534920812 -0.1859982461
0.02902760357 -0.3372168541 -0.1856922656
0.03635711223 -0.3113121092 -0.1862373948
0.01087089442 -0.2692572773 -0.1864052117
-0.001421131194 -0.3251461387 -0.1848424971
0.01327779889 -0.2847698331 -0.1858585477
0.004965510219 -0.2991323173 -0.187281996
-0.1606252193 0.02665364556 -0.188597858
-0.1752066165 -0.03771974891 -0.1880452186
-0.1623132676 -0.02285193093 -0.1878221929
-0.1575739384 0.001328432932 -0.188165158
-0.1757429987 0.04041487351 -0.188490361
-0.1841315776 -0.01174555905 -0.1868799329
-0.1755238771 0.02651995607 -0.1879851669
-0.1800193936 0.0128752701 -0.1893409789
0.1225778311 -0.001936332323 -0.206702292
0.1073438823 -0.06358594447 -0.2059772909
0.1223170459 -0.04941158742 -0.2061248869
0.1284883916 -0.02627501637 -0.2061380744
0.1048307344 0.01116636861 -0.2066902816
0.09329880774 -0.03894212469 -0.2049974203
0.1066274792 -0.001991846599 -0.2058683634
0.09932073951 -0.01522197854 -0.2071231008
-0.06466802955 -0.1276400685 -0.2058086693
-0.08024014533 -0.1902389079 -0.2050733119
-0.06475958228 -0.1757820696 -0.2052011639
-0.05801806599 -0.1523182094 -0.2052380741
-0.08325883001 -0.114304252 -0.2057767212
-0.09563530982 -0.1651282609 -0.2040844262
-0.08099866658 -0.1277819872 -0.2049453855
-0.08911505342 -0.1411456019 -0.206207931
0.05063036084 -0.2495954186 -0.2009363174
0.03438699245 -0.311612308 -0.1996879727
0.04741881043 -0.2970700264 -0.2011393756
0.04829299077 -0.2734742463 -0.2002010792
0.03773776442 -0.23543787 -0.2013390511
0.03463763744 -0.2861310542 -0.1995774209
0.03471912444 -0.2495193481 -0.2006933093
0.03524455801 -0.2627283633 -0.2004828155
-0.03377126157 -0.002950245515 -0.1998255998
-0.04938732833 -0.06084571779 -0.1985360831
-0.03547681868 -0.04745128006 -0.1999939233
-0.03347758949 -0.02537854016 -0.1992179155
-0.04778705537 0.0100332424 -0.2001799047
-0.05346260965 -0.03740543127 -0.1985124648
-0.04937616736 -0.002724165097 -0.199449122
-0.05120483786 -0.01528598182 -0.1993595213
0.214992553 -0.2842373848 -0.1996344626
0.1988973767 -0.3449025154 -0.198345691
0.2127322555 -0.3307445347 -0.1997619867
0.2146248817 -0.3076633513 -0.1989577413
0.2009124756 -0.2705098093 -0.1999684572
