# .PCD v0.7 - Point Cloud Data file format
VERSION 0.7
FIELDS x y z rgb
SIZE 4 4 4 4
TYPE F F F F
COUNT 1 1 1 1
WIDTH 827
HEIGHT 1
VIEWPOINT 0 0 0 1 0 0 0
POINTS 827
DATA ascii
0.2596021891 -0.3234078288 0.1246692687 6.490113838e-41
-0.1142525822 -0.4147314429 0.3063181937 6.490113838e-41
-0.1222668737 -0.3942642808 0.2633083165 6.490113838e-41
-0.1266873479 -0.377940923 0.2107165605 6.490113838e-41
-0.1222966611 -0.3595335484 0.1647602022 6.490113838e-41
-0.1206136942 -0.3354170024 0.1339082867 6.490113838e-41
-0.1210512966 -0.3037531078 0.1122898906 6.490113838e-41
-0.1203435212 -0.2645317316 0.1040270478 6.490113838e-41
-0.1194874495 -0.224649936 0.1033066064 6.490113838e-41
-0.1231040955 -0.1853844523 0.1049593538 6.490113838e-41
-0.1218653023 -0.1430143565 0.1054585725 6.490113838e-41
-0.1186683774 -0.1096035466 0.1045224667 6.490113838e-41
-0.1215850264 -0.08279141784 0.09709133208 6.490113838e-41
-0.1242444962 -0.05422813445 0.09521006048 6.490113838e-41
-0.1196185499 -0.02882459015 0.1213976741 6.490113838e-41
-0.125615716 0.005842663348 0.1354606748 6.490113838e-41
-0.1243701726 0.01636005193 0.1545768231 6.490113838e-41
-0.128277123 -0.04448040575 0.1422425508 6.490113838e-41
-0.1344062388 -0.1556296051 0.114591673 6.490113838e-41
-0.1147758514 -0.2357512414 0.1053787172 6.490113838e-41
-0.07883507013 -0.2903467715 0.1129841208 6.490113838e-41
-0.04146804288 -0.356813848 0.1033637077 6.490113838e-41
0.005628167652 -0.3877847195 0.1035234779 6.490113838e-41
0.03621479869 -0.4180215299 0.1136732399 6.490113838e-41
0.08645448089 -0.4255194366 0.1416209042 6.490113838e-41
0.1388425082 -0.437964648 0.1743050218 6.490113838e-41
0.1938465238 -0.4500700533 0.2018568963 6.490113838e-41
0.239759326 -0.4582346082 0.2243014127 6.490113838e-41
0.2785287797 -0.4497419298 0.2431678623 6.490113838e-41
0.2809810042 -0.4112136364 0.2167869508 6.490113838e-41
0.2770296335 -0.3852646947 0.1811132133 6.490113838e-41
0.2733102143 -0.3559170663 0.1480467767 6.490113838e-41
0.2736259401 -0.3228012323 0.1168445498 6.490113838e-41
-0.1160523742 -0.4236875176 0.3009599149 6.490113838e-41
-0.1198007911 -0.4032369554 0.2605012059 6.490113838e-41
-0.1263121217 -0.3869990408 0.2067825645 6.490113838e-41
-0.1228992194 -0.3680425584 0.1619615555 6.490113838e-41
-0.1212202758 -0.3491332829 0.1276641637 6.490113838e-41
-0.1210384816 -0.3173662722 0.1046187282 6.490113838e-41
-0.1210665703 -0.2789585292 0.09222511947 6.490113838e-41
-0.1222724766 -0.2369739711 0.08845057338 6.490113838e-41
-0.1235663146 -0.1990783215 0.08732928336 6.490113838e-41
-0.1226177514 -0.1580467373 0.08767455071 6.490113838e-41
-0.1187443584 -0.1221189797 0.08704082668 6.490113838e-41
-0.1208493859 -0.09280966967 0.081171453 6.490113838e-41
-0.1253122836 -0.06358656287 0.07617993653 6.490113838e-41
-0.1198179871 -0.03862970322 0.0987482816 6.490113838e-41
-0.1261756867 -0.01005004346 0.1191615462 6.490113838e-41
-0.1256049722 0.01580422372 0.1296603978 6.490113838e-41
-0.1259740144 -0.01282627881 0.1342984736 6.490113838e-41
-0.1292488128 -0.1109549329 0.1101433486 6.490113838e-41
-0.1289062202 -0.222476691 0.08812589943 6.490113838e-41
-0.08604410291 -0.2746722698 0.09567299485 6.490113838e-41
-0.04448178038 -0.3347043395 0.09782841802 6.490113838e-41
0.007980781607 -0.3744535148 0.0984467715 6.490113838e-41
0.04107166082 -0.4117209315 0.1008104533 6.490113838e-41
0.09213152528 -0.4193818569 0.130444929 6.490113838e-41
0.1428114921 -0.4310730696 0.1594121754 6.490113838e-41
0.198804602 -0.4436348081 0.18666628 6.490113838e-41
0.2465122044 -0.4543297291 0.2111607641 6.490113838e-41
0.2848379314 -0.4462346137 0.2300835997 6.490113838e-41
0.2936518788 -0.4109380245 0.2108212411 6.490113838e-41
0.2899366617 -0.3854186535 0.175107345 6.490113838e-41
0.2864015102 -0.355874598 0.1409090459 6.490113838e-41
0.2866635025 -0.3227904737 0.1086473614 6.490113838e-41
-0.1192889065 -0.4339975119 0.2958106101 3.015101038e-39
-0.1197859049 -0.4124981165 0.2561763823 3.015101038e-39
-0.1244303882 -0.3952264786 0.2037454993 3.015101038e-39
-0.1230673492 -0.3771909773 0.1587865502 3.015101038e-39
-0.1218463629 -0.3588068783 0.1225726753 3.015101038e-39
-0.1213480979 -0.3310081363 0.09818035364 3.015101038e-39
-0.1209970564 -0.2929638028 0.08360441029 3.015101038e-39
-0.1247450113 -0.2505338788 0.07655307651 3.015101038e-39
-0.1243926734 -0.211647138 0.07160185277 3.015101038e-39
-0.1238414049 -0.1748054028 0.06894060969 3.015101038e-39
-0.1217500269 -0.1375901848 0.06954391301 3.015101038e-39
-0.1204251647 -0.1031126603 0.06499447674 3.015101038e-39
-0.1243905574 -0.0733455494 0.06071371213 3.015101038e-39
-0.1239483654 -0.04502955824 0.07048049569 3.015101038e-39
-0.1253769249 -0.01983039826 0.09675697982 3.015101038e-39
-0.1264472902 0.01380024105 0.1144025326 3.015101038e-39
-0.1227168292 0.01275423914 0.1239857972 3.015101038e-39
-0.1264338791 -0.07095333934 0.1072110832 3.015101038e-39
-0.1311250925 -0.1986074448 0.079890728 3.015101038e-39
-0.09548841417 -0.2588344514 0.08100064099 3.015101038e-39
-0.04768304154 -0.3126540482 0.09219723195 3.015101038e-39
0.005672894418 -0.3635817766 0.09182597697 3.015101038e-39
0.04950691015 -0.4005052745 0.09266908467 3.015101038e-39
0.09742289782 -0.4159763455 0.117227748 3.015101038e-39
0.1475452036 -0.4244266748 0.144517079 3.015101038e-39
0.2034089118 -0.4375912845 0.1700691581 3.015101038e-39
0.2508194745 -0.4479235113 0.1958085299 3.015101038e-39
0.2904905081 -0.4439171851 0.2162686139 3.015101038e-39
0.3064194918 -0.410913229 0.2051246464 3.015101038e-39
0.3029288948 -0.3853752911 0.1689954996 3.015101038e-39
0.299461931 -0.3551669717 0.1337895542 3.015101038e-39
0.2972402573 -0.3216767609 0.1014804691 3.015101038e-39
-0.1226016879 -0.4453007281 0.2920193374 3.015101038e-39
-0.1215166599 -0.4212823212 0.2498280257 3.015101038e-39
-0.1224782169 -0.4037199318 0.2012144774 3.015101038e-39
-0.1235319078 -0.3865621984 0.1540064961 3.015101038e-39
-0.1218177825 -0.3672981262 0.1178136468 3.015101038e-39
-0.1216633469 -0.3439849615 0.09222111106 3.015101038e-39
-0.121273756 -0.3071465492 0.075054802 3.015101038e-39
-0.1260638684 -0.2648350894 0.06748947501 3.015101038e-39
-0.1262499839 -0.224204734 0.05991774052 3.015101038e-39
-0.125723511 -0.1895417571 0.05365659297 3.015101038e-39
-0.1241749674 -0.1540498585 0.05235343054 3.015101038e-39
-0.1212767363 -0.1164077744 0.04952934384 3.015101038e-39
-0.124420777 -0.08363232762 0.04564160854 3.015101038e-39
-0.1261051595 -0.05493319407 0.0458072871 3.015101038e-39
-0.1242650896 -0.02896223217 0.07252511382 3.015101038e-39
-0.1287324578 0.004842869937 0.09856754541 3.015101038e-39
-0.1251296103 0.01950048655 0.1066494435 3.015101038e-39
-0.124962613 -0.03600012511 0.1060588956 3.015101038e-39
-0.1287276745 -0.1578676403 0.081013605 3.015101038e-39
-0.1065537333 -0.2444733083 0.06866255403 3.015101038e-39
-0.05221878365 -0.2966364622 0.07693693787 3.015101038e-39
0.002365438268 -0.3553366959 0.07987868786 3.015101038e-39
0.0583707802 -0.3880892992 0.08628838509 3.015101038e-39
0.1030173302 -0.4145160019 0.1002032012 3.015101038e-39
0.1535839438 -0.4182861447 0.1279373169 3.015101038e-39
0.2095997632 -0.4317909479 0.1527815461 3.015101038e-39
0.255302906 -0.4427454174 0.1787796319 3.015101038e-39
0.295582056 -0.4424891174 0.2013406157 3.015101038e-39
0.3185694516 -0.4140773416 0.1988530308 3.015101038e-39
0.3155705929 -0.386177659 0.1621509641 3.015101038e-39
0.3115725517 -0.354880631 0.1265846342 3.015101038e-39
0.308288753 -0.3201855719 0.09376816452 3.015101038e-39
-0.1240548342 -0.4534317255 0.2868623435 3.015101038e-39
-0.1243346632 -0.4318937063 0.2427001148 3.015101038e-39
-0.1199057549 -0.4125742614 0.1993539631 3.015101038e-39
-0.1240237355 -0.3958305717 0.1486832201 3.015101038e-39
-0.1216538697 -0.3759987354 0.1118973494 3.015101038e-39
-0.1208208352 -0.3560481966 0.08591713756 3.015101038e-39
-0.1215744168 -0.3217086196 0.06574089825 3.015101038e-39
-0.1264249384 -0.2794327438 0.05811045319 3.015101038e-39
-0.1291429102 -0.2371811271 0.04903438687 3.015101038e-39
-0.1287593246 -0.2034430504 0.04189905524 3.015101038e-39
-0.1255818158 -0.1709224582 0.03804741055 3.015101038e-39
-0.1221797466 -0.1331919134 0.03729447722 3.015101038e-39
-0.1245573461 -0.09425891936 0.03420562297 3.015101038e-39
-0.127008751 -0.06578864157 0.02889128774 3.015101038e-39
-0.127441749 -0.03679975122 0.0414757058 3.015101038e-39
-0.1327387393 -0.004357382655 0.07514041662 3.015101038e-39
-0.1313819438 0.01796364039 0.09408083558 3.015101038e-39
-0.1250272989 -0.005657605827 0.09346562624 3.015101038e-39
-0.1271445006 -0.1212727502 0.07967452705 3.015101038e-39
-0.1136865318 -0.2334922254 0.05725353956 3.015101038e-39
-0.05496155843 -0.2834096253 0.06021247059 3.015101038e-39
0.0004150979221 -0.3370079398 0.0708887428 3.015101038e-39
0.06039007008 -0.3775029778 0.07518155873 3.015101038e-39
0.1112053394 -0.4086722434 0.08216901124 3.015101038e-39
0.1618959755 -0.412950933 0.1112344116 3.015101038e-39
0.217063725 -0.4258260727 0.1357155293 3.015101038e-39
0.2603570521 -0.4388932586 0.1612559259 3.015101038e-39
0.3029012382 -0.4420489371 0.1876024455 3.015101038e-39
0.3315420449 -0.4204050004 0.1920647621 3.015101038e-39
0.3286646605 -0.3878570199 0.1555349827 3.015101038e-39
0.3207937777 -0.3557133079 0.1185271591 3.015101038e-39
0.3144472837 -0.3205320537 0.08363369107 3.015101038e-39
-0.1250793338 -0.4610239863 0.2801298201 3.015101038e-39
-0.126840353 -0.4428866506 0.2347455919 3.015101038e-39
-0.1198127568 -0.4218521416 0.1919103414 3.015101038e-39
-0.1230408102 -0.4045830071 0.1399592757 3.015101038e-39
-0.1208588481 -0.3844569623 0.1036372632 3.015101038e-39
-0.1194722503 -0.3645203114 0.07642775029 3.015101038e-39
-0.122206986 -0.3353966475 0.05744351447 3.015101038e-39
-0.1281391978 -0.2944436371 0.04821295291 3.015101038e-39
-0.1311955899 -0.2512253225 0.03930062056 3.015101038e-39
-0.1302253306 -0.216705218 0.03245827183 3.015101038e-39
-0.1279194653 -0.1872524023 0.02551274002 3.015101038e-39
-0.1231168061 -0.1495409161 0.02450265735 3.015101038e-39
-0.1242552251 -0.1054721177 0.02246912196 3.015101038e-39
-0.127321586 -0.07695479691 0.01844731532 3.015101038e-39
-0.129027009 -0.04472336173 0.01864115149 3.015101038e-39
-0.133362636 -0.01546639949 0.04560345039 3.015101038e-39
-0.1349605471 0.01389538497 0.0761320442 3.015101038e-39
-0.1287022978 0.01790622622 0.08128993958 3.015101038e-39
-0.1275893152 -0.08403751254 0.07601577044 3.015101038e-39
-0.1212447584 -0.2098321468 0.05062852055 3.015101038e-39
-0.06405358016 -0.2703060508 0.04670457169 3.015101038e-39
-0.002471208572 -0.3226102889 0.05798246711 3.015101038e-39
0.05731342733 -0.3712309897 0.05880080163 3.015101038e-39
0.1190863103 -0.4012981653 0.06550811231 3.015101038e-39
0.1688713431 -0.4100922346 0.08823037148 3.015101038e-39
0.2239477336 -0.4202029407 0.1170200258 3.015101038e-39
0.2662018538 -0.434543997 0.142915085 3.015101038e-39
0.3106707036 -0.4416694343 0.1737780124 3.015101038e-39
0.3446784317 -0.4264267683 0.1855108887 3.015101038e-39
0.3386638463 -0.3908042014 0.1486458927 3.015101038e-39
0.328300029 -0.3576746285 0.1100099534 3.015101038e-39
0.3202190101 -0.3213579357 0.07435426116 3.015101038e-39
-0.1257027984 -0.4690056741 0.2726420462 5.962428276e-39
-0.129062891 -0.4504011273 0.2273786068 5.962428276e-39
-0.1211476177 -0.43230021 0.1854240745 5.962428276e-39
-0.1200820208 -0.4132232666 0.1385755092 5.962428276e-39
-0.1204773486 -0.3937466145 0.1002411842 5.962428276e-39
-0.118519485 -0.3732509315 0.07102787495 5.962428276e-39
-0.1232878417 -0.3483017385 0.05051806942 5.962428276e-39
-0.12844868 -0.3090173006 0.03818306327 5.962428276e-39
-0.1323641688 -0.2664096653 0.02978406474 5.962428276e-39
-0.1305932999 -0.229398191 0.02187338844 5.962428276e-39
-0.1287591457 -0.2010205388 0.0150997676 5.962428276e-39
-0.1252360642 -0.1647322476 0.01141777821 5.962428276e-39
-0.1248972118 -0.1228854284 0.00950053148 5.962428276e-39
-0.1277227551 -0.08940126002 0.006626432762 5.962428276e-39
-0.13063398 -0.05623666942 0.004936821759 5.962428276e-39
-0.1333665252 -0.02557048202 0.02021632716 5.962428276e-39
-0.1425505131 0.008360512555 0.05570713058 5.962428276e-39
-0.1364444941 0.02042954415 0.06970465183 5.962428276e-39
-0.1289910227 -0.04516942054 0.06363885105 5.962428276e-39
-0.1239862293 -0.1785644144 0.04525000975 5.962428276e-39
-0.07282733917 -0.2584579885 0.03559557721 5.962428276e-39
-0.001663053408 -0.3082274497 0.0425381884 5.962428276e-39
0.05257630721 -0.3648974299 0.04308304936 5.962428276e-39
0.1194151193 -0.3926310539 0.0547227785 5.962428276e-39
0.1757445335 -0.4093376398 0.06820124388 5.962428276e-39
0.2280520797 -0.415512085 0.09900955856 5.962428276e-39
0.2712471485 -0.4299280047 0.1232734323 5.962428276e-39
0.3157449663 -0.4389504492 0.1553164274 5.962428276e-39
0.3541518152 -0.4320358336 0.1764477044 5.962428276e-39
0.345838964 -0.3931624591 0.1392378956 5.962428276e-39
0.3356604278 -0.3604272008 0.1011597067 5.962428276e-39
0.3270308971 -0.3226052225 0.06549562514 5.962428276e-39
-0.1262610108 -0.4769761562 0.2649189234 5.962428276e-39
-0.1308906376 -0.4578480124 0.2191734612 5.962428276e-39
-0.1228859872 -0.4419870079 0.1781136394 5.962428276e-39
-0.1169537008 -0.422403574 0.1393872052 5.962428276e-39
-0.1197210699 -0.4034914374 0.09795118868 5.962428276e-39
-0.1189475656 -0.3825417161 0.06709399074 5.962428276e-39
-0.1242245287 -0.3613472283 0.04512783512 5.962428276e-39
-0.1289796531 -0.3232045174 0.03217551857 5.962428276e-39
-0.1334717572 -0.281635046 0.02288634703 5.962428276e-39
-0.1317227334 -0.2422536314 0.01017876901 5.962428276e-39
-0.1286979616 -0.2141827047 0.001569010317 5.962428276e-39
-0.1264097691 -0.1805253774 -0.005751825869 5.962428276e-39
-0.1256662011 -0.139580965 -0.007991306484 5.962428276e-39
-0.1278122813 -0.1011015549 -0.01032122597 5.962428276e-39
-0.1306833923 -0.0689978376 -0.009834032506 5.962428276e-39
-0.1345687211 -0.03563153744 -1.554191113e-05 5.962428276e-39
-0.1419268996 -0.001236878335 0.02851404622 5.962428276e-39
-0.1404830962 0.01741484553 0.05300814286 5.962428276e-39
-0.1288386881 -0.01108068228 0.05128259584 5.962428276e-39
-0.1260986924 -0.1420421898 0.03926391527 5.962428276e-39
-0.0940221101 -0.2506915033 0.02552787401 5.962428276e-39
-0.01387410983 -0.2942708135 0.03041822277 5.962428276e-39
0.04752551764 -0.3541433811 0.03503924608 5.962428276e-39
0.1076578051 -0.3888854086 0.03956511989 5.962428276e-39
0.180885762 -0.4045466185 0.05037356913 5.962428276e-39
0.2287241369 -0.4113636017 0.07969554514 5.962428276e-39
0.2732491195 -0.4260273278 0.1067613363 5.962428276e-39
0.317548126 -0.437202692 0.1374518275 5.962428276e-39
0.3565441966 -0.4337985218 0.1618192941 5.962428276e-39
0.3529266417 -0.3960213363 0.1294883788 5.962428276e-39
0.3422270119 -0.3632354736 0.09128363431 5.962428276e-39
0.3336664736 -0.3248238862 0.0558468774 5.962428276e-39
-0.1223197728 -0.481597811 0.2583377063 5.962428276e-39
-0.1323515028 -0.4653172791 0.2126846462 5.962428276e-39
-0.1243899912 -0.4491261244 0.1715786159 5.962428276e-39
-0.1165602356 -0.4320848286 0.1378203034 5.962428276e-39
-0.1195131838 -0.4128502607 0.09571662545 5.962428276e-39
-0.1199133843 -0.3918077052 0.06315759569 5.962428276e-39
-0.12503317 -0.3709624112 0.03965412825 5.962428276e-39
-0.130009383 -0.3362825811 0.02488056198 5.962428276e-39
-0.135261789 -0.2961176336 0.0155114904 5.962428276e-39
-0.1342277527 -0.2556881011 0.0004928484559 5.962428276e-39
-0.1300619245 -0.2271103263 -0.009179484099 5.962428276e-39
-0.1281657815 -0.1956949234 -0.01982380077 5.962428276e-39
-0.1276757121 -0.1549026519 -0.02705406398 5.962428276e-39
-0.1283674985 -0.1150610745 -0.03027370945 5.962428276e-39
-0.1304464489 -0.08062453568 -0.02990639955 5.962428276e-39
-0.1373607367 -0.04463683069 -0.02256773412 5.962428276e-39
-0.1404592544 -0.01168627292 0.001676760614 5.962428276e-39
-0.1470891535 0.01657366008 0.03341983259 5.962428276e-39
-0.1324954331 0.009683102369 0.03954459727 5.962428276e-39
-0.1270250231 -0.1016867384 0.02825507894 5.962428276e-39
-0.1119446307 -0.2314474434 0.01628788188 5.962428276e-39
-0.02200112492 -0.281493187 0.01702420972 5.962428276e-39
0.0371183306 -0.3392873704 0.02663857862 5.962428276e-39
0.09760126472 -0.3823672533 0.02521453984 5.962428276e-39
0.1757875085 -0.4001843333 0.03284176067 5.962428276e-39
0.2299740165 -0.4079314172 0.06038416177 5.962428276e-39
0.2750855684 -0.4219371676 0.0909679383 5.962428276e-39
0.3181551099 -0.4360090494 0.1192237735 5.962428276e-39
0.3572390378 -0.4359696805 0.1474270672 5.962428276e-39
0.3600036502 -0.4018657506 0.1231741458 5.962428276e-39
0.3488108814 -0.3674701452 0.08322884142 5.962428276e-39
0.3399742842 -0.3276355565 0.04625537246 5.962428276e-39
-0.1133705825 -0.4816567302 0.252982378 5.962428276e-39
-0.1338619888 -0.4727318585 0.2063874006 5.962428276e-39
-0.125849545 -0.4560963213 0.1652813703 5.962428276e-39
-0.1183780581 -0.4403951466 0.1320420951 5.962428276e-39
-0.117162779 -0.4212452471 0.09697917104 5.962428276e-39
-0.1206854731 -0.4011253119 0.05912442505 5.962428276e-39
-0.1256362349 -0.3797692358 0.03445044905 5.962428276e-39
-0.1313919574 -0.3500102758 0.01742689684 5.962428276e-39
-0.1368867755 -0.3097398281 0.007645584643 5.962428276e-39
-0.1377523541 -0.2705490887 -0.008180856705 5.962428276e-39
-0.132002309 -0.2400839925 -0.02043867484 5.962428276e-39
-0.1302241534 -0.210652262 -0.0315127857 5.962428276e-39
-0.1296972632 -0.1717408895 -0.03893904015 5.962428276e-39
-0.1302329302 -0.1315434724 -0.04729975387 5.962428276e-39
-0.1309597641 -0.09254395962 -0.04823630676 5.962428276e-39
-0.1363884807 -0.05729656667 -0.04377024248 5.962428276e-39
-0.1406073421 -0.02196620405 -0.02453577891 5.962428276e-39
-0.1484514475 0.01176724583 0.006002964452 5.962428276e-39
-0.1397412568 0.01910751313 0.02111857384 5.962428276e-39
-0.1247243285 -0.0661207214 0.01378898509 5.962428276e-39
-0.1159914285 -0.1991138458 0.005925599486 5.962428276e-39
-0.04687027261 -0.2756298184 0.002312475815 5.962428276e-39
0.01569676213 -0.3274114728 0.01126959734 5.962428276e-39
0.08980789781 -0.3730208278 0.01280862279 5.962428276e-39
0.1654296368 -0.3943065405 0.02125624195 5.962428276e-39
0.2273179889 -0.4063198268 0.04070369527 5.962428276e-39
0.2760719657 -0.4178149402 0.07405246794 5.962428276e-39
0.3181214631 -0.4332280755 0.1012761444 5.962428276e-39
0.3576235175 -0.4383174181 0.1329322755 5.962428276e-39
0.3667515218 -0.4078171253 0.1170115173 5.962428276e-39
0.3551689088 -0.3725681901 0.07624787092 5.962428276e-39
0.3457044363 -0.3330415785 0.04004003853 5.962428276e-39
-0.1034013182 -0.4818870127 0.2484061718 8.906165387e-39
-0.1352360547 -0.479917109 0.2007334381 8.906165387e-39
-0.1284178495 -0.4634389281 0.1593335271 8.906165387e-39
-0.1207874864 -0.4476059675 0.1252720058 8.906165387e-39
-0.1168259084 -0.4309229851 0.09712699056 8.906165387e-39
-0.1217606813 -0.4102272093 0.05705102161 8.906165387e-39
-0.1265241206 -0.3887617886 0.03028615378 8.906165387e-39
-0.1329545826 -0.3647943437 0.009929668158 8.906165387e-39
-0.1381780356 -0.3228867948 -0.0001794062555 8.906165387e-39
-0.1398305595 -0.2856241167 -0.01572148502 8.906165387e-39
-0.1347158253 -0.2533911169 -0.03178190812 8.906165387e-39
-0.1322641969 -0.2241201997 -0.04250020906 8.906165387e-39
-0.1314889044 -0.1891613305 -0.05020427331 8.906165387e-39
-0.1315280944 -0.1482352018 -0.05806478485 8.906165387e-39
-0.1315233409 -0.1064031646 -0.06337419152 8.906165387e-39
-0.13586317 -0.07004748285 -0.06470958889 8.906165387e-39
-0.1421701014 -0.03416409343 -0.05461581424 8.906165387e-39
-0.1445246637 0.003463380039 -0.02406051755 8.906165387e-39
-0.1451762766 0.01705654711 -0.0004448853433 8.906165387e-39
-0.1257947087 -0.03569833934 -0.006153445691 8.906165387e-39
-0.1184364259 -0.1676495969 -0.01397865638 8.906165387e-39
-0.07307985425 -0.268830508 -0.01499520242 8.906165387e-39
0.004630608484 -0.3136366904 -0.003437746316 8.906165387e-39
0.0646764338 -0.3644505441 0.002821728587 8.906165387e-39
0.1490538567 -0.3891908526 0.009559893981 8.906165387e-39
0.2246275097 -0.4022270441 0.02450278029 8.906165387e-39
0.2748654187 -0.4142147601 0.05389193445 8.906165387e-39
0.3167459667 -0.4292239249 0.08324449509 8.906165387e-39
0.3566673398 -0.4392161965 0.115658015 8.906165387e-39
0.3726901412 -0.4137974679 0.1115052551 8.906165387e-39
0.361333847 -0.3779572546 0.07098916173 8.906165387e-39
0.3516804874 -0.3381490409 0.03415803984 8.906165387e-39
-0.09252557158 -0.4822955132 0.2445278764 8.906165387e-39
-0.1293851882 -0.481657207 0.1952758729 8.906165387e-39
-0.1306720227 -0.4709017873 0.1545341611 8.906165387e-39
-0.1234069914 -0.45501858 0.1191569269 8.906165387e-39
-0.1184026003 -0.4388533533 0.09108938277 8.906165387e-39
-0.1233224422 -0.4197229445 0.05349478871 8.906165387e-39
-0.1273415089 -0.3978058994 0.025997255 8.906165387e-39
-0.1340058595 -0.3771012127 0.002818789333 8.906165387e-39
-0.1400031745 -0.3369621634 -0.008230980486 8.906165387e-39
-0.141019702 -0.3013643026 -0.02446557581 8.906165387e-39
-0.1371982545 -0.2667868733 -0.04173933342 8.906165387e-39
-0.1339075863 -0.2374809682 -0.05383712426 8.906165387e-39
-0.1337469965 -0.2058318257 -0.06110109016 8.906165387e-39
-0.1331999004 -0.1644252092 -0.06786474586 8.906165387e-39
-0.1319644898 -0.1233252808 -0.07302454114 8.906165387e-39
-0.1350180358 -0.08229322731 -0.08144137263 8.906165387e-39
-0.1409198344 -0.04450362921 -0.07908540964 8.906165387e-39
-0.1434085518 -0.006063111126 -0.0532114394 8.906165387e-39
-0.1482930332 0.01672822982 -0.0257181488 8.906165387e-39
-0.1320495009 -0.01064637303 -0.02427698672 8.906165387e-39
-0.1193698645 -0.1406968385 -0.03661872819 8.906165387e-39
-0.09578497708 -0.2607498765 -0.03945979849 8.906165387e-39
-0.005348628387 -0.3009195924 -0.01756050438 8.906165387e-39
0.04856617004 -0.3511243165 -0.00541434437 8.906165387e-39
0.128723368 -0.3844985664 -0.0004893243313 8.906165387e-39
0.2191557735 -0.3974469602 0.009621666744 8.906165387e-39
0.2724942267 -0.4107397497 0.03535152227 8.906165387e-39
0.3148427606 -0.4247603118 0.06507667154 8.906165387e-39
0.3541198671 -0.4375354052 0.09725672007 8.906165387e-39
0.3789823353 -0.4191300571 0.1063139886 8.906165387e-39
0.3674960434 -0.3831202984 0.06588534266 8.906165387e-39
0.357567817 -0.3430399001 0.02811360732 8.906165387e-39
-0.08225108683 -0.4828335941 0.2412907779 8.906165387e-39
-0.119073838 -0.4819453955 0.189457342 8.906165387e-39
-0.1330268681 -0.4784062803 0.1490604281 8.906165387e-39
-0.1259536147 -0.4621374607 0.1137911379 8.906165387e-39
-0.1197467595 -0.4457814395 0.08536310494 8.906165387e-39
-0.1240354478 -0.4306210577 0.05333299935 8.906165387e-39
-0.1277646273 -0.4073446095 0.02118791826 8.906165387e-39
-0.1346919388 -0.3863089383 -0.002971351147 8.906165387e-39
-0.1414404511 -0.3528471887 -0.01725034416 8.906165387e-39
-0.1424601525 -0.3169116676 -0.03466333076 8.906165387e-39
-0.1382514238 -0.282635659 -0.05178076401 8.906165387e-39
-0.1365842074 -0.2509947121 -0.06594601274 8.906165387e-39
-0.1362541616 -0.2215748131 -0.07334347069 8.906165387e-39
-0.1351270825 -0.1800135672 -0.07746402919 8.906165387e-39
-0.1331478953 -0.1395616382 -0.08236688375 8.906165387e-39
-0.1338656098 -0.09436917305 -0.09122920036 8.906165387e-39
-0.1394134164 -0.05616061017 -0.09513799846 8.906165387e-39
-0.1449645907 -0.01840271056 -0.08263672888 8.906165387e-39
-0.1507489979 0.01454072446 -0.05368081853 8.906165387e-39
-0.1390162706 0.007259428501 -0.03978794441 8.906165387e-39
-0.1206423491 -0.1125528514 -0.0574455969 8.906165387e-39
-0.1044632792 -0.2371092439 -0.06051260605 8.906165387e-39
-0.02446503192 -0.2924560606 -0.0406033881 8.906165387e-39
0.04255885631 -0.3411757648 -0.01982594281 8.906165387e-39
0.1121960282 -0.3771104813 -0.009332645684 8.906165387e-39
0.2124969065 -0.392870605 -0.003339949995 8.906165387e-39
0.2678113282 -0.4072429836 0.01866220124 8.906165387e-39
0.3127881587 -0.4207782447 0.04890874773 8.906165387e-39
0.351406306 -0.4350734949 0.07894173265 8.906165387e-39
0.3848975897 -0.4262721539 0.1004670113 8.906165387e-39
0.373837173 -0.3877331018 0.06055565178 8.906165387e-39
0.3630066812 -0.3479882479 0.02146962471 8.906165387e-39
-0.07338531315 -0.4833477437 0.2378931046 8.906165387e-39
-0.1091519147 -0.4824270308 0.1839815676 8.906165387e-39
-0.126833275 -0.4817866981 0.1427234113 8.906165387e-39
-0.1284980476 -0.469742626 0.1079561114 8.906165387e-39
-0.1222224385 -0.4532301128 0.07925534248 8.906165387e-39
-0.124501586 -0.4378972948 0.05139722303 8.906165387e-39
-0.1290829331 -0.4181036353 0.01595951617 8.906165387e-39
-0.135603562 -0.3957587779 -0.008943215013 8.906165387e-39
-0.1421884298 -0.3689202666 -0.02697109431 8.906165387e-39
-0.1427404881 -0.332061559 -0.04458269849 8.906165387e-39
-0.1390757859 -0.2993218005 -0.06243370846 8.906165387e-39
-0.1379565448 -0.2644454837 -0.07589423656 8.906165387e-39
-0.1383313686 -0.2347753644 -0.08522039652 8.906165387e-39
-0.1371601671 -0.1955466568 -0.08716465533 8.906165387e-39
-0.1343146861 -0.1543528736 -0.09165893495 8.906165387e-39
-0.1336919665 -0.1090432629 -0.09913186729 8.906165387e-39
-0.1383953542 -0.06784964353 -0.1054259241 8.906165387e-39
-0.143722102 -0.03035533428 -0.1040438414 8.906165387e-39
-0.1505441368 0.00902235508 -0.07830770314 8.906165387e-39
-0.1457789391 0.01238381863 -0.0634829402 8.906165387e-39
-0.1194477081 -0.08307234943 -0.07947827876 8.906165387e-39
-0.1063912511 -0.2083601207 -0.08287346363 8.906165387e-39
-0.04473943636 -0.2840863466 -0.06471376121 8.906165387e-39
0.03738887608 -0.3298001289 -0.03681216016 8.906165387e-39
0.09871016443 -0.3678695261 -0.0238180384 8.906165387e-39
0.202935189 -0.3875149786 -0.01551578939 8.906165387e-39
0.2640386224 -0.4008305073 0.004184564576 8.906165387e-39
0.3098784983 -0.4169736505 0.03335436434 8.906165387e-39
0.3485400081 -0.4307766259 0.06219799444 8.906165387e-39
0.3892239332 -0.4344752133 0.09248177707 8.906165387e-39
0.3790871799 -0.3927266002 0.05421968922 8.906165387e-39
0.3675308526 -0.3533258736 0.01203246973 8.906165387e-39
-0.06424619257 -0.4838041365 0.2339897603 1.184631237e-38
-0.09858362377 -0.4829497635 0.1793534607 1.184631237e-38
-0.1157452166 -0.4821491241 0.1370313466 1.184631237e-38
-0.1291042268 -0.4782378972 0.1016844511 1.184631237e-38
-0.1249285787 -0.4606324434 0.07225398719 1.184631237e-38
-0.1250429451 -0.4447851479 0.04570327327 1.184631237e-38
-0.1315291673 -0.4293321967 0.01217866316 1.184631237e-38
-0.136356324 -0.4054882526 -0.01368450001 1.184631237e-38
-0.141904816 -0.3834571838 -0.03588008508 1.184631237e-38
-0.1432085633 -0.3485217094 -0.05337912217 1.184631237e-38
-0.1400990039 -0.3153162897 -0.07262769341 1.184631237e-38
-0.1386210471 -0.2777876258 -0.08481439948 1.184631237e-38
-0.1399000734 -0.2470670938 -0.09556506574 1.184631237e-38
-0.1381030381 -0.2099861205 -0.09772670269 1.184631237e-38
-0.1347952336 -0.1681700349 -0.1004637033 1.184631237e-38
-0.1340771914 -0.1242368966 -0.1062031686 1.184631237e-38
-0.1376297176 -0.07949455082 -0.1138856709 1.184631237e-38
-0.1432559937 -0.03904617578 -0.11602211 1.184631237e-38
-0.1507080048 -0.001312173903 -0.100597322 1.184631237e-38
-0.1481744498 0.01147246361 -0.08338344097 1.184631237e-38
-0.1217906326 -0.05289295688 -0.0890442729 1.184631237e-38
-0.1075422019 -0.1769987643 -0.1019978076 1.184631237e-38
-0.06281906366 -0.276702404 -0.08859048784 1.184631237e-38
0.02661430836 -0.315397948 -0.05912361667 1.184631237e-38
0.09263192117 -0.3567192852 -0.03841322288 1.184631237e-38
0.181893304 -0.382674396 -0.02932177857 1.184631237e-38
0.2603367567 -0.3957750797 -0.01458052918 1.184631237e-38
0.3052552938 -0.4136104584 0.01284219325 1.184631237e-38
0.346247524 -0.4265929163 0.04369141534 1.184631237e-38
0.3876146972 -0.4340634942 0.07528729737 1.184631237e-38
0.3838246465 -0.3979781568 0.04361265153 1.184631237e-38
0.371845603 -0.3588794768 0.0008966773748 1.184631237e-38
-0.0524997972 -0.4838814139 0.2311135083 1.184631237e-38
-0.08738699555 -0.483435452 0.1744715273 1.184631237e-38
-0.1045932025 -0.4825542867 0.1319792122 1.184631237e-38
-0.1220930517 -0.4819186628 0.09537729621 1.184631237e-38
-0.1265151054 -0.469032377 0.06463650614 1.184631237e-38
-0.1265446395 -0.4513788819 0.03879924119 1.184631237e-38
-0.1326389462 -0.4371618032 0.01161199063 1.184631237e-38
-0.1360901743 -0.416675806 -0.01946333051 1.184631237e-38
-0.1412656158 -0.3946937621 -0.04277677462 1.184631237e-38
-0.1435889453 -0.3654832542 -0.06162783131 1.184631237e-38
-0.140658617 -0.3318185806 -0.08167295158 1.184631237e-38
-0.139251247 -0.2930593789 -0.09464283288 1.184631237e-38
-0.1401113719 -0.2591345906 -0.1034841388 1.184631237e-38
-0.1385991275 -0.2244873792 -0.1086096615 1.184631237e-38
-0.1350806355 -0.1815543175 -0.1109440774 1.184631237e-38
-0.1348609924 -0.1382771581 -0.113914147 1.184631237e-38
-0.1371463388 -0.09021126479 -0.1224717349 1.184631237e-38
-0.1429026425 -0.04946289212 -0.1243295521 1.184631237e-38
-0.1499875933 -0.01258026063 -0.1195273846 1.184631237e-38
-0.1553022861 0.01238971949 -0.1035195738 1.184631237e-38
-0.1239650697 -0.02024297416 -0.09933769703 1.184631237e-38
-0.105058834 -0.1430090964 -0.1210056692 1.184631237e-38
-0.07789553702 -0.2656888366 -0.1110344231 1.184631237e-38
0.0162624605 -0.3030037582 -0.08183129132 1.184631237e-38
0.0866086185 -0.3453526795 -0.0552897267 1.184631237e-38
0.1594608724 -0.3797307909 -0.04517531767 1.184631237e-38
0.251565516 -0.3914269805 -0.03443180397 1.184631237e-38
0.3005872667 -0.4102794826 -0.009489946067 1.184631237e-38
0.3443942368 -0.422352314 0.02325681597 1.184631237e-38
0.3844211698 -0.4315181971 0.05411632359 1.184631237e-38
0.387658447 -0.4024225771 0.0320132263 1.184631237e-38
0.3766226768 -0.3642849624 -0.01075751707 1.184631237e-38
-0.04058662802 -0.4839417636 0.2279028893 1.184631237e-38
-0.07623513043 -0.4837771058 0.1697094589 1.184631237e-38
-0.09284172952 -0.4829989374 0.1261401325 1.184631237e-38
-0.1107698828 -0.4823242426 0.08946803212 1.184631237e-38
-0.1271140426 -0.47786659 0.05613156408 1.184631237e-38
-0.1281729341 -0.4589745104 0.03134978935 1.184631237e-38
-0.1312576532 -0.4436727762 0.006114184856 1.184631237e-38
-0.1351081282 -0.4268115759 -0.02414115146 1.184631237e-38
-0.1415209621 -0.4050662518 -0.04698137566 1.184631237e-38
-0.1436230838 -0.3818892539 -0.07062333822 1.184631237e-38
-0.1413776129 -0.3489057124 -0.08999091387 1.184631237e-38
-0.1399576664 -0.3084483743 -0.1043331921 1.184631237e-38
-0.1397160739 -0.2710683942 -0.1114909798 1.184631237e-38
-0.1392009109 -0.2377161384 -0.1184320599 1.184631237e-38
-0.1359131187 -0.195684731 -0.1216959804 1.184631237e-38
-0.1355838627 -0.1510154605 -0.1235962808 1.184631237e-38
-0.1377952546 -0.1032319516 -0.1299706548 1.184631237e-38
-0.1427966654 -0.06017583236 -0.1327262968 1.184631237e-38
-0.1486620903 -0.02271784097 -0.1322125942 1.184631237e-38
-0.1547593176 0.009507514536 -0.1200023144 1.184631237e-38
-0.1278672516 0.003453865647 -0.112408489 1.184631237e-38
-0.1019263268 -0.1073844805 -0.1302126795 1.184631237e-38
-0.08504515886 -0.2416206002 -0.130398497 1.184631237e-38
0.00279976055 -0.2923364043 -0.1035616845 1.184631237e-38
0.0718806684 -0.3396165967 -0.07814519107 1.184631237e-38
0.1355635673 -0.3761728406 -0.06053160504 1.184631237e-38
0.235658139 -0.3876029253 -0.05294094607 1.184631237e-38
0.2957742214 -0.4061600268 -0.03137872741 1.184631237e-38
0.3416341543 -0.4181759655 0.003219755366 1.184631237e-38
0.3812782168 -0.4289079905 0.03306220844 1.184631237e-38
0.3909432292 -0.4057183266 0.01975782961 1.184631237e-38
0.380423069 -0.3691381514 -0.0229254812 1.184631237e-38
-0.02613312006 -0.4839580357 0.2249568105 1.184631237e-38
-0.06283445656 -0.4839664102 0.1664849073 1.184631237e-38
-0.07917457819 -0.4835124314 0.1210265458 1.184631237e-38
-0.09779395163 -0.4826918244 0.0837302655 1.184631237e-38
-0.1196594536 -0.4820455909 0.05065613613 1.184631237e-38
-0.1274574101 -0.4678215086 0.02382693067 1.184631237e-38
-0.1294966936 -0.4507784247 0.0003487356007 1.184631237e-38
-0.1363366097 -0.4367661178 -0.02917656675 1.184631237e-38
-0.1402555555 -0.4164577127 -0.0512159355 1.184631237e-38
-0.1439118534 -0.3957109749 -0.07896114886 1.184631237e-38
-0.1418498307 -0.3657609522 -0.09894658625 1.184631237e-38
-0.140501976 -0.3247720897 -0.1141771376 1.184631237e-38
-0.1399793923 -0.2840035856 -0.1204246581 1.184631237e-38
-0.1393566877 -0.2500568926 -0.126113385 1.184631237e-38
-0.1372810155 -0.2101455629 -0.1323380023 1.184631237e-38
-0.1369836479 -0.1645321101 -0.1342136711 1.184631237e-38
-0.1390167624 -0.1168080047 -0.1383042932 1.184631237e-38
-0.1426778734 -0.07058351487 -0.1415575445 1.184631237e-38
-0.1470472068 -0.03121761978 -0.1426124573 1.184631237e-38
-0.1525587291 0.005130723119 -0.1333446205 1.184631237e-38
-0.1351953596 0.01193988323 -0.127429381 1.184631237e-38
-0.1006086916 -0.07159256935 -0.138055414 1.184631237e-38
-0.08787587285 -0.2050922662 -0.1464371979 1.184631237e-38
-0.0139157325 -0.2827274203 -0.1228909642 1.184631237e-38
0.06178520992 -0.3316712677 -0.09914511442 1.184631237e-38
0.12477009 -0.3668736517 -0.07885234058 1.184631237e-38
0.2159013301 -0.3838766217 -0.07002945244 1.184631237e-38
0.2919422686 -0.3969546258 -0.05127746239 1.184631237e-38
0.3368356824 -0.4144967794 -0.01977690682 1.184631237e-38
0.3783330917 -0.4262066185 0.01213739626 1.184631237e-38
0.3935983479 -0.4090503454 0.006732551381 1.184631237e-38
0.3829260767 -0.372314781 -0.03427472338 1.184631237e-38
-0.01145538501 -0.4838004708 0.2203852087 1.478322936e-38
-0.0481612049 -0.4840455651 0.1632924825 1.478322936e-38
-0.06571604311 -0.4837937951 0.117369622 1.478322936e-38
-0.08400727808 -0.4830816686 0.07739717513 1.478322936e-38
-0.1065687835 -0.4823145866 0.04570341855 1.478322936e-38
-0.1256194562 -0.4771210849 0.01797095686 1.478322936e-38
-0.1275288314 -0.4592169523 -0.005669482052 1.478322936e-38
-0.1341621578 -0.4444381893 -0.02957100421 1.478322936e-38
-0.1386247128 -0.4262718558 -0.05570397153 1.478322936e-38
-0.1424627751 -0.4058690965 -0.08340668678 1.478322936e-38
-0.1417230964 -0.3824352324 -0.1075132489 1.478322936e-38
-0.1386601478 -0.3426086009 -0.1237250417 1.478322936e-38
-0.1392458528 -0.298261553 -0.1294583231 1.478322936e-38
-0.1387544423 -0.2629766464 -0.1335474551 1.478322936e-38
-0.138021335 -0.2249178588 -0.1412941962 1.478322936e-38
-0.1386033744 -0.1788601577 -0.1447475404 1.478322936e-38
-0.1410593539 -0.130636245 -0.1476939917 1.478322936e-38
-0.1426935345 -0.08107987046 -0.1504627317 1.478322936e-38
-0.1456605196 -0.03974474221 -0.1500241011 1.478322936e-38
-0.150402084 -0.003224611282 -0.1425326318 1.478322936e-38
-0.1451353282 0.01408790797 -0.1392299384 1.478322936e-38
-0.1015737355 -0.03460020572 -0.1412054151 1.478322936e-38
-0.08751411736 -0.1685253531 -0.1589124352 1.478322936e-38
-0.03094740584 -0.2700254917 -0.1470153481 1.478322936e-38
0.04823204875 -0.3219998479 -0.1190520078 1.478322936e-38
0.1153589934 -0.3567384183 -0.09606933594 1.478322936e-38
0.19524239 -0.3799766004 -0.08355408907 1.478322936e-38
0.2863181531 -0.389410913 -0.06920383871 1.478322936e-38
0.3305746913 -0.4112530947 -0.04275725409 1.478322936e-38
0.3737836778 -0.4234650731 -0.009097293019 1.478322936e-38
0.3953490257 -0.41252321 -0.006166923791 1.478322936e-38
0.3855550885 -0.3748374581 -0.04530693963 1.478322936e-38
0.003027394414 -0.4835856557 0.2154350281 1.478322936e-38
-0.03473027423 -0.4840161204 0.1599651724 1.478322936e-38
-0.05271722749 -0.4839578271 0.1143336445 1.478322936e-38
-0.0700777173 -0.4835354686 0.07199923694 1.478322936e-38
-0.09351572394 -0.4825330675 0.04053278267 1.478322936e-38
-0.1171444505 -0.4821431935 0.01358812116 1.478322936e-38
-0.1262553781 -0.4683265984 -0.01218550652 1.478322936e-38
-0.1314828694 -0.4522758722 -0.03439084813 1.478322936e-38
-0.139040038 -0.4354893267 -0.06123623624 1.478322936e-38
-0.1408661753 -0.4169822633 -0.08726994693 1.478322936e-38
-0.1414561123 -0.3986967504 -0.1160085201 1.478322936e-38
-0.1369915456 -0.3608598411 -0.1314476728 1.478322936e-38
-0.1377374977 -0.3142564893 -0.1383692175 1.478322936e-38
-0.1377828717 -0.2759708166 -0.1415573508 1.478322936e-38
-0.1372825801 -0.2389199734 -0.1481804699 1.478322936e-38
-0.1393437237 -0.1937781274 -0.152580902 1.478322936e-38
-0.1429516673 -0.1455527246 -0.1570583135 1.478322936e-38
-0.1433716118 -0.09373854101 -0.1598323733 1.478322936e-38
-0.1442205757 -0.05011654273 -0.1571429372 1.478322936e-38
-0.1492281109 -0.01247180998 -0.1539679319 1.478322936e-38
-0.1498233378 0.01588971168 -0.1490932107 1.478322936e-38
-0.1068001539 -0.003514073789 -0.1478317231 1.478322936e-38
-0.08579038084 -0.1298661679 -0.1677233279 1.478322936e-38
-0.04717163369 -0.2545615733 -0.1695903838 1.478322936e-38
0.03264272213 -0.3091224432 -0.140640378 1.478322936e-38
0.1056752503 -0.3455014229 -0.1118381023 1.478322936e-38
0.1765689403 -0.3743763864 -0.0936126709 1.478322936e-38
0.2658389509 -0.3849020004 -0.08527162671 1.478322936e-38
0.3232922256 -0.4083471 -0.06373718381 1.478322936e-38
0.3683987856 -0.4198916256 -0.02851807326 1.478322936e-38
0.3970509171 -0.4166501164 -0.01818031818 1.478322936e-38
0.3876793087 -0.3782753646 -0.0565395765 1.478322936e-38
0.0175235793 -0.4833699763 0.2106962949 1.478322936e-38
-0.02071400732 -0.4838810265 0.1560496688 1.478322936e-38
-0.03843998164 -0.4838293493 0.1119980216 1.478322936e-38
-0.05690603331 -0.4836807847 0.06900270283 1.478322936e-38
-0.07986348867 -0.4828243852 0.03594009206 1.478322936e-38
-0.1029774696 -0.4824842513 0.009692052379 1.478322936e-38
-0.124142766 -0.4779253304 -0.01572392136 1.478322936e-38
-0.128750205 -0.4607433975 -0.03979420289 1.478322936e-38
-0.1373508275 -0.445409447 -0.06410185993 1.478322936e-38
-0.1399557143 -0.4268909991 -0.09135650098 1.478322936e-38
-0.1398003697 -0.4093473852 -0.1218457371 1.478322936e-38
-0.1360936314 -0.3774112463 -0.1403226703 1.478322936e-38
-0.1363484561 -0.3312650025 -0.1467776597 1.478322936e-38
-0.1373752803 -0.2883310318 -0.1492238939 1.478322936e-38
-0.1366067231 -0.2509773374 -0.1542121023 1.478322936e-38
-0.1397083998 -0.2084409148 -0.1593241394 1.478322936e-38
-0.1424780339 -0.1611043215 -0.1637185067 1.478322936e-38
-0.1436234117 -0.1090586409 -0.1682724357 1.478322936e-38
-0.1440915316 -0.06047429517 -0.1647367626 1.478322936e-38
-0.1473991126 -0.02140048146 -0.162681222 1.478322936e-38
-0.1529260427 0.01401194185 -0.1562580168 1.478322936e-38
-0.118431285 0.01114558429 -0.1620509773 1.478322936e-38
-0.08212888241 -0.086959593 -0.1747203916 1.478322936e-38
-0.06115233526 -0.2333935201 -0.1883603632 1.478322936e-38
0.0181698408 -0.2928416133 -0.1615798473 1.478322936e-38
0.09201845527 -0.3408251703 -0.1340976506 1.478322936e-38
0.1596975774 -0.3690106571 -0.1060324013 1.478322936e-38
0.2441012263 -0.3805764914 -0.09944394231 1.478322936e-38
0.3156645 -0.403156966 -0.08266101778 1.478322936e-38
0.3610818386 -0.4164544046 -0.0471852757 1.478322936e-38
0.3975817561 -0.4182161987 -0.02895212173 1.478322936e-38
0.3897924423 -0.3816510439 -0.06573709846 1.478322936e-38
0.03140085936 -0.4831078351 0.2064281255 1.478322936e-38
-0.006339836866 -0.4836791456 0.1523862481 1.478322936e-38
-0.02387436852 -0.48366943 0.1092178971 1.478322936e-38
-0.04418647662 -0.483587414 0.06660588086 1.478322936e-38
-0.06658864021 -0.4831048548 0.0318274051 1.478322936e-38
-0.08902794123 -0.4828098416 0.006075337529 1.478322936e-38
-0.1146428585 -0.4822835326 -0.01964810118 1.478322936e-38
-0.1255268157 -0.4698072374 -0.04397505149 1.478322936e-38
-0.1347285807 -0.4539322853 -0.06962744892 1.478322936e-38
-0.1399708986 -0.4358631372 -0.09627662599 1.478322936e-38
-0.138543725 -0.4204717875 -0.1273706406 1.478322936e-38
-0.1360160112 -0.3922032416 -0.1485061496 1.478322936e-38
-0.1354352236 -0.3480290771 -0.1546574235 1.478322936e-38
-0.1366645694 -0.3023683131 -0.1565200686 1.478322936e-38
-0.1367620975 -0.2633962035 -0.1605912596 1.478322936e-38
-0.1403968185 -0.2229938507 -0.166403681 1.478322936e-38
-0.1413659602 -0.1755794734 -0.1689379513 1.478322936e-38
-0.1426569223 -0.1246681511 -0.1732019335 1.478322936e-38
-0.1438527256 -0.07238341868 -0.172105819 1.478322936e-38
-0.1460157186 -0.03229353577 -0.1698161662 1.478322936e-38
-0.1509938985 0.007885977626 -0.1644543707 1.478322936e-38
-0.128005296 0.01810070127 -0.1746984273 1.478322936e-38
-0.08812847733 -0.04600422829 -0.1815971434 1.478322936e-38
-0.06786614656 -0.1913811564 -0.1978670955 1.478322936e-38
0.005703016184 -0.2733646929 -0.1787579507 1.478322936e-38
0.07617148757 -0.3336001039 -0.1521829665 1.478322936e-38
0.1451811641 -0.3599435687 -0.1232799441 1.478322936e-38
0.2263076603 -0.3763144016 -0.1102983356 1.478322936e-38
0.308167994 -0.3933998048 -0.09731175005 1.478322936e-38
0.3532651365 -0.4136340916 -0.06662002206 1.478322936e-38
0.3949144483 -0.4193907976 -0.04124390706 1.478322936e-38
0.3915838301 -0.3849667907 -0.0730201304 1.478322936e-38
0.04442626238 -0.4828192294 0.2023204714 1.771655483e-38
0.007095199078 -0.4834273458 0.1495426893 1.771655483e-38
-0.009731730446 -0.4835076332 0.1070912331 1.771655483e-38
-0.02907640114 -0.4834127128 0.06499448419 1.771655483e-38
-0.05372888222 -0.4831751287 0.03079415485 1.771655483e-38
-0.07616056502 -0.4831372797 0.001543411985 1.771655483e-38
-0.1000581086 -0.4827542901 -0.02390309423 1.771655483e-38
-0.1228997409 -0.4791631401 -0.04871716723 1.771655483e-38
-0.131788671 -0.4624336064 -0.07487854362 1.771655483e-38
-0.1404256374 -0.4474157691 -0.102583617 1.771655483e-38
-0.1396085471 -0.4309365153 -0.1316924989 1.771655483e-38
-0.1363478005 -0.4082636237 -0.1546582878 1.771655483e-38
-0.1348554492 -0.3637934029 -0.1609050632 1.771655483e-38
-0.1359021515 -0.3186297119 -0.1635150015 1.771655483e-38
-0.1371329278 -0.2751911581 -0.1669104099 1.771655483e-38
-0.1412833184 -0.2360601127 -0.1729085147 1.771655483e-38
-0.1424122453 -0.1902220845 -0.1740783751 1.771655483e-38
-0.1422583312 -0.1398072243 -0.1772964895 1.771655483e-38
-0.1425367594 -0.08544854075 -0.1789378822 1.771655483e-38
-0.1448493153 -0.04302570969 -0.176916495 1.771655483e-38
-0.1502885818 -0.001588836312 -0.176499784 1.771655483e-38
-0.1441190243 0.02255729586 -0.1810892671 1.771655483e-38
-0.09564703703 -0.01107988507 -0.1883584857 1.771655483e-38
-0.07052983344 -0.1480113119 -0.2100242227 1.771655483e-38
-0.008330745623 -0.2558520734 -0.1986407042 1.771655483e-38
0.06192916259 -0.3210524619 -0.1690032184 1.771655483e-38
0.1333292872 -0.3467738926 -0.1380274296 1.771655483e-38
0.2119329721 -0.3722163737 -0.1210271269 1.771655483e-38
0.2963960171 -0.3844724894 -0.1087651551 1.771655483e-38
0.3456522822 -0.4109636843 -0.0855409652 1.771655483e-38
0.3906331062 -0.4198006094 -0.05576634035 1.771655483e-38
0.3919366598 -0.3885706961 -0.08159644902 1.771655483e-38
0.05714701489 -0.4825288057 0.1985684335 1.771655483e-38
0.02014487796 -0.4831621945 0.1470069438 1.771655483e-38
0.003998538479 -0.4833599627 0.1056202054 1.771655483e-38
-0.01411308721 -0.4831864238 0.06451717764 1.771655483e-38
-0.03886360303 -0.4829901159 0.03015671484 1.771655483e-38
-0.06305627525 -0.4832473993 -0.0008752979338 1.771655483e-38
-0.08655583858 -0.4831410348 -0.0283604674 1.771655483e-38
-0.112932384 -0.4825338125 -0.05375843868 1.771655483e-38
-0.1278219819 -0.4714227617 -0.07817050815 1.771655483e-38
-0.1370618343 -0.4565322101 -0.1093438417 1.771655483e-38
-0.141724363 -0.4404788017 -0.1360925585 1.771655483e-38
-0.1365775168 -0.4224071205 -0.1607989222 1.771655483e-38
-0.1352858245 -0.3796078265 -0.1659038663 1.771655483e-38
-0.1357826591 -0.3341149986 -0.1694932729 1.771655483e-38
-0.1366374642 -0.2886790335 -0.1722108871 1.771655483e-38
-0.1413742304 -0.2476562262 -0.1764886528 1.771655483e-38
-0.1440235823 -0.2053160816 -0.178593114 1.771655483e-38
-0.1420945823 -0.1547414511 -0.180949524 1.771655483e-38
-0.1412000358 -0.1009884104 -0.1841751486 1.771655483e-38
-0.1425087303 -0.05441306531 -0.182971105 1.771655483e-38
-0.1498019099 -0.0114339143 -0.1853534579 1.771655483e-38
-0.1537728161 0.02367251366 -0.1911470145 1.771655483e-38
-0.105768919 0.01138192415 -0.201383546 1.771655483e-38
-0.06704287231 -0.1063790247 -0.2163552046 1.771655483e-38
-0.02205532044 -0.2370285988 -0.2184225619 1.771655483e-38
0.05141689628 -0.3009866774 -0.1839828193 1.771655483e-38
0.1190544963 -0.3418945372 -0.1576527059 1.771655483e-38
0.1950260848 -0.3663567901 -0.1320679039 1.771655483e-38
0.2841577232 -0.3796385229 -0.1202297211 1.771655483e-38
0.3383749425 -0.4082484245 -0.103357777 1.771655483e-38
0.3846091926 -0.4181854725 -0.07295756042 1.771655483e-38
0.3941671848 -0.3895614147 -0.09195892513 1.771655483e-38
0.07033288479 -0.4822116494 0.195148617 1.771655483e-38
0.0333371982 -0.4828756452 0.1451887339 1.771655483e-38
0.01846663095 -0.4831278622 0.1057180613 1.771655483e-38
0.0007692817599 -0.4829381406 0.06421048939 1.771655483e-38
-0.02360125259 -0.4827470481 0.0291890651 1.771655483e-38
-0.04735034332 -0.4830800593 -0.001995999366 1.771655483e-38
-0.07227613032 -0.4833809137 -0.03260060027 1.771655483e-38
-0.09906925261 -0.4829113781 -0.05900799856 1.771655483e-38
-0.1233239919 -0.4803087413 -0.0828923285 1.771655483e-38
-0.1335456371 -0.4650443494 -0.1146279424 1.771655483e-38
-0.1418220252 -0.449859798 -0.1427462995 1.771655483e-38
-0.1381710917 -0.434299022 -0.1650259793 1.771655483e-38
-0.1352267414 -0.3965834081 -0.1707039624 1.771655483e-38
-0.1360888332 -0.3496308923 -0.1754583269 1.771655483e-38
-0.1365231127 -0.3028800189 -0.1763572842 1.771655483e-38
-0.1403793693 -0.2592943013 -0.1802963912 1.771655483e-38
-0.1442794502 -0.219381392 -0.1828912944 1.771655483e-38
-0.1418001652 -0.170209229 -0.183803916 1.771655483e-38
-0.1396970153 -0.1166206226 -0.1885591745 1.771655483e-38
-0.1401338279 -0.06731550395 -0.1891480535 1.771655483e-38
-0.1462876797 -0.02573792636 -0.1914833337 1.771655483e-38
-0.1511359811 0.01589853317 -0.198329255 1.771655483e-38
-0.116009444 0.01997340471 -0.2123595774 1.771655483e-38
-0.07095628977 -0.06653253734 -0.2241101563 1.771655483e-38
-0.03600911796 -0.2167937458 -0.2346553206 1.771655483e-38
0.0414419584 -0.2814087272 -0.1989375204 1.771655483e-38
0.1095671058 -0.3354668319 -0.1732075661 1.771655483e-38
0.180106923 -0.3606484532 -0.1471568793 1.771655483e-38
0.2695680559 -0.375711143 -0.1313093305 1.771655483e-38
0.332105428 -0.404145211 -0.1191375852 1.771655483e-38
0.3782494962 -0.4132768214 -0.09022143483 1.771655483e-38
0.3965857327 -0.3897585571 -0.1017324775 1.771655483e-38
0.08305248618 -0.4818581343 0.1932536066 1.771655483e-38
0.04679217562 -0.482545197 0.1438019276 1.771655483e-38
0.03247959539 -0.4827861488 0.1058777571 1.771655483e-38
0.01567096822 -0.4826899767 0.06367981434 1.771655483e-38
-0.008305151016 -0.4825114012 0.0278706979 1.771655483e-38
-0.0320410803 -0.4828819633 -0.003139361739 1.771655483e-38
-0.0564843379 -0.4831984639 -0.03451434895 1.771655483e-38
-0.08461643755 -0.4831006229 -0.0644415617 1.771655483e-38
-0.1090612411 -0.4824949503 -0.08894647658 1.771655483e-38
-0.1283525527 -0.4733778834 -0.1192056984 1.771655483e-38
-0.1398428231 -0.4598380327 -0.1474048346 1.771655483e-38
-0.1403051764 -0.4449655116 -0.1679517329 1.771655483e-38
-0.1370699406 -0.414083451 -0.1766726524 1.771655483e-38
-0.1368730217 -0.3656909764 -0.1816338003 1.771655483e-38
-0.1360671669 -0.318389535 -0.1804579645 1.771655483e-38
-0.1385704577 -0.2722970843 -0.1836483628 1.771655483e-38
-0.1430101097 -0.231542334 -0.1867914349 1.771655483e-38
-0.1410481483 -0.185554117 -0.1878176033 1.771655483e-38
-0.1362434775 -0.1326899827 -0.1913260221 1.771655483e-38
-0.1345215887 -0.07990591228 -0.1931194812 1.771655483e-38
-0.1395815313 -0.03975587338 -0.1942670047 1.771655483e-38
-0.1435114145 0.005589522421 -0.1985154301 1.771655483e-38
-0.1264707297 0.02478786558 -0.21752505 1.771655483e-38
-0.07657954097 -0.03104438633 -0.2284668386 1.771655483e-38
-0.04360388592 -0.1829645634 -0.245292455 1.771655483e-38
0.0337976329 -0.2618493736 -0.2162473351 1.771655483e-38
