# .PCD v0.7 - Point Cloud Data file format
VERSION 0.7
FIELDS x y z rgb
SIZE 4 4 4 4
TYPE F F F F
COUNT 1 1 1 1
WIDTH 831
HEIGHT 1
VIEWPOINT 0 0 0 1 0 0 0
POINTS 831
DATA ascii
-0.1815939397 -0.4880214632 0.04075616226 3.26337189e-39
-0.1942076683 -0.49076581 -0.008406311274 3.26337189e-39
-0.1609889269 -0.4896656275 0.008960150182 3.26337189e-39
-0.1716964543 -0.4897056222 -0.02874399722 3.26337189e-39
-0.2061537206 -0.4876918197 0.02574483305 3.26337189e-39
-0.2337708771 -0.4894105792 0.003717258573 3.26337189e-39
-0.2134765983 -0.4887976646 -0.03117781691 3.26337189e-39
-0.2232659161 -0.489171505 0.04502994567 3.26337189e-39
0.07057563961 -0.4125228822 0.2688572705 9.871979525e-40
0.07081712037 -0.4505099058 0.2495514601 9.871979525e-40
0.07081145793 -0.4366332889 0.2656840086 9.871979525e-40
0.07138583064 -0.4260738492 0.2332756519 9.871979525e-40
0.07094040513 -0.4002204835 0.2540962398 9.871979525e-40
0.06959670782 -0.4239318371 0.2512309253 9.871979525e-40
0.0711760819 -0.4121797979 0.2181032598 9.871979525e-40
0.0713859424 -0.4136170447 0.2894057631 9.871979525e-40
-0.309622854 -0.341896832 -0.1689723432 2.247652609e-38
-0.3116967082 -0.342951864 -0.183122173 2.247652609e-38
-0.3005233109 -0.3421388865 -0.1737967581 2.247652609e-38
-0.3080105484 -0.3425681889 -0.1957172304 2.247652609e-38
-0.3126559556 -0.3401110172 -0.1761052907 2.247652609e-38
-0.3225333393 -0.3411063254 -0.1804788411 2.247652609e-38
-0.3138819635 -0.3418177962 -0.2046476752 2.247652609e-38
-0.3141930997 -0.3418002129 -0.1562209427 2.247652609e-38
-0.01168825477 -0.200144738 0.3722624779 2.341805152e-38
-0.03578786552 -0.2745344937 0.370415926 2.341805152e-38
-0.0107190907 -0.2466290295 0.3734480739 2.341805152e-38
-0.02679241076 -0.2294614017 0.3706915081 2.341805152e-38
-0.03265037388 -0.1850721985 0.3727441728 2.341805152e-38
-0.06090933084 -0.228857398 0.3717336357 2.341805152e-38
-0.05506569892 -0.1998272389 0.3706139028 2.341805152e-38
-0.03728654236 -0.2141573131 0.3719677627 2.341805152e-38
0.07836002111 -0.3144607544 0.2823734283 9.871979525e-40
0.06153760478 -0.3803996444 0.2804382741 2.341805152e-38
0.07898391783 -0.3555682003 0.2824163437 9.871979525e-40
0.06764732301 -0.3412081301 0.280005455 9.871979525e-40
0.06351451576 -0.3008882403 0.2824283242 9.871979525e-40
0.04348579422 -0.3401094973 0.2818406522 2.341805152e-38
0.04817104712 -0.3145045042 0.2800269723 2.341805152e-38
0.0610890165 -0.3275286853 0.2825701237 9.871979525e-40
-0.127838254 -0.4697615802 0.2663777173 3.26337189e-39
-0.144403398 -0.47232005 0.224149704 3.26337189e-39
-0.1046512797 -0.4713786244 0.238223955 3.26337189e-39
-0.1188291162 -0.4711354375 0.2051628828 3.26337189e-39
-0.1551533341 -0.4693713784 0.25687325 3.26337189e-39
-0.1884363592 -0.4711842239 0.2370969057 3.26337189e-39
-0.1660443544 -0.4705975056 0.2066015303 3.26337189e-39
-0.1739123762 -0.4707047343 0.2691121101 3.26337189e-39
0.08037064224 -0.2880688608 0.3617335558 9.871979525e-40
0.07070152462 -0.3435505629 0.3518660069 9.871979525e-40
0.08272631466 -0.3224823773 0.3611316979 9.871979525e-40
0.07505723834 -0.3098025322 0.3426805735 9.871979525e-40
0.07195929438 -0.2762310803 0.3565066457 9.871979525e-40
0.058679685 -0.3086321652 0.3557898998 2.341805152e-38
0.06376828253 -0.2879887521 0.3352287412 2.341805152e-38
0.07099939138 -0.2984592617 0.3722605109 9.871979525e-40
0.06575684249 -0.08076618612 0.3315897584 9.871979525e-40
0.04639276862 -0.08912874013 0.3256046474 2.341805152e-38
0.07931885123 -0.08567195386 0.3273097277 9.871979525e-40
0.05777955055 -0.0854042843 0.3228214979 2.341805152e-38
0.04754848406 -0.07998491824 0.3318895102 2.341805152e-38
0.01470274106 -0.08445067704 0.3272098601 2.341805152e-38
0.02880892158 -0.08094938099 0.3224292696 2.341805152e-38
0.04001038149 -0.08495415747 0.3319128454 2.341805152e-38
0.06122882664 -0.2005632222 -0.3106500804 2.341805152e-38
0.06092903018 -0.2379001081 -0.3258881271 2.341805152e-38
0.06146325916 -0.2242828459 -0.3120713234 2.341805152e-38
0.0620299764 -0.2137162089 -0.3409420848 2.341805152e-38
0.06118798256 -0.1879744828 -0.3222927153 2.341805152e-38
0.05976470187 -0.2118223011 -0.3243012428 2.341805152e-38
0.06128419563 -0.2001409233 -0.3534995019 9.871979525e-40
0.06153912097 -0.2011806965 -0.2916496694 2.341805152e-38
-0.1051760763 -0.5003582835 -0.1513442993 3.26337189e-39
-0.1148652807 -0.50323838 -0.2114033699 3.26337189e-39
-0.08479085565 -0.5022376776 -0.1917563379 3.26337189e-39
-0.09297601879 -0.5024117231 -0.2335084081 3.26337189e-39
-0.1306133121 -0.5003076792 -0.1720089912 3.26337189e-39
-0.1566127688 -0.5018120408 -0.1985640377 3.26337189e-39
-0.1367527544 -0.5009377003 -0.237267524 3.26337189e-39
-0.149962768 -0.5015029907 -0.148037523 3.26337189e-39
0.05933213234 -0.08338819444 0.2407994717 9.871979525e-40
0.0597773008 -0.1060065031 0.2196025997 9.871979525e-40
0.05981566757 -0.09753887355 0.2352932543 9.871979525e-40
0.05955208465 -0.09006880224 0.2063720971 9.871979525e-40
0.05964675918 -0.07556897402 0.2242575884 9.871979525e-40
0.05887139589 -0.08869222552 0.2198711634 9.871979525e-40
0.0611210987 -0.08228540421 0.1903549582 9.871979525e-40
0.06106131524 -0.08081955463 0.2587311268 9.871979525e-40
-0.05721235275 -0.3188714683 0.3630973995 2.341805152e-38
-0.06331539899 -0.3926056027 0.358817935 2.341805152e-38
-0.06284327805 -0.364677459 0.3647804558 2.341805152e-38
-0.06242684275 -0.3468967974 0.3522215486 2.341805152e-38
-0.06360734999 -0.3013117909 0.3617364764 2.341805152e-38
-0.06558440626 -0.346393019 0.3615514338 2.341805152e-38
-0.0667245239 -0.3180395067 0.3494270742 2.341805152e-38
-0.06162294745 -0.3303551376 0.370146215 2.341805152e-38
-0.07943900675 -0.4880914092 0.1846176982 3.26337189e-39
-0.09331569821 -0.4910363555 0.1293031722 3.26337189e-39
-0.05764444172 -0.4899604321 0.1486945748 3.26337189e-39
-0.06866168976 -0.4898970723 0.1077144295 3.26337189e-39
-0.1066439301 -0.4879742861 0.1670998633 3.26337189e-39
-0.1365951598 -0.4896950424 0.1424124837 3.26337189e-39
-0.1150311679 -0.4889743924 0.104893662 3.26337189e-39
-0.1258401573 -0.4892640412 0.1884297729 3.26337189e-39
0.07375332713 -0.2135230899 0.07518866658 9.871979525e-40
0.07332528383 -0.2514257133 0.06063908711 2.341805152e-38
0.07395813614 -0.2375952601 0.07412368804 9.871979525e-40
0.07445187867 -0.2268163264 0.04569301009 2.341805152e-38
0.07360243797 -0.200779587 0.0640560165 2.341805152e-38
0.07208070159 -0.2249692976 0.0622789152 2.341805152e-38
0.07355853915 -0.2130427957 0.03347820044 2.341805152e-38
0.07391627133 -0.2141487598 0.09407712519 9.871979525e-40
0.09257562459 -0.3913135827 0.04527007416 2.341805152e-38
0.0915581882 -0.4295184612 0.03842297569 2.341805152e-38
0.09321923554 -0.4155625701 0.04666399583 2.341805152e-38
0.09337204695 -0.4048075676 0.02623169869 2.341805152e-38
0.09201116115 -0.3779368997 0.03966096416 2.341805152e-38
0.09050770849 -0.4028469622 0.03964896873 2.341805152e-38
0.09217792004 -0.3908595741 0.01952885464 2.341805152e-38
0.09251879156 -0.3914858997 0.06044751406 2.341805152e-38
0.05841624737 -0.07996922731 -0.1934253424 2.341805152e-38
0.05860678107 -0.09282973409 -0.2219772786 2.341805152e-38
0.06245755404 -0.08800007403 -0.2015820891 2.341805152e-38
0.05899779871 -0.08607518673 -0.2390045226 2.341805152e-38
0.05878137425 -0.07537544519 -0.2137113363 2.341805152e-38
0.05303250253 -0.08382009715 -0.2207662165 2.341805152e-38
0.05796173215 -0.08065868914 -0.2599794865 2.341805152e-38
0.05886594951 -0.0825329423 -0.1726365983 2.341805152e-38
0.06876415014 -0.4608930945 0.07749083638 9.871979525e-40
0.06704949588 -0.463335216 0.04292150587 2.341805152e-38
0.07672546059 -0.4619708657 0.06203697249 2.341805152e-38
0.0723349303 -0.4625678062 0.02719872259 2.341805152e-38
0.06398361921 -0.4602380395 0.05805747584 2.341805152e-38
0.05574278906 -0.4613159597 0.04651454836 2.341805152e-38
0.06490500271 -0.4613911808 0.01105483621 2.341805152e-38
0.06172661483 -0.4619847536 0.09177531302 9.871979525e-40
-0.3540143967 -0.340416044 -0.1877158731 2.247652609e-38
-0.3661213219 -0.3425305486 -0.1984316558 2.247652609e-38
-0.3404390812 -0.3416031003 -0.1942739785 2.247652609e-38
-0.3545067608 -0.3423331082 -0.2059381157 2.247652609e-38
-0.3666864038 -0.3386719525 -0.1898839623 2.247652609e-38
-0.3893752992 -0.3408335447 -0.195765093 2.247652609e-38
-0.3759871721 -0.3411424458 -0.2065480947 2.247652609e-38
-0.3729151189 -0.3407598436 -0.1836912036 2.247652609e-38
0.07209528983 -0.3207147717 0.3513496518 9.871979525e-40
0.06545136124 -0.4135183394 0.341362536 9.871979525e-40
0.0671004504 -0.3784327209 0.3510372043 9.871979525e-40
0.06690391898 -0.3568422198 0.3313673735 9.871979525e-40
0.06526760757 -0.3003362119 0.3461660743 9.871979525e-40
0.0617406331 -0.3553243577 0.3463187516 9.871979525e-40
0.0614304021 -0.3205080926 0.3255526721 2.341805152e-38
0.06710292399 -0.3371434212 0.3616120517 2.341805152e-38
-0.0478098765 -0.09447763115 0.3186402619 2.341805152e-38
-0.05639178306 -0.1442477107 0.316519469 2.341805152e-38
-0.04665704072 -0.1252796054 0.3199065328 2.341805152e-38
-0.05185716227 -0.1129812747 0.3115891516 2.341805152e-38
-0.0553262122 -0.08243843913 0.3183400035 2.341805152e-38
-0.06403656304 -0.1120754778 0.3186842501 2.341805152e-38
-0.05992171913 -0.09392184019 0.3105276525 2.341805152e-38
-0.05478370935 -0.1004193276 0.3242284954 2.341805152e-38
0.003476160578 -0.4067480862 0.4063208103 2.341805152e-38
-0.007683710195 -0.4804123938 0.4058863223 2.341805152e-38
-0.0004313485697 -0.4526628852 0.4073491991 2.341805152e-38
-0.005430758931 -0.4360780716 0.4043238163 2.341805152e-38
-0.007137333043 -0.3900519013 0.4069988728 2.341805152e-38
-0.01731159911 -0.4349253178 0.4068755507 2.341805152e-38
-0.01683029905 -0.406347543 0.4049549103 2.341805152e-38
-0.007103391923 -0.4198859632 0.40757218 2.341805152e-38
0.07384249568 -0.2763970196 0.07258914411 9.871979525e-40
0.07338362932 -0.3141155243 0.05948835239 2.341805152e-38
0.07417482138 -0.3003593683 0.07225465029 9.871979525e-40
0.07460643351 -0.2895200849 0.04467303306 2.341805152e-38
0.07370212674 -0.2635343969 0.06253843009 9.871979525e-40
0.0721449703 -0.2877331078 0.06120561436 2.341805152e-38
0.07363446057 -0.2758586109 0.0332014896 2.341805152e-38
0.07396043837 -0.276824683 0.09131290764 9.871979525e-40
0.0717484504 -0.08064453304 -0.3674612641 9.871979525e-40
0.07229186594 -0.1199800521 -0.3907347322 9.871979525e-40
0.07212378085 -0.1056000367 -0.3720964193 9.871979525e-40
0.07279741764 -0.09481948614 -0.4084777832 9.871979525e-40
0.07237866521 -0.06843644381 -0.3850690722 9.871979525e-40
0.07095722109 -0.09251815081 -0.3886540234 9.871979525e-40
0.07275804877 -0.08043881506 -0.4261460602 9.871979525e-40
0.07279956341 -0.08230403066 -0.3451384604 9.871979525e-40
-0.3486400545 -0.3740031123 0.004195569083 9.641561216e-39
-0.3534891903 -0.3872935176 0.003412464634 9.641561216e-39
-0.3443856537 -0.3819986582 0.00536948815 9.641561216e-39
-0.3513017893 -0.3805717826 -0.001649968326 9.641561216e-39
-0.3527551293 -0.3689602911 0.004931168631 9.641561216e-39
-0.3619824648 -0.3793889284 0.003325879574 9.641561216e-39
-0.3568215966 -0.3741944134 -0.003900084645 9.641561216e-39
-0.3526895344 -0.3775698841 0.009661130607 9.641561216e-39
0.09192547202 -0.2028762847 0.2487199008 9.871979525e-40
0.09167899191 -0.2420282364 0.2339443713 9.871979525e-40
0.09236119688 -0.2277257442 0.2476087958 9.871979525e-40
0.09280364215 -0.216725409 0.2185603082 9.871979525e-40
0.09195654094 -0.1899327189 0.2374320626 9.871979525e-40
0.09042032808 -0.2147387713 0.2358323485 9.871979525e-40
0.09203720093 -0.2024602592 0.2061740756 9.871979525e-40
0.09228960425 -0.2038514763 0.2680255175 9.871979525e-40
-0.0006604231894 -0.4623726308 0.2891120613 2.341805152e-38
-0.02633959427 -0.4647431672 0.2834321856 2.341805152e-38
0.01788589731 -0.4640425742 0.2853637338 2.341805152e-38
-0.007483668625 -0.4641882777 0.2795525491 2.341805152e-38
-0.02414365113 -0.4615100324 0.2913616896 2.341805152e-38
-0.06599619985 -0.463423878 0.2861886621 2.341805152e-38
-0.04760741815 -0.4631623626 0.2819930613 2.341805152e-38
-0.03595586866 -0.4631897807 0.289564997 2.341805152e-38
-0.1269363314 -0.5000302792 -0.2583394647 3.26337189e-39
-0.1357328892 -0.5034687519 -0.313826412 3.26337189e-39
-0.1104359329 -0.5021495223 -0.2945487499 3.26337189e-39
-0.1170409173 -0.5026729703 -0.3324498534 3.26337189e-39
-0.1483356804 -0.499514997 -0.280012697 3.26337189e-39
-0.1693867445 -0.5016255379 -0.3044804335 3.26337189e-39
-0.1522165686 -0.5009830594 -0.3381303847 3.26337189e-39
-0.1630194485 -0.5009527206 -0.2550600171 3.26337189e-39
-0.009945988655 -0.06835343689 0.3249859512 2.341805152e-38
-0.02580117434 -0.09035376459 0.3237917423 2.341805152e-38
-0.002562567592 -0.08185968548 0.3253566325 2.341805152e-38
-0.01898555085 -0.07820048183 0.3222224414 2.341805152e-38
-0.02313615009 -0.06367722154 0.3254305124 2.341805152e-38
-0.04759943858 -0.07712826878 0.3236615956 2.341805152e-38
-0.0385995619 -0.06845600903 0.3203850985 2.341805152e-38
-0.02669386193 -0.07415574789 0.327062726 2.341805152e-38
0.02591571584 -0.4874415696 0.03397625685 3.26337189e-39
0.009386543185 -0.4905210733 -0.01993014477 3.26337189e-39
0.04913460836 -0.4894240797 -0.001498924568 2.341805152e-38
0.03633862734 -0.4892889261 -0.04096990824 3.26337189e-39
-0.003627210855 -0.4872455895 0.01824977808 3.26337189e-39
-0.0367766805 -0.4891781211 -0.006465500221 3.26337189e-39
-0.01377830282 -0.4884880185 -0.04180650786 3.26337189e-39
-0.02386956662 -0.4885508418 0.03645630181 3.26337189e-39
-0.0003134142607 -0.1252161264 0.2854284644 2.341805152e-38
-0.01574694552 -0.1994877458 0.2844459713 2.341805152e-38
-0.002088809386 -0.1713962853 0.2860409021 2.341805152e-38
-0.0115296524 -0.1550867856 0.2834645212 2.341805152e-38
-0.01442459412 -0.1093112528 0.286087513 2.341805152e-38
-0.0307295043 -0.1537163407 0.2854517698 2.341805152e-38
-0.02798830159 -0.1249959171 0.2841712236 2.341805152e-38
-0.01545420103 -0.1395556927 0.2856138349 2.341805152e-38
0.0145247383 -0.48702389 -0.3437922001 3.26337189e-39
0.008426117711 -0.4872422814 -0.3973009884 3.26337189e-39
0.02970763296 -0.4876135886 -0.3765609264 3.26337189e-39
0.02426207066 -0.4889367521 -0.4170318544 3.26337189e-39
-0.002678510733 -0.4864223003 -0.36665079 3.26337189e-39
-0.02295427397 -0.4878766537 -0.3886359036 3.26337189e-39
-0.008010973223 -0.4882011712 -0.426995337 3.26337189e-39
-0.01745919883 -0.4879799783 -0.3357841074 3.26337189e-39
-0.04329001158 -0.09632758796 0.3244781196 2.341805152e-38
-0.05187191814 -0.1460976601 0.3223573267 2.341805152e-38
-0.0421371758 -0.1271295696 0.3257443905 2.341805152e-38
-0.04733729735 -0.114831239 0.3174270093 2.341805152e-38
-0.05080634728 -0.08428838849 0.3241778612 2.341805152e-38
-0.05951670185 -0.1139254346 0.3245221078 2.341805152e-38
-0.05540185422 -0.09577178955 0.3163655102 2.341805152e-38
-0.05026384443 -0.1022692844 0.3300663531 2.341805152e-38
0.005333445966 -0.4881601334 0.02476064488 3.26337189e-39
-0.01119572669 -0.4912396073 -0.0291457586 3.26337189e-39
0.02855233848 -0.4901426435 -0.0107145384 3.26337189e-39
0.01575635746 -0.4900074899 -0.05018552393 3.26337189e-39
-0.02420948073 -0.4879641533 0.00903416425 3.26337189e-39
-0.05735895038 -0.4898966849 -0.01568111405 3.26337189e-39
-0.0343605727 -0.4892065823 -0.05102211982 3.26337189e-39
-0.0444518365 -0.4892694354 0.02724068612 3.26337189e-39
-0.2661887705 -0.4883688688 0.06450270861 3.26337189e-39
-0.2760512829 -0.4903633893 0.03444817662 3.26337189e-39
-0.2515101433 -0.4894839227 0.05041848123 3.26337189e-39
-0.262570262 -0.4892410338 0.01771803573 3.26337189e-39
-0.2794620395 -0.48741436 0.05240750313 3.26337189e-39
-0.3009621203 -0.4886816442 0.04133893549 3.26337189e-39
-0.2863533497 -0.4888878465 0.008203178644 3.26337189e-39
-0.2880868018 -0.4887388945 0.0767178759 3.26337189e-39
0.09110897779 -0.1690620333 -0.2234503925 2.341805152e-38
0.09134843946 -0.1930800974 -0.2425063401 2.341805152e-38
0.09480495006 -0.1841585636 -0.22634691 2.341805152e-38
0.09220968932 -0.1790546179 -0.2597661018 2.341805152e-38
0.09164099395 -0.1609462351 -0.2364310026 2.341805152e-38
0.08682742715 -0.1769269258 -0.2398981452 2.341805152e-38
0.09093634039 -0.1695493311 -0.2756207287 2.341805152e-38
0.09157324582 -0.172833696 -0.2029423863 2.341805152e-38
-0.2072263509 -0.50005126 -0.1919153929 3.26337189e-39
-0.2110538185 -0.5027091503 -0.2303234637 3.26337189e-39
-0.1953211576 -0.5014923811 -0.2141103446 3.26337189e-39
-0.2013731897 -0.5019967556 -0.2470130026 3.26337189e-39
-0.218175441 -0.4987594783 -0.209529534 3.26337189e-39
-0.2317489982 -0.5003246069 -0.2248983979 3.26337189e-39
-0.219667539 -0.5004854798 -0.2567644715 3.26337189e-39
-0.2256588787 -0.5004470348 -0.1824325323 3.26337189e-39
0.02657512203 -0.4883217514 -0.3929614425 3.26337189e-39
0.02502750978 -0.4902783036 -0.4290917516 3.26337189e-39
0.03479420021 -0.4891301394 -0.4089224041 3.26337189e-39
0.03027553856 -0.4896936417 -0.4458802044 3.26337189e-39
0.02173669636 -0.4877260923 -0.4133438468 3.26337189e-39
0.0131117031 -0.4884402156 -0.4252437353 3.26337189e-39
0.0223681666 -0.4887431264 -0.4630793333 3.26337189e-39
0.01905502006 -0.4892444313 -0.3775331974 3.26337189e-39
0.07005447149 -0.1110293418 0.04440942407 2.341805152e-38
0.06940501183 -0.1486066282 0.03126131743 2.341805152e-38
0.07049056888 -0.1349164248 0.04344185442 2.341805152e-38
0.0708386153 -0.1243247166 0.01723475941 2.341805152e-38
0.06976179779 -0.09820358455 0.03412888944 2.341805152e-38
0.06814667583 -0.1222907677 0.0325620845 2.341805152e-38
0.06981221586 -0.1106530502 0.006396425888 2.341805152e-38
0.07013769448 -0.1113626808 0.06208498776 2.341805152e-38
-0.004535794258 -0.4746355414 0.3181900382 2.341805152e-38
-0.03021496534 -0.4770060778 0.3125101626 2.341805152e-38
0.01401052624 -0.4763054848 0.3144417107 2.341805152e-38
-0.01135903969 -0.4764511883 0.3086305261 2.341805152e-38
-0.0280190222 -0.473772943 0.3204396665 2.341805152e-38
-0.06987156719 -0.4756867886 0.315266639 2.341805152e-38
-0.05148278922 -0.4754252732 0.3110710382 2.341805152e-38
-0.03983123973 -0.4754526913 0.3186429739 2.341805152e-38
0.0732248351 -0.1371285021 0.2139064372 9.871979525e-40
0.07298527658 -0.1776689291 0.1991034448 9.871979525e-40
0.07373815775 -0.162841171 0.2128753513 9.871979525e-40
0.07412879169 -0.1515211761 0.1834450066 9.871979525e-40
0.07326945662 -0.1239514053 0.20263502 9.871979525e-40
0.07165418565 -0.1494859755 0.201210022 9.871979525e-40
0.07332176715 -0.1367251575 0.1709866226 9.871979525e-40
0.07359109819 -0.1384236068 0.2334822118 9.871979525e-40
0.05985897779 -0.1440620273 -0.2422003895 2.341805152e-38
0.06009843573 -0.1680800915 -0.2612563372 2.341805152e-38
0.06355495006 -0.1591585577 -0.2450968921 2.341805152e-38
0.06095968932 -0.1540546119 -0.2785161138 2.341805152e-38
0.06039099768 -0.1359462291 -0.2551810145 2.341805152e-38
0.05557743087 -0.1519269198 -0.2586481273 2.341805152e-38
0.05968634039 -0.1445493251 -0.2943707108 2.341805152e-38
0.06032324582 -0.14783369 -0.2216923833 2.341805152e-38
-0.06097574532 -0.4881733656 0.1460005343 3.26337189e-39
-0.07595442981 -0.4911696315 0.09126662463 3.26337189e-39
-0.03853058815 -0.4900546074 0.1105316132 3.26337189e-39
-0.05032886192 -0.4899499416 0.06964177638 3.26337189e-39
-0.08906006813 -0.4880975485 0.1292853653 3.26337189e-39
-0.120298028 -0.48985219 0.1046955436 3.26337189e-39
-0.09806463867 -0.4891167283 0.06739353389 3.26337189e-39
-0.1085775793 -0.4894400537 0.149617821 3.26337189e-39
0.07459819317 -0.07192558795 -0.09313614666 2.341805152e-38
0.07410458475 -0.08324930817 -0.1207494885 2.341805152e-38
0.07770458609 -0.0789174661 -0.1018992066 2.341805152e-38
0.07465814054 -0.07577714324 -0.1349066347 2.341805152e-38
0.07428069413 -0.06778410077 -0.1136906892 2.341805152e-38
0.06964811683 -0.07403461635 -0.1205740497 2.341805152e-38
0.07426036149 -0.07170580328 -0.1545706838 2.341805152e-38
0.0749912262 -0.07074053586 -0.07459594309 2.341805152e-38
0.09959825873 -0.1855613589 -0.4679172337 9.871979525e-40
0.0939091593 -0.2636565566 -0.4662838876 9.871979525e-40
0.09586337954 -0.2344022989 -0.4659256637 9.871979525e-40
0.09596295655 -0.2168223262 -0.4710326791 9.871979525e-40
0.09399461746 -0.1656084955 -0.4662117958 9.871979525e-40
0.09192346781 -0.2141775489 -0.4647909701 9.871979525e-40
0.09170208126 -0.1859081388 -0.4678222239 9.871979525e-40
0.09604522586 -0.1972176284 -0.4642973244 9.871979525e-40
0.05918569118 -0.3857093155 -0.2311480045 2.341805152e-38
0.05880496651 -0.408318162 -0.2371065766 2.341805152e-38
0.06283849478 -0.3998174667 -0.2292505205 2.341805152e-38
0.06000611186 -0.3937819004 -0.2498091459 2.341805152e-38
0.05922393873 -0.3770327568 -0.2350935787 2.341805152e-38
0.0553907603 -0.3922262192 -0.2351378202 2.341805152e-38
0.05917099863 -0.3852677643 -0.2574957013 2.341805152e-38
0.05968126655 -0.3863756061 -0.2157238722 2.341805152e-38
-0.0004088263959 -0.1598048508 0.3027895987 2.341805152e-38
-0.01584235765 -0.234076485 0.3018071055 2.341805152e-38
-0.002184221521 -0.2059850246 0.3034020364 2.341805152e-38
-0.01162506454 -0.1896755397 0.3008256555 2.341805152e-38
-0.01452000625 -0.1438999921 0.3034486473 2.341805152e-38
-0.03082491644 -0.1883050799 0.3028129041 2.341805152e-38
-0.02808371373 -0.1595846564 0.3015323579 2.341805152e-38
-0.01554961316 -0.1741444319 0.3029749691 2.341805152e-38
0.02366486937 -0.4855980277 0.3699835837 2.341805152e-38
0.01773557812 -0.4873620272 0.345056951 2.341805152e-38
0.03614727408 -0.4864206612 0.356654644 2.341805152e-38
0.02822921798 -0.4870615005 0.331802249 2.341805152e-38
0.01381989941 -0.4849440157 0.3607037067 2.341805152e-38
-0.001853115857 -0.4864280224 0.3510643542 2.341805152e-38
0.01066779345 -0.4861556292 0.3253510892 2.341805152e-38
0.00745716691 -0.4868510365 0.3784947395 2.341805152e-38
0.0756188482 -0.1067636684 -0.452311337 9.871979525e-40
0.07342942059 -0.1590571851 -0.461535126 9.871979525e-40
0.0748731643 -0.1397282183 -0.4525877833 9.871979525e-40
0.07496136427 -0.1264460683 -0.4731569588 9.871979525e-40
0.07369778305 -0.09142994881 -0.4594261348 9.871979525e-40
0.07173116505 -0.124085933 -0.4599373639 9.871979525e-40
0.07289180905 -0.1066044271 -0.4801413119 9.871979525e-40
0.07457669079 -0.1110096276 -0.4384350479 9.871979525e-40
-0.08734130859 -0.3881360292 0.3626309931 2.341805152e-38
-0.09010838717 -0.435510397 0.360711813 2.341805152e-38
-0.08837424964 -0.4175356627 0.364571929 2.341805152e-38
-0.08890281618 -0.4062447548 0.3532538414 2.341805152e-38
-0.09014435112 -0.3749991357 0.3621920347 2.341805152e-38
-0.09152409434 -0.4049400091 0.362451762 2.341805152e-38
-0.09018179774 -0.3877280056 0.3513061106 2.341805152e-38
-0.08815995604 -0.3939716518 0.3707701266 2.341805152e-38
-0.258505851 -0.3594367504 -0.1637011766 9.641561216e-39
-0.2605797052 -0.3604917824 -0.1778510064 9.641561216e-39
-0.2494063079 -0.3596788049 -0.1685255915 9.641561216e-39
-0.2568935454 -0.3601081073 -0.1904460639 9.641561216e-39
-0.2615389526 -0.3576509356 -0.1708341241 9.641561216e-39
-0.2714163363 -0.3586462438 -0.1752076745 9.641561216e-39
-0.2627649605 -0.3593577147 -0.1993765086 9.641561216e-39
-0.2630760968 -0.3593401313 -0.1509497762 9.641561216e-39
0.07292810082 -0.125431776 -0.3049136996 2.341805152e-38
0.07303032279 -0.1624342054 -0.3246971667 2.341805152e-38
0.07321818173 -0.1489473134 -0.3082490861 2.341805152e-38
0.07387413085 -0.1385674477 -0.3409842253 9.871979525e-40
0.07321307063 -0.113290593 -0.3199804425 2.341805152e-38
0.07179804146 -0.1364882588 -0.3230540454 2.341805152e-38
0.07347862422 -0.1251253039 -0.3563401401 9.871979525e-40
0.07358516753 -0.1262190938 -0.2843037844 2.341805152e-38
0.06813699007 -0.07242415845 -0.2210151106 2.341805152e-38
0.06879837811 -0.08362712711 -0.2467638552 2.341805152e-38
0.0713236481 -0.07938816398 -0.2276763469 2.341805152e-38
0.06906268001 -0.075666897 -0.2627781332 2.341805152e-38
0.06892158091 -0.06769776344 -0.2400161922 2.341805152e-38
0.06535513699 -0.07423013449 -0.2457187474 2.341805152e-38
0.06956776977 -0.07192721963 -0.2826351225 2.341805152e-38
0.06948293746 -0.07061012089 -0.2001147121 2.341805152e-38
-0.001560851932 -0.4996355176 0.2837548554 3.26337189e-39
-0.02724002302 -0.5020060539 0.2780749798 3.26337189e-39
0.01698546857 -0.5013054609 0.2800065279 3.26337189e-39
-0.008384097368 -0.5014511347 0.2741953433 3.26337189e-39
-0.02504407987 -0.4987729192 0.2860044837 3.26337189e-39
-0.06689662486 -0.5006867647 0.2808314562 3.26337189e-39
-0.04850784689 -0.5004252791 0.2766358554 3.26337189e-39
-0.0368562974 -0.5004526973 0.2842077911 3.26337189e-39
0.06332517415 -0.08875438571 -0.4466660917 9.871979525e-40
0.05939868838 -0.1414016783 -0.4600532949 9.871979525e-40
0.06408181041 -0.1212263405 -0.4491873085 9.871979525e-40
0.0625230968 -0.1092569306 -0.4707225263 9.871979525e-40
0.05966355279 -0.076921314 -0.4542526305 9.871979525e-40
0.05602987483 -0.1079151407 -0.4558881521 9.871979525e-40
0.05985930562 -0.08896373212 -0.4787570834 9.871979525e-40
0.06160097569 -0.09750960767 -0.4351107776 9.871979525e-40
-0.0356609188 -0.2227487266 0.3037444949 2.341805152e-38
-0.051880721 -0.292804569 0.3031536043 2.341805152e-38
-0.0363021642 -0.2663744092 0.3046178818 2.341805152e-38
-0.04697642103 -0.2508857548 0.3021070361 2.341805152e-38
-0.05022590235 -0.207539022 0.3044978082 2.341805152e-38
-0.06838527322 -0.2494634539 0.3039470613 2.341805152e-38
-0.06487026811 -0.2225393653 0.3027487695 2.341805152e-38
-0.05191912502 -0.2359319925 0.3042653501 2.341805152e-38
-0.2386695445 -0.4111206234 -0.1830812693 9.641561216e-39
-0.2411998212 -0.4239585102 -0.1878274232 9.641561216e-39
-0.2321397215 -0.4189681709 -0.1827193052 9.641561216e-39
-0.2384729981 -0.4163482785 -0.1973719746 9.641561216e-39
-0.2402541488 -0.4055148661 -0.1861950904 9.641561216e-39
-0.248091504 -0.414312005 -0.1868405491 9.641561216e-39
-0.2416737676 -0.4111955762 -0.2027944475 9.641561216e-39
-0.2400802821 -0.4113785028 -0.1718093306 9.641561216e-39
0.07402794063 -0.0766645968 0.1254493594 9.871979525e-40
0.07465191185 -0.09705249965 0.1045273244 9.871979525e-40
0.07606592774 -0.08947385848 0.121310018 9.871979525e-40
0.07500347495 -0.082680583 0.0889011547 9.871979525e-40
0.07477530837 -0.06914457679 0.1096766219 9.871979525e-40
0.07258914411 -0.08133223653 0.1059426665 9.871979525e-40
0.07569794357 -0.07577957213 0.0718896091 9.871979525e-40
0.07544405013 -0.07461453229 0.1459929347 9.871979525e-40
0.07272663713 -0.1720370501 0.121373713 9.871979525e-40
0.0723765865 -0.2089798748 0.1072410792 9.871979525e-40
0.07300820947 -0.1955138147 0.1204127297 9.871979525e-40
0.07352750748 -0.1849855185 0.09246534109 9.871979525e-40
0.07265934348 -0.1594105065 0.1105227023 9.871979525e-40
0.07122879475 -0.1831270009 0.1087759212 9.871979525e-40
0.0727334246 -0.1715751588 0.08055184782 9.871979525e-40
0.07299274206 -0.1724511832 0.1400419921 9.871979525e-40
0.05606168136 -0.4150769114 0.3521848917 2.341805152e-38
0.05702323839 -0.452925086 0.3267750442 2.341805152e-38
0.0553458482 -0.4390273094 0.3455454707 2.341805152e-38
0.05559906363 -0.4287701845 0.3102529049 2.341805152e-38
0.05669540912 -0.4036161602 0.3321654797 2.341805152e-38
0.05558992177 -0.4262107313 0.3274246454 2.341805152e-38
0.05654710531 -0.4145637155 0.2912149429 9.871979525e-40
0.05755707994 -0.416557312 0.3735080361 2.341805152e-38
-0.1622098088 -0.4874489009 -0.2981335223 3.26337189e-39
-0.1748121977 -0.4904452264 -0.3330046535 3.26337189e-39
-0.1466486752 -0.4892507493 -0.3186707497 3.26337189e-39
-0.1579270065 -0.4895072281 -0.3468819559 3.26337189e-39
-0.180045113 -0.4864352942 -0.3115537465 3.26337189e-39
-0.2037179172 -0.488482058 -0.3267181218 3.26337189e-39
-0.1874681115 -0.4885233939 -0.3520500958 3.26337189e-39
-0.1903984249 -0.4877775311 -0.2926307321 3.26337189e-39
-0.06941968203 -0.4977780282 0.3449450433 2.341805152e-38
-0.07145664841 -0.4998122454 0.3284099698 2.341805152e-38
-0.06095721945 -0.4986469448 0.3382458687 2.341805152e-38
-0.06713084877 -0.4993547201 0.3167542219 2.341805152e-38
-0.07263244689 -0.4959959686 0.3364794254 2.341805152e-38
-0.08138817549 -0.4978659749 0.3308891654 3.26337189e-39
-0.07280846685 -0.49813205 0.308095932 2.341805152e-38
-0.07388186455 -0.4983394146 0.3560875058 2.341805152e-38
0.06042811275 -0.07543176413 -0.3174137175 2.341805152e-38
0.06053033471 -0.1124341935 -0.3371971846 2.341805152e-38
0.06071819738 -0.09894730151 -0.320749104 2.341805152e-38
0.06137414649 -0.08856743574 -0.3534842432 9.871979525e-40
0.06071308255 -0.06329058111 -0.3324804604 2.341805152e-38
0.05929804966 -0.08648824692 -0.3355540633 2.341805152e-38
0.06097863987 -0.07512529194 -0.368840158 9.871979525e-40
0.06108518317 -0.07621908188 -0.2968038023 2.341805152e-38
0.02766339108 -0.487646997 -0.211945504 3.26337189e-39
0.0217108801 -0.4904305339 -0.2643340528 3.26337189e-39
0.04288632423 -0.4891813993 -0.2427997589 3.26337189e-39
0.03600370511 -0.4894819856 -0.2857914567 3.26337189e-39
0.01093360223 -0.4872836471 -0.2341059446 3.26337189e-39
-0.007542584091 -0.4884016812 -0.2552883923 3.26337189e-39
0.007797028869 -0.4880689681 -0.2968902588 3.26337189e-39
-0.001242425293 -0.4889343381 -0.2020042241 3.26337189e-39
0.06409236789 -0.4864772558 -0.1630624682 2.341805152e-38
0.06233936921 -0.4895641506 -0.1880721301 2.341805152e-38
0.07199072838 -0.4882499576 -0.1743370146 2.341805152e-38
0.06632250547 -0.4882435203 -0.2023236305 2.341805152e-38
0.05974545702 -0.4838436246 -0.1773801744 2.341805152e-38
0.05049855262 -0.486279428 -0.1861478835 3.26337189e-39
0.0584975332 -0.4866242707 -0.2144527137 3.26337189e-39
0.05695785582 -0.4859551191 -0.1497326493 2.341805152e-38
-0.06057684869 -0.2027653754 0.3671962917 2.341805152e-38
-0.07140652835 -0.2870671153 0.3624294996 2.341805152e-38
-0.06555061787 -0.255338192 0.3687919378 2.341805152e-38
-0.06770063937 -0.2355446517 0.3565784097 2.341805152e-38
-0.07082557678 -0.1834587157 0.3660619557 2.341805152e-38
-0.07840007544 -0.234888494 0.3657325804 2.341805152e-38
-0.07831003517 -0.20251517 0.3546311259 2.341805152e-38
-0.07042217255 -0.2172267437 0.3729245663 2.341805152e-38
-0.2425035834 -0.33287552 -0.1510707438 9.641561216e-39
-0.2430351973 -0.3443406522 -0.1569059044 9.641561216e-39
-0.2397476882 -0.3396266997 -0.1489650607 9.641561216e-39
-0.242534548 -0.3349243701 -0.1675337255 9.641561216e-39
-0.2429114431 -0.3276692033 -0.1544714421 9.641561216e-39
-0.2456243932 -0.3351540864 -0.1550907642 9.641561216e-39
-0.2420425862 -0.3311910331 -0.1759932339 9.641561216e-39
-0.2416951656 -0.3305244148 -0.1369431615 9.641561216e-39
-0.2038966715 -0.4879856706 0.2260596603 3.26337189e-39
-0.2178921551 -0.4910890758 0.1729052067 3.26337189e-39
-0.1826963574 -0.4899142385 0.191561237 3.26337189e-39
-0.1938742101 -0.4899479151 0.1522347629 3.26337189e-39
-0.2304117233 -0.4876520038 0.2090697289 3.26337189e-39
-0.2597065568 -0.4895330667 0.1851179749 3.26337189e-39
-0.238571763 -0.4889436066 0.1496043205 3.26337189e-39
-0.2485699952 -0.4890751243 0.2296156883 3.26337189e-39
0.06661432236 -0.08728524297 0.2851881385 9.871979525e-40
0.06712090969 -0.125104636 0.2645427883 9.871979525e-40
0.06663997471 -0.1112678349 0.2810757458 9.871979525e-40
0.06718250364 -0.1009429619 0.2483841777 9.871979525e-40
0.0671146363 -0.07521293312 0.2692468464 9.871979525e-40
0.06596019119 -0.09862568974 0.265889138 9.871979525e-40
0.06740522385 -0.08696781099 0.2325196713 9.871979525e-40
0.06774131209 -0.08857996017 0.3056215644 9.871979525e-40
0.07198384404 -0.1741538644 -0.3656225801 9.871979525e-40
0.0723952502 -0.2134773731 -0.3879846931 9.871979525e-40
0.07234303653 -0.1991038322 -0.3698956072 9.871979525e-40
0.07299687713 -0.188297376 -0.4054157734 9.871979525e-40
0.07250787318 -0.1618653536 -0.3825489283 9.871979525e-40
0.07105928659 -0.1860383451 -0.3859440088 9.871979525e-40
0.07283750176 -0.1739282012 -0.4224828482 9.871979525e-40
0.07291683555 -0.1757320911 -0.3436921537 2.341805152e-38
0.07380154729 -0.2864466012 -0.4951935709 9.871979525e-40
0.07284522057 -0.3279241621 -0.4973183274 9.871979525e-40
0.07436037064 -0.3126796186 -0.4913952947 9.871979525e-40
0.07453583181 -0.3011766076 -0.5091813803 9.871979525e-40
0.07325437665 -0.2722009122 -0.496971637 9.871979525e-40
0.07204462588 -0.299406141 -0.4954698086 9.871979525e-40
0.07343745232 -0.2858682573 -0.5134085417 9.871979525e-40
0.07385498285 -0.2876166403 -0.4807735384 9.871979525e-40
-0.009614950046 -0.3789997101 0.3017148376 2.341805152e-38
-0.02355621941 -0.4419694245 0.3015109897 2.341805152e-38
-0.01002864353 -0.418109566 0.3025288284 2.341805152e-38
-0.0195833426 -0.4043805599 0.3002366424 2.341805152e-38
-0.02224250697 -0.3650746644 0.3026651144 2.341805152e-38
-0.03787323833 -0.4029510915 0.3020688593 2.341805152e-38
-0.03449519724 -0.3787488937 0.3008957207 2.341805152e-38
-0.0231698174 -0.3908407092 0.3024606705 2.341805152e-38
0.09160127491 -0.4231201708 -0.372674346 9.871979525e-40
0.09162063897 -0.4616555572 -0.3911996782 9.871979525e-40
0.09187370539 -0.4475810826 -0.3753975332 9.871979525e-40
0.09247196466 -0.4368373156 -0.40737468 9.871979525e-40
0.09180749953 -0.4106274247 -0.3867486417 9.871979525e-40
0.09036178887 -0.4347750843 -0.3893756568 9.871979525e-40
0.09198699892 -0.4227827787 -0.4220286608 9.871979525e-40
0.09218696505 -0.4242518842 -0.3522977531 9.871979525e-40
-0.208905831 -0.4874414206 -0.1023772806 3.26337189e-39
-0.2120402455 -0.4888910651 -0.1266175508 3.26337189e-39
-0.1969617009 -0.4880775511 -0.1142988503 3.26337189e-39
-0.2048273981 -0.4882228374 -0.1427851319 3.26337189e-39
-0.2162001729 -0.4858573675 -0.1126662195 3.26337189e-39
-0.2297734022 -0.4868791401 -0.1213502288 3.26337189e-39
-0.2187083513 -0.4873794913 -0.1516925097 3.26337189e-39
-0.2218599319 -0.4874839485 -0.08969462663 3.26337189e-39
-0.3230724633 -0.4109737575 -0.1696029454 9.641561216e-39
-0.3292494118 -0.4123863578 -0.1761650741 9.641561216e-39
-0.3130462766 -0.4115841985 -0.1692460477 9.641561216e-39
-0.3233810067 -0.4117021859 -0.18600595 9.641561216e-39
-0.3274039328 -0.4090437591 -0.17264615 9.641561216e-39
-0.34176898 -0.4105903804 -0.1739610881 9.641561216e-39
-0.3320694864 -0.4111995697 -0.1929230839 9.641561216e-39
-0.3290813267 -0.4106752574 -0.1578360498 9.641561216e-39
-0.1615706682 -0.4875303209 -0.3053935766 3.26337189e-39
-0.170367226 -0.4909687638 -0.3608805239 3.26337189e-39
-0.1450702697 -0.4896495342 -0.3416028619 3.26337189e-39
-0.1516752541 -0.4901729822 -0.3795039654 3.26337189e-39
-0.1829700172 -0.4870150089 -0.3270668089 3.26337189e-39
-0.2040210813 -0.4891255498 -0.3515345454 3.26337189e-39
-0.1868509054 -0.4884830713 -0.3851844966 3.26337189e-39
-0.1976537853 -0.4884527028 -0.3021141291 3.26337189e-39
0.05317574739 -0.4853026867 -0.08134385943 3.26337189e-39
0.05217578635 -0.4889749289 -0.1102680117 3.26337189e-39
0.05899952352 -0.4875366688 -0.0927330032 3.26337189e-39
0.05429654196 -0.4874306917 -0.1248986423 2.341805152e-38
0.05096769705 -0.4826695025 -0.1007387787 3.26337189e-39
0.04338638484 -0.4852576256 -0.1097344458 3.26337189e-39
0.04991518706 -0.485645026 -0.1422508955 3.26337189e-39
0.04969563335 -0.4847840965 -0.06504499167 3.26337189e-39
0.0558841899 -0.4519870579 0.07350733876 2.341805152e-38
0.05615428835 -0.4625888765 0.04652681947 2.341805152e-38
0.05913025886 -0.4586580694 0.06441123784 2.341805152e-38
0.0565719083 -0.457341671 0.03243013471 2.341805152e-38
0.05624306574 -0.4473735094 0.05363662168 2.341805152e-38
0.05202005804 -0.4547768533 0.04607584327 2.341805152e-38
0.05647871643 -0.4527719617 0.01403910294 2.341805152e-38
0.05695550889 -0.4529471099 0.09084187448 9.871979525e-40
0.0731754601 -0.225078389 0.2141046524 9.871979525e-40
0.07292897999 -0.2642303407 0.1993291229 9.871979525e-40
0.07361118495 -0.2499278486 0.2129935473 9.871979525e-40
0.07405363023 -0.2389275134 0.1839450598 9.871979525e-40
0.07320652902 -0.2121348232 0.2028168142 9.871979525e-40
0.07167031616 -0.2369408756 0.2012171 9.871979525e-40
0.07328718901 -0.2246623635 0.1715588272 9.871979525e-40
0.07353959233 -0.2260535806 0.233410269 9.871979525e-40
0.09386496246 -0.07223767042 -0.00748854503 2.341805152e-38
0.09340973198 -0.08368118107 -0.03586782143 2.341805152e-38
0.09693950415 -0.07931524515 -0.01665432751 2.341805152e-38
0.09402139485 -0.07614728808 -0.05009671301 2.341805152e-38
0.0935857147 -0.06809277833 -0.02865307778 2.341805152e-38
0.08906546235 -0.07435107231 -0.03573992848 2.341805152e-38
0.0937012285 -0.07205936313 -0.07007585466 2.341805152e-38
0.09433185309 -0.07097620517 0.01115591824 2.341805152e-38
0.08713512123 -0.2267717272 -0.3286709189 2.341805152e-38
0.08345448971 -0.2889950871 -0.3352839053 2.341805152e-38
0.08261296153 -0.2652332783 -0.3274231851 2.341805152e-38
0.08406092972 -0.2503797412 -0.3436741233 2.341805152e-38
0.08292946965 -0.2118519694 -0.3310546279 2.341805152e-38
0.08304533362 -0.2502548099 -0.3318936825 2.341805152e-38
0.08259303868 -0.2260631174 -0.3485068977 9.871979525e-40
0.0854754895 -0.2370258868 -0.3196204603 2.341805152e-38
-0.04832687229 -0.4871187806 -0.3332829475 3.26337189e-39
-0.05981399864 -0.4903585017 -0.3789873123 3.26337189e-39
-0.0309464708 -0.489023149 -0.3621484935 3.26337189e-39
-0.04053245112 -0.4893514514 -0.3964332044 3.26337189e-39
-0.06942591071 -0.4864032865 -0.3496003747 3.26337189e-39
-0.09314078838 -0.4885058999 -0.3699661195 3.26337189e-39
-0.07527698576 -0.4881080985 -0.4006842971 3.26337189e-39
-0.08292431384 -0.4880279899 -0.3290132582 3.26337189e-39
0.09294109046 -0.3292056322 0.06840020418 2.341805152e-38
0.09217356145 -0.3664294481 0.06320640445 2.341805152e-38
0.09375094622 -0.3527562022 0.07002874464 2.341805152e-38
0.093941167 -0.3423980772 0.0519441776 2.341805152e-38
0.09255888313 -0.3161643147 0.06404514611 2.341805152e-38
0.09159372002 -0.3404210806 0.06434880197 2.341805152e-38
0.09341730177 -0.3287594616 0.04662552476 2.341805152e-38
0.09345455468 -0.3293356895 0.08227513731 9.871979525e-40
0.05773683637 -0.4738750458 -0.4766544104 3.26337189e-39
0.05710053444 -0.4872819185 -0.4892915487 3.26337189e-39
0.06217333674 -0.4822430909 -0.4797128439 3.26337189e-39
0.05863744766 -0.4803342521 -0.5005699396 3.26337189e-39
0.05753020942 -0.4677816331 -0.4855815172 9.871979525e-40
0.05264991522 -0.4778909087 -0.4891251922 3.26337189e-39
0.05753901601 -0.4745891094 -0.5101351738 3.26337189e-39
0.05816616118 -0.4753124714 -0.4635686874 3.26337189e-39
0.06668568403 -0.3857093155 -0.2248980105 2.341805152e-38
0.06630495936 -0.408318162 -0.2308565825 2.341805152e-38
0.07033848763 -0.3998174667 -0.2230005264 2.341805152e-38
0.06750610471 -0.3937819004 -0.2435591519 2.341805152e-38
0.06672392786 -0.3770327568 -0.2288435847 2.341805152e-38
0.06289075315 -0.3922262192 -0.2288878262 2.341805152e-38
0.06667099148 -0.3852677643 -0.2512457073 2.341805152e-38
0.06718125939 -0.3863756061 -0.2094738781 2.341805152e-38
0.07293641567 -0.1421802789 0.1490672529 9.871979525e-40
0.07265454531 -0.1819978058 0.1364528835 9.871979525e-40
0.07352299988 -0.1674427986 0.1489560306 9.871979525e-40
0.07387597859 -0.1562355459 0.1213169619 9.871979525e-40
0.07297049463 -0.1289258897 0.1394069493 9.871979525e-40
0.07142132521 -0.154271096 0.1384870559 9.871979525e-40
0.07304411381 -0.1417215019 0.1101465523 9.871979525e-40
0.07328444719 -0.1431914717 0.1679741442 9.871979525e-40
0.06209820509 -0.07192558795 -0.04352482036 2.341805152e-38
0.06160459667 -0.08324930817 -0.07113816589 2.341805152e-38
0.06520459801 -0.0789174661 -0.05228788778 2.341805152e-38
0.06215815246 -0.07577714324 -0.08529531211 2.341805152e-38
0.06178070977 -0.06778410077 -0.06407936662 2.341805152e-38
0.05714812875 -0.07403461635 -0.07096272707 2.341805152e-38
0.06176037341 -0.07170580328 -0.1049593613 2.341805152e-38
0.06249123439 -0.07074053586 -0.02498462051 2.341805152e-38
-0.279053539 -0.4692819118 -0.2580101192 3.26337189e-39
-0.2908189595 -0.4725152552 -0.2966330051 3.26337189e-39
-0.263137579 -0.4711877108 -0.2814504802 3.26337189e-39
-0.2734550536 -0.4714882672 -0.3117949069 3.26337189e-39
-0.2976591885 -0.468298763 -0.2724802196 3.26337189e-39
-0.3205961883 -0.4704867601 -0.2894811034 3.26337189e-39
-0.304030329 -0.4703179598 -0.3166710138 3.26337189e-39
-0.3088133335 -0.4698832333 -0.2529209256 3.26337189e-39
0.07720090449 -0.4196992517 -0.4763852358 9.871979525e-40
0.07632258534 -0.4603813291 -0.4779099524 9.871979525e-40
0.07746572793 -0.4453527927 -0.4727106392 9.871979525e-40
0.07782334834 -0.4342159033 -0.4888673723 9.871979525e-40
0.07661512494 -0.4058274627 -0.4776077271 9.871979525e-40
0.07593618333 -0.4325580895 -0.4762521088 9.871979525e-40
0.07721894979 -0.4191036522 -0.4923867583 9.871979525e-40
0.07756575197 -0.4210423231 -0.4631612897 9.871979525e-40
0.06108934432 -0.4026172161 0.3759857714 2.341805152e-38
0.05240792409 -0.4700477123 0.3747886121 2.341805152e-38
0.05750064552 -0.444326669 0.3767325878 2.341805152e-38
0.05377874896 -0.429338336 0.372137934 2.341805152e-38
0.05248687416 -0.3873828351 0.3765506446 2.341805152e-38
0.04587306082 -0.4282450676 0.3760451078 2.341805152e-38
0.04657134414 -0.4021192193 0.3723383546 2.341805152e-38
0.05407896638 -0.4148313105 0.3779555857 2.341805152e-38
0.0286548771 -0.5004999042 0.04682791233 3.26337189e-39
0.02694022283 -0.5029420853 0.01225858182 3.26337189e-39
0.03661618754 -0.5015776753 0.03137404844 3.26337189e-39
0.03222566098 -0.5021746159 -0.003464201465 3.26337189e-39
0.02387434244 -0.4998448789 0.02739455178 3.26337189e-39
0.01563351601 -0.5009227991 0.01585162431 3.26337189e-39
0.02479572967 -0.5009980202 -0.01960808784 3.26337189e-39
0.02161734179 -0.5015915632 0.06111239269 3.26337189e-39
0.06560408324 -0.06295527518 -0.1951665729 2.341805152e-38
0.06579461694 -0.07581578195 -0.2237185091 2.341805152e-38
0.06964538991 -0.07098612189 -0.2033233196 2.341805152e-38
0.06618563831 -0.06906123459 -0.240745753 2.341805152e-38
0.06596921384 -0.05836149305 -0.2154525667 2.341805152e-38
0.0602203384 -0.06680614501 -0.222507447 2.341805152e-38
0.06514956802 -0.06364473701 -0.261720717 2.341805152e-38
0.06605378538 -0.06551899016 -0.1743778288 2.341805152e-38
0.0914067477 -0.2426803112 0.01943089068 2.341805152e-38
0.09047453105 -0.2808330059 0.01862334087 2.341805152e-38
0.0925181061 -0.2667858601 0.0227054581 2.341805152e-38
0.09237791598 -0.2563070357 0.008418038487 2.341805152e-38
0.090915218 -0.2291999906 0.0183093138 2.341805152e-38
0.0898547098 -0.2542718351 0.01979019865 2.341805152e-38
0.09174544364 -0.2422164381 0.005873374641 2.341805152e-38
0.09187816083 -0.2430072725 0.03176131845 2.341805152e-38
-0.2616543174 -0.5017455816 0.2008559257 3.26337189e-39
-0.2758449912 -0.5040558577 0.1604558527 3.26337189e-39
-0.2454866171 -0.5032762885 0.1815562844 3.26337189e-39
-0.2584258914 -0.5028078556 0.1425056905 3.26337189e-39
-0.2794457972 -0.5013118386 0.1827745885 3.26337189e-39
-0.3065852225 -0.5023877621 0.1678549796 3.26337189e-39
-0.2897668779 -0.5027080178 0.129895255 3.26337189e-39
-0.2907045484 -0.5019538999 0.2134936154 3.26337189e-39
-0.4072871804 -0.3420737684 -0.1629660875 2.247652609e-38
-0.4198184013 -0.3436722755 -0.1743736565 2.247652609e-38
-0.3906630278 -0.342985034 -0.1711323857 2.247652609e-38
-0.404422015 -0.3433859348 -0.184224695 2.247652609e-38
-0.4224552512 -0.3401068747 -0.1618798226 2.247652609e-38
-0.4468232691 -0.3423948586 -0.1686391383 2.247652609e-38
-0.4311267138 -0.3427937627 -0.1809024364 2.247652609e-38
-0.4314577579 -0.3419518769 -0.1597358286 2.247652609e-38
0.09474018216 -0.233757019 -0.3221918344 2.341805152e-38
0.09365878254 -0.2708894014 -0.3277874291 2.341805152e-38
0.09548869729 -0.257119745 -0.3190328777 2.341805152e-38
0.09477885067 -0.2465653569 -0.3410112858 2.341805152e-38
0.09397086501 -0.2213322818 -0.3259484768 2.341805152e-38
0.09165936708 -0.2454328686 -0.3253476918 2.341805152e-38
0.09333506972 -0.2328765839 -0.348618269 2.341805152e-38
0.09432382137 -0.2352972031 -0.3057793677 2.341805152e-38
0.07183212042 -0.08338819444 0.2403365076 9.871979525e-40
0.07227729261 -0.1060065031 0.2191396356 9.871979525e-40
0.07231565565 -0.09753887355 0.2348302901 9.871979525e-40
0.07205207646 -0.09006880224 0.205909133 9.871979525e-40
0.07214674354 -0.07556897402 0.2237946391 9.871979525e-40
0.07137138397 -0.08869222552 0.2194081992 9.871979525e-40
0.07362108678 -0.08228540421 0.189891994 9.871979525e-40
0.07356130332 -0.08081955463 0.2582681775 9.871979525e-40
-0.3486400545 -0.4240031242 0.022945581 9.641561216e-39
-0.3534891903 -0.4372935295 0.02216247655 9.641561216e-39
-0.3443856537 -0.4319986701 0.02411950007 9.641561216e-39
-0.3513017893 -0.4305717945 0.01710004359 9.641561216e-39
-0.3527551293 -0.4189603031 0.02368118055 9.641561216e-39
-0.3619824648 -0.4293889403 0.02207589149 9.641561216e-39
-0.3568215966 -0.4241944253 0.01484992728 9.641561216e-39
-0.3526895344 -0.427569896 0.02841114253 9.641561216e-39
0.06838417798 -0.4769870639 0.03600731865 2.341805152e-38
0.06865427643 -0.4875888824 0.009026795626 2.341805152e-38
0.07163024694 -0.4836580753 0.02691121772 2.341805152e-38
0.06907189637 -0.4823416471 -0.005069889128 2.341805152e-38
0.0687430501 -0.4723735154 0.01613659784 2.341805152e-38
0.06452004611 -0.4797768593 0.008575819433 2.341805152e-38
0.06897870451 -0.4777719975 -0.0234609209 2.341805152e-38
0.06945549697 -0.4779471159 0.05334185064 2.341805152e-38
0.06657163054 -0.1078875661 0.331705153 9.871979525e-40
0.04720755294 -0.1162501201 0.325720042 2.341805152e-38
0.08013363183 -0.1127933338 0.3274251223 9.871979525e-40
0.05859433487 -0.1125256643 0.3229368925 2.341805152e-38
0.04836326838 -0.1071062982 0.3320049047 2.341805152e-38
0.01551752537 -0.111572057 0.3273252547 2.341805152e-38
0.02962370589 -0.108070761 0.3225446641 2.341805152e-38
0.04082516581 -0.1120755374 0.33202824 2.341805152e-38
0.0002307370305 -0.4883732796 0.1126619577 3.26337189e-39
-0.01808913052 -0.491547823 0.05788541213 3.26337189e-39
0.02427174151 -0.4904766679 0.07713380456 3.26337189e-39
0.0102638118 -0.4901773632 0.03658475727 3.26337189e-39
-0.03071307763 -0.4882640541 0.09660089761 3.26337189e-39
-0.06629697978 -0.4901866317 0.07165117562 3.26337189e-39
-0.04241541028 -0.4895214438 0.03539557755 3.26337189e-39
-0.05176423118 -0.4894350171 0.1154571325 3.26337189e-39
0.07057563961 -0.4000228941 0.3063572943 9.871979525e-40
0.07081712037 -0.4380099177 0.2870514989 9.871979525e-40
0.07081145793 -0.4241333008 0.3031840324 9.871979525e-40
0.07138583064 -0.4135738611 0.2707756758 9.871979525e-40
0.07094040513 -0.3877204955 0.2915962636 9.871979525e-40
0.06959670782 -0.411431849 0.2887309492 9.871979525e-40
0.0711760819 -0.3996798098 0.2556032836 9.871979525e-40
0.0713859424 -0.4011170566 0.326905787 9.871979525e-40
-0.2498469353 -0.4101938009 -0.160263598 9.641561216e-39
-0.2597941756 -0.4121898115 -0.1699914932 9.641561216e-39
-0.236719355 -0.4111350179 -0.1660254151 9.641561216e-39
-0.2500886321 -0.4116284251 -0.1785389185 9.641561216e-39
-0.2611867487 -0.408959955 -0.1612533629 9.641561216e-39
-0.2821389139 -0.4106308222 -0.1663069874 9.641561216e-39
-0.2695451379 -0.410317421 -0.1797887236 9.641561216e-39
-0.267164588 -0.4111299813 -0.1550189853 9.641561216e-39
0.07678045332 -0.3571714163 -0.4959750772 9.871979525e-40
0.07584097981 -0.3988031149 -0.4975035787 9.871979525e-40
0.07675110549 -0.383390367 -0.4923891425 9.871979525e-40
0.07715902478 -0.3721199632 -0.5082197785 9.871979525e-40
0.07606734335 -0.3432205319 -0.4971490502 9.871979525e-40
0.075496912 -0.3704957068 -0.4958801866 9.871979525e-40
0.07660859078 -0.3565600812 -0.5116685629 9.871979525e-40
0.07711938024 -0.3589205444 -0.4830889702 9.871979525e-40
0.09352122992 -0.4187945426 -0.494772613 9.871979525e-40
0.09264290333 -0.4594765902 -0.4962973297 9.871979525e-40
0.09378606081 -0.4444480836 -0.4910980165 9.871979525e-40
0.09414367378 -0.4333111644 -0.5072547793 9.871979525e-40
0.09293545038 -0.4049227834 -0.4959951043 9.871979525e-40
0.09225650132 -0.4316533804 -0.4946394861 9.871979525e-40
0.09353926778 -0.4181989431 -0.5107741356 9.871979525e-40
