# .PCD v0.7 - Point Cloud Data file format
VERSION 0.7
FIELDS x y z rgb
SIZE 4 4 4 4
TYPE F F F F
COUNT 1 1 1 1
WIDTH 841
HEIGHT 1
VIEWPOINT 0 0 0 1 0 0 0
POINTS 841
DATA ascii
-0.3363966942 0.1211561486 -0.3225597739 1.771655483e-38
-0.06601958722 0.4013668299 0.3180072606 1.771655483e-38
-0.2885502875 0.1828111559 -0.2345489115 1.771655483e-38
-0.3712709844 0.2501913309 -0.09953857958 1.771655483e-38
0.1794506609 0.2152481526 0.3138577938 1.771655483e-38
-0.3184202611 -0.092810601 0.2764811516 1.771655483e-38
-0.1710464805 0.1883731037 -0.4071655869 1.771655483e-38
-0.2436155379 0.01845714264 -0.3826799095 1.771655483e-38
0.2801411152 -0.5121367574 -0.1955851167 1.771655483e-38
0.2632175982 -0.5147649646 0.2512170672 1.771655483e-38
-0.04287646711 0.2512526214 0.3281341195 1.771655483e-38
-0.01545607764 0.3211188614 -0.1674021184 1.771655483e-38
-0.3000797033 -0.5211353302 0.1925103962 1.771655483e-38
-0.1555928141 0.4215571284 0.3524692059 1.771655483e-38
-0.3501310349 0.1090104878 -0.367431283 1.771655483e-38
-0.3652279675 0.3547621071 0.3052840829 1.771655483e-38
0.1256674975 -0.4930410385 0.3476171792 1.771655483e-38
-0.2792456448 0.08047020435 -0.3200196922 1.771655483e-38
-0.2719346285 -0.4040445387 -0.3875124753 1.771655483e-38
-0.2858026326 -0.4814327061 -0.2522168756 1.771655483e-38
0.2078990936 -0.2158521265 0.3263292611 1.771655483e-38
-0.1860646158 0.08459339291 0.3739901483 1.771655483e-38
0.115126349 -0.5046887994 -0.06460091472 1.771655483e-38
-0.1996195763 -0.284411341 0.2336416841 1.771655483e-38
0.00809109211 -0.4931689799 0.2429952919 1.771655483e-38
-0.1066708267 -0.5007762909 0.2427097708 1.771655483e-38
0.2550997138 -0.4260050356 0.3508154154 1.771655483e-38
-0.1872936636 0.157081604 -0.3451195359 1.771655483e-38
0.1517418772 -0.5201396942 -0.2725048065 1.771655483e-38
-0.2313171327 -0.489974618 0.3345900178 1.771655483e-38
0.2289400846 0.1544925719 -0.05819105729 1.771655483e-38
0.007172357291 0.3149725795 0.1502224207 1.771655483e-38
-0.3831920922 0.5082116127 0.1817075759 1.771655483e-38
0.09241996706 0.2973431647 0.1870481223 1.771655483e-38
0.01392474212 -0.4085187018 -0.3864610493 1.771655483e-38
-0.3579343557 -0.3751791716 -0.2622416615 1.771655483e-38
0.2395678759 -0.2682128549 -0.2776269913 1.771655483e-38
-0.3760670722 0.3129073083 -0.2477072626 1.771655483e-38
0.006466927938 -0.429502815 -0.1367031485 1.771655483e-38
-0.1115624458 0.1671547443 -0.3509925306 1.771655483e-38
0.1579826623 0.2516652048 -0.2715947628 1.771655483e-38
0.1597153395 -0.5057533979 0.2560772896 1.771655483e-38
-0.3566430509 0.4851105809 -0.0771253109 1.771655483e-38
-0.1027913988 0.3729917705 -0.098886922 1.771655483e-38
0.1386155039 -0.4678600729 -0.06085200235 1.771655483e-38
-0.2036904842 0.3864691556 0.3664514422 1.771655483e-38
-0.327450484 0.006684141234 0.3179043531 1.771655483e-38
-0.1819464117 0.4799070358 0.0935164839 1.771655483e-38
-0.3538924754 0.4762267172 0.2516737282 1.771655483e-38
-0.3479697108 -0.1743723601 -0.07249455154 1.771655483e-38
-0.3385358751 -0.1275906712 -0.3594444692 1.771655483e-38
-0.3192148805 -0.5033964515 -0.2811990976 1.771655483e-38
-0.1384175271 -0.1108420193 0.36090675 1.771655483e-38
-0.2708098888 0.3260419369 0.361571759 1.771655483e-38
-0.3800188601 0.0508531332 -0.1545300186 1.771655483e-38
-0.2940279543 -0.5171518922 0.2992969155 1.771655483e-38
0.09355409443 0.2592140734 0.2359371334 1.771655483e-38
-0.3401606977 -0.1134471595 -0.1832406521 1.771655483e-38
-0.3145248592 -0.5109242201 -0.0867010206 1.771655483e-38
0.004263078794 -0.4465924501 -0.3885063529 1.771655483e-38
-0.03308992088 -0.4332251251 -0.403098166 1.771655483e-38
-0.1930583268 -0.4744829535 0.03750278801 1.771655483e-38
-0.3362136781 0.4475843906 0.2521609068 1.771655483e-38
0.2503541112 -0.160136342 0.3532827795 1.771655483e-38
-0.2589325309 0.5087373853 0.3057985306 1.771655483e-38
-0.3337909877 0.4750509858 -0.3429279029 1.771655483e-38
0.1467901468 -0.3257368803 -0.3841567039 1.771655483e-38
-0.3289724886 -0.4327505529 0.1970412731 1.771655483e-38
0.2980625033 -0.3964537382 -0.2409329563 1.771655483e-38
-0.2447505891 0.2100910097 -0.4255090654 1.771655483e-38
-0.07647778839 0.2660284936 0.2898927033 1.771655483e-38
-0.1066657603 -0.3838554025 0.1393315941 1.771655483e-38
-0.01521769352 0.08302746713 -0.3405135274 1.771655483e-38
0.0001897998154 -0.377048403 0.3670711815 1.771655483e-38
-0.3473050892 -0.4590171576 0.2122602016 1.771655483e-38
0.2426173389 -0.4518485069 0.3348101974 1.771655483e-38
0.3788463175 -0.4736343324 -0.1067014635 1.771655483e-38
0.2659678757 -0.2890005708 -0.3004162312 1.771655483e-38
-0.3315755129 0.07533031702 -0.03464691713 1.771655483e-38
-0.1120588034 0.4523572326 0.1337808371 1.771655483e-38
-0.3132115602 -0.25688079 -0.2541418076 1.771655483e-38
0.1362139434 -0.4952428937 0.1903065443 1.771655483e-38
-0.3093330264 0.4606195986 0.1060038805 1.771655483e-38
-0.02144563198 -0.4245685935 -0.2388897389 1.771655483e-38
-0.01487155259 0.2991755307 0.3895386159 1.771655483e-38
-0.3704909682 0.3861377835 0.3315006793 1.771655483e-38
-0.2604705989 0.5017615557 -0.1775089651 1.771655483e-38
-0.3719637394 0.03406520933 0.110962823 1.771655483e-38
0.2801097035 0.1697455496 0.3041702211 1.771655483e-38
-0.3796384037 0.3718892932 0.2378265709 1.771655483e-38
-0.2936197519 -0.4816572368 0.09013400972 1.771655483e-38
0.2265795618 -0.2599668503 -0.3293930888 1.771655483e-38
-0.2584276795 -0.353893429 -0.3668681383 1.771655483e-38
0.02905531786 -0.5046017766 -0.3969896436 1.771655483e-38
-0.403452754 -0.07115656883 -0.1536172926 1.771655483e-38
0.0490411967 0.4007187784 0.01606779173 1.771655483e-38
-0.2462261617 0.5127979517 0.2334841043 1.771655483e-38
-0.2882312238 0.2575094402 -0.3748270273 1.771655483e-38
-0.3390151858 0.03814623505 -0.342636466 1.771655483e-38
0.2685962617 -0.2356737405 0.3554081321 1.771655483e-38
0.1085059419 0.2848933339 -0.345220536 1.771655483e-38
-0.1060488522 0.2918095887 -0.3964802921 1.771655483e-38
-0.3761968613 0.2019292712 0.05634824187 1.771655483e-38
0.1089180782 -0.4224481583 0.2871132791 1.771655483e-38
-0.2929256558 -0.2430574447 -0.3774657845 1.771655483e-38
-0.3439658284 0.2722416818 -0.2130053937 1.771655483e-38
-0.2292992175 -0.5130471587 0.1462313831 1.771655483e-38
0.2109660208 -0.5099811554 0.3156706095 1.771655483e-38
0.2865061462 -0.4955452681 -0.3158531189 1.771655483e-38
-0.2207221538 -0.4772338867 -0.4002119601 1.771655483e-38
-0.2767987847 0.1016125157 -0.3874374032 1.771655483e-38
-0.3095031679 0.4751225114 0.3159556687 1.771655483e-38
0.3324691653 -0.4432240129 0.3286004961 1.771655483e-38
0.2409688085 -0.4986635447 0.2384039164 1.771655483e-38
-0.3034778237 -0.1607521474 0.3164969981 1.771655483e-38
-0.1780954748 -0.2031688392 -0.1439646035 1.771655483e-38
0.09678497165 0.3278290927 0.3484490216 1.771655483e-38
-0.3381386101 0.419885546 -0.3705246747 1.771655483e-38
-0.3116191328 -0.3285858929 0.1554157585 1.771655483e-38
0.1371837109 -0.08853348345 -0.1478840113 1.771655483e-38
-0.2212251872 -0.04549594223 0.3970160186 1.771655483e-38
-0.0861999169 -0.2295764387 0.3402079642 1.771655483e-38
-0.169706285 -0.5020983219 0.2867181897 2.348204041e-38
0.2106335759 0.09996199608 -0.3217428029 2.348204041e-38
0.08415027708 -0.4800640047 0.04517043382 2.348204041e-38
-0.210323438 -0.3290179074 -0.3918172717 2.348204041e-38
0.1210876554 -0.1125352681 0.382837981 2.348204041e-38
-0.2699872553 0.3946003914 -0.3754335642 2.348204041e-38
-0.1621356905 -0.02514528856 0.3714923859 2.348204041e-38
-0.2764089704 -0.4443147182 -0.4104809463 2.348204041e-38
-0.3322516382 0.3761912882 -0.3277998567 2.348204041e-38
-0.006589010358 0.3723956048 -0.3308261037 2.348204041e-38
-0.3336997926 -0.04524016008 -0.05181341991 2.348204041e-38
-0.06198028475 -0.0134922592 -0.301707387 2.348204041e-38
-0.3388251364 -0.4074915946 0.08710984886 2.348204041e-38
0.3199542761 -0.4059872925 -0.1867296398 2.348204041e-38
-0.3205109537 -0.3584964275 -0.2446002513 2.348204041e-38
-0.02768943831 0.3942849338 0.1200142205 2.348204041e-38
0.03809572011 -0.184374705 0.1107848287 2.348204041e-38
0.3500460982 -0.1863162369 0.1770179868 2.348204041e-38
0.04761784524 -0.2014713734 -0.3607583046 2.348204041e-38
-0.08894751966 -0.4739215672 -0.3784969449 2.348204041e-38
-0.2529106438 0.377256006 0.07097828388 2.348204041e-38
0.118028596 0.2738208473 0.3738036752 2.348204041e-38
0.338329792 -0.4323276281 -0.2895095348 2.348204041e-38
0.06100732088 0.05526725203 -0.1525697708 2.348204041e-38
-0.249149546 -0.4539062381 0.3698368967 2.348204041e-38
-0.3802948296 0.4824236631 -0.06190287694 2.348204041e-38
0.2065383941 0.3506925106 0.09683640301 2.348204041e-38
-0.151126489 -0.5103759766 -0.418905884 2.348204041e-38
-0.19559066 -0.4220117629 0.3472776413 2.348204041e-38
0.105199717 -0.2334881872 0.3185656071 2.348204041e-38
-0.4011669755 0.3317806423 -0.1410298049 2.348204041e-38
-0.0702342689 -0.4486323297 -0.1231140047 2.348204041e-38
0.2270130366 -0.5130328536 0.3025523722 2.348204041e-38
0.2599079609 0.1542888284 -0.2275507003 2.348204041e-38
-0.2954460979 -0.06114590541 -0.2547103763 2.348204041e-38
-0.3332418501 -0.1418128312 0.2305166274 2.348204041e-38
0.3412558138 -0.4245862365 0.2433924228 2.348204041e-38
-0.1825101078 -0.5223017931 -0.4055247009 2.348204041e-38
0.04074425995 -0.2966023088 0.3531915247 2.348204041e-38
-0.3079080284 -0.3153590858 -0.4184531569 2.348204041e-38
-0.09975264221 0.09703897685 -0.3681855798 2.348204041e-38
-0.04098775238 0.4262381196 -0.3092693388 2.348204041e-38
-0.007501367945 -0.4705629945 0.342874527 2.348204041e-38
0.05840791017 -0.47960639 -0.1161325127 2.348204041e-38
-0.3288778365 -0.332177341 -0.2972544432 2.348204041e-38
0.2665086985 -0.4313374162 0.05496907979 2.348204041e-38
-0.187991336 0.2909594476 0.3666189611 2.348204041e-38
-0.08704660088 0.3925302327 0.09214308858 2.348204041e-38
0.114484936 0.3046327531 -0.1581445485 2.348204041e-38
0.1993541121 -0.08593612909 0.04566868767 2.348204041e-38
-0.1781667471 -0.3264212012 -0.3617329299 2.348204041e-38
0.04171662033 -0.493806541 -0.344429493 2.348204041e-38
-0.2148666829 0.3536895216 -0.02740582451 2.348204041e-38
0.2450660169 0.113904953 0.3271373212 2.348204041e-38
-0.2011877298 -0.4476076663 -0.4216638803 2.348204041e-38
0.156507507 0.3038675785 -0.3158512414 2.348204041e-38
-0.01293229312 -0.3434160054 0.3524271846 2.348204041e-38
-0.3169792891 -0.07714606076 0.2981399596 2.348204041e-38
0.3190110326 -0.4769796133 -0.1843019575 2.348204041e-38
0.1107767075 0.1042112038 0.2118011713 2.348204041e-38
-0.3419463634 0.4928249717 0.02981859073 2.348204041e-38
0.0722354129 -0.3602944613 -0.2539975941 2.348204041e-38
-0.3449387848 -0.0738562718 -0.1401726305 2.348204041e-38
0.3591157496 -0.2949561179 0.1972280443 2.348204041e-38
0.3055220246 0.1438830346 -0.06749589741 2.348204041e-38
0.3182244897 -0.2887793779 0.006053224206 2.348204041e-38
-0.3590036035 0.4793108404 -0.101644069 2.348204041e-38
-0.1815751046 -0.4610638618 0.1369512975 2.348204041e-38
0.3659527302 -0.4950838685 -0.1603887975 2.348204041e-38
0.03745121509 0.1808009446 -0.3453932106 2.348204041e-38
0.1531929374 -0.4588825107 0.3874501586 2.348204041e-38
-0.1185242534 -0.3171216846 -0.3785190284 2.348204041e-38
0.3011388183 -0.1116700023 -0.2820210159 2.348204041e-38
-0.1247635558 0.431965977 0.03415064886 2.348204041e-38
0.04538780451 -0.4945560098 0.355781883 2.348204041e-38
0.1871352047 -0.4778750539 0.1156746298 2.348204041e-38
-0.2634473145 0.2772502601 -0.3389137983 2.348204041e-38
-0.1534510851 0.002737935167 -0.09250104427 2.348204041e-38
0.3268272579 -0.3074924946 0.2349544317 2.348204041e-38
-0.208964929 0.461198777 0.1751025617 2.348204041e-38
0.3136658967 -0.2294459194 -0.2715900242 2.348204041e-38
-0.2886970043 -0.3362321258 0.09902797639 2.348204041e-38
-0.3378793001 0.5161163211 -0.1524937153 2.348204041e-38
0.08672711998 -0.4943784475 -0.3845270872 2.348204041e-38
-0.02613984421 0.3341349065 -0.1408082992 2.348204041e-38
-0.397223562 0.2959870696 -0.06097316369 2.348204041e-38
-0.2785969973 0.4566397667 -0.3848092258 2.348204041e-38
-0.109054774 -0.2732521594 -0.3910372555 2.348204041e-38
0.02208490111 -0.3418882191 0.3602897227 2.348204041e-38
-0.2344476581 -0.4816000164 0.3780660033 2.348204041e-38
0.2963417768 -0.5076113939 -0.1950359941 2.348204041e-38
-0.09907818586 0.4372143447 0.08461111784 2.348204041e-38
-0.3522489965 0.507284224 0.2933112979 2.348204041e-38
-0.01188356709 0.1476581842 -0.3520845771 2.348204041e-38
-0.2108377218 -0.4932857156 0.3521232903 2.348204041e-38
0.2277315706 0.2724183202 0.3066630661 2.348204041e-38
0.2740258574 0.1418741494 -0.0892855823 2.348204041e-38
0.2798361182 -0.3766936362 0.1378548443 2.348204041e-38
-0.2865099311 0.5071930289 0.2591330707 2.348204041e-38
-0.1280243397 -0.1102785394 -0.3290298879 2.348204041e-38
0.3062006831 -0.4198972583 0.2765721083 2.348204041e-38
0.1894389838 0.2929043472 0.1025192291 2.348204041e-38
0.08589650691 -0.3304239213 0.3616642356 2.348204041e-38
0.2899508476 -0.4861620367 -0.2933119833 2.348204041e-38
-0.07494299114 0.330170989 0.3343462348 2.348204041e-38
-0.3237605393 -0.3610208035 -0.2380547374 2.348204041e-38
-0.02382271178 -0.4735342562 0.241045177 2.348204041e-38
0.3449668586 -0.4506278634 -0.07591296732 2.348204041e-38
0.06608451903 -0.3155927062 0.3602053225 2.348204041e-38
0.109429881 0.01026942395 0.1517905444 2.348204041e-38
0.2982672155 -0.4887498319 -0.2962094545 2.348204041e-38
-0.2672706544 0.05919262767 0.3622038066 2.348204041e-38
0.329163909 -0.3969008625 0.2886278927 2.348204041e-38
0.01091099158 -0.3581348062 0.21076487 2.348204041e-38
-0.2521088421 0.4831517041 -0.1409071982 2.348204041e-38
0.3003558815 -0.4907357693 -0.318698585 2.348204041e-38
0.3235277832 -0.03165236488 0.06286780536 2.348204041e-38
-0.3817328215 0.3605354428 0.2062981129 2.348204041e-38
-0.03700871021 0.4286935329 -0.2534808218 2.348204041e-38
0.07325285673 -0.5126878619 -0.3881107569 2.348204041e-38
-0.2722855508 0.316393435 0.3137914538 2.348204041e-38
0.0004570186138 -0.499984324 0.1481010169 2.348204041e-38
0.3191075027 -0.4557265341 0.07566447556 2.348204041e-38
-0.1463534385 0.4692082107 0.08117236197 2.348204041e-38
-0.3229241073 0.2006057352 0.3252404034 2.348204041e-38
0.03529803455 0.1333403736 -0.3113792539 2.348204041e-38
-0.01728395373 -0.150470525 0.3325234652 2.348204041e-38
0.1474521458 -0.1301299036 0.04491857439 2.348204041e-38
0.3218984604 -0.1986290365 -0.1506415308 2.348204041e-38
0.082757622 -0.3689611554 0.3459660411 2.348204041e-38
0.154648602 0.2661477625 0.05452829227 2.348204041e-38
0.2510232329 0.2133646607 -0.2481969744 2.348204041e-38
0.2108666599 -0.3920581341 0.347795099 2.348204041e-38
0.2895112336 -0.2910041809 0.3303278089 2.348204041e-38
0.1375560462 0.2838234007 -0.3539228737 2.348204041e-38
-0.04898498207 -0.5114970207 -0.417650044 2.348204041e-38
-0.09059856832 0.3899190128 0.3453732729 2.348204041e-38
-0.3529169858 -0.2712145746 -0.3773190379 2.348204041e-38
-0.1140824482 -0.4773882329 -0.3426641524 2.348204041e-38
0.03939558566 -0.1765961051 -0.3580893278 2.348204041e-38
-0.3343773186 0.4792943895 0.2810204327 2.348204041e-38
-0.1530054659 -0.2990500033 -0.1231430471 2.348204041e-38
-0.2782100439 0.3966933787 -0.2163733989 2.348204041e-38
-0.1785164475 -0.4773849249 0.3783728182 2.348204041e-38
0.3026854694 -0.4524946511 0.2686940134 2.348204041e-38
0.2749584615 0.1732856035 0.04163717479 2.348204041e-38
-0.1649556905 0.3824147582 0.05930154026 2.348204041e-38
0.2826599479 -0.3062801957 0.2377260327 2.348204041e-38
0.1862290651 -0.3900336325 -0.05463366583 2.348204041e-38
-0.3346604705 -0.4708212614 0.3557920754 2.348204041e-38
-0.0926739499 0.4374163449 -0.1629375964 2.348204041e-38
0.18293944 -0.5126202106 0.09519955516 2.348204041e-38
-0.319145292 -0.01535846572 0.05003635585 2.348204041e-38
0.3034754395 -0.5133308768 -0.266552031 2.348204041e-38
0.2244063467 -0.5069976449 0.1760064512 2.348204041e-38
-0.3053637147 -0.4664925039 0.3146346211 2.348204041e-38
-0.03692350537 -0.2464930862 -0.174739778 2.348204041e-38
-0.04196347296 -0.1703765243 -0.2844356894 2.348204041e-38
0.2948140204 -0.1531980634 0.3268984854 2.348204041e-38
-0.2604710162 -0.2662878931 0.3474906087 2.348204041e-38
0.1928789169 -0.4145897031 -0.1992390454 2.348204041e-38
0.1610330343 0.1468000114 0.01565812901 2.348204041e-38
0.09447597712 0.119100444 -0.3640320003 2.348204041e-38
0.3561316431 -0.3944461346 -0.009553071111 2.348204041e-38
-0.04506333917 -0.4683166146 0.352897197 2.348204041e-38
0.09120924771 -0.4915260077 0.02216834947 2.348204041e-38
0.08982372284 0.290566206 -0.3642733693 2.348204041e-38
-0.2079277635 -0.1028179973 0.1840573996 2.348204041e-38
0.148245886 -0.1658952683 0.3720470667 2.348204041e-38
0.2031994611 -0.1746503413 -0.336039722 2.348204041e-38
-0.1600656062 0.3151095808 -0.360196352 2.348204041e-38
-0.3490932584 0.1181369349 -0.3306618929 2.348204041e-38
-0.3108080924 0.3745362759 0.3655282557 2.348204041e-38
-0.3877436221 0.4867802858 0.1850526929 2.348204041e-38
-0.02857538871 0.3214837313 -0.3646246493 2.348204041e-38
-0.2656044662 0.107881695 0.2963937521 2.348204041e-38
0.2695985734 -0.3061492741 0.3406023383 2.348204041e-38
0.2501267493 0.0746749565 0.01846751198 2.348204041e-38
0.03882870078 0.3013509512 -0.265381217 2.348204041e-38
-0.06852312386 -0.4389331937 0.3560456336 2.348204041e-38
-0.13910079 -0.4903928936 0.3462068737 2.348204041e-38
-0.2493520379 -0.385250181 0.3627508879 2.348204041e-38
-0.1762894094 0.4782098234 -0.2251432389 2.348204041e-38
0.2687068284 -0.09249348193 -0.02819069847 2.348204041e-38
-0.3173021674 0.4303632975 0.3317325413 2.348204041e-38
0.3156372309 -0.5201808214 -0.2891507447 2.348204041e-38
-0.3203673959 -0.4790336788 0.1451478153 2.348204041e-38
-0.3289374113 -0.4951761961 -0.1131275445 2.348204041e-38
-0.3337143362 0.08626765758 -0.01044742763 2.348204041e-38
-0.01819448918 -0.1501742452 0.2688267529 2.348204041e-38
-0.370221585 0.2613825798 -0.2577246428 2.348204041e-38
-0.1576653421 -0.4261368215 0.4049167335 2.348204041e-38
-0.3613877296 0.3681046665 0.07118350267 2.348204041e-38
-0.1759497374 -0.08935022354 -0.386269629 2.348204041e-38
0.05494318157 0.3216153979 -0.2573592961 2.348204041e-38
-0.07862052321 0.2725858986 0.2086516768 2.348204041e-38
-0.1244276986 -0.4860141277 0.348020494 2.348204041e-38
-0.231391564 -0.4448758364 -0.1504176557 2.348204041e-38
-0.1435578018 0.452021569 -0.294823885 2.348204041e-38
0.2385832667 0.196131736 -0.01962607726 2.348204041e-38
-0.2547917068 0.3565884233 0.3562443852 2.348204041e-38
0.235794127 0.1846421361 -0.1648049802 2.348204041e-38
-0.2080410123 -0.4083174169 0.3460406065 2.348204041e-38
-0.3180145919 -0.05250614882 0.2268006802 2.348204041e-38
-0.2382952869 -0.03128394112 -0.09396708012 2.348204041e-38
-0.1181167364 0.4017306566 0.169988662 2.348204041e-38
-0.1213709116 0.2299525142 -0.4050959945 2.348204041e-38
0.2355774045 -0.4550834596 0.2525557578 2.348204041e-38
-0.2549420893 0.4851448834 0.1808073372 2.348204041e-38
0.2678226829 -0.3812749386 0.02456151694 2.348204041e-38
-0.01219759881 -0.4960033894 0.03393610567 2.348204041e-38
-0.3453134894 0.1263804585 0.2382754385 2.348204041e-38
0.3302141726 -0.4614670277 0.2942734659 2.348204041e-38
0.1625196189 0.3643963635 0.3145135045 2.348204041e-38
-0.2240925729 0.3194368482 0.1764678955 2.348204041e-38
0.1372575015 0.2237608433 0.3670419753 2.348204041e-38
-0.2953265309 0.3543280959 0.335231185 2.348204041e-38
0.1009477898 -0.4795433879 -0.3921809494 2.348204041e-38
-0.1970940083 -0.3300553262 0.3676829934 2.348204041e-38
-0.3063029051 -0.5253617764 -0.3772341311 2.348204041e-38
-0.1261834651 -0.3704467416 0.3716370463 2.348204041e-38
-0.2792723775 0.1876791418 -0.3750649691 2.348204041e-38
-0.3310031295 0.4662092924 -0.3147410154 2.348204041e-38
0.02607203461 -0.4711106718 0.3675233126 2.348204041e-38
0.08782439679 -0.3167428374 -0.377882123 2.348204041e-38
-0.03486873955 0.3677658439 -0.1563346833 2.348204041e-38
0.168366313 0.2498122156 0.3636728227 2.348204041e-38
0.1405557543 0.292245388 0.2927273214 2.348204041e-38
-0.2409373671 -0.386854291 -0.3038785756 2.348204041e-38
-0.08600389212 -0.3256989717 -0.3966661692 2.348204041e-38
-0.05225460976 0.4406878948 -0.2017728835 2.348204041e-38
-0.1667313278 0.1570852846 0.03543021902 2.348204041e-38
-0.09488971531 -0.4626484811 0.1685182899 2.348204041e-38
-0.2372644544 0.4324986935 -0.09300301969 2.348204041e-38
-0.1649945527 -0.5207998157 0.2643259764 2.348204041e-38
-0.2884227931 -0.4008558989 -0.318567872 2.348204041e-38
0.1346204132 0.2718524337 -0.2312943786 2.348204041e-38
0.01941454969 0.03563819453 0.1020511985 2.348204041e-38
-0.2568888068 0.4499694407 -0.02138071135 2.348204041e-38
-0.02519811876 -0.00850025285 -0.1658091843 2.348204041e-38
-0.3530739248 0.178261742 0.1658804417 2.348204041e-38
-0.2594594657 -0.4808270633 -0.2944087088 2.348204041e-38
-0.2170563191 -0.4655870199 0.2852940559 2.348204041e-38
-0.286860615 0.5311409831 0.1656972915 2.348204041e-38
0.260073781 -0.3610017598 -0.3172037899 2.348204041e-38
0.3338556588 -0.4888408482 0.324552685 2.348204041e-38
0.144089371 -0.3744256794 0.1136715859 2.348204041e-38
0.02848790027 0.3055533767 0.3372142911 2.348204041e-38
-0.2864857912 -0.4901726246 -0.1613595784 2.348204041e-38
-0.03923793137 -0.5100207329 -0.3434121609 2.348204041e-38
-0.3171426356 -0.04332504421 0.18828547 2.348204041e-38
-0.3599851131 0.1478286982 -0.3744452894 2.348204041e-38
0.1997309774 -0.5043346882 0.2157735527 2.348204041e-38
-0.345821321 -0.4486296773 -0.05087669566 2.348204041e-38
-0.3371496201 -0.2571753263 -0.2128513753 2.348204041e-38
-0.2934046984 0.3785723746 0.3794031441 2.348204041e-38
0.01518518105 0.2079351991 -0.3370306194 2.345219836e-38
-0.2669314742 0.3483765423 -0.1712397486 2.345219836e-38
0.1758246869 -0.3014745414 0.344655484 2.345219836e-38
0.2290045917 0.2064027339 0.2148040086 2.345219836e-38
-0.02415966243 -0.3566990197 -0.3701503277 2.345219836e-38
-0.1598442644 0.3328449726 -0.3785212934 2.345219836e-38
0.258266598 -0.4417042434 -0.3238607049 2.345219836e-38
-0.1279648542 -0.4019362032 0.3888926804 2.345219836e-38
-0.103914842 -0.4810222983 0.232888639 2.345219836e-38
-0.2365890294 0.4985558987 0.01753565483 2.345219836e-38
-0.2151076496 -0.5184540749 -0.261942178 2.345219836e-38
-0.04930560291 -0.4267865717 -0.3831166029 2.345219836e-38
0.1299965382 0.3251518607 0.04264120385 2.345219836e-38
0.1253457069 0.3037248254 0.3096722364 2.345219836e-38
-0.305242449 -0.07213371992 0.1869627237 2.345219836e-38
0.05812745541 0.3122380674 0.04900570214 2.345219836e-38
-0.389882803 0.4700438976 -0.05157120898 2.345219836e-38
-0.3372220993 -0.4202881753 0.06268446147 2.345219836e-38
0.05500181019 0.3237345219 -0.1116825193 2.345219836e-38
-0.2644744813 0.5024751425 0.1441463083 2.345219836e-38
-0.05923248827 -0.2139210701 -0.3487598002 2.345219836e-38
0.2049863487 -0.4847299159 0.1831221133 2.345219836e-38
0.02112073079 -0.03262099251 0.4068326354 2.345219836e-38
0.236938566 -0.1002757251 0.2917577326 2.345219836e-38
0.3151405156 -0.4968612194 -0.1567919105 2.345219836e-38
-0.2188135087 0.3029670119 0.04743082449 2.345219836e-38
-0.2233736068 0.4569458961 -0.08223545551 2.345219836e-38
-0.3319512904 0.02398611605 -0.3696293533 2.345219836e-38
0.209187001 -0.472525835 0.07407321036 2.345219836e-38
-0.3256466389 -0.3692656159 -0.1951820105 2.345219836e-38
-0.3374763131 -0.2465337068 -0.06527140737 2.345219836e-38
-0.3422987759 0.5023574829 -0.2470848411 2.345219836e-38
-0.1662636995 0.2179608345 -0.3234118521 2.345219836e-38
-0.07951586694 -0.4851773977 0.0542075783 2.345219836e-38
0.2736008763 0.04583578184 -0.08804856241 2.345219836e-38
0.1435672492 0.2619585395 -0.1899954379 2.345219836e-38
0.02054383792 -0.3611187935 -0.3718979955 2.345219836e-38
-0.3308702111 0.03929370269 -0.2993713617 2.345219836e-38
0.337987721 -0.4408584833 0.2010280788 2.345219836e-38
-0.2986655831 -0.4769071341 0.2728524506 2.345219836e-38
0.03419148177 -0.0436183773 -0.3466666043 2.345219836e-38
-0.1909908056 0.4579232931 0.310048908 2.345219836e-38
-0.05030079186 -0.4993804097 -0.007204052061 2.345219836e-38
-0.1970722377 0.3742230833 -0.06292022765 2.345219836e-38
-0.1470558941 -0.4821392894 0.09859600663 2.345219836e-38
-0.2247300148 0.2224865705 0.2040219307 2.345219836e-38
-0.318990767 0.06403966993 0.05535951257 2.345219836e-38
0.1589458585 0.3659233451 0.3508628607 2.345219836e-38
-0.1313772947 -0.4196644127 -0.3702909648 2.345219836e-38
-0.3588539362 0.09595381469 -0.1145201772 2.345219836e-38
-0.06294713169 0.3486572504 0.09395954013 2.345219836e-38
-0.09397055954 0.384836942 -0.2733826935 2.345219836e-38
-0.3558784425 0.07557258755 -0.3836716712 2.345219836e-38
-0.02019334398 -0.4943910837 -0.393509835 2.345219836e-38
0.233084619 -0.2741812468 0.353073597 2.345219836e-38
0.3204131424 -0.2728792131 -0.1675346792 2.345219836e-38
0.3855366707 -0.4947031736 -0.1382502019 2.345219836e-38
0.1560068429 0.3221017122 -0.1497638822 2.345219836e-38
0.02364466153 0.3976878822 0.3642950356 2.345219836e-38
0.003676508553 -0.4516653717 -0.357548207 2.345219836e-38
0.2895806134 -0.4680493176 0.2652601302 2.345219836e-38
-0.1627610773 -0.5080154538 -0.3374881744 2.345219836e-38
-0.01232923009 -0.4345572591 -0.3776031137 2.345219836e-38
-0.388880074 0.2548519969 -0.317879796 2.345219836e-38
0.3636978269 -0.4731374085 -0.1253708303 2.345219836e-38
0.3510157764 -0.4862769544 -0.2033436149 2.345219836e-38
0.2557712197 0.09281468391 0.006428821012 2.345219836e-38
0.2358409762 0.1395299137 -0.2142263949 2.345219836e-38
0.2270093262 -0.507355392 -0.3345520794 2.345219836e-38
0.283246994 0.0265026018 0.04174583405 2.345219836e-38
-0.229330793 0.03645689413 -0.2523705661 2.345219836e-38
-0.304071039 -0.2637823224 -0.3236188293 2.345219836e-38
0.3021267056 -0.2446534783 0.3100103438 2.345219836e-38
0.3635507822 -0.1879137605 0.2479859591 2.345219836e-38
-0.2474123687 -0.4852001369 -0.07848522067 2.345219836e-38
0.1913098097 -0.467351377 0.01696985215 2.345219836e-38
-0.2400905788 -0.4930628836 0.05429524928 2.345219836e-38
-0.06278125197 -0.3544617295 0.3588413596 2.345219836e-38
0.020810958 0.3430323601 -0.3171944618 2.345219836e-38
0.004619567655 -0.4288648367 -0.2964266539 2.345219836e-38
0.1590541005 -0.486248821 -0.3593300581 2.345219836e-38
-0.4032660127 0.4760879576 -0.2490178198 2.345219836e-38
-0.3304381669 0.05240927264 0.2463620007 2.345219836e-38
-0.1437752396 0.4400832653 -0.2501231432 2.345219836e-38
-0.3391899168 -0.2790244222 -0.3971678317 2.345219836e-38
-0.2560547888 0.4204019904 -0.3418853879 2.345219836e-38
-0.244360581 0.1350251287 0.1668121368 2.345219836e-38
-0.04495672882 0.1127925441 -0.3527113199 2.345219836e-38
0.2269508839 -0.3670384586 -0.3802921772 2.345219836e-38
-0.170086056 0.3514226079 -0.3558814824 2.345219836e-38
-0.05939283967 -0.4860716462 0.3357621133 2.345219836e-38
-0.066271469 0.444326967 0.1776451319 2.345219836e-38
-0.3179281354 -0.4003868699 -0.09472103417 2.345219836e-38
0.2853880823 -0.521309793 -0.2620638907 2.345219836e-38
-0.2270604521 -0.003303742036 -0.08678029478 2.345219836e-38
-0.01144218631 -0.4550741911 -0.3473700285 2.345219836e-38
0.30766958 -0.4442451894 0.03352246433 2.345219836e-38
0.1767250597 -0.4970586896 0.3339256644 2.345219836e-38
0.2977777421 -0.3554272354 0.1479589343 2.345219836e-38
0.3017110229 -0.2043327689 0.1666195244 2.345219836e-38
0.06368909031 -0.4952679276 -0.2188248187 2.345219836e-38
0.2634539902 0.08768901974 0.06658947468 2.345219836e-38
-0.3121263087 0.3639382124 0.3242591023 2.345219836e-38
-0.2145993263 0.4544181526 -0.07140406966 2.345219836e-38
0.2656020224 -0.4788246453 0.256970346 2.345219836e-38
0.35155496 -0.4350579381 0.1598799676 2.345219836e-38
-0.357280314 -0.4604693353 0.05732275918 2.345219836e-38
0.3659528792 -0.4933027923 0.1106886417 2.345219836e-38
0.1539680213 0.2317683548 -0.1061028242 2.345219836e-38
0.1985565275 -0.1810904741 0.09935426712 2.345219836e-38
0.06268513203 0.03224597871 -0.3639573455 2.345219836e-38
0.2309156656 -0.5044329762 -0.3703626692 2.345219836e-38
0.3294698596 -0.3878599405 -0.03286613896 2.345219836e-38
-0.2775749266 0.4033164382 0.3589041233 2.345219836e-38
-0.08797585219 -0.4665733874 -0.2295606583 2.345219836e-38
0.3281680048 -0.3673012257 0.2765942216 2.345219836e-38
-0.3102796674 0.2542905509 -0.3519230485 2.345219836e-38
-0.2842747271 0.284732312 -0.3303060532 2.345219836e-38
0.03723185509 0.04215725511 -0.07304495573 2.345219836e-38
-0.1472589374 -0.4675401449 -0.3506654799 2.345219836e-38
-0.1452623904 -0.3086202443 -0.4156222939 2.345219836e-38
-0.2486038208 -0.3856264651 -0.3942462504 2.345219836e-38
-0.1670386642 -0.48924914 -0.3952707648 2.345219836e-38
-0.1776351482 0.4561628699 0.3608423471 2.345219836e-38
-0.07462025434 0.2355591953 -0.02143651247 2.345219836e-38
0.2869832218 -0.5250253081 -0.353558898 2.345219836e-38
-0.3571388721 0.4125849605 0.3546000421 2.345219836e-38
0.2550663352 0.3005881906 0.2933766544 2.345219836e-38
0.2025689185 -0.5053696036 -0.3933912218 2.345219836e-38
0.06398512423 -0.4665688574 0.3886241019 2.345219836e-38
0.3372463286 -0.4307031929 0.04994773865 2.345219836e-38
0.3231583834 -0.3814614415 -0.147921443 2.345219836e-38
-0.2686268091 -0.4046935439 -0.2480819374 2.345219836e-38
0.267677784 -0.441179961 0.357517153 2.345219836e-38
-0.1399349123 0.04938666895 0.372015059 2.345219836e-38
-0.09431057423 0.4029890001 0.2644395232 2.345219836e-38
0.2681020498 -0.4911125302 -0.06924133003 2.345219836e-38
0.3499319851 -0.4848849773 0.2950913608 2.345219836e-38
-0.3179976046 0.2324173599 0.3509441018 2.345219836e-38
-0.1842361242 -0.1156411618 -0.3646728992 2.345219836e-38
0.01656345464 0.3761978745 -0.2572936714 2.345219836e-38
-0.229216218 0.390445441 -0.2925024033 2.345219836e-38
0.1144820973 -0.4940199256 -0.2435940355 2.345219836e-38
0.1246561855 -0.370094806 -0.2793293893 2.345219836e-38
-0.205397591 -0.195972532 0.3424766362 2.345219836e-38
-0.2335353941 -0.4720584452 0.1861664057 2.345219836e-38
0.3178928196 -0.5008274317 -0.3050096333 2.345219836e-38
0.3518227339 -0.5011481643 0.2828582525 2.345219836e-38
-0.2806729078 -0.5187472701 -0.3369116783 2.345219836e-38
-0.2195776552 -0.4789180756 -0.3457897007 2.345219836e-38
0.1683065891 -0.491435647 -0.175278306 2.345219836e-38
0.1926157326 -0.4909031987 -0.1922925562 2.345219836e-38
-0.01339948922 -0.4843156636 -0.3114697039 2.345219836e-38
0.1994899958 -0.5104307532 -0.3571693301 2.345219836e-38
-0.2203085124 -0.396158129 -0.3868774474 2.345219836e-38
0.116767168 -0.1394393444 0.3586032987 2.345219836e-38
0.3149759471 -0.1018543839 0.1642089784 2.345219836e-38
0.2483334839 -0.158056736 -0.3515169919 2.345219836e-38
-0.3969534636 0.2047960162 0.189705357 2.345219836e-38
0.2826634347 0.3017731905 0.2709003389 2.345219836e-38
0.21100007 -0.494040072 -0.3639629483 2.345219836e-38
-0.2916000187 0.1655732691 -0.3975779116 2.345219836e-38
0.2871518433 -0.008415049873 -0.2036121339 2.345219836e-38
0.2452557385 -0.4748067558 -0.329172492 2.345219836e-38
-0.2085796893 -0.1146143377 0.3473234475 2.345219836e-38
0.2364785075 -0.5546101928 0.3436129093 2.345219836e-38
0.2456744015 0.06552582234 0.367518723 2.345219836e-38
0.06269685179 0.3075722158 0.313526243 2.345219836e-38
-0.2034801692 -0.04364050552 -0.3327993751 2.345219836e-38
0.2723711729 -0.4579243362 0.2389442474 2.345219836e-38
0.3423653543 -0.3599201441 0.2103579491 2.345219836e-38
-0.1028445885 0.4316947162 -0.3383285105 2.345219836e-38
-0.3696135581 0.2712116241 0.2753880322 2.345219836e-38
-0.3114371598 -0.4361128509 -0.3037020266 2.345219836e-38
0.2398880124 -0.4813533425 -0.255708158 2.345219836e-38
-0.2110265791 -0.4108985364 -0.3724739552 2.345219836e-38
-0.2950428426 0.1790145785 0.3090772629 2.345219836e-38
-0.3712337017 -0.484621495 0.003560144454 2.345219836e-38
0.3243160844 -0.3773264587 -0.2001331449 2.345219836e-38
0.2983313203 -0.1712987423 0.2969693244 2.345219836e-38
-0.1945944726 -0.5098053813 0.01816591993 2.345219836e-38
0.1895346493 -0.485725224 0.2443466187 2.345219836e-38
-0.2892486751 -0.5015373826 -0.3438208401 2.345219836e-38
0.2227583379 -0.5134178996 -0.3722954392 2.345219836e-38
-0.02621918172 -0.4869814813 0.2447916567 2.345219836e-38
0.2200786173 -0.4847847521 -0.05124628171 2.345219836e-38
-0.1624998152 -0.4760246575 -0.4199295044 2.345219836e-38
0.2657827139 -0.2204500735 0.3429849446 2.345219836e-38
0.3367042542 -0.3154779375 -0.2376277 2.345219836e-38
0.2876243889 0.1147284359 -0.1971413344 2.345219836e-38
-0.3754906356 0.3525756598 -0.003447599709 2.345219836e-38
0.2435547113 -0.2157863528 0.1211185902 2.345219836e-38
-0.2029648572 0.01098291948 -0.1200397611 2.345219836e-38
-0.3104272187 0.4952802658 -0.2317365557 2.345219836e-38
-0.2302171737 -0.4874273241 0.3746774495 2.345219836e-38
0.117103681 -0.4904481471 -0.28237167 2.345219836e-38
-0.300472945 0.4715943635 0.3165483773 2.345219836e-38
0.2088540643 -0.5126076341 0.3328665793 2.345219836e-38
-0.2532829046 0.3269150853 0.3105425239 2.345219836e-38
0.1271702051 -0.06140103564 0.2317097783 2.345219836e-38
-0.3282058835 0.4446040392 -0.3301395476 2.345219836e-38
0.2292751968 -0.4515543878 -0.1940601319 2.345219836e-38
0.3300371766 -0.4555979967 0.2833264768 2.345219836e-38
-0.3606594801 0.323191613 -0.1437067091 2.345219836e-38
-0.3468342721 0.3485170603 0.3552341759 2.345219836e-38
-0.3360176682 -0.4292396605 -0.2914662957 2.345219836e-38
0.3095811009 -0.4180345237 -0.3201801181 2.345219836e-38
-0.310737282 -0.5215014815 -0.3495665491 2.345219836e-38
0.3255814314 -0.2967117727 0.02878526226 2.345219836e-38
-0.2429791689 -0.3250938952 0.3484550118 2.345219836e-38
0.3087797761 -0.1290961653 0.038085673 2.345219836e-38
0.08095984161 -0.4372817278 0.372433126 2.345219836e-38
0.342800051 -0.4993474483 0.2151029557 2.345219836e-38
0.2913766801 -0.2723543048 0.1472163349 2.345219836e-38
-0.3292822838 0.04510462284 -0.3598583341 2.345219836e-38
0.2866069376 -0.4181046784 -0.3002803624 2.345219836e-38
0.1366867721 -0.5023243427 0.1790382564 2.345219836e-38
0.2809173167 -0.4843567908 0.1808348298 2.345219836e-38
-0.06677148491 0.1949464083 -0.3678603768 2.345219836e-38
0.3195959926 -0.4877887666 0.3142489791 2.345219836e-38
0.2160929292 -0.2820272446 0.2766132951 2.345219836e-38
0.2174013257 0.06878123432 -0.03769680485 2.345219836e-38
0.01613107324 0.3025394678 -0.2770164907 2.345219836e-38
0.3775715232 -0.4688983262 -0.02007392421 2.345219836e-38
0.2577003837 -0.4239343703 -0.1155572087 2.345219836e-38
-0.3510740995 -0.3093537688 -0.1948254704 2.345219836e-38
-0.1618399918 -0.4462396801 0.1058778018 2.345219836e-38
-0.04866482317 -0.475048691 -0.2941178977 2.345219836e-38
-0.1372700781 -0.4865276814 0.301789403 2.345219836e-38
0.04363723099 -0.4248894751 0.373003453 2.345219836e-38
-0.06334505975 0.2899397016 -0.3595375419 2.345219836e-38
0.2268693149 -0.4497667253 -0.3767302632 2.345219836e-38
-0.3210836053 0.4984641373 -0.04379850253 2.345219836e-38
0.3295925856 -0.5022984743 -0.1635363251 2.345219836e-38
-0.230162859 -0.06924811006 -0.04976030812 2.345219836e-38
-0.3318075836 0.11329142 -0.2036497146 2.345219836e-38
-0.2647635043 -0.09208973497 -0.1351165473 2.345219836e-38
-0.3667748272 0.3622609377 -0.2363853604 2.345219836e-38
-0.2979063392 0.2294358462 -0.2813876271 2.345219836e-38
-0.0629324913 -0.5001472235 -0.3965958357 2.345219836e-38
0.2816203833 0.1149120554 -0.1096727997 2.345219836e-38
-0.298268944 -0.464730382 0.0431846045 2.345219836e-38
0.08556734771 -0.3606612682 0.0160396006 2.345219836e-38
-0.2919924557 0.104440935 0.1556684375 2.345219836e-38
0.3414880931 -0.4842646718 0.2120688558 2.345219836e-38
0.3759955168 -0.5046063066 0.2300398052 2.345219836e-38
0.008936423808 -0.386272192 -0.3268800974 2.345219836e-38
-0.246903941 -0.2327882051 0.327611655 2.345219836e-38
0.2861180604 -0.4384479225 -0.297309041 2.345219836e-38
0.1348276734 -0.4588541985 0.3683774173 2.345219836e-38
0.1934499443 -0.359749943 -0.3423736691 2.345219836e-38
0.2167855054 -0.1298449486 0.3182523847 2.345219836e-38
-0.1450968236 0.4318245947 0.2241763622 2.345219836e-38
-0.2558786273 0.2467023283 -0.02886455134 2.345219836e-38
0.2685512602 -0.3196668327 0.2641690671 2.345219836e-38
0.24364537 -0.4597572982 0.3283542097 2.345219836e-38
-0.02293769084 0.2310892045 -0.2451088279 2.341805152e-38
-0.306804508 -0.3574415445 -0.3442863226 2.341805152e-38
-0.2210427523 -0.5326971412 -0.3487311602 2.341805152e-38
-0.1299259067 -0.4578645825 -0.4164957106 2.341805152e-38
0.1901834309 -0.4824386537 0.1171387285 2.341805152e-38
-0.1900299788 0.1227887571 0.3333368003 2.341805152e-38
-0.1438791454 -0.1002869532 -0.3863214254 2.341805152e-38
0.2372484803 -0.4960433841 0.2128864378 2.341805152e-38
-0.04462409765 0.2132968456 0.35259372 2.341805152e-38
0.3360942304 -0.4087187946 -0.123426795 2.341805152e-38
-0.3133805096 -0.1559655219 -0.3510451615 2.341805152e-38
0.07581611723 -0.4909541607 -0.3609880209 2.341805152e-38
0.3519863784 -0.3521766365 -0.1838452071 2.341805152e-38
-0.2209663987 0.3356846869 -0.1034674048 2.341805152e-38
-0.1296454817 0.417984128 0.2247041464 2.341805152e-38
0.3014104962 -0.5056730509 -0.2452845722 2.341805152e-38
0.1673193127 0.1934061795 -0.05484031513 2.341805152e-38
-0.2125028968 -0.3801835775 -0.3615149558 2.341805152e-38
-0.2319359779 -0.481811136 0.393642813 2.341805152e-38
0.1474576294 -0.4654691815 -0.3252641857 2.341805152e-38
0.3345414698 -0.4089818597 0.1611389071 2.341805152e-38
0.3747300804 -0.4753052294 0.08466313779 2.341805152e-38
0.1758496761 0.02373289689 -0.140536353 2.341805152e-38
-0.28913185 0.01188522484 0.3627569377 2.341805152e-38
0.284778893 -0.4297224879 -0.1904830784 2.341805152e-38
0.2833667099 0.1988453567 0.3436006308 2.341805152e-38
-0.06493107975 -0.2248257846 0.3565489948 2.341805152e-38
-0.1232951656 0.4187517464 0.3182292879 2.341805152e-38
-0.2455630153 0.4894345105 0.09051893651 2.341805152e-38
-0.3144666851 0.1613090336 0.376676023 2.341805152e-38
0.1608394831 -0.2340406477 0.2805228233 2.341805152e-38
-0.1952175349 0.4207139611 0.3410595655 2.341805152e-38
0.1949738711 0.02738247067 0.331689328 2.341805152e-38
-0.005934784655 -0.252913177 -0.3748677671 2.341805152e-38
-0.2643435895 -0.5115560293 -0.2681902051 2.341805152e-38
-0.2321019471 0.4573842287 -0.3350614607 2.341805152e-38
0.3033231497 -0.5047202706 -0.3307198882 2.341805152e-38
-0.1347555071 0.350336194 -0.1509666741 2.341805152e-38
-0.2477645725 -0.4798681438 -0.1055739224 2.341805152e-38
0.2548512816 -0.4986212254 0.2875237465 2.341805152e-38
-0.3729918301 0.02203861251 -0.01629072428 2.341805152e-38
0.06476105005 -0.4976557493 -0.3897761405 2.341805152e-38
-0.2477764785 -0.4884961247 0.1584144086 2.341805152e-38
0.2587809861 -0.4741567671 0.1594926417 2.341805152e-38
0.1926900744 -0.4966090322 -0.2834848762 2.341805152e-38
0.1405302733 -0.4965492487 -0.3836064041 2.341805152e-38
-0.1398160756 0.1660533249 0.1091885865 2.341805152e-38
0.2981774509 -0.1066150069 -0.07963809371 2.341805152e-38
-0.2231774032 0.4719023407 0.2053042501 2.341805152e-38
0.0878161937 -0.4220813513 -0.3762612641 2.341805152e-38
-0.2413846999 -0.262100935 0.3640659451 2.341805152e-38
0.1600211263 -0.4965920448 -0.1259129196 2.341805152e-38
0.2866657376 0.06862260401 -0.3031242192 2.341805152e-38
0.3280179799 -0.4802276492 0.05017027631 2.341805152e-38
0.269961834 -0.09102721512 -0.2470636219 2.341805152e-38
-0.1367490441 -0.3908703625 0.3762257993 2.341805152e-38
0.3129171431 -0.09319657087 -0.0145230405 2.341805152e-38
0.2192862779 0.2664859295 0.295029968 2.341805152e-38
0.2472484112 -0.5354889631 0.3216608167 2.341805152e-38
0.2590146661 -0.5144909024 0.3130382001 2.341805152e-38
-0.06912957132 0.417742908 0.1634369195 2.341805152e-38
-0.221788764 -0.3689702153 0.3631876707 2.341805152e-38
-0.1804601103 -0.1266187727 0.3027525246 2.341805152e-38
0.06840142608 0.3175595105 -0.1835666448 2.341805152e-38
0.1497451365 -0.4674755633 0.3454945683 2.341805152e-38
0.2545126677 -0.3999239206 -0.3529562056 2.341805152e-38
-0.2387216091 -0.3961367309 -0.3982775807 2.341805152e-38
-0.4007911682 0.4271833897 0.04590249434 2.341805152e-38
0.2210387886 -0.1565319002 -0.3428563178 2.341805152e-38
0.2900943756 -0.4073714614 -0.2949672043 2.341805152e-38
0.1185844243 -0.50687778 -0.09286297858 2.341805152e-38
0.1904922873 -0.4989313483 -0.2944156528 2.341805152e-38
-0.3643473685 0.4447613955 -0.2506693006 2.341805152e-38
-0.2946361899 -0.486967057 -0.3757682443 2.341805152e-38
0.1449722946 -0.4904408753 0.1173409075 2.341805152e-38
-0.04570692033 -0.4678112864 -0.1687880754 2.341805152e-38
0.2506071329 -0.5080945492 -0.326939404 2.341805152e-38
0.1504332572 -0.4974858165 -0.3363072276 2.341805152e-38
-0.2373824418 0.3644343615 -0.09726624191 2.341805152e-38
0.2192282081 0.2275863439 0.06400711834 2.341805152e-38
-0.3505885303 0.08780165017 0.2021773905 2.341805152e-38
0.3748846948 -0.4675249755 0.005730060861 2.341805152e-38
-0.2186829746 -0.2585729361 0.3000122309 2.341805152e-38
-0.1956668198 -0.4388345778 -0.3907510042 2.341805152e-38
-0.3222951591 -0.3184144199 -0.4083061218 2.341805152e-38
0.1314898878 0.1363606006 -0.3305564225 2.341805152e-38
-0.2751615047 -0.2040757984 -0.3875343502 2.341805152e-38
-0.3237880468 -0.1543367356 -0.3229772747 2.341805152e-38
0.2067076266 -0.4705573916 -0.3668332398 2.341805152e-38
-0.1105411574 -0.1266630441 0.3094824851 2.341805152e-38
0.1663597524 -0.5033299923 0.3357409239 2.341805152e-38
0.2887347341 -0.5349634886 0.3108803332 2.341805152e-38
0.001720724627 0.3213816285 -0.1015124768 2.341805152e-38
-0.3446611166 -0.447227627 0.01001647115 2.341805152e-38
0.07752017677 -0.3411801457 0.3550109863 2.341805152e-38
0.3181149065 0.2177313268 0.1825290918 2.341805152e-38
-0.2039124668 -0.4872647226 -0.2218959779 2.341805152e-38
-0.3515899181 -0.1358814985 -0.397877872 2.341805152e-38
-0.3431090713 0.1487512141 -0.2721386552 2.341805152e-38
-0.3073385358 -0.3012142479 0.2685537338 2.341805152e-38
-0.04364211112 -0.4886619151 -0.3926382363 2.341805152e-38
0.2877301276 -0.1344893277 -0.2019999474 2.341805152e-38
0.3037047386 -0.5075230002 -0.1565706134 2.341805152e-38
-0.1645112187 0.3481758237 0.1214578599 2.341805152e-38
-0.309114188 0.5102864504 0.01695617288 2.341805152e-38
-0.2673805952 0.3151209652 -0.3570197225 2.341805152e-38
0.3472344279 -0.4768185616 0.3089752793 2.341805152e-38
-0.0859066844 -0.4886601567 -0.01434774697 2.341805152e-38
0.1242245585 0.3115722239 -0.1744368374 2.341805152e-38
0.08308625221 -0.4778930545 0.166778639 2.341805152e-38
-0.09954089671 0.01538752299 -0.3406602442 2.341805152e-38
0.2200087905 0.2123909146 0.180261761 2.341805152e-38
0.1454020441 -0.4601731598 0.3618672192 2.341805152e-38
0.379424572 -0.459485203 0.0639994964 2.341805152e-38
0.355677098 -0.3794481158 0.08296215534 2.341805152e-38
-0.3113809526 -0.2943009734 -0.3871726096 2.341805152e-38
-0.1836494952 -0.4975287318 0.1592651159 2.341805152e-38
-0.09049840271 0.1258990467 -0.3915114999 2.341805152e-38
-0.2300364673 0.2905951142 -0.4001661837 2.341805152e-38
-0.1668206304 0.3220308423 -0.3956687748 2.341805152e-38
-0.1977659911 -0.4972518682 0.04946698993 2.341805152e-38
0.1520287097 0.151857689 -0.3036991656 2.341805152e-38
-0.2294425815 -0.4996008873 0.3141825497 2.341805152e-38
0.2371411622 0.2231831998 0.3711865544 2.341805152e-38
-0.1373134851 -0.4064225554 -0.04324991629 2.341805152e-38
-0.3764500022 0.3873800039 0.1669875234 2.341805152e-38
0.1251342297 -0.4886967242 0.3425679803 2.341805152e-38
0.3116090894 -0.1094601154 0.1437785774 2.341805152e-38
-0.3090526462 0.07294298708 -0.07014133036 2.341805152e-38
-0.3835681379 0.2326014936 -0.1643624902 2.341805152e-38
-0.06599845737 -0.3504478633 0.1391959488 2.341805152e-38
0.01627822593 -0.4280182421 0.3701819777 2.341805152e-38
-0.1721490771 -0.4926485419 0.1295183748 2.341805152e-38
0.2839682996 0.1149032712 0.2773215473 2.341805152e-38
0.2291757911 -0.5110845566 -0.1947676539 2.341805152e-38
-0.04792591184 0.3195009232 0.3930638731 2.341805152e-38
-0.3416326344 0.3656863868 0.3115381598 2.341805152e-38
-0.3435775042 0.03280432522 -0.3347091079 2.341805152e-38
0.3325553536 -0.482193023 0.3103732765 2.341805152e-38
-0.05737379938 -0.1617281884 0.3243042529 2.341805152e-38
-0.04081176966 0.4082943499 -0.3255223334 2.341805152e-38
-0.06744004041 -0.500020802 0.1342765242 2.341805152e-38
0.2200989276 -0.4719817936 -0.3442025483 2.341805152e-38
0.1533062905 0.1607254744 0.04178532213 2.341805152e-38
0.1369740367 -0.4337367713 0.3420705199 2.341805152e-38
-0.1398095191 -0.4896481037 -0.1513443291 2.341805152e-38
0.3720712364 -0.465110451 0.003546450287 2.341805152e-38
-0.3932573795 0.3469142914 -0.1031775773 2.341805152e-38
0.1324439049 -0.507352829 0.3407441676 2.341805152e-38
0.04174826294 -0.4486572742 -0.06008077785 2.341805152e-38
-0.1216798872 0.2300231159 0.2059693485 2.341805152e-38
-0.1028119773 0.06057890877 -0.3866214156 2.341805152e-38
-0.1918042451 -0.4946021438 -0.1948579252 2.341805152e-38
0.2606756389 -0.4935376942 -0.3384649158 2.341805152e-38
-0.3031591177 0.3411162794 0.2982746661 2.341805152e-38
-0.01100457367 -0.07417947054 0.3442007005 2.341805152e-38
-0.1261715889 -0.515930593 0.09877283871 2.341805152e-38
-0.3678685427 0.1923933178 -0.02520741522 2.341805152e-38
0.323846519 -0.4417590499 0.2937569022 2.341805152e-38
0.3440790176 -0.4783738256 -0.06709264219 2.341805152e-38
0.3471779227 -0.01895941049 0.2075908184 2.341805152e-38
0.1487853229 0.05033810437 0.349563092 2.341805152e-38
-0.2342188507 0.04339959845 -0.3761666119 2.341805152e-38
-0.008289512247 -0.4206290841 0.3585157096 2.341805152e-38
0.1165485382 -0.152355209 0.3622660041 2.341805152e-38
0.2597348392 -0.5075255036 0.3346682489 2.341805152e-38
0.2159473151 -0.5260890126 -0.3616499007 2.341805152e-38
0.3175702989 -0.4900281429 0.3286348581 2.341805152e-38
0.2046441138 -0.4217352569 -0.2269017845 2.341805152e-38
-0.304770261 -0.4795322716 0.1938960701 2.341805152e-38
0.355984956 -0.4925667346 0.2627291083 2.341805152e-38
0.2907875478 -0.04972465336 0.2018650174 2.341805152e-38
-0.3409084976 0.400559634 -0.3804249167 2.341805152e-38
0.01105029881 -0.500446856 -0.1958919466 2.341805152e-38
0.2921622097 -0.4278330803 -0.316416353 2.341805152e-38
0.007134321146 0.3255888224 0.03906580061 2.341805152e-38
0.05826244503 -0.404009223 0.3824517727 2.341805152e-38
-0.3388611972 -0.3913757801 0.3209337294 2.341805152e-38
0.2929089665 -0.2027756423 0.3470282853 2.341805152e-38
-0.2633737326 0.4997600019 0.3080157936 2.341805152e-38
0.1914647818 -0.4827826321 0.27933532 2.341805152e-38
-0.140236184 -0.4757458866 0.3787870705 2.341805152e-38
-0.3400341272 -0.2340388596 0.2170473784 2.341805152e-38
-0.2879830897 -0.2369334996 -0.3777621388 2.341805152e-38
-0.1636713594 -0.5007303357 -0.4028146863 2.341805152e-38
0.142538771 -0.4901032746 -0.3261545002 2.341805152e-38
0.1011660174 -0.1096989289 0.3317038715 2.341805152e-38
-0.1365630031 -0.3995141983 0.3708428442 2.341805152e-38
-0.3126055598 -0.2852002382 0.0001228787005 2.341805152e-38
-0.3159297705 -0.4286887944 -0.3914083242 2.341805152e-38
0.3579626977 -0.4175481498 0.1375214607 2.341805152e-38
-0.1115034074 -0.1223524138 0.2575412989 2.341805152e-38
0.1729613543 0.2841933966 -0.3757438064 2.341805152e-38
0.1053766385 -0.2707306743 0.3502559662 2.341805152e-38
-0.3459785581 0.487993598 -0.1755319685 2.341805152e-38
-0.1517636329 -0.4827270508 0.3640026748 2.341805152e-38
0.2761997283 0.2767131329 0.380710274 2.341805152e-38
-0.1702790111 -0.2830268145 0.3495845795 2.341805152e-38
0.1459467858 -0.4248144627 -0.3710207641 2.341805152e-38
0.1257057786 -0.4582826495 0.361405313 2.341805152e-38
0.3690452278 -0.4991725683 -0.2142226398 2.341805152e-38
-0.2865154445 -0.4820834696 0.05633623526 2.341805152e-38
0.3147885501 -0.4987573624 0.268963635 2.341805152e-38
0.3119409978 0.09508270025 0.1432635635 2.341805152e-38
-0.2015730888 -0.4011028707 0.282022804 2.341805152e-38
-0.02462226339 -0.4708079398 -0.2158624083 2.341805152e-38
0.2869928777 -0.1558139473 0.07705323398 2.341805152e-38
