# .PCD v0.7 - Point Cloud Data file format
VERSION 0.7
FIELDS x y z rgb
SIZE 4 4 4 4
TYPE F F F F
COUNT 1 1 1 1
WIDTH 841
HEIGHT 1
VIEWPOINT 0 0 0 1 0 0 0
POINTS 841
DATA ascii
-0.4483017027 0.06259832531 0.1736060232 3.015101038e-39
-0.3742461503 0.07210025936 0.1754657924 3.015101038e-39
-0.2953348458 0.06143247336 0.1934021562 3.015101038e-39
-0.2489292026 0.0548344627 0.213432163 3.015101038e-39
-0.202812925 0.05484568328 0.2406245172 3.015101038e-39
-0.1305799335 0.05603341013 0.2663631737 3.015101038e-39
-0.06868693233 0.0553721711 0.2808112204 3.015101038e-39
-0.01107447036 0.04624361545 0.2888444066 3.015101038e-39
0.03091169521 0.02103536576 0.2897435129 3.015101038e-39
0.04815035686 -0.01703964174 0.2865198553 3.015101038e-39
0.03426626325 -0.07526873797 0.2761390507 3.015101038e-39
0.03173653781 -0.1173661053 0.2736003995 3.015101038e-39
0.02951133996 -0.1607766449 0.2719562054 3.015101038e-39
0.02873407304 -0.2036904097 0.2711282969 3.015101038e-39
0.03149339557 -0.2493487895 0.2729066908 3.015101038e-39
0.03265756741 -0.3036493361 0.2717296779 3.015101038e-39
0.03031278402 -0.3816798329 0.271376431 3.015101038e-39
0.02817858383 -0.4399717748 0.2828050852 3.015101038e-39
0.0532245487 -0.4524386227 0.3158212602 3.015101038e-39
0.08531017601 -0.4658367932 0.3563604057 3.015101038e-39
0.1025322229 -0.4460633397 0.3843858242 3.015101038e-39
0.0970877409 -0.396553874 0.3852972388 3.015101038e-39
0.0954233855 -0.3431628048 0.3867561519 3.015101038e-39
0.09921635687 -0.2849979401 0.3854518831 3.015101038e-39
0.1000886708 -0.2421081364 0.3786811233 3.015101038e-39
-0.356605798 -0.4821585119 0.2759768963 5.962428276e-39
-0.4035398662 -0.4807707965 0.2362121046 5.962428276e-39
-0.4333274364 -0.4767301381 0.1918546259 5.962428276e-39
-0.4464194179 -0.4603118002 0.1580823809 5.962428276e-39
-0.4427615404 -0.4204778373 0.1445722282 5.962428276e-39
-0.4406194687 -0.2873826921 0.1548830718 5.962428276e-39
-0.4462795854 -0.1636402756 0.1883975267 5.962428276e-39
-0.4544300139 0.03019859642 0.1729386449 5.962428276e-39
-0.4100565314 0.07512601465 0.1667861193 5.962428276e-39
-0.3286121786 0.06592022628 0.1818231046 5.962428276e-39
-0.2596905828 0.05566360801 0.2008559108 5.962428276e-39
-0.2163250297 0.0546586886 0.2264753133 5.962428276e-39
-0.1519936174 0.05623532087 0.2549314499 5.962428276e-39
-0.09135384858 0.056316562 0.2732043862 5.962428276e-39
-0.02845589072 0.05404540151 0.2858521342 5.962428276e-39
0.02347314171 0.03346077353 0.2890562415 5.962428276e-39
0.05975560099 0.007005594671 0.291223526 5.962428276e-39
0.05263040215 -0.04731214046 0.2821928263 5.962428276e-39
0.04409100115 -0.1006989405 0.2749675512 5.962428276e-39
0.04151083902 -0.1439191103 0.2734658718 5.962428276e-39
0.04019023478 -0.1865274012 0.2726686597 5.962428276e-39
0.04018640146 -0.233658269 0.27482149 5.962428276e-39
0.03597055748 -0.2928838134 0.2690453827 5.962428276e-39
0.03376889974 -0.3685680628 0.2694745362 5.962428276e-39
0.03317618743 -0.4342787862 0.2745546401 5.962428276e-39
0.05524924397 -0.4515845776 0.3089063168 5.962428276e-39
0.08741076291 -0.4657585025 0.3478327692 5.962428276e-39
0.1113267988 -0.4555210471 0.3840861619 5.962428276e-39
0.1062069684 -0.4054449201 0.3856423199 5.962428276e-39
0.1031017303 -0.3527783751 0.38571316 5.962428276e-39
0.1067647785 -0.2945504785 0.3845502436 5.962428276e-39
0.1088852435 -0.2467288971 0.3789561689 5.962428276e-39
-0.3430639207 -0.4814814031 0.2797108889 5.962428276e-39
-0.3913309276 -0.4830352366 0.2381482422 5.962428276e-39
-0.4195478261 -0.4788289368 0.1961642355 5.962428276e-39
-0.4448356628 -0.471767813 0.1612351984 5.962428276e-39
-0.4433274269 -0.4404242933 0.1390065998 5.962428276e-39
-0.4371744692 -0.3354608119 0.1404607594 5.962428276e-39
-0.446914047 -0.2087852955 0.1600128263 5.962428276e-39
-0.4537097216 -0.03576575965 0.1804085523 5.962428276e-39
-0.4373344779 0.0742450729 0.1559032947 5.962428276e-39
-0.3642242849 0.06982945651 0.1697166413 5.962428276e-39
-0.2850314081 0.05906090885 0.190539971 5.962428276e-39
-0.2281901389 0.05474960059 0.2117499709 5.962428276e-39
-0.1740783751 0.05592032522 0.2404025793 5.962428276e-39
-0.1116730571 0.0565104112 0.2657537758 5.962428276e-39
-0.0459013544 0.05460058898 0.2795638144 5.962428276e-39
0.01055766363 0.04541433603 0.2882432938 5.962428276e-39
0.05440690741 0.02190767974 0.2905841172 5.962428276e-39
0.07447072119 -0.01661550254 0.2884780765 5.962428276e-39
0.05619621277 -0.08400054276 0.2751307786 5.962428276e-39
0.05327210575 -0.1271000057 0.2743195593 5.962428276e-39
0.05169385299 -0.169419542 0.2741883695 5.962428276e-39
0.04918420687 -0.2179454267 0.2762420475 5.962428276e-39
0.04266546667 -0.2796165347 0.2708434165 5.962428276e-39
0.03714210913 -0.3576249778 0.2667976022 5.962428276e-39
0.03500338271 -0.4267716706 0.269403249 5.962428276e-39
0.05714114755 -0.4509696662 0.3008960783 5.962428276e-39
0.0894087702 -0.465454489 0.3396992087 5.962428276e-39
0.1162815094 -0.4600609839 0.3795628548 5.962428276e-39
0.1151012927 -0.4139754772 0.3856515884 5.962428276e-39
0.1109928638 -0.3621631861 0.3845951259 5.962428276e-39
0.1144076735 -0.3039909899 0.3834657073 5.962428276e-39
0.114405185 -0.2520927489 0.378479898 5.962428276e-39
-0.3280100226 -0.4806578755 0.2811252773 5.962428276e-39
-0.3764744997 -0.4822010994 0.2379664481 5.962428276e-39
-0.4058361351 -0.4811908305 0.2000971437 5.962428276e-39
-0.4344605803 -0.4762935042 0.1645494401 5.962428276e-39
-0.4422908425 -0.4557375312 0.1361613274 5.962428276e-39
-0.4383001626 -0.4057815075 0.1241812259 5.962428276e-39
-0.4413579702 -0.256375432 0.1375664175 5.962428276e-39
-0.4455294013 -0.1093534902 0.1788558662 5.962428276e-39
-0.4460657835 0.0571956262 0.1482312083 5.962428276e-39
-0.3893457353 0.07274264842 0.1529702097 5.962428276e-39
-0.3216700256 0.06383939832 0.1780882627 5.962428276e-39
-0.2393017709 0.05558402091 0.1975460798 5.962428276e-39
-0.1939996332 0.05524689704 0.2247247547 5.962428276e-39
-0.1315434277 0.05615859479 0.2551041245 5.962428276e-39
-0.06729732454 0.05529677123 0.2716642916 5.962428276e-39
-0.00741645135 0.05367215723 0.283632189 5.962428276e-39
0.04624446481 0.03536846489 0.2887105048 5.962428276e-39
0.08855852485 0.009338781238 0.2921234369 5.962428276e-39
0.07315251231 -0.05746768042 0.2792006135 5.962428276e-39
0.06460061669 -0.1100450754 0.2743728459 5.962428276e-39
0.0624098219 -0.1526276618 0.2748333514 5.962428276e-39
0.06050372124 -0.2009114921 0.2767043114 5.962428276e-39
0.05010428652 -0.2642275393 0.2732996941 5.962428276e-39
0.04047182947 -0.3469924033 0.2641662061 5.962428276e-39
0.03933327645 -0.4213526249 0.2654793262 5.962428276e-39
0.0572944805 -0.4509179592 0.2923262417 5.962428276e-39
0.09147754312 -0.4652732909 0.332057178 5.962428276e-39
0.1193942875 -0.4616167843 0.3725099564 5.962428276e-39
0.124202624 -0.42240116 0.3855876923 5.962428276e-39
0.1195456386 -0.3710753918 0.3840636015 5.962428276e-39
0.1234570146 -0.3121409416 0.3823533952 5.962428276e-39
0.1243456155 -0.2574459016 0.3782555461 5.962428276e-39
-0.3115736544 -0.4800728858 0.2804629505 5.962428276e-39
-0.3621294498 -0.4812504053 0.2376063317 5.962428276e-39
-0.3916289508 -0.4837103784 0.2037518173 5.962428276e-39
-0.4209443927 -0.4787881672 0.1658595651 5.962428276e-39
-0.4409587681 -0.467585355 0.1379503608 5.962428276e-39
-0.4395077229 -0.4359109998 0.1169565022 5.962428276e-39
-0.434325099 -0.3079247773 0.1177488714 5.962428276e-39
-0.4358914196 -0.1810369194 0.1648588777 5.962428276e-39
-0.4480187893 0.0210833177 0.1485890299 5.962428276e-39
-0.4179279208 0.07556497306 0.1389897466 5.962428276e-39
-0.344850719 0.06774754077 0.1639794558 5.962428276e-39
-0.2670708597 0.05672096461 0.1847521812 5.962428276e-39
-0.205611527 0.0551616624 0.2092625499 5.962428276e-39
-0.1499330103 0.05606842786 0.2401214838 5.962428276e-39
-0.09054499865 0.05557001382 0.2639256418 5.962428276e-39
-0.02604612708 0.05381696671 0.2763876915 5.962428276e-39
0.03194290027 0.04758731276 0.2853094041 5.962428276e-39
0.08190028369 0.02384818345 0.2900630534 5.962428276e-39
0.09491202235 -0.02366494387 0.2872830927 5.962428276e-39
0.07552230358 -0.09322564304 0.274543494 5.962428276e-39
0.07272281498 -0.1358586699 0.2743491828 5.962428276e-39
0.0715598017 -0.1839146316 0.2764219344 5.962428276e-39
0.05927615613 -0.2455069721 0.2769671381 5.962428276e-39
0.04414872453 -0.335490644 0.2619835436 5.962428276e-39
0.04469602555 -0.413436681 0.26266855 5.962428276e-39
0.05605970323 -0.4512064457 0.2835655212 5.962428276e-39
0.09309113026 -0.4649268091 0.3242315948 5.962428276e-39
0.1228735298 -0.4633020461 0.3661808968 5.962428276e-39
0.13355501 -0.4309833646 0.3860534728 5.962428276e-39
0.1329094023 -0.3789975941 0.3848646879 5.962428276e-39
0.1340705752 -0.3202493191 0.3822926879 5.962428276e-39
0.1350339055 -0.2626571953 0.3786807358 5.962428276e-39
-0.2945357859 -0.4796334505 0.2808783948 8.906165387e-39
-0.3473900557 -0.480537802 0.2382277399 8.906165387e-39
-0.37643224 -0.482703805 0.2071057707 8.906165387e-39
-0.4079680145 -0.4813243449 0.1676037759 8.906165387e-39
-0.4367848933 -0.4762806594 0.1382415146 8.906165387e-39
-0.4381739497 -0.4493076205 0.1145433784 8.906165387e-39
-0.4328813851 -0.3808946311 0.1043555886 8.906165387e-39
-0.4347351193 -0.2291573435 0.1350959539 8.906165387e-39
-0.4456354976 -0.04650200158 0.1558759958 8.906165387e-39
-0.4368624985 0.07167454809 0.1309627295 8.906165387e-39
-0.3689475358 0.07022634894 0.1456770301 8.906165387e-39
-0.2938019633 0.0608208999 0.1711972505 8.906165387e-39
-0.2202053666 0.05638477951 0.194209978 8.906165387e-39
-0.1686643362 0.05575058609 0.2241980731 8.906165387e-39
-0.1102288365 0.05570260435 0.2514120638 8.906165387e-39
-0.04629286006 0.05370365828 0.2693966925 8.906165387e-39
0.0126606198 0.05313885957 0.2795962095 8.906165387e-39
0.06921231747 0.03696843237 0.2863034904 8.906165387e-39
0.1142276675 0.005790680647 0.2925181389 8.906165387e-39
0.08962111175 -0.07017865777 0.2772362828 8.906165387e-39
0.08309347928 -0.1193980873 0.2741707265 8.906165387e-39
0.08168503642 -0.1672573537 0.2758622766 8.906165387e-39
0.07123370469 -0.2237769365 0.2815355062 8.906165387e-39
0.05040593445 -0.3213942051 0.2613496482 8.906165387e-39
0.04971868545 -0.4063951373 0.2610327899 8.906165387e-39
0.05478625372 -0.4518807232 0.2754882872 8.906165387e-39
0.09212039411 -0.4650720656 0.3168748319 8.906165387e-39
0.1266853064 -0.465075314 0.3601429164 8.906165387e-39
0.1481557935 -0.4393856227 0.386131227 8.906165387e-39
0.1459401548 -0.3862179816 0.3856023252 8.906165387e-39
0.1445922703 -0.3280349374 0.3822236657 8.906165387e-39
0.1456988901 -0.2678345442 0.3791063726 8.906165387e-39
-0.2788499892 -0.4792687893 0.2800920904 8.906165387e-39
-0.3314952552 -0.4799494147 0.2377494574 8.906165387e-39
-0.3622539341 -0.4816716015 0.2055298537 8.906165387e-39
-0.3942176104 -0.4841504395 0.1707059443 8.906165387e-39
-0.4233801961 -0.4787798226 0.1383842081 8.906165387e-39
-0.4364245832 -0.4621940553 0.1098392755 8.906165387e-39
-0.4350870848 -0.4267601371 0.08826911449 8.906165387e-39
-0.4334593415 -0.2724532485 0.1018893868 8.906165387e-39
-0.4366285503 -0.1189810336 0.1524442136 8.906165387e-39
-0.4413585663 0.04932717234 0.1262648851 8.906165387e-39
-0.3941398561 0.07235213369 0.1276786327 8.906165387e-39
-0.3207008243 0.06508211046 0.1547093093 8.906165387e-39
-0.2493171692 0.05721472949 0.1804694086 8.906165387e-39
-0.1854268909 0.05628746003 0.2076951563 8.906165387e-39
-0.1277220547 0.05562449247 0.2362189293 8.906165387e-39
-0.07230789959 0.05383408815 0.2604267001 8.906165387e-39
-0.005444550887 0.05332135409 0.2730765641 8.906165387e-39
0.05375843123 0.050186418 0.2826290131 8.906165387e-39
0.1069814712 0.02343649417 0.2913300693 8.906165387e-39
0.1115888357 -0.03271447867 0.2859973311 8.906165387e-39
0.0933252722 -0.1028555483 0.2745119035 8.906165387e-39
0.09160205722 -0.1508518755 0.2760479748 8.906165387e-39
0.08148668706 -0.2069904208 0.2813644409 8.906165387e-39
0.05956711993 -0.3092743158 0.2635388076 8.906165387e-39
0.05512873083 -0.3986363113 0.2600913644 8.906165387e-39
0.05505434424 -0.4515945315 0.2681591213 8.906165387e-39
0.09162671864 -0.4653292 0.3096345961 8.906165387e-39
0.1283905804 -0.4676661491 0.3515203297 8.906165387e-39
0.1634292454 -0.4466341734 0.3855258524 8.906165387e-39
0.157562241 -0.3934770823 0.3860471547 8.906165387e-39
0.1551252156 -0.3355881274 0.3820286691 8.906165387e-39
0.15920946 -0.2737970054 0.3777125478 8.906165387e-39
-0.2638912499 -0.4791782498 0.2829017043 8.906165387e-39
-0.3155767918 -0.4793485105 0.2370200455 8.906165387e-39
-0.3481736183 -0.4809630811 0.2047033608 8.906165387e-39
-0.3785536587 -0.4832063019 0.1747366488 8.906165387e-39
-0.410628587 -0.4813501835 0.1392215192 8.906165387e-39
-0.4348919392 -0.4722388685 0.1095562726 8.906165387e-39
-0.4334673285 -0.4403862059 0.08322646469 8.906165387e-39
-0.4273738861 -0.351970613 0.08793261647 8.906165387e-39
-0.428173095 -0.1917207837 0.1348453313 8.906165387e-39
-0.4433055818 0.009152427316 0.125605464 8.906165387e-39
-0.4167797863 0.07359982282 0.1173717082 8.906165387e-39
-0.3453530967 0.06774876267 0.1375517994 8.906165387e-39
-0.2735920846 0.05894037336 0.1615238041 8.906165387e-39
-0.2045361251 0.05749922246 0.1908872873 8.906165387e-39
-0.1486180872 0.0555389747 0.2202098519 8.906165387e-39
-0.09324884415 0.05389105529 0.2460985929 8.906165387e-39
-0.02722479403 0.05289451033 0.2655437589 8.906165387e-39
0.03200124949 0.05307599157 0.2761476636 8.906165387e-39
0.09064720571 0.03832674772 0.2862660587 8.906165387e-39
0.1335546076 0.001203909516 0.2939156592 8.906165387e-39
0.10580042 -0.0828743279 0.2754750252 8.906165387e-39
0.102222845 -0.1343287975 0.275839895 8.906165387e-39
0.0921715796 -0.1899261475 0.2797588408 8.906165387e-39
0.06871916354 -0.2956597507 0.2660760283 8.906165387e-39
0.06140010804 -0.3897726536 0.2590034604 8.906165387e-39
0.06063974276 -0.4466579258 0.2631051242 8.906165387e-39
0.09164717793 -0.4648379385 0.3018583357 8.906165387e-39
0.1300557852 -0.4701862633 0.3430510759 8.906165387e-39
0.1750053018 -0.4534877837 0.3846265376 8.906165387e-39
0.1689385623 -0.4001539648 0.3850152791 8.906165387e-39
0.1648024917 -0.342246145 0.3797105849 8.906165387e-39
0.1705123335 -0.2799967527 0.3733355701 8.906165387e-39
-0.2485847771 -0.4791906476 0.2868019938 8.906165387e-39
-0.2991754711 -0.4788502753 0.2366808802 8.906165387e-39
-0.3309209645 -0.480352819 0.2036868632 8.906165387e-39
-0.3632310331 -0.4822045565 0.1750064939 8.906165387e-39
-0.3969156146 -0.4842540324 0.1411035359 8.906165387e-39
-0.4268553257 -0.4777241647 0.108767882 8.906165387e-39
-0.432213217 -0.4532334805 0.0776553452 8.906165387e-39
-0.4289910495 -0.4090530574 0.07004223764 8.906165387e-39
-0.4247990549 -0.2430225313 0.1024529785 8.906165387e-39
-0.4403341413 -0.05669080466 0.1303533018 8.906165387e-39
-0.4361916482 0.06822545081 0.108675167 8.906165387e-39
-0.3730223775 0.06955754012 0.117428124 8.906165387e-39
-0.2992444634 0.06183599681 0.1436105371 8.906165387e-39
-0.2400822043 0.05794154853 0.1701785773 8.906165387e-39
-0.1668083817 0.05708584934 0.2022048384 8.906165387e-39
-0.1116171777 0.0540799275 0.2309848964 8.906165387e-39
-0.05412003025 0.05251438171 0.2543108463 8.906165387e-39
0.009403835051 0.0518277064 0.26869151 8.906165387e-39
0.07049988955 0.05122347921 0.2806725204 8.906165387e-39
0.1277898401 0.02228096873 0.2927154303 8.906165387e-39
0.1282932907 -0.04047977924 0.2843365669 8.906165387e-39
0.1118534505 -0.1175882593 0.2752472162 8.906165387e-39
0.1045681983 -0.173212558 0.2787515223 8.906165387e-39
0.08317494392 -0.2712486982 0.2716460824 8.906165387e-39
0.06832779944 -0.380007863 0.256680578 8.906165387e-39
0.06670799851 -0.4407616258 0.2603742182 8.906165387e-39
0.09209944308 -0.4637522101 0.2934859097 8.906165387e-39
0.1296162009 -0.4702323079 0.3334167004 8.906165387e-39
0.1793430299 -0.4556933045 0.3767173886 8.906165387e-39
0.1795589924 -0.4056687951 0.3814970255 8.906165387e-39
0.1742443144 -0.347815305 0.3747058809 8.906165387e-39
0.1808237582 -0.285559088 0.3674053252 8.906165387e-39
-0.2328638434 -0.4792052209 0.290369451 1.184631237e-38
-0.2830730081 -0.4785713851 0.2394760847 1.184631237e-38
-0.3131747246 -0.4797121584 0.2029554248 1.184631237e-38
-0.3465460837 -0.4814116061 0.1728939563 1.184631237e-38
-0.3814682066 -0.4836879075 0.141406253 1.184631237e-38
-0.4138231575 -0.4804432094 0.1095363796 1.184631237e-38
-0.43116799 -0.4658063948 0.0712538138 1.184631237e-38
-0.4303562045 -0.4323767126 0.05516387522 1.184631237e-38
-0.4244416356 -0.299156785 0.07177136838 1.184631237e-38
-0.4311766624 -0.1324440539 0.1252001077 1.184631237e-38
-0.4391102791 0.04036102444 0.1052347273 1.184631237e-38
-0.4003563821 0.07189504057 0.1025918573 1.184631237e-38
-0.3280747831 0.06545781344 0.1249645054 1.184631237e-38
-0.2662623227 0.05911248177 0.1509142518 1.184631237e-38
-0.1897538602 0.0584468469 0.1802806854 1.184631237e-38
-0.1347117573 0.05548586696 0.2119013667 1.184631237e-38
-0.07686299086 0.05215037614 0.2391276807 1.184631237e-38
-0.01289122924 0.05093181878 0.2601419687 1.184631237e-38
0.0457687825 0.05201783031 0.2723043859 1.184631237e-38
0.1093649268 0.03788157552 0.2867586613 1.184631237e-38
0.1480538547 -0.005737327039 0.2908768952 1.184631237e-38
0.1216301471 -0.09884867072 0.2752219439 1.184631237e-38
0.1152293235 -0.1576458514 0.2779474258 1.184631237e-38
0.0978371352 -0.2451645732 0.2738465667 1.184631237e-38
0.07357722521 -0.3690528572 0.2518216074 1.184631237e-38
0.07145892084 -0.4321299493 0.2532941699 1.184631237e-38
0.08970844746 -0.4606823027 0.2823057473 1.184631237e-38
0.1292789131 -0.4680254459 0.3228421211 1.184631237e-38
0.1799388677 -0.4567678869 0.3657378554 1.184631237e-38
0.1886103004 -0.4114989042 0.3778304458 1.184631237e-38
0.1842762083 -0.3541257381 0.368324697 1.184631237e-38
0.1908581406 -0.2916562557 0.361582756 1.184631237e-38
-0.2169046402 -0.4792085588 0.2934586406 1.184631237e-38
-0.2680411339 -0.4784547091 0.2426719517 1.184631237e-38
-0.2966666818 -0.4792838097 0.2035722882 1.184631237e-38
-0.3288925588 -0.48078385 0.1705985814 1.184631237e-38
-0.3646107316 -0.482811898 0.1404329985 1.184631237e-38
-0.3974851668 -0.4835821688 0.1085859388 1.184631237e-38
-0.431717813 -0.4771184325 0.06528174877 1.184631237e-38
-0.4314386547 -0.4452449977 0.04090245441 1.184631237e-38
-0.4247137904 -0.3781450391 0.04824554175 1.184631237e-38
-0.4217791855 -0.2090652734 0.09684875607 1.184631237e-38
-0.4398223758 -0.01572716236 0.1035807729 1.184631237e-38
-0.4219135344 0.07239011675 0.09056164324 1.184631237e-38
-0.3562251031 0.06754478067 0.1049511284 1.184631237e-38
-0.2897913158 0.06045579165 0.1320163459 1.184631237e-38
-0.2297090888 0.05894938856 0.1607931256 1.184631237e-38
-0.1526386738 0.05762458593 0.1891532093 1.184631237e-38
-0.1056152433 0.05208799988 0.2178335339 1.184631237e-38
-0.03933961689 0.05033860356 0.2430972308 1.184631237e-38
0.02191347815 0.05046632141 0.2643830478 1.184631237e-38
0.08537895977 0.05111122876 0.2781001925 1.184631237e-38
0.1441619694 0.02313066274 0.2936002612 1.184631237e-38
0.1430425346 -0.05398048833 0.2817743719 1.184631237e-38
0.1253777742 -0.1420619488 0.2746954262 1.184631237e-38
0.1121653318 -0.2180294544 0.2755809724 1.184631237e-38
0.0785471648 -0.3518356979 0.2463109493 1.184631237e-38
0.07559379935 -0.4210046828 0.246826008 1.184631237e-38
0.08671057224 -0.456831485 0.2683053911 1.184631237e-38
0.1287221909 -0.4650057256 0.3108586073 1.184631237e-38
0.1789209545 -0.4567352831 0.3541013896 1.184631237e-38
0.1967325211 -0.41790995 0.3734810054 1.184631237e-38
0.1934973747 -0.3607241809 0.3615489304 1.184631237e-38
0.2006273419 -0.297891587 0.3552590311 1.184631237e-38
-0.2013791651 -0.4792704582 0.2949467301 1.184631237e-38
-0.2529886365 -0.4783574045 0.2448700517 1.184631237e-38
-0.2806518376 -0.4790837169 0.2068521827 1.184631237e-38
-0.3112778068 -0.4802770019 0.1685088873 1.184631237e-38
-0.348354876 -0.4820249677 0.1407082677 1.184631237e-38
-0.3807098567 -0.4840893745 0.1068722159 1.184631237e-38
-0.4171613157 -0.4797961712 0.06017624959 1.184631237e-38
-0.4317503273 -0.4584817886 0.02735667303 1.184631237e-38
-0.4283283353 -0.4247566462 0.02217443474 1.184631237e-38
-0.4197300076 -0.2593177259 0.05845562369 1.184631237e-38
-0.4329704642 -0.08514565229 0.1006425023 1.184631237e-38
-0.4337664545 0.06015447527 0.08340353519 1.184631237e-38
-0.3848045766 0.06962410361 0.08620296419 1.184631237e-38
-0.3174825013 0.06378916651 0.1125913262 1.184631237e-38
-0.2603859901 0.06007965654 0.1425306201 1.184631237e-38
-0.1769432127 0.058496885 0.1705823243 1.184631237e-38
-0.1228386462 0.05460267514 0.1967104524 1.184631237e-38
-0.07059955597 0.04988754541 0.2213811278 1.184631237e-38
-0.0001562852412 0.04938065261 0.2500520647 1.184631237e-38
0.05665496364 0.05082691461 0.2688544989 1.184631237e-38
0.1209909618 0.03920412809 0.2857778668 1.184631237e-38
0.1594634503 -0.01103490591 0.2860895693 1.184631237e-38
0.1322617829 -0.1269865632 0.2678906024 1.184631237e-38
0.1234631091 -0.1924645603 0.2745509148 1.184631237e-38
0.0890083015 -0.3253718913 0.2469850928 1.184631237e-38
0.07879430056 -0.4099766612 0.2398417592 1.184631237e-38
0.08341483772 -0.4531576335 0.2544908524 1.184631237e-38
0.1270603687 -0.4616456628 0.2966763079 1.184631237e-38
0.1776520014 -0.456412524 0.3422198594 1.184631237e-38
0.2060133219 -0.4234144986 0.3649140894 1.184631237e-38
0.2031578869 -0.3670065999 0.3546313643 1.184631237e-38
0.2112604231 -0.3034799993 0.3489268124 1.184631237e-38
-0.1862628758 -0.4793543816 0.2957595289 1.184631237e-38
-0.2377281785 -0.4783379138 0.2460137904 1.184631237e-38
-0.2662049532 -0.478951633 0.2073983699 1.184631237e-38
-0.2959835827 -0.4801232517 0.1706389785 1.184631237e-38
-0.331351608 -0.4814174473 0.1407957226 1.184631237e-38
-0.3654315174 -0.4833118618 0.1039841622 1.184631237e-38
-0.4018142819 -0.4824184775 0.05540914834 1.184631237e-38
-0.4306908846 -0.4723285139 0.01378666237 1.184631237e-38
-0.42880705 -0.4384658933 0.006517957896 1.184631237e-38
-0.4180993438 -0.3370440006 0.03066652082 1.184631237e-38
-0.4214378595 -0.1633735895 0.07139360905 1.184631237e-38
-0.4371022284 0.02458954602 0.07488590479 1.184631237e-38
-0.4085462987 0.07107325643 0.07341141999 1.184631237e-38
-0.3451597989 0.06614709646 0.09254971147 1.184631237e-38
-0.284161061 0.06180407852 0.1243260503 1.184631237e-38
-0.2189764082 0.0593951121 0.1530725062 1.184631237e-38
-0.1430951804 0.05672021955 0.1772450805 1.184631237e-38
-0.09661379457 0.05136714131 0.2006989419 1.184631237e-38
-0.02769709751 0.04842600971 0.2270216048 1.184631237e-38
0.03298614174 0.04946192354 0.2589387298 1.184631237e-38
0.09329786897 0.05149034411 0.2767995 1.184631237e-38
0.1585146338 0.02279110998 0.2891088128 1.184631237e-38
0.1416772157 -0.08641781658 0.2661488056 1.184631237e-38
0.1303852648 -0.1722941697 0.2685267627 1.184631237e-38
0.1018261909 -0.2981419861 0.2476952821 1.184631237e-38
0.08102470636 -0.3993213773 0.233076334 1.184631237e-38
0.08030744642 -0.4508492053 0.2416667342 1.184631237e-38
0.1248857379 -0.4578243792 0.2827822864 1.184631237e-38
0.1763281822 -0.4561094344 0.3293176293 1.184631237e-38
0.214272067 -0.4283728302 0.3544158936 1.184631237e-38
0.2130316496 -0.3718163967 0.346452117 1.184631237e-38
0.2214140743 -0.3088889718 0.3405374587 1.184631237e-38
-0.1700573564 -0.4793944359 0.2954455018 1.478322936e-38
-0.2239278555 -0.4782970548 0.2460304201 1.478322936e-38
-0.2516577542 -0.4788714647 0.2078388035 1.478322936e-38
-0.2810464203 -0.4799166024 0.1711454839 1.478322936e-38
-0.3155186474 -0.4810965657 0.1399768591 1.478322936e-38
-0.3514117301 -0.4825228751 0.100053221 1.478322936e-38
-0.3869715631 -0.484501183 0.04808053374 1.478322936e-38
-0.422065258 -0.47961393 -8.604675531e-05 1.478322936e-38
-0.4286262691 -0.4517314136 -0.01179255545 1.478322936e-38
-0.4224025309 -0.3929769397 -0.004337590188 1.478322936e-38
-0.4123941064 -0.2354235053 0.03397624567 1.478322936e-38
-0.4334706664 -0.04116814584 0.06232282147 1.478322936e-38
-0.4274227619 0.07017155737 0.06060149893 1.478322936e-38
-0.3731285632 0.06795636564 0.07354273647 1.478322936e-38
-0.3071618676 0.06369746476 0.105461359 1.478322936e-38
-0.2523396909 0.06122938544 0.1341751963 1.478322936e-38
-0.1729016155 0.05850958079 0.1596270204 1.478322936e-38
-0.1147381067 0.053910546 0.1810554117 1.478322936e-38
-0.0638628453 0.04844262451 0.2054559439 1.478322936e-38
0.008720378391 0.04785544425 0.2357731164 1.478322936e-38
0.06650773436 0.05017591268 0.2677204013 1.478322936e-38
0.1340670586 0.04030124098 0.2811045349 1.478322936e-38
0.151042819 -0.03766587377 0.2670941949 1.478322936e-38
0.1320180148 -0.1573438048 0.2596469522 1.478322936e-38
0.1088856608 -0.2714031637 0.2435747832 1.478322936e-38
0.08386972547 -0.3861635327 0.2271174043 1.478322936e-38
0.07772058249 -0.4480505288 0.2297378778 1.478322936e-38
0.1227713078 -0.4535076022 0.2693006992 1.478322936e-38
0.1743898392 -0.4534593523 0.3146631122 1.478322936e-38
0.2208748013 -0.4331396818 0.3425142169 1.478322936e-38
0.2234614938 -0.3755481541 0.3372060061 1.478322936e-38
0.2304585874 -0.3133299351 0.3304826617 1.478322936e-38
-0.1540780962 -0.4793684483 0.2946172655 1.478322936e-38
-0.207754761 -0.4782981873 0.2463947237 1.478322936e-38
-0.2363516092 -0.4787368774 0.2077244371 1.478322936e-38
-0.2664783299 -0.4797774255 0.1712769717 1.478322936e-38
-0.3002610505 -0.4808536172 0.1399459541 1.478322936e-38
-0.3349825442 -0.4821698666 0.1002226621 1.478322936e-38
-0.372918427 -0.4837942719 0.0429280214 1.478322936e-38
-0.4083310962 -0.4817014337 -0.008805297315 1.478322936e-38
-0.4291821718 -0.4654542208 -0.03355364874 1.478322936e-38
-0.427352488 -0.423692584 -0.03576914594 1.478322936e-38
-0.4106521606 -0.288212806 0.004116429016 1.478322936e-38
-0.4205516875 -0.1180114076 0.03310892358 1.478322936e-38
-0.4323570728 0.04851686209 0.04805745929 1.478322936e-38
-0.395609051 0.06917805225 0.06050390378 1.478322936e-38
-0.3327926099 0.06519012898 0.0855332613 1.478322936e-38
-0.275768131 0.06312794238 0.1160590053 1.478322936e-38
-0.2241881043 0.05995237082 0.1420070529 1.478322936e-38
-0.1377687603 0.05598887056 0.1643836498 1.478322936e-38
-0.08261790872 0.05068632215 0.1854635328 1.478322936e-38
-0.01604117826 0.04707317799 0.2138838619 1.478322936e-38
0.04124187678 0.04792117327 0.2433187217 1.478322936e-38
0.1062735766 0.05081567913 0.2695906758 1.478322936e-38
0.155680567 0.004083447158 0.2680591941 1.478322936e-38
0.1311021298 -0.1275837123 0.2554803193 1.478322936e-38
0.1129591167 -0.2469956577 0.2374630868 1.478322936e-38
0.08398045599 -0.3709384799 0.2198399156 1.478322936e-38
0.07979404181 -0.4420234561 0.2212837785 1.478322936e-38
0.1208948046 -0.4493073821 0.2549669743 1.478322936e-38
0.1741916239 -0.4496564567 0.297957927 1.478322936e-38
0.2271322012 -0.4380202293 0.3317201436 1.478322936e-38
0.2330976874 -0.3798374832 0.3261808753 1.478322936e-38
0.2377774864 -0.3172126114 0.3178509176 1.478322936e-38
-0.1386245489 -0.4794285297 0.2941708863 1.478322936e-38
-0.1926542222 -0.4783893228 0.2456136942 1.478322936e-38
-0.2195005268 -0.4785910249 0.2078285068 1.478322936e-38
-0.2502831221 -0.4795558155 0.1711153388 1.478322936e-38
-0.2848897576 -0.4806747139 0.1395253837 1.478322936e-38
-0.3194405138 -0.4818404913 0.1006397158 1.478322936e-38
-0.3584703505 -0.4832157791 0.03872919455 1.478322936e-38
-0.3950413167 -0.4837489426 -0.01563408971 1.478322936e-38
-0.425577879 -0.4767421782 -0.05431780592 1.478322936e-38
-0.4280619323 -0.4388122857 -0.05852556601 1.478322936e-38
-0.4110949636 -0.3544555008 -0.03366487101 1.478322936e-38
-0.4094311297 -0.1919636726 -0.001224502921 1.478322936e-38
-0.4321833253 -0.002620764077 0.02870086953 1.478322936e-38
-0.4150314331 0.06940960139 0.03992357478 1.478322936e-38
-0.3622636497 0.06663411111 0.06279676408 1.478322936e-38
-0.2988169193 0.0635722056 0.09478060901 1.478322936e-38
-0.2525131404 0.06250797957 0.1236125678 1.478322936e-38
-0.1875108927 0.05798474699 0.1475830972 1.478322936e-38
-0.1024788767 0.05344263464 0.1688436717 1.478322936e-38
-0.04809143022 0.04701904207 0.1912401468 1.478322936e-38
0.01912181079 0.04561401159 0.2174053937 1.478322936e-38
0.07947278023 0.04846061021 0.2512299716 1.478322936e-38
0.1329808384 0.02999355644 0.2634606957 1.478322936e-38
0.1396485865 -0.07885356992 0.257227242 1.478322936e-38
0.1138416827 -0.2220177501 0.2336558551 1.478322936e-38
0.08310450613 -0.3529879153 0.2079116851 1.478322936e-38
0.08248613775 -0.4333812892 0.2114403695 1.478322936e-38
0.1185815185 -0.4449543655 0.2410003394 1.478322936e-38
0.1739957631 -0.4458749294 0.2814665437 1.478322936e-38
0.2314875126 -0.440823257 0.3194655478 1.478322936e-38
0.2412100434 -0.3841701746 0.3151247501 1.478322936e-38
0.244775027 -0.3218302131 0.3039765358 1.478322936e-38
-0.1245461553 -0.4795127809 0.2937803268 1.478322936e-38
-0.1782431155 -0.4785021245 0.2447945476 1.478322936e-38
-0.203687042 -0.4785566628 0.207991153 1.478322936e-38
-0.2335390449 -0.4793772995 0.1710835397 1.478322936e-38
-0.2689456344 -0.4803921282 0.1385578513 1.478322936e-38
-0.3041612804 -0.4815332294 0.100666061 1.478322936e-38
-0.3441836238 -0.4829440415 0.03922946379 1.478322936e-38
-0.3814926744 -0.4839224815 -0.0175209716 1.478322936e-38
-0.413839072 -0.4807127118 -0.06724059582 1.478322936e-38
-0.4293675423 -0.4542357326 -0.08148397505 1.478322936e-38
-0.4225537479 -0.4021970034 -0.07785904408 1.478322936e-38
-0.4031721652 -0.249919802 -0.0281323716 1.478322936e-38
-0.4222191274 -0.07141048461 -0.006705094129 1.478322936e-38
-0.4271571636 0.05871873349 0.0213114582 1.478322936e-38
-0.3836723268 0.06740321964 0.04085633904 1.478322936e-38
-0.3229086995 0.06373723596 0.070408687 1.478322936e-38
-0.2760693431 0.06305675954 0.1004652381 1.478322936e-38
-0.2249638289 0.06033226103 0.1277012378 1.478322936e-38
-0.1469729096 0.05565205961 0.1530657411 1.478322936e-38
-0.06691983342 0.04917722195 0.1711183339 1.478322936e-38
0.0003460813314 0.04388997704 0.1950704902 1.478322936e-38
0.05275090411 0.04622910172 0.2237858176 1.478322936e-38
0.1097611785 0.04604680091 0.2487591058 1.478322936e-38
0.1484686732 -0.03076405078 0.2585885823 1.478322936e-38
0.1115220338 -0.1927985549 0.2339632362 1.478322936e-38
0.08793024719 -0.3320599794 0.2043269426 1.478322936e-38
0.08459207416 -0.4186239839 0.201886788 1.478322936e-38
0.1142537445 -0.4404472411 0.2276096642 1.478322936e-38
0.1718391627 -0.4418842793 0.2661108077 1.478322936e-38
0.2313620895 -0.4402768314 0.3059633076 1.478322936e-38
0.2447607666 -0.3881013095 0.3021920919 1.478322936e-38
0.2506477535 -0.3264261186 0.2887051105 1.478322936e-38
-0.1124099344 -0.4796423018 0.2934781313 1.771655483e-38
-0.1634030342 -0.4786227643 0.2442049086 1.771655483e-38
-0.1877326518 -0.4785253704 0.2071767896 1.771655483e-38
-0.2184945792 -0.4793124795 0.1708868593 1.771655483e-38
-0.2533837557 -0.4801805317 0.1371799409 1.771655483e-38
-0.2881095111 -0.4812220037 0.09940423071 1.771655483e-38
-0.3296958804 -0.4826064408 0.03915844858 1.771655483e-38
-0.3678086102 -0.4834721386 -0.01922466233 1.771655483e-38
-0.4009432197 -0.4828411341 -0.07255272567 1.771655483e-38
-0.4289216697 -0.4688876569 -0.1010282636 1.771655483e-38
-0.4270836115 -0.4239674211 -0.1037965417 1.771655483e-38
-0.4018346965 -0.2999931574 -0.06251254678 1.771655483e-38
-0.4148500562 -0.1409864873 -0.04232120886 1.771655483e-38
-0.4310573339 0.03220010549 -0.0003771558404 1.771655483e-38
-0.405203104 0.06724958867 0.01263212785 1.771655483e-38
-0.3542778492 0.06463416666 0.04474599659 1.771655483e-38
-0.2999533117 0.06308414787 0.07646832615 1.771655483e-38
-0.2529892921 0.06195177883 0.1020079106 1.771655483e-38
-0.1947628409 0.05746627599 0.1327923834 1.771655483e-38
-0.1040521711 0.05138603598 0.1533433199 1.771655483e-38
-0.02668526024 0.04430776089 0.174226746 1.771655483e-38
0.03386816382 0.04459332675 0.1989242136 1.771655483e-38
0.08618324995 0.04773148149 0.2276036441 1.771655483e-38
0.1388154775 0.002527013421 0.2556504309 1.771655483e-38
0.1217277348 -0.1340218335 0.2424753904 1.771655483e-38
0.09057633579 -0.3042409718 0.2030725479 1.771655483e-38
0.08536365628 -0.4027884007 0.1917816252 1.771655483e-38
0.1117286384 -0.4369409084 0.2122254223 1.771655483e-38
0.1683826894 -0.4374570251 0.2505390644 1.771655483e-38
0.2288454771 -0.4373557866 0.2910372317 1.771655483e-38
0.2469673753 -0.3922430873 0.2863489687 1.771655483e-38
0.2549632788 -0.3300069571 0.2727198005 1.771655483e-38
-0.1002787203 -0.4797720611 0.2931728959 1.771655483e-38
-0.1498449296 -0.4787518084 0.2438720018 1.771655483e-38
-0.1749479026 -0.4785504639 0.2051054239 1.771655483e-38
-0.2039271891 -0.479246676 0.1704714 1.771655483e-38
-0.2385991514 -0.4800204039 0.1359237581 1.771655483e-38
-0.2734187245 -0.4809702933 0.09773306549 1.771655483e-38
-0.3140243888 -0.4822114706 0.04203545302 1.771655483e-38
-0.3530050516 -0.4832672775 -0.01895785332 1.771655483e-38
-0.3876385093 -0.4840461314 -0.07512584329 1.771655483e-38
-0.4186136127 -0.4766636491 -0.1179973036 1.771655483e-38
-0.4277388752 -0.4399588108 -0.1241188943 1.771655483e-38
-0.409907937 -0.3584514558 -0.1031334698 1.771655483e-38
-0.4077860117 -0.2100653946 -0.06689222157 1.771655483e-38
-0.4271908402 -0.02537363023 -0.03534201905 1.771655483e-38
-0.4213044941 0.06294039637 -0.01344289631 1.771655483e-38
-0.374720782 0.06431288272 0.01163126901 1.771655483e-38
-0.3257731497 0.06313551217 0.04864887893 1.771655483e-38
-0.276496917 0.06220906228 0.07883763313 1.771655483e-38
-0.2222578824 0.05954935402 0.1054590195 1.771655483e-38
-0.1500390917 0.05363821238 0.1343751252 1.771655483e-38
-0.06545774639 0.04574217647 0.1529738754 1.771655483e-38
0.01535116695 0.04378668219 0.1761776507 1.771655483e-38
0.06857769191 0.04726020247 0.2063247114 1.771655483e-38
0.1229980439 0.02345211059 0.2446863502 1.771655483e-38
0.1309197396 -0.08101094514 0.2475376129 1.771655483e-38
0.08936734498 -0.277661413 0.2024115175 1.771655483e-38
0.08522720635 -0.3872514665 0.1810362935 1.771655483e-38
0.1080680192 -0.4331349134 0.1938545257 1.771655483e-38
0.1637713611 -0.4327615201 0.2323415726 1.771655483e-38
0.2248253524 -0.4323622584 0.2716163397 1.771655483e-38
0.24956882 -0.3964366615 0.2703794837 1.771655483e-38
0.2592555881 -0.3334915936 0.2565659285 1.771655483e-38
-0.08766824007 -0.4798226953 0.2931320667 1.771655483e-38
-0.1383744329 -0.4788550735 0.2429703325 1.771655483e-38
-0.1642997861 -0.4785637856 0.2028887719 1.771655483e-38
-0.1894920766 -0.4791519642 0.1691473722 1.771655483e-38
-0.2234211117 -0.4798821807 0.1352784932 1.771655483e-38
-0.2578918338 -0.4808635712 0.09648627043 1.771655483e-38
-0.2972543538 -0.4819691479 0.04565713182 1.771655483e-38
-0.3358368278 -0.4830648899 -0.01798813045 1.771655483e-38
-0.3731663525 -0.4839273691 -0.07588361204 1.771655483e-38
-0.4052937329 -0.4809717536 -0.1221437007 1.771655483e-38
-0.4250815511 -0.4552054405 -0.1414552033 1.771655483e-38
-0.4201390147 -0.4078261852 -0.1401554197 1.771655483e-38
-0.4017021358 -0.2647212446 -0.09951080382 1.771655483e-38
-0.4200289845 -0.09408171475 -0.08304867148 1.771655483e-38
-0.4244538844 0.04811698943 -0.03601402417 1.771655483e-38
-0.3938647807 0.06466128677 -0.02381140739 1.771655483e-38
-0.3478132486 0.06267582625 0.01485585049 1.771655483e-38
-0.299919039 0.06235807389 0.05278379843 1.771655483e-38
-0.2484562993 0.06110779196 0.08037784696 1.771655483e-38
-0.1798340976 0.056367971 0.1116667092 1.771655483e-38
-0.1077237576 0.04866427928 0.1344024688 1.771655483e-38
-0.02906668931 0.04413125664 0.1558637768 1.771655483e-38
0.04989060014 0.04569008201 0.1859845817 1.771655483e-38
0.1065662205 0.03829748183 0.2291528285 1.771655483e-38
0.1349576861 -0.04128158092 0.2447300255 1.771655483e-38
0.08858861029 -0.2493854761 0.2004235238 1.771655483e-38
0.08118163794 -0.3711804152 0.1691138297 1.771655483e-38
0.1042809784 -0.4294162989 0.1729543805 1.771655483e-38
0.159234643 -0.4275126457 0.2113356441 1.771655483e-38
0.2198652774 -0.4280448556 0.2488589585 1.771655483e-38
0.2532966435 -0.4002940655 0.2545547783 1.771655483e-38
0.2636557817 -0.3369202614 0.2404190153 1.771655483e-38
-0.07736937702 -0.4796021283 0.2923498452 1.771655483e-38
-0.1277557015 -0.4789445698 0.2421065867 1.771655483e-38
-0.1547036469 -0.4786036611 0.2007952631 1.771655483e-38
-0.1764698327 -0.4790913761 0.1678297371 1.771655483e-38
-0.2077409178 -0.4797452092 0.135220021 1.771655483e-38
-0.2422798574 -0.4807662964 0.09517411888 1.771655483e-38
-0.2810257077 -0.481831044 0.04782570153 1.771655483e-38
-0.3196718693 -0.4828747213 -0.01653357595 1.771655483e-38
-0.355219692 -0.4837554395 -0.07449857891 1.771655483e-38
-0.3903107643 -0.4839616716 -0.1232878715 1.771655483e-38
-0.4209963679 -0.4707162082 -0.1566200256 1.771655483e-38
-0.4251930714 -0.4268394113 -0.166250959 1.771655483e-38
-0.4053813815 -0.3319838047 -0.1373323649 1.771655483e-38
-0.413819313 -0.1630076319 -0.1128399372 1.771655483e-38
-0.4288209975 0.01686472446 -0.06981162727 1.771655483e-38
-0.4107196927 0.06457630545 -0.05193268135 1.771655483e-38
-0.3667132556 0.06271637231 -0.02638084814 1.771655483e-38
-0.3250490129 0.06266949326 0.01752664335 1.771655483e-38
-0.270801276 0.06164663285 0.05330238491 1.771655483e-38
-0.2079062164 0.05778648704 0.08544263244 1.771655483e-38
-0.1353278011 0.05168498307 0.1154559404 1.771655483e-38
-0.07071875036 0.04513334483 0.1387907118 1.771655483e-38
0.02167739347 0.04416582733 0.165718928 1.771655483e-38
0.08781014383 0.04102117568 0.212292403 1.771655483e-38
0.1312252283 -0.01196762174 0.2385288328 1.771655483e-38
0.1016010344 -0.1956583261 0.2048311979 1.771655483e-38
0.07798925042 -0.3524239957 0.1585063934 1.771655483e-38
0.1016390324 -0.4239559472 0.1522263885 1.771655483e-38
0.1546929628 -0.4227995872 0.1892973781 1.771655483e-38
0.2160719931 -0.4236442745 0.2257710546 1.771655483e-38
0.2565375566 -0.4040165544 0.2377844453 1.771655483e-38
0.2667296529 -0.341490984 0.2243163288 1.771655483e-38
-0.06800043583 -0.4793795347 0.2901307642 2.06466517e-38
-0.1169440299 -0.4790566564 0.2416131198 2.06466517e-38
-0.1453940123 -0.4786561131 0.1992933154 2.06466517e-38
-0.1642701179 -0.4789617062 0.1690943986 2.06466517e-38
-0.1952052265 -0.4796708226 0.1329246908 2.06466517e-38
-0.2265907079 -0.4807136059 0.09349806607 2.06466517e-38
-0.2654413581 -0.481783241 0.04611511156 2.06466517e-38
-0.3041347563 -0.4828199744 -0.01457338035 2.06466517e-38
-0.3375039697 -0.4836385846 -0.0729188323 2.06466517e-38
-0.3730651438 -0.4840491116 -0.1222516 2.06466517e-38
-0.4062983692 -0.480833292 -0.1661141962 2.06466517e-38
-0.4249456227 -0.4444241822 -0.1853263974 2.06466517e-38
-0.4167267382 -0.3874858618 -0.1751372069 2.06466517e-38
-0.4061369598 -0.2265154123 -0.1425375044 2.06466517e-38
-0.4238301516 -0.04622947425 -0.1183705926 2.06466517e-38
-0.4188907146 0.05579455942 -0.07715235651 2.06466517e-38
-0.3844997287 0.06404551119 -0.06134165451 2.06466517e-38
-0.3404546678 0.06241049618 -0.02034327388 2.06466517e-38
-0.2909962535 0.06214248389 0.01987948641 2.06466517e-38
-0.2351618111 0.05942671746 0.05589088425 2.06466517e-38
-0.1639828086 0.05417533964 0.09305429459 2.06466517e-38
-0.09335124493 0.04762714356 0.122824803 2.06466517e-38
-0.02648891509 0.0440267995 0.1452091187 2.06466517e-38
0.06195248291 0.04142837971 0.194649905 2.06466517e-38
0.1196555644 0.0057137236 0.2322559506 2.06466517e-38
0.1124757677 -0.1504946053 0.2083477825 2.06466517e-38
0.07971838117 -0.332896173 0.1531432867 2.06466517e-38
0.1008550823 -0.4089550078 0.1378768831 2.06466517e-38
0.1507560313 -0.4183728397 0.1666581482 2.06466517e-38
0.2124899477 -0.4195480645 0.2022811323 2.06466517e-38
0.2590981424 -0.4076007307 0.2209766358 2.06466517e-38
0.2684521079 -0.3460721076 0.2072165012 2.06466517e-38
-0.05778246745 -0.4791733027 0.2888539135 2.06466517e-38
-0.1057255715 -0.4791385233 0.2407821268 2.06466517e-38
-0.1364188194 -0.4786590338 0.2002201527 2.06466517e-38
-0.1550779343 -0.4789009094 0.1706757694 2.06466517e-38
-0.1825267822 -0.4796073437 0.1303388327 2.06466517e-38
-0.2134893239 -0.4806984663 0.09122401476 2.06466517e-38
-0.2500467598 -0.4817455709 0.04417994618 2.06466517e-38
-0.2885603309 -0.4827789962 -0.01217710227 2.06466517e-38
-0.3215815127 -0.4834698439 -0.07047435641 2.06466517e-38
-0.3565780222 -0.4839122891 -0.1211110502 2.06466517e-38
-0.3896140158 -0.4842597544 -0.1650066972 2.06466517e-38
-0.4209711254 -0.4627370238 -0.1980204582 2.06466517e-38
-0.4230822623 -0.416790843 -0.2053555697 2.06466517e-38
-0.4061345458 -0.2986156642 -0.1768269539 2.06466517e-38
-0.4198292792 -0.1118813828 -0.1577204615 2.06466517e-38
-0.4267331958 0.04352078587 -0.1074038297 2.06466517e-38
-0.4029385149 0.0646372214 -0.0936280638 2.06466517e-38
-0.3540417254 0.06275921315 -0.05589686707 2.06466517e-38
-0.3104670942 0.06237118691 -0.01069659367 2.06466517e-38
-0.2570099533 0.06122937053 0.02416579984 2.06466517e-38
-0.1924618483 0.05620691925 0.06643985212 2.06466517e-38
-0.1193720251 0.04969307035 0.1025940776 2.06466517e-38
-0.05710994825 0.04516459256 0.1272137314 2.06466517e-38
0.02567179874 0.04216394573 0.1733742356 2.06466517e-38
0.1014200002 0.02172318846 0.2231241316 2.06466517e-38
0.1236729473 -0.109974198 0.210539028 2.06466517e-38
0.0821813941 -0.3159424067 0.1494704038 2.06466517e-38
0.09648261964 -0.3946024776 0.1272018254 2.06466517e-38
0.1484247297 -0.4157435596 0.1455460191 2.06466517e-38
0.2089195549 -0.4160799384 0.1794651151 2.06466517e-38
0.2608728111 -0.4116155803 0.204141438 2.06466517e-38
0.2703014016 -0.3519631326 0.1873160005 2.06466517e-38
-0.04690374061 -0.4790500998 0.2868735194 2.06466517e-38
-0.09421339631 -0.4792518318 0.2404244989 2.06466517e-38
-0.1271240413 -0.4786329567 0.2023469806 2.06466517e-38
-0.1461017877 -0.4788363874 0.1725953817 2.06466517e-38
-0.1699828953 -0.4796017408 0.1281213015 2.06466517e-38
-0.2009405643 -0.4806308448 0.08806783706 2.06466517e-38
-0.2354013622 -0.4816994369 0.04306544736 2.06466517e-38
-0.2716424167 -0.4826898575 -0.008860763162 2.06466517e-38
-0.3064888418 -0.4833931029 -0.06827890873 2.06466517e-38
-0.3399541676 -0.4838389456 -0.1196673065 2.06466517e-38
-0.3728262782 -0.4838945568 -0.1634722054 2.06466517e-38
-0.4062675238 -0.4754390717 -0.2086153924 2.06466517e-38
-0.4232256114 -0.4365865588 -0.2258406281 2.06466517e-38
-0.4133578837 -0.3658927083 -0.213215664 2.06466517e-38
-0.4130498469 -0.1751883626 -0.190374285 2.06466517e-38
-0.4307662845 0.00499561429 -0.1553228945 2.06466517e-38
-0.4176177979 0.06303309649 -0.1201957017 2.06466517e-38
-0.3702754974 0.06337014586 -0.09719263017 2.06466517e-38
-0.325509578 0.06291312724 -0.04574620351 2.06466517e-38
-0.2748632431 0.06194838136 -0.00286699459 2.06466517e-38
-0.2171461731 0.05840893835 0.03494979069 2.06466517e-38
-0.1465416402 0.05225210637 0.07758373022 2.06466517e-38
-0.08205138147 0.04681640118 0.1113717258 2.06466517e-38
-0.0008172877133 0.0427948907 0.1493739486 2.06466517e-38
0.07500487566 0.03170356899 0.2031882852 2.06466517e-38
0.1279906034 -0.0704126507 0.2099527717 2.06466517e-38
0.09192958474 -0.2912512124 0.1481643319 2.06466517e-38
0.09183943272 -0.3814856708 0.1151931137 2.06466517e-38
0.1441365778 -0.4158652425 0.1240111291 2.06466517e-38
0.205218941 -0.415387243 0.1553970128 2.06466517e-38
0.2600007951 -0.4137288928 0.1795439124 2.06466517e-38
0.2722986341 -0.3585198522 0.1614761353 2.06466517e-38
-0.0375549458 -0.4789094329 0.2848037481 2.06466517e-38
-0.08203774691 -0.4793598652 0.2414701581 2.06466517e-38
-0.116580233 -0.4786695838 0.2038610578 2.06466517e-38
-0.1371794194 -0.4789125919 0.1714414358 2.06466517e-38
-0.1575457603 -0.4795646369 0.1258124113 2.06466517e-38
-0.1884854734 -0.4804797173 0.0850161314 2.06466517e-38
-0.2216194123 -0.481571734 0.04061000049 2.06466517e-38
-0.2551585436 -0.4825457931 -0.007615365088 2.06466517e-38
-0.2914454341 -0.4832924008 -0.0666333586 2.06466517e-38
-0.3233174682 -0.4836620688 -0.1171935797 2.06466517e-38
-0.3549508154 -0.4830249846 -0.1625438035 2.06466517e-38
-0.3885783255 -0.4805840552 -0.2093700916 2.06466517e-38
-0.4181278646 -0.4549172819 -0.2385157347 2.06466517e-38
-0.4165307581 -0.402618736 -0.2405698597 2.06466517e-38
-0.4065511525 -0.2544370294 -0.2213811576 2.06466517e-38
-0.4271923006 -0.05893435329 -0.2003932744 2.06466517e-38
-0.4265307486 0.05422856659 -0.1494611353 2.06466517e-38
-0.3887497187 0.063968651 -0.1271556467 2.06466517e-38
-0.3402916789 0.06377971917 -0.08235421777 2.06466517e-38
-0.2935033441 0.06231696159 -0.03492677584 2.06466517e-38
-0.2381290793 0.06014535576 0.003164082766 2.06466517e-38
-0.1735360175 0.05474960059 0.05017324165 2.06466517e-38
-0.1052379161 0.0493920967 0.09110338986 2.06466517e-38
-0.03207727894 0.04360216111 0.1248476654 2.06466517e-38
0.04801403731 0.03448332101 0.1747011691 2.06466517e-38
0.1260079443 -0.03436265886 0.2035713494 2.06466517e-38
0.1066319495 -0.2495304346 0.1437541395 2.06466517e-38
0.0926733762 -0.3704768717 0.09959244728 2.06466517e-38
0.1335549504 -0.4166298509 0.09738691151 2.06466517e-38
0.2025906146 -0.4154636264 0.1284578741 2.06466517e-38
0.2596621215 -0.416637063 0.1557651907 2.06466517e-38
0.2755301297 -0.3655612171 0.1369702667 2.06466517e-38
-0.0251876004 -0.4785981774 0.2848654687 2.348204041e-38
-0.07029934227 -0.4792071581 0.2418069243 2.348204041e-38
-0.1053544879 -0.4787353873 0.2041435093 2.348204041e-38
-0.1262749881 -0.4790287018 0.1679714173 2.348204041e-38
-0.1468767077 -0.4796106517 0.1219995469 2.348204041e-38
-0.1758091152 -0.4803716838 0.08260885626 2.348204041e-38
-0.2082820982 -0.4814213514 0.03866333142 2.348204041e-38
-0.2425637841 -0.4823775589 -0.009626995772 2.348204041e-38
-0.2746131718 -0.4831025004 -0.06330895424 2.348204041e-38
-0.3070884347 -0.4831549227 -0.1149050295 2.348204041e-38
-0.3372808993 -0.4819149375 -0.1612493843 2.348204041e-38
-0.3710324168 -0.4804625213 -0.2073796988 2.348204041e-38
-0.4053556919 -0.4689905643 -0.248645246 2.348204041e-38
-0.4189764261 -0.4288523197 -0.2647361159 2.348204041e-38
-0.4073431194 -0.342412591 -0.249024123 2.348204041e-38
-0.4209184051 -0.1242362559 -0.2370917201 2.348204041e-38
-0.4344207346 0.03154432029 -0.1937829107 2.348204041e-38
-0.4090079069 0.06464215368 -0.1549485624 2.348204041e-38
-0.3552776277 0.06399258226 -0.1176782548 2.348204041e-38
-0.3073958457 0.06334253401 -0.07091787457 2.348204041e-38
-0.2573046088 0.06149340421 -0.03266977146 2.348204041e-38
-0.1960456222 0.05741301924 0.01045341045 2.348204041e-38
-0.1279390603 0.05233036727 0.06288559735 2.348204041e-38
-0.06024603918 0.04521668702 0.1025657356 2.348204041e-38
0.03306335211 0.03766667098 0.1451893747 2.348204041e-38
0.1061552614 -0.005652815104 0.1876907051 2.348204041e-38
0.1082748324 -0.2077186108 0.1401266307 2.348204041e-38
0.09438148141 -0.3566987813 0.08158364892 2.348204041e-38
0.1265358925 -0.4153122604 0.0751324743 2.348204041e-38
0.1973230839 -0.4162217081 0.1005190164 2.348204041e-38
0.256973207 -0.4172474742 0.1286158562 2.348204041e-38
0.2795664966 -0.3720901012 0.1111194789 2.348204041e-38
-0.01306254789 -0.4782618582 0.2844642401 2.348204041e-38
-0.05687141791 -0.478829056 0.2414012104 2.348204041e-38
-0.09434093535 -0.4787404537 0.2037534416 2.348204041e-38
-0.1149391532 -0.479150176 0.1641125828 2.348204041e-38
-0.1357407123 -0.4797004759 0.1181056052 2.348204041e-38
-0.1618068516 -0.480320245 0.0796481818 2.348204041e-38
-0.1950617731 -0.481277585 0.03694709018 2.348204041e-38
-0.2301743925 -0.482208997 -0.01108473912 2.348204041e-38
-0.2607447505 -0.4822247326 -0.05836792663 2.348204041e-38
-0.2906711996 -0.481659174 -0.1129848659 2.348204041e-38
-0.3202733397 -0.4805106223 -0.1599283367 2.348204041e-38
-0.3529936671 -0.4787801504 -0.2056444734 2.348204041e-38
-0.3881591558 -0.475917846 -0.2515445352 2.348204041e-38
-0.4144907296 -0.4482038319 -0.2795227766 2.348204041e-38
-0.4095969796 -0.3877447546 -0.275837779 2.348204041e-38
-0.4146936536 -0.1875155866 -0.2659534216 2.348204041e-38
