# .PCD v0.7 - Point Cloud Data file format
VERSION 0.7
FIELDS x y z rgb
SIZE 4 4 4 4
TYPE F F F F
COUNT 1 1 1 1
WIDTH 848
HEIGHT 1
VIEWPOINT 0 0 0 1 0 0 0
POINTS 848
DATA ascii
0.1334227473 -0.3499000072 0.1136150211 2.341805152e-38
0.1351014078 -0.324944675 0.1134360358 9.871979525e-40
0.1261373162 -0.2847082317 0.1130099893 9.871979525e-40
0.1232882589 -0.338234812 0.114594996 2.341805152e-38
0.1232555062 -0.2993864417 0.1131561399 2.341805152e-38
0.1239517927 -0.3132434189 0.1123987585 9.871979525e-40
0.0978539288 -0.4216490984 0.1002421975 9.871979525e-40
0.08727476001 -0.45574826 0.1016435027 9.871979525e-40
0.09532105178 -0.4448387027 0.1005597711 2.341805152e-38
0.09779840708 -0.434440285 0.1019370481 9.871979525e-40
0.09156394005 -0.4123109877 0.1002220809 9.871979525e-40
0.0876647532 -0.439176172 0.1023055241 9.871979525e-40
0.08796396852 -0.4237288833 0.100996457 2.341805152e-38
0.08950410783 -0.4297895432 0.1002594903 2.341805152e-38
0.2744166851 -0.1122158691 0.1130651236 9.871979525e-40
0.2605346143 -0.175181374 0.1135520488 9.871979525e-40
0.2708854973 -0.16063869 0.1135176122 9.871979525e-40
0.2723744214 -0.1368061155 0.1133259609 9.871979525e-40
0.2637223899 -0.09850364923 0.1129300296 9.871979525e-40
0.2607854307 -0.1496182382 0.11448773 2.341805152e-38
0.2608737946 -0.1121795475 0.1130949035 9.871979525e-40
0.261567831 -0.1255613267 0.1123161316 9.871979525e-40
0.1522491276 -0.06485444307 0.1083483696 9.871979525e-40
0.1377524883 -0.1302541196 0.1088717505 9.871979525e-40
0.1483849138 -0.115016371 0.1088172346 2.341805152e-38
0.1500208676 -0.09030394256 0.1086892039 2.341805152e-38
0.141031161 -0.0504700318 0.1082265228 2.341805152e-38
0.1381503642 -0.1034903824 0.1098238155 9.871979525e-40
0.1381502599 -0.06495170295 0.1084004119 2.341805152e-38
0.1388408095 -0.0787063688 0.107662186 2.341805152e-38
0.09954475611 -0.222103104 0.3749870062 9.871979525e-40
0.0955914706 -0.2525047064 0.3735260069 2.341805152e-38
0.1001324132 -0.2461965382 0.3747600019 9.871979525e-40
0.1023315266 -0.2343791127 0.3717130423 9.871979525e-40
0.09952251613 -0.2162937671 0.3738282621 9.871979525e-40
0.09339284897 -0.2413699329 0.3738913536 9.871979525e-40
0.09702469409 -0.2212903202 0.3716066778 9.871979525e-40
0.09727276117 -0.2288669795 0.3718317747 9.871979525e-40
0.0744048059 -0.01153753884 0.3035491705 2.341805152e-38
0.07556952536 -0.04513991624 0.275372982 2.341805152e-38
0.07394807041 -0.03637467325 0.2962924838 2.341805152e-38
0.07502509654 -0.02422705851 0.2519704401 2.341805152e-38
0.07526001334 -0.006850955077 0.2643567026 2.341805152e-38
0.07528100908 -0.0298406668 0.2722534835 2.341805152e-38
0.07577358931 -0.01325859874 0.2410737425 9.871979525e-40
0.0758087188 -0.01901108958 0.2813189328 2.341805152e-38
0.07592011243 -0.08734688163 0.2853019834 9.871979525e-40
0.07367576659 -0.1488416195 0.2757372558 2.341805152e-38
0.07403171062 -0.1353066266 0.2852538824 2.341805152e-38
0.07546919584 -0.1118347794 0.2671023905 9.871979525e-40
0.07624030858 -0.07544238865 0.2738220394 9.871979525e-40
0.07500337809 -0.1241885275 0.2762277126 9.871979525e-40
0.07449214906 -0.08742882311 0.265131861 9.871979525e-40
0.0755097121 -0.1003233492 0.2753866613 9.871979525e-40
0.2240899056 -0.1245532855 0.100579679 2.341805152e-38
0.2105115354 -0.1881475151 0.1010125205 9.871979525e-40
0.2205163091 -0.173465699 0.1011543721 2.341805152e-38
0.2220585048 -0.1493884474 0.1007323712 9.871979525e-40
0.2137348652 -0.1107348204 0.1005176008 2.341805152e-38
0.2108682543 -0.162304312 0.1020011678 9.871979525e-40
0.2109072357 -0.1245458573 0.1005715951 2.341805152e-38
0.2116221189 -0.1380264014 0.09970144182 9.871979525e-40
0.1009201482 -0.08734688163 0.2728019953 9.871979525e-40
0.09867580235 -0.1488416195 0.2632372677 9.871979525e-40
0.09903174639 -0.1353066266 0.2727538943 2.341805152e-38
0.1004692316 -0.1118347794 0.2546024024 9.871979525e-40
0.1012403443 -0.07544238865 0.2613220513 2.341805152e-38
0.1000034139 -0.1241885275 0.2637277246 9.871979525e-40
0.09949218482 -0.08742882311 0.2526318729 9.871979525e-40
0.1005097479 -0.1003233492 0.2628866732 9.871979525e-40
0.3707006872 -0.1889404655 0.09434248507 2.341805152e-38
0.3568067253 -0.2530918717 0.09480819851 2.341805152e-38
0.3670334518 -0.2382352799 0.09487719834 2.341805152e-38
0.3686031401 -0.2139636874 0.09456340224 2.341805152e-38
0.3600454628 -0.1749432087 0.09425796568 9.871979525e-40
0.3571723998 -0.2269621491 0.09578281641 9.871979525e-40
0.3571996391 -0.1889662445 0.09435740113 9.871979525e-40
0.3579058945 -0.2025307715 0.09353391826 9.871979525e-40
0.1018461511 -0.03699269146 0.1137733385 2.341805152e-38
0.08906573057 -0.1034156382 0.113806501 9.871979525e-40
0.09787464142 -0.0879701525 0.1146686673 2.341805152e-38
0.09998608381 -0.06281332672 0.1133316532 2.341805152e-38
0.09254502505 -0.02262108959 0.1138239726 2.341805152e-38
0.08968085051 -0.07613178343 0.114991188 2.341805152e-38
0.08984021097 -0.0372319892 0.1132429391 2.341805152e-38
0.09052022547 -0.05105826259 0.1122872084 2.341805152e-38
0.07691755891 -0.1362169534 0.1513342261 2.341805152e-38
0.07407023758 -0.2012016326 0.1385546923 9.871979525e-40
0.0749489367 -0.1866959482 0.1499871463 2.341805152e-38
0.07633848488 -0.1619964093 0.1273377091 2.341805152e-38
0.07645793259 -0.1232423559 0.1348334104 2.341805152e-38
0.07531781495 -0.1748551428 0.1384269297 9.871979525e-40
0.07472008467 -0.1364325285 0.1239011064 2.341805152e-38
0.07568260282 -0.1499037445 0.1393277645 9.871979525e-40
0.3792534173 -0.1013394147 0.1008607447 9.871979525e-40
0.3676515222 -0.1539892852 0.1015531272 2.341805152e-38
0.377017498 -0.1422384977 0.1014118195 9.871979525e-40
0.377592206 -0.1222948804 0.1013014466 2.341805152e-38
0.3703022897 -0.09041053057 0.1009012759 2.341805152e-38
0.3676019609 -0.1333856136 0.1024593413 9.871979525e-40
0.3675425649 -0.1008486599 0.1013906598 9.871979525e-40
0.3684083223 -0.1125617027 0.1001840606 2.341805152e-38
0.0765843913 -0.4116695523 0.1271562278 2.341805152e-38
0.07291044295 -0.4253970087 0.1196520925 9.871979525e-40
0.07635404915 -0.4179603755 0.1225159764 9.871979525e-40
0.07882042229 -0.4161240458 0.1149869412 2.341805152e-38
0.07768041641 -0.4054760933 0.1148745418 2.341805152e-38
0.07366931438 -0.415325284 0.1193354428 2.341805152e-38
0.07425795496 -0.4142607749 0.1084457189 2.341805152e-38
0.07623423636 -0.4156321883 0.120202601 2.341805152e-38
0.1600652635 -0.2983759642 0.3723694682 2.341805152e-38
0.1579479277 -0.3018616736 0.3617827296 2.341805152e-38
0.1665541381 -0.2993035913 0.3715836406 2.341805152e-38
0.1679850072 -0.2999616861 0.3613289297 2.341805152e-38
0.1616021842 -0.2958913445 0.3591488302 2.341805152e-38
0.1520187855 -0.2992725074 0.3633452654 2.341805152e-38
0.1586361676 -0.2985098958 0.3493871987 9.871979525e-40
0.1607335806 -0.2945739031 0.3604113162 2.341805152e-38
0.1369870007 -0.3368026018 0.1006085351 9.871979525e-40
0.1228749454 -0.402493149 0.1010715961 2.341805152e-38
0.1331181079 -0.387206912 0.1011993214 9.871979525e-40
0.1347925663 -0.3623738587 0.1008293405 9.871979525e-40
0.1261761934 -0.3224064708 0.100559257 9.871979525e-40
0.1233620718 -0.3756078482 0.1020755693 2.341805152e-38
0.1233241111 -0.3369167745 0.1006160825 9.871979525e-40
0.124034889 -0.3507125974 0.09978335351 9.871979525e-40
0.3243820071 -0.06214319542 0.1130433083 2.341805152e-38
0.3105469346 -0.1255156398 0.1135143563 2.341805152e-38
0.3208080232 -0.1108682901 0.1135362685 2.341805152e-38
0.3223293126 -0.08688265085 0.113272436 9.871979525e-40
0.3137555718 -0.0483398512 0.1129322425 9.871979525e-40
0.31084463 -0.09975872189 0.1144675091 9.871979525e-40
0.3109120131 -0.06212910637 0.1130582318 9.871979525e-40
0.3116113245 -0.07557242364 0.1122564971 2.341805152e-38
0.09215985239 -0.07043001056 0.1861943305 9.871979525e-40
0.0956042856 -0.1144132912 0.1637876034 9.871979525e-40
0.09312411398 -0.1051952243 0.1809478551 9.871979525e-40
0.09532736987 -0.08792642504 0.1450995654 9.871979525e-40
0.09779749811 -0.06277947873 0.1568957567 9.871979525e-40
0.09412518889 -0.09704869986 0.1616665274 9.871979525e-40
0.09702973068 -0.07028140873 0.1379624903 2.341805152e-38
0.09694737196 -0.07979854941 0.1670466959 9.871979525e-40
0.0791028738 0.04940979555 0.1472420096 2.341805152e-38
0.07480356097 0.02677345276 0.1330260336 9.871979525e-40
0.07864703983 0.03279168531 0.1420647353 9.871979525e-40
0.07959024608 0.04109501094 0.1220047027 9.871979525e-40
0.07572308183 0.05243088305 0.1270468831 2.341805152e-38
0.07383203506 0.03699768707 0.1316674501 9.871979525e-40
0.07527218014 0.04864358902 0.1147895753 9.871979525e-40
0.07527811825 0.04427716509 0.1357317865 9.871979525e-40
0.0883852765 -0.3469908237 0.382409662 2.341805152e-38
0.08715245128 -0.3504043221 0.3641865253 2.341805152e-38
0.09300670773 -0.3481547832 0.3733376265 9.871979525e-40
0.09410842508 -0.3485073447 0.3546738029 2.341805152e-38
0.08899140358 -0.3447604775 0.3557350636 2.341805152e-38
0.08198256791 -0.347751677 0.3630169928 2.341805152e-38
0.08718197793 -0.3468284011 0.3418968618 2.341805152e-38
0.08740589023 -0.346825242 0.3673452139 2.341805152e-38
0.2621594667 -0.2867409289 0.1006389633 2.341805152e-38
0.2477910221 -0.3531626463 0.1011228338 9.871979525e-40
0.2581781745 -0.3376580477 0.1012194902 9.871979525e-40
0.2598965466 -0.3125651479 0.1009050086 2.341805152e-38
0.2511160672 -0.2721343637 0.1005854085 2.341805152e-38
0.2483156174 -0.3259077072 0.1021262333 2.341805152e-38
0.2482519746 -0.2869001329 0.1006605923 2.341805152e-38
0.2489586473 -0.300804019 0.0998544991 9.871979525e-40
0.2463027537 0.03528687358 0.09624423832 9.871979525e-40
0.2313790321 -0.01063230261 0.09674861282 2.341805152e-38
0.242783621 0.0007261410356 0.09587627649 2.341805152e-38
0.244436115 0.01780097187 0.09692209214 9.871979525e-40
0.2337666303 0.0446543023 0.09562729299 9.871979525e-40
0.2307348102 0.008626479656 0.09738444537 2.341805152e-38
0.2316178381 0.03473615274 0.09564062953 9.871979525e-40
0.2318641245 0.02529591881 0.09614616632 9.871979525e-40
0.2996594906 -0.274240911 0.1131389514 9.871979525e-40
0.2852910459 -0.3406626582 0.1136228219 2.341805152e-38
0.2956781983 -0.325158 0.1137194782 9.871979525e-40
0.2973965704 -0.30006513 0.1134049967 9.871979525e-40
0.288616091 -0.2596343458 0.1130853966 9.871979525e-40
0.2858156562 -0.3134076893 0.1146262214 9.871979525e-40
0.2857519984 -0.274400115 0.1131605804 9.871979525e-40
0.2864586711 -0.2883040011 0.1123544872 2.341805152e-38
0.07691755891 -0.1362169534 0.1763342619 9.871979525e-40
0.07407023758 -0.2012016326 0.163554728 2.341805152e-38
0.0749489367 -0.1866959482 0.174987182 2.341805152e-38
0.07633848488 -0.1619964093 0.1523377448 9.871979525e-40
0.07645793259 -0.1232423559 0.1598334461 2.341805152e-38
0.07531781495 -0.1748551428 0.1634269655 2.341805152e-38
0.07472008467 -0.1364325285 0.1489011347 2.341805152e-38
0.07568260282 -0.1499037445 0.1643278003 2.341805152e-38
0.4042030871 -0.3182481825 0.1023125276 9.871979525e-40
0.3970676661 -0.3413842916 0.1038978398 9.871979525e-40
0.4022058547 -0.3286708295 0.1027619988 9.871979525e-40
0.4089307189 -0.3256749213 0.1049837843 2.341805152e-38
0.4012977779 -0.3078733385 0.1024259031 2.341805152e-38
0.3939444423 -0.3243132532 0.1051214412 9.871979525e-40
0.3987179697 -0.3237322569 0.1026582345 9.871979525e-40
0.3981382847 -0.3249496222 0.1017020792 9.871979525e-40
0.1248037666 -0.1152234375 0.1234424859 2.341805152e-38
0.1223678738 -0.1683467031 0.1226156056 2.341805152e-38
0.1224415749 -0.1562947035 0.1265860647 2.341805152e-38
0.124422498 -0.1362000853 0.1208628118 2.341805152e-38
0.1257397532 -0.1052443087 0.1249756962 2.341805152e-38
0.1242236793 -0.1467581391 0.1245236993 9.871979525e-40
0.1238131449 -0.1156468242 0.1223023161 2.341805152e-38
0.1249986142 -0.1266227514 0.1195420101 2.341805152e-38
0.3242353201 -0.04254456609 0.1004742682 2.341805152e-38
0.311216414 -0.09319088608 0.1009423733 9.871979525e-40
0.3215934038 -0.08156258613 0.1004838198 9.871979525e-40
0.3227091134 -0.06238757074 0.1007638723 9.871979525e-40
0.3138960898 -0.03202822804 0.1000706851 2.341805152e-38
0.3107107878 -0.07296186686 0.1016570181 2.341805152e-38
0.3113383055 -0.04234397411 0.1002589464 2.341805152e-38
0.3118643165 -0.05339252204 0.09992972761 9.871979525e-40
0.2043101639 0.03434844688 0.101420261 9.871979525e-40
0.1851067543 -0.01078814268 0.1019134372 2.341805152e-38
0.1969975829 0.004050001502 0.102297321 9.871979525e-40
0.20343557 0.01950779185 0.1023801416 9.871979525e-40
0.1847578138 0.0428435728 0.1018924192 9.871979525e-40
0.1811819971 0.01308770478 0.103068091 9.871979525e-40
0.186513111 0.02972246334 0.09965060651 9.871979525e-40
0.1828746945 0.02399371564 0.1015560403 9.871979525e-40
0.3953419626 -0.200276956 0.100585781 2.341805152e-38
0.3858923912 -0.2589902878 0.1005270034 9.871979525e-40
0.3926194608 -0.2458922863 0.1019001454 2.341805152e-38
0.3940297961 -0.2234888077 0.09974262863 2.341805152e-38
0.3890103102 -0.1882470995 0.100954935 9.871979525e-40
0.3864300251 -0.2356507033 0.1018030271 2.341805152e-38
0.3864727318 -0.2000412643 0.1002084985 9.871979525e-40
0.3873187602 -0.2127225399 0.0986430198 2.341805152e-38
0.1139298752 -0.1496890783 0.2612578571 2.341805152e-38
0.111075148 -0.2132360935 0.2507519722 9.871979525e-40
0.1118154824 -0.1990696639 0.2608008683 2.341805152e-38
0.1133198291 -0.174883455 0.2413653731 9.871979525e-40
0.1136169881 -0.1371691078 0.2482486069 2.341805152e-38
0.1124528944 -0.1875117868 0.2510473728 2.341805152e-38
0.1118721217 -0.1499124765 0.2388842851 2.341805152e-38
0.1128587499 -0.1630932242 0.2507799864 9.871979525e-40
0.06251001358 -0.3117724955 0.2542829216 2.341805152e-38
0.06098797917 -0.3702145815 0.2388953269 9.871979525e-40
0.06127200276 -0.3571694791 0.2518896163 9.871979525e-40
0.06235928088 -0.3351777494 0.2257542908 9.871979525e-40
0.06290733069 -0.3003624678 0.2338078767 9.871979525e-40
0.06175155938 -0.3466614783 0.2383595109 2.341805152e-38
0.06127250195 -0.3119617701 0.2211911976 2.341805152e-38
0.06228244305 -0.3241624236 0.2404910773 2.341805152e-38
0.1018275991 -0.06299648434 0.3847394586 2.341805152e-38
0.09803050011 -0.1189411432 0.3771457672 9.871979525e-40
0.1009847 -0.1066013277 0.3843408227 2.341805152e-38
0.1013874859 -0.08488041162 0.3684973419 2.341805152e-38
0.1009167135 -0.05167045444 0.3745488226 2.341805152e-38
0.09943877161 -0.09636255354 0.3765465915 2.341805152e-38
0.09904994071 -0.06285946071 0.3668460548 2.341805152e-38
0.09983199835 -0.07479252666 0.3768977523 2.341805152e-38
0.1042007431 -0.2244394422 0.2734337747 2.341805152e-38
0.101415053 -0.2878388762 0.2629157603 9.871979525e-40
0.1021203771 -0.2737249732 0.2729763389 2.341805152e-38
0.1036103815 -0.2495888621 0.2535185516 9.871979525e-40
0.1039518043 -0.2119625956 0.260414809 2.341805152e-38
0.1027800515 -0.2622006834 0.2632110715 9.871979525e-40
0.1022060215 -0.2246452868 0.2510458827 2.341805152e-38
0.1031952202 -0.2378117442 0.2629398108 2.341805152e-38
0.1160214469 -0.2866638303 0.3908343911 2.341805152e-38
0.1060493439 -0.3486049771 0.3907705247 2.341805152e-38
0.1127177626 -0.3344426751 0.3923181295 2.341805152e-38
0.1144628003 -0.3108746409 0.3898819089 2.341805152e-38
0.1093523949 -0.2737804949 0.3913224041 2.341805152e-38
0.1069976091 -0.323420763 0.3920533657 2.341805152e-38
0.106895484 -0.2867913842 0.3902838826 2.341805152e-38
0.1077024937 -0.2997942567 0.3888556361 9.871979525e-40
0.1286680996 -0.4192503095 0.101390183 2.341805152e-38
0.1222443655 -0.4391459525 0.1020947993 2.341805152e-38
0.1262141764 -0.4290980101 0.1011686772 2.341805152e-38
0.1300091445 -0.425876081 0.1029370651 2.341805152e-38
0.1279317141 -0.4112713039 0.1008394212 2.341805152e-38
0.1239555404 -0.4255602658 0.1031757966 2.341805152e-38
0.1238810867 -0.4231158495 0.1005079001 2.341805152e-38
0.126274541 -0.4248737097 0.1002499759 2.341805152e-38
0.3728086054 -0.02305991389 0.1148788184 2.341805152e-38
0.3573411703 -0.06566914916 0.1163488254 9.871979525e-40
0.3703145087 -0.0555806309 0.1142461374 9.871979525e-40
0.3702139556 -0.03977295011 0.1170071661 2.341805152e-38
0.359081775 -0.01432685181 0.1143717766 2.341805152e-38
0.35678339 -0.04866847768 0.1168505996 9.871979525e-40
0.3565450013 -0.02286293544 0.1159301028 2.341805152e-38
0.3572166264 -0.03228858113 0.1158661544 2.341805152e-38
0.07556851208 -0.02008814551 0.2393311858 9.871979525e-40
0.07449054718 -0.07455551624 0.2261177301 9.871979525e-40
0.07364566624 -0.06206607074 0.2381384075 9.871979525e-40
0.07535786182 -0.04147895426 0.2146836519 2.341805152e-38
0.07646337152 -0.01016783901 0.2228277475 9.871979525e-40
0.0756759569 -0.0520128794 0.2260467112 9.871979525e-40
0.07541397214 -0.02082036808 0.2109591514 9.871979525e-40
0.07617597282 -0.03170591593 0.2268663049 9.871979525e-40
0.1636525542 -0.2588911653 0.3060564995 2.341805152e-38
0.1603028625 -0.2649571598 0.3002442718 2.341805152e-38
0.1651283801 -0.2618190944 0.2999496162 2.341805152e-38
0.1666620672 -0.2611151636 0.299537003 2.341805152e-38
0.1639072597 -0.2560766637 0.2973024249 2.341805152e-38
0.158723563 -0.2608253658 0.3008569181 2.341805152e-38
0.1612377167 -0.2589990795 0.2927212119 2.341805152e-38
0.1622591615 -0.260689348 0.3002362251 2.341805152e-38
0.1261525303 -0.3088911772 0.2560564876 2.341805152e-38
0.1228028387 -0.3149571717 0.2502442598 2.341805152e-38
0.1276283562 -0.3118191063 0.2499496043 2.341805152e-38
0.1291620433 -0.3111151755 0.2495369762 2.341805152e-38
0.1264072359 -0.3060766757 0.247302413 2.341805152e-38
0.1212235391 -0.3108253777 0.2508569062 9.871979525e-40
0.1237377003 -0.3089990914 0.2427212 2.341805152e-38
0.1247591376 -0.3106893599 0.2502362132 9.871979525e-40
0.07592011243 -0.06234687194 0.2728019953 9.871979525e-40
0.07367576659 -0.1238416135 0.2632372677 9.871979525e-40
0.07403171062 -0.1103066206 0.2727538943 9.871979525e-40
0.07546919584 -0.08683477342 0.2546024024 9.871979525e-40
0.07624030858 -0.05044238269 0.2613220513 2.341805152e-38
0.07500337809 -0.0991885215 0.2637277246 9.871979525e-40
0.07449214906 -0.06242881343 0.2526318729 2.341805152e-38
0.0755097121 -0.07532334328 0.2628866732 9.871979525e-40
0.07285395265 -0.4033111632 0.09399217367 9.871979525e-40
0.06227478385 -0.4374103248 0.09539347887 9.871979525e-40
0.07032107562 -0.4265007675 0.09430974722 9.871979525e-40
0.07279843092 -0.4161023498 0.0956870243 9.871979525e-40
0.06656396389 -0.3939730525 0.0939720571 9.871979525e-40
0.06266477704 -0.4208382368 0.09605550021 9.871979525e-40
0.06296399236 -0.4053909481 0.0947464332 9.871979525e-40
0.06450413167 -0.4114516079 0.09400946647 9.871979525e-40
0.3490434587 -0.1623420268 0.1130181476 9.871979525e-40
0.3356766999 -0.2238671482 0.1134633198 9.871979525e-40
0.3457334638 -0.2097550333 0.1134946346 9.871979525e-40
0.3471357226 -0.186434567 0.1131885201 2.341805152e-38
0.3388168514 -0.1490465552 0.1128941551 9.871979525e-40
0.3358565271 -0.1990324259 0.1144020408 9.871979525e-40
0.3359929025 -0.1622175276 0.1130209789 9.871979525e-40
0.3366960287 -0.1753859371 0.1121860594 2.341805152e-38
0.3141990304 -0.2292449027 0.1216438487 2.341805152e-38
0.3044216335 -0.2832608819 0.1211477518 2.341805152e-38
0.3110719621 -0.2706510723 0.1225993931 9.871979525e-40
0.3133428693 -0.25006634 0.1201054081 2.341805152e-38
0.3077107966 -0.2183270901 0.1216599941 9.871979525e-40
0.3046835661 -0.2609876394 0.1221795902 9.871979525e-40
0.3056140244 -0.2296122909 0.1199599206 9.871979525e-40
0.3060336113 -0.2408055961 0.1194979027 9.871979525e-40
0.261916697 -0.1122158691 0.1130651236 9.871979525e-40
0.2480346262 -0.175181374 0.1135520488 9.871979525e-40
0.2583855093 -0.16063869 0.1135176122 9.871979525e-40
0.2598744333 -0.1368061155 0.1133259609 2.341805152e-38
0.2512224019 -0.09850364923 0.1129300296 9.871979525e-40
0.2482854575 -0.1496182382 0.11448773 9.871979525e-40
0.2483738065 -0.1121795475 0.1130949035 2.341805152e-38
0.2490678579 -0.1255613267 0.1123161316 9.871979525e-40
0.0765132606 -0.2756210566 0.2851368785 2.341805152e-38
0.07408598065 -0.3298133016 0.2760208845 9.871979525e-40
0.07499530166 -0.3175773621 0.2847743928 2.341805152e-38
0.07637953758 -0.297209233 0.2677642405 2.341805152e-38
0.07664386183 -0.2650690079 0.2737535834 2.341805152e-38
0.07505166531 -0.3079035878 0.2763522267 2.341805152e-38
0.07477950305 -0.2758694887 0.2655733824 2.341805152e-38
0.07583601028 -0.2872009277 0.2758047879 2.341805152e-38
0.1249344572 -0.2854350805 0.0943248421 9.871979525e-40
0.1121422201 -0.3475494087 0.09449411184 9.871979525e-40
0.1214546189 -0.3332257867 0.09494098276 9.871979525e-40
0.1232168451 -0.3096681237 0.09407620132 9.871979525e-40
0.1154220551 -0.272087425 0.09422464669 2.341805152e-38
0.1123981029 -0.3222980201 0.09551678598 9.871979525e-40
0.1127100214 -0.2854624689 0.09391012788 2.341805152e-38
0.1133563146 -0.2986111343 0.09311454743 2.341805152e-38
0.361882031 -0.08714319766 0.1005433202 9.871979525e-40
0.3480469584 -0.1505156457 0.1010143682 2.341805152e-38
0.3583080471 -0.135868296 0.1010362804 9.871979525e-40
0.3598293364 -0.1118826568 0.1007724479 9.871979525e-40
0.3512555957 -0.07333985716 0.1004322544 9.871979525e-40
0.3483446538 -0.1247587278 0.101967521 9.871979525e-40
0.3484120369 -0.08712911606 0.1005582437 2.341805152e-38
0.3491113484 -0.1005724296 0.09975650907 9.871979525e-40
0.2372810692 -0.3241524994 0.1006427854 9.871979525e-40
0.2227489501 -0.3911612332 0.1011382416 9.871979525e-40
0.2332195491 -0.3754886985 0.1012229472 9.871979525e-40
0.2349713594 -0.350183934 0.1009332314 9.871979525e-40
0.2260953337 -0.3093813062 0.1005899757 2.341805152e-38
0.2233062238 -0.363617301 0.1021436974 2.341805152e-38
0.2232217789 -0.3243428767 0.1006725952 9.871979525e-40
0.2239271998 -0.3383377194 0.09987906367 2.341805152e-38
0.08913900703 -0.2116371095 0.1382516325 9.871979525e-40
0.08656984568 -0.2754088044 0.1260211021 9.871979525e-40
0.08724141121 -0.2612294257 0.1371442378 2.341805152e-38
0.08862668276 -0.2369670868 0.115247719 9.871979525e-40
0.08896776289 -0.1990254372 0.1226448566 9.871979525e-40
0.08780954033 -0.2496320009 0.1260069311 2.341805152e-38
0.087248981 -0.2118169665 0.1120810434 9.871979525e-40
0.0882191509 -0.2250764519 0.1265833676 9.871979525e-40
0.1118117124 -0.3502542973 0.1129685938 2.341805152e-38
0.09838710725 -0.4126558304 0.1133676395 2.341805152e-38
0.1082947701 -0.3982347846 0.1135212779 9.871979525e-40
0.1098491699 -0.3746091425 0.1130696312 2.341805152e-38
0.1015763432 -0.3367581069 0.1128877252 9.871979525e-40
0.09868940711 -0.3872902691 0.1143421605 2.341805152e-38
0.09879956394 -0.3502624929 0.1128781959 9.871979525e-40
0.09948822856 -0.3634884059 0.1120661795 2.341805152e-38
0.113443993 -0.2624283731 0.1742722988 2.341805152e-38
0.1115899384 -0.3232794702 0.1634462327 2.341805152e-38
0.1117529646 -0.3099184036 0.17377235 2.341805152e-38
0.1131074578 -0.2866973877 0.1538034976 2.341805152e-38
0.1140215993 -0.2506923378 0.1609411538 9.871979525e-40
0.1128011197 -0.2989190221 0.163720578 2.341805152e-38
0.1123316959 -0.2624890506 0.1513405889 2.341805152e-38
0.1133288965 -0.2752684951 0.1634677649 2.341805152e-38
0.2103530765 -0.3497194052 0.1196016222 2.341805152e-38
0.1995452493 -0.3759816885 0.120196633 2.341805152e-38
0.2147601396 -0.36738047 0.1184847057 2.341805152e-38
0.2245080769 -0.3593024313 0.1196262985 9.871979525e-40
0.1943274438 -0.3426183164 0.1184982657 9.871979525e-40
0.1759934425 -0.3629584312 0.1202159971 2.341805152e-38
0.1993677169 -0.351449281 0.1181389242 2.341805152e-38
0.1867284477 -0.3562902808 0.119101733 2.341805152e-38
0.07682756335 -0.1129964963 0.3722394705 2.341805152e-38
0.07303046435 -0.1689411551 0.3646457791 9.871979525e-40
0.07598466426 -0.1566013396 0.3718408346 2.341805152e-38
0.0763874501 -0.1348804235 0.3559973538 9.871979525e-40
0.07591667771 -0.1016704664 0.3620488346 9.871979525e-40
0.07443873584 -0.146362558 0.3640466034 2.341805152e-38
0.07404990494 -0.1128594726 0.3543460667 2.341805152e-38
0.07483196259 -0.1247925386 0.3643977642 9.871979525e-40
0.3289466798 -0.3168019354 0.1015283912 2.341805152e-38
0.3219886422 -0.3372153938 0.1024826542 2.341805152e-38
0.3272660673 -0.3262890875 0.1014084369 9.871979525e-40
0.3330934942 -0.3233981431 0.1033061147 2.341805152e-38
0.3262916207 -0.3080518842 0.101094082 2.341805152e-38
0.319368571 -0.3225589395 0.1035094708 2.341805152e-38
0.3236129582 -0.3213216364 0.1008654833 2.341805152e-38
0.3234347403 -0.3227199018 0.1005756482 2.341805152e-38
0.2869632542 -0.1370529681 0.1006134823 2.341805152e-38
0.2729226053 -0.2009809613 0.1011058539 2.341805152e-38
0.2833105326 -0.1861732304 0.101094842 9.871979525e-40
0.284855485 -0.1619900167 0.1008878648 9.871979525e-40
0.2761458158 -0.1230880097 0.1004977077 9.871979525e-40
0.2732439637 -0.1749528646 0.1020582989 9.871979525e-40
0.27328825 -0.1370657384 0.1006514207 9.871979525e-40
0.273986876 -0.1505978853 0.09986504167 9.871979525e-40
0.2771798074 -0.1604058892 0.094363451 2.341805152e-38
0.2631391585 -0.2243338823 0.09485582262 9.871979525e-40
0.2735270858 -0.2095261514 0.09484480321 2.341805152e-38
0.2750720382 -0.1853429377 0.09463783354 2.341805152e-38
0.2663623691 -0.1464409381 0.09424766898 9.871979525e-40
0.2634605169 -0.1983057857 0.09580826759 9.871979525e-40
0.2635048032 -0.1604186594 0.09440138936 9.871979525e-40
0.2642034292 -0.1739508063 0.09361501038 9.871979525e-40
0.2369761318 -0.06181734428 0.1131153181 2.341805152e-38
0.2228609025 -0.1274097711 0.1135817096 2.341805152e-38
0.2331186682 -0.1121497378 0.113698706 9.871979525e-40
0.2347846329 -0.08735336363 0.1133423895 2.341805152e-38
0.2261569202 -0.04744444042 0.1130618751 9.871979525e-40
0.2233382612 -0.1005722135 0.1145824194 2.341805152e-38
0.2233039588 -0.0619257465 0.1131269485 2.341805152e-38
0.2240141779 -0.07570707053 0.1122972295 2.341805152e-38
0.1202923656 -0.0897917971 0.2623365521 9.871979525e-40
0.1160639897 -0.100701116 0.2572036684 9.871979525e-40
0.1204230189 -0.09454596043 0.2576729655 9.871979525e-40
0.1222106591 -0.09333027899 0.2551931441 9.871979525e-40
0.1206250265 -0.08453363925 0.2534825802 9.871979525e-40
0.1167569086 -0.09249052405 0.2574039102 9.871979525e-40
0.1172203496 -0.09164768457 0.249039188 9.871979525e-40
0.1192014143 -0.09299073368 0.2571409643 9.871979525e-40
0.08852291107 -0.2764260173 0.3109702766 9.871979525e-40
0.08887921274 -0.3340761662 0.2850621641 9.871979525e-40
0.0886284411 -0.3203606606 0.3040876091 9.871979525e-40
0.09072900563 -0.2989640236 0.2629839182 2.341805152e-38
0.09168827534 -0.2635549307 0.2747500539 9.871979525e-40
0.08848871291 -0.30952999 0.2819417119 2.341805152e-38
0.08994660527 -0.2771847844 0.2538360059 9.871979525e-40
0.09045352042 -0.2887654901 0.2898807824 9.871979525e-40
0.1623804867 -0.06187276915 0.1005887613 9.871979525e-40
0.1478838474 -0.1272724271 0.1011121422 9.871979525e-40
0.1585162729 -0.1120346934 0.1010576338 9.871979525e-40
0.1601522267 -0.08732226491 0.1009295955 2.341805152e-38
0.1511625201 -0.04748835415 0.100466907 9.871979525e-40
0.1482817233 -0.1005087048 0.1020642072 9.871979525e-40
0.148281619 -0.0619700253 0.1006408036 2.341805152e-38
0.1489721686 -0.07572469115 0.0999025777 2.341805152e-38
0.1068961993 -0.03695617616 0.1458135992 9.871979525e-40
0.1041238606 -0.1009607762 0.1345445663 9.871979525e-40
0.1048880816 -0.08672773838 0.1450579315 9.871979525e-40
0.1063224226 -0.06236549467 0.124539271 2.341805152e-38
0.106615372 -0.02429153956 0.1316329986 2.341805152e-38
0.1054376811 -0.07509411126 0.1346985996 9.871979525e-40
0.1048556268 -0.03713477403 0.1217633635 2.341805152e-38
0.1058432385 -0.05044542998 0.1348125786 9.871979525e-40
0.2115899175 -0.1370533109 0.1130796671 2.341805152e-38
0.1980115473 -0.2006475329 0.1135125086 2.341805152e-38
0.2080163211 -0.1859657168 0.1136543602 2.341805152e-38
0.2095585167 -0.1618884653 0.1132323593 9.871979525e-40
0.2012348771 -0.1232348382 0.1130175889 2.341805152e-38
0.1983682662 -0.1748043299 0.1145011559 9.871979525e-40
0.1984072477 -0.1370458752 0.1130715832 2.341805152e-38
0.1991221309 -0.1505264193 0.1122014299 9.871979525e-40
0.1259506792 -0.08795322478 0.2229740322 9.871979525e-40
0.1239246428 -0.1087094322 0.2118015289 9.871979525e-40
0.1278798133 -0.1049388051 0.2165732533 9.871979525e-40
0.1277752668 -0.09668704122 0.2057756484 9.871979525e-40
0.1259221733 -0.08443113416 0.2075824738 9.871979525e-40
0.1222830117 -0.1014420837 0.21165815 9.871979525e-40
0.1241610795 -0.08631914109 0.1988886595 2.341805152e-38
0.1248023063 -0.092274867 0.2130570114 9.871979525e-40
0.1553200483 -0.2449712604 0.3959218264 9.871979525e-40
0.1544139385 -0.2459290475 0.3786690533 9.871979525e-40
0.1601616144 -0.2449840903 0.3853751421 2.341805152e-38
0.1625207961 -0.2458770722 0.3694196343 9.871979525e-40
0.1536972672 -0.2442636788 0.3704758883 9.871979525e-40
0.1450926363 -0.2451579571 0.3775883317 9.871979525e-40
0.153845489 -0.2442603558 0.3581506014 2.341805152e-38
0.1509745717 -0.2455919832 0.3821505308 9.871979525e-40
0.08780813217 0.04392671958 0.101163812 2.341805152e-38
0.07478906959 -0.006059687585 0.1015338972 9.871979525e-40
0.08505181968 0.005508586764 0.1011510044 2.341805152e-38
0.08633402735 0.02440437302 0.1013707444 9.871979525e-40
0.07746244222 0.05424372107 0.1007222608 9.871979525e-40
0.07423799485 0.01401980221 0.1022734568 2.341805152e-38
0.07498168945 0.04402201623 0.1007715836 9.871979525e-40
0.07545691729 0.03319854289 0.1005425826 9.871979525e-40
0.2497458011 -0.04093093425 0.1171577871 2.341805152e-38
0.2365092039 -0.09034124762 0.1179008186 2.341805152e-38
0.2497999966 -0.07886184752 0.1173604876 2.341805152e-38
0.2542202175 -0.06005442888 0.1168316454 2.341805152e-38
0.2356332392 -0.03060515225 0.1169647723 2.341805152e-38
0.2262926996 -0.07038463652 0.1180725023 2.341805152e-38
0.236518085 -0.04097982869 0.1168499291 2.341805152e-38
0.2311677635 -0.05166153982 0.1168477014 9.871979525e-40
0.1875242889 -0.03694394231 0.1131351143 2.341805152e-38
0.1728211045 -0.1016984433 0.1137063578 2.341805152e-38
0.1837272942 -0.08662369847 0.1135030687 9.871979525e-40
0.1852962673 -0.06215701252 0.1135698631 9.871979525e-40
0.1760614216 -0.02268295176 0.1129540205 9.871979525e-40
0.1731202006 -0.07524631917 0.1146156564 2.341805152e-38
0.173158437 -0.03699740767 0.1132340357 9.871979525e-40
0.17383717 -0.05066290498 0.1125554517 9.871979525e-40
0.1536680758 -0.4067503214 0.1138901711 2.341805152e-38
0.1472443491 -0.4266459644 0.1145947874 2.341805152e-38
0.1512141526 -0.416598022 0.1136686653 2.341805152e-38
0.1550091207 -0.4133760929 0.1154370531 2.341805152e-38
0.1529316902 -0.3987713158 0.1133394092 2.341805152e-38
0.148955524 -0.4130602777 0.1156757846 9.871979525e-40
0.1488810629 -0.4106158614 0.1130078882 9.871979525e-40
0.1512745172 -0.4123737216 0.112749964 2.341805152e-38
0.2369761318 -0.08681735396 0.1131153181 2.341805152e-38
0.2228609025 -0.152409777 0.1135817096 2.341805152e-38
0.2331186682 -0.1371497512 0.113698706 2.341805152e-38
0.2347846329 -0.1123533696 0.1133423895 9.871979525e-40
0.2261569202 -0.07244444638 0.1130618751 2.341805152e-38
0.2233382612 -0.1255722195 0.1145824194 2.341805152e-38
0.2233039588 -0.08692575246 0.1131269485 2.341805152e-38
0.2240141779 -0.1007070765 0.1122972295 2.341805152e-38
0.0883852765 -0.3469908237 0.3699096739 9.871979525e-40
0.08715245128 -0.3504043221 0.3516865373 2.341805152e-38
0.09300670773 -0.3481547832 0.3608376384 2.341805152e-38
0.09410842508 -0.3485073447 0.3421738148 9.871979525e-40
0.08899140358 -0.3447604775 0.3432350755 2.341805152e-38
0.08198256791 -0.347751677 0.3505170047 9.871979525e-40
0.08718197793 -0.3468284011 0.3293968737 9.871979525e-40
0.08740589023 -0.346825242 0.3548452258 2.341805152e-38
0.2414580435 -0.3941375315 0.1088185236 9.871979525e-40
0.2301707268 -0.4254832268 0.1140928864 2.341805152e-38
0.2378123254 -0.4078595042 0.1111093909 2.341805152e-38
0.2443627119 -0.4039227366 0.1149500236 2.341805152e-38
0.236709103 -0.3785368204 0.1110050827 2.341805152e-38
0.2305247337 -0.4019197524 0.1143682525 2.341805152e-38
0.2319772542 -0.4019223452 0.1140623838 2.341805152e-38
0.233207643 -0.4031565189 0.111676991 2.341805152e-38
0.1189256385 -0.2521717548 0.2589891553 2.341805152e-38
0.1165330186 -0.2786714137 0.2501089573 9.871979525e-40
0.1195609048 -0.2731465101 0.2547472119 9.871979525e-40
0.1197394058 -0.2629243433 0.2451182604 2.341805152e-38
0.1184811741 -0.247748971 0.2473041862 9.871979525e-40
0.1160523295 -0.2684901357 0.2505076826 2.341805152e-38
0.1169286594 -0.2512578964 0.2398337424 9.871979525e-40
0.1177324951 -0.2577801943 0.2504731417 2.341805152e-38
0.07682756335 -0.07549650222 0.3597394824 2.341805152e-38
0.07303046435 -0.131441161 0.3521457911 9.871979525e-40
0.07598466426 -0.1191013455 0.3593408465 9.871979525e-40
0.0763874501 -0.09738042951 0.3434973657 9.871979525e-40
0.07591667771 -0.06417047232 0.3495488465 9.871979525e-40
0.07443873584 -0.1088625714 0.3515466154 2.341805152e-38
0.07404990494 -0.07535947859 0.3418460786 9.871979525e-40
0.07483196259 -0.08729254454 0.3518977761 9.871979525e-40
0.081332542 -0.00200682506 0.1498000473 2.341805152e-38
0.07856020331 -0.06601142138 0.1385310143 2.341805152e-38
0.07932442427 -0.051778391 0.1490443796 9.871979525e-40
0.08075876534 -0.02741614357 0.128525719 2.341805152e-38
0.08105171472 0.01065781154 0.1356194466 9.871979525e-40
0.0798740238 -0.04014476389 0.1386850476 9.871979525e-40
0.07929196954 -0.002185422927 0.1257498115 9.871979525e-40
0.08027958125 -0.01549608074 0.1387990266 2.341805152e-38
0.08929910511 -0.1242756844 0.2131305039 2.341805152e-38
0.08639054 -0.1888325512 0.2009535134 9.871979525e-40
0.0872413516 -0.1743883193 0.2120213062 2.341805152e-38
0.08869124949 -0.1498549879 0.1902262121 2.341805152e-38
0.08881536126 -0.1114345863 0.1975586563 2.341805152e-38
0.08769027889 -0.1626172811 0.2009381503 9.871979525e-40
0.08709524572 -0.1245338619 0.1870193034 9.871979525e-40
0.0880549103 -0.1378826499 0.2015369833 2.341805152e-38
0.1373805106 -0.1118727773 0.1130887493 9.871979525e-40
0.1228838712 -0.177272439 0.1136121303 2.341805152e-38
0.1335162967 -0.1620347053 0.1135576218 9.871979525e-40
0.1351522505 -0.1373222768 0.1134295836 9.871979525e-40
0.1261625439 -0.09748836607 0.1129668951 9.871979525e-40
0.1232817471 -0.1505087167 0.1145641953 9.871979525e-40
0.1232816428 -0.1119700372 0.1131407917 9.871979525e-40
0.1239721924 -0.1257247031 0.1124025658 9.871979525e-40
0.1623804867 -0.0743727833 0.1005887613 9.871979525e-40
0.1478838474 -0.139772445 0.1011121422 9.871979525e-40
0.1585162729 -0.1245347112 0.1010576338 2.341805152e-38
0.1601522267 -0.09982228279 0.1009295955 9.871979525e-40
0.1511625201 -0.05998837203 0.100466907 9.871979525e-40
0.1482817233 -0.1130087227 0.1020642072 9.871979525e-40
0.148281619 -0.07447004318 0.1006408036 2.341805152e-38
0.1489721686 -0.08822470903 0.0999025777 9.871979525e-40
0.08013878018 0.01811165549 0.1475971639 2.341805152e-38
0.07859235257 -0.03597924858 0.1381728798 9.871979525e-40
0.07820431888 -0.02382812649 0.1476669312 9.871979525e-40
0.07988266647 -0.00326137431 0.1297671646 2.341805152e-38
0.08089346439 0.02793370187 0.1366141438 9.871979525e-40
0.07981337607 -0.01398455724 0.1387204528 2.341805152e-38
0.07958268374 0.01766763814 0.1276595592 9.871979525e-40
0.08043828607 0.006587740034 0.1377727985 9.871979525e-40
0.1240359843 -0.4373230636 0.09946764261 2.341805152e-38
0.1157377362 -0.4603388309 0.1018648073 2.341805152e-38
0.1196050346 -0.4464381933 0.1007897258 2.341805152e-38
0.1257227659 -0.4444366395 0.1030567735 2.341805152e-38
0.1232423708 -0.4260938466 0.1002384573 2.341805152e-38
0.1183999851 -0.4422723949 0.1029715165 9.871979525e-40
0.1179564744 -0.4438539743 0.101272881 9.871979525e-40
0.12109676 -0.4443253577 0.0997081697 2.341805152e-38
0.1365479231 -0.3453492522 0.34202981 9.871979525e-40
0.1353012472 -0.346286267 0.3243738413 2.341805152e-38
0.1416254342 -0.3454546928 0.3308903575 9.871979525e-40
0.1430600584 -0.3461404443 0.3142098784 9.871979525e-40
0.1353405565 -0.3442414701 0.3153774142 9.871979525e-40
0.127356112 -0.3455661535 0.3226701617 2.341805152e-38
0.1348669082 -0.3443959951 0.3026381135 9.871979525e-40
0.1327350736 -0.3459002376 0.3282065094 2.341805152e-38
0.1261028349 -0.1363297552 0.1492803991 2.341805152e-38
0.1220089346 -0.200199753 0.1484726071 9.871979525e-40
0.1232848167 -0.186160326 0.1523956209 9.871979525e-40
0.1251526326 -0.1616456062 0.146782726 2.341805152e-38
0.1254838705 -0.1238356531 0.1507583708 9.871979525e-40
0.123978287 -0.1746663898 0.1504472941 2.341805152e-38
0.1233272403 -0.1363479942 0.1483880877 2.341805152e-38
0.1244924664 -0.1498045623 0.1454463452 2.341805152e-38
0.263202548 -0.01797856949 0.1056550816 2.341805152e-38
0.2433835864 -0.06555858254 0.106446743 2.341805152e-38
0.2586958408 -0.0511903353 0.105949685 9.871979525e-40
0.2662087679 -0.03441750258 0.1066434458 9.871979525e-40
0.2411637008 -0.008454790339 0.1057000831 2.341805152e-38
0.2329024971 -0.04214595631 0.1071292162 2.341805152e-38
0.2440618873 -0.02144551277 0.1045068949 9.871979525e-40
0.2372367978 -0.0287715029 0.1062184423 9.871979525e-40
0.1259624064 -0.1598666012 0.2134981155 9.871979525e-40
0.1231914908 -0.222511664 0.2053315341 9.871979525e-40
0.1238373667 -0.2086870372 0.2139379829 2.341805152e-38
0.125362888 -0.1847707182 0.1978101581 9.871979525e-40
0.1259183884 -0.1476480663 0.204043895 9.871979525e-40
0.1246554181 -0.1973583996 0.2060560584 2.341805152e-38
0.124083437 -0.159964025 0.1963819265 2.341805152e-38
0.1251285821 -0.1730816066 0.2045780122 2.341805152e-38
0.07624843717 -0.32392326 0.1860482693 9.871979525e-40
0.07374186814 -0.3869740963 0.1758070439 9.871979525e-40
0.07434085011 -0.3730758727 0.18570216 9.871979525e-40
0.07574316859 -0.3490252197 0.1666193604 9.871979525e-40
0.07629878819 -0.3115545213 0.1734618396 2.341805152e-38
0.07505528629 -0.3616652787 0.1761572063 9.871979525e-40
0.07450074703 -0.3239944577 0.1643480361 2.341805152e-38
0.07552135736 -0.3372109234 0.1757055521 2.341805152e-38
0.3601344824 -0.327919811 0.0952783674 2.341805152e-38
0.3531764448 -0.3483332694 0.09623263031 9.871979525e-40
0.3584538698 -0.3374069631 0.09515841305 9.871979525e-40
0.3642812967 -0.3345160186 0.09705609083 9.871979525e-40
0.3574794233 -0.3191697598 0.09484405816 2.341805152e-38
0.3505563736 -0.333676815 0.09725944698 9.871979525e-40
0.3548007607 -0.332439512 0.09461545944 9.871979525e-40
0.3546225429 -0.3338377774 0.09432562441 9.871979525e-40
0.09693866968 0.01814182289 0.09491379559 9.871979525e-40
0.0839196071 -0.03184458613 0.09528388083 9.871979525e-40
0.09418235719 -0.02027630992 0.09490098059 9.871979525e-40
0.09546456486 -0.001380523667 0.09512072802 9.871979525e-40
0.08659297973 0.02845882252 0.09447224438 9.871979525e-40
0.08336853236 -0.01176509447 0.09602344036 9.871979525e-40
0.08411222696 0.01823711954 0.09452156723 9.871979525e-40
0.0845874548 0.007413644344 0.09429256618 9.871979525e-40
0.237516582 -0.03692622483 0.1131138876 2.341805152e-38
0.2228431106 -0.1017545685 0.1136788055 2.341805152e-38
0.2337142378 -0.0866625458 0.1134939194 2.341805152e-38
0.2352905571 -0.06216685474 0.1135353372 2.341805152e-38
0.2260887921 -0.02265120484 0.1129396558 9.871979525e-40
0.2231533825 -0.07526814193 0.1145926788 2.341805152e-38
0.2231881022 -0.03698354587 0.1132061556 9.871979525e-40
0.223868221 -0.05066021532 0.112520352 9.871979525e-40
0.09439058602 0.01557456702 0.1763481796 2.341805152e-38
0.09284415841 -0.03851633519 0.1669238955 2.341805152e-38
0.09245613217 -0.02636521496 0.1764179468 2.341805152e-38
0.09413446486 -0.005798462778 0.1585181803 2.341805152e-38
0.09514527023 0.0253966134 0.1653651595 9.871979525e-40
0.09406518191 -0.01652164571 0.1674714684 2.341805152e-38
0.09383448958 0.01513054967 0.1564105749 2.341805152e-38
0.09469009191 0.004050651565 0.1665238142 2.341805152e-38
0.1411680877 -0.3942503035 0.1138901711 2.341805152e-38
0.134744361 -0.4141459465 0.1145947874 9.871979525e-40
0.1387141645 -0.4040980041 0.1136686653 2.341805152e-38
0.1425091326 -0.4008760452 0.1154370531 2.341805152e-38
0.1404317021 -0.3862712979 0.1133394092 2.341805152e-38
0.1364555359 -0.4005602598 0.1156757846 2.341805152e-38
0.1363810748 -0.3981158435 0.1130078882 2.341805152e-38
0.1387745291 -0.3998737037 0.112749964 2.341805152e-38
0.2500165701 -0.03692622483 0.1131138876 9.871979525e-40
0.2353430986 -0.1017545685 0.1136788055 9.871979525e-40
0.2462142259 -0.0866625458 0.1134939194 2.341805152e-38
0.2477905452 -0.06216685474 0.1135353372 2.341805152e-38
0.2385887802 -0.02265120484 0.1129396558 9.871979525e-40
0.2356533706 -0.07526814193 0.1145926788 2.341805152e-38
0.2356880903 -0.03698354587 0.1132061556 2.341805152e-38
0.2363682091 -0.05066021532 0.112520352 9.871979525e-40
0.07674002647 -0.3373502791 0.2955601811 9.871979525e-40
0.0731497705 -0.3603625298 0.2890428007 2.341805152e-38
0.07604242861 -0.3520363569 0.2921008766 2.341805152e-38
0.07845569402 -0.3458746672 0.2854554355 2.341805152e-38
0.07750022411 -0.3302694261 0.2858181298 2.341805152e-38
0.07380619645 -0.3478453457 0.2894691825 2.341805152e-38
0.07435239106 -0.3391645849 0.2802198231 9.871979525e-40
0.07615663111 -0.3430086672 0.2889111936 9.871979525e-40
0.08941754699 -0.1737169474 0.1388342381 9.871979525e-40
0.08657022566 -0.2387016267 0.1260547042 9.871979525e-40
0.08744892478 -0.2241959423 0.1374871582 2.341805152e-38
0.08883847296 -0.1994964033 0.114837721 9.871979525e-40
0.08895792067 -0.1607423425 0.1223334223 9.871979525e-40
0.08781780303 -0.2123551369 0.1259269416 9.871979525e-40
0.08722007275 -0.1739325225 0.1114011183 9.871979525e-40
0.0881825909 -0.1874037385 0.1268277764 9.871979525e-40
0.157626912 -0.2491398007 0.3597746789 9.871979525e-40
0.1567207873 -0.2500975728 0.3425219059 2.341805152e-38
0.1624684781 -0.2491526306 0.3492279947 2.341805152e-38
0.1648276597 -0.2500455976 0.3332724869 2.341805152e-38
0.1560041308 -0.248432219 0.3343287408 2.341805152e-38
0.1473995 -0.2493264973 0.3414411843 9.871979525e-40
0.1561523378 -0.2484288961 0.322003454 9.871979525e-40
0.1532814354 -0.2497605234 0.3460033834 2.341805152e-38
0.3649032712 -0.02270765789 0.1105123088 2.341805152e-38
0.3434779942 -0.06847169995 0.1119832993 2.341805152e-38
0.3624687195 -0.05394282192 0.1112932861 9.871979525e-40
0.3735694587 -0.03815591335 0.1119794175 2.341805152e-38
0.3365812004 -0.01383021474 0.1111410558 2.341805152e-38
0.3224918842 -0.04518514127 0.1125050038 9.871979525e-40
0.3435289562 -0.02689675242 0.1102164686 9.871979525e-40
0.3303018212 -0.03334920108 0.1118049696 9.871979525e-40
0.3539467156 -0.3418019414 0.1140283793 2.341805152e-38
0.346988678 -0.3622153997 0.1149826422 9.871979525e-40
0.352266103 -0.3512890935 0.113908425 2.341805152e-38
0.3580935299 -0.348398149 0.1158061028 2.341805152e-38
0.3512916565 -0.3330518901 0.1135940701 2.341805152e-38
0.3443686068 -0.3475589454 0.1160094589 9.871979525e-40
0.348612994 -0.3463216424 0.1133654714 2.341805152e-38
0.3484347761 -0.3477199078 0.1130756363 2.341805152e-38
0.3853085935 -0.06055990607 0.1023788303 2.341805152e-38
0.3698411584 -0.1031691432 0.1038488373 9.871979525e-40
0.3828144968 -0.09308062494 0.1017461494 2.341805152e-38
0.3827139437 -0.07727294415 0.1045071781 9.871979525e-40
0.371581763 -0.05182684585 0.1018717885 9.871979525e-40
0.3692833781 -0.086168468 0.1043506116 2.341805152e-38
0.3690449893 -0.06036292762 0.1034301147 2.341805152e-38
0.3697166145 -0.06978857517 0.1033661664 2.341805152e-38
0.0930416137 -0.3735871613 0.1103375331 2.341805152e-38
0.0824624449 -0.4076863229 0.1117388383 2.341805152e-38
0.09050873667 -0.3967767656 0.1106550992 9.871979525e-40
0.09298609197 -0.3863783479 0.1120323837 2.341805152e-38
0.08675162494 -0.3642490506 0.1103174165 2.341805152e-38
0.08285243809 -0.3911142349 0.1124008596 9.871979525e-40
0.08315165341 -0.3756669462 0.1110917926 9.871979525e-40
0.08469179273 -0.3817276061 0.1103548259 9.871979525e-40
0.125308156 0.006426695734 0.1136638001 2.341805152e-38
0.1122890934 -0.04355971143 0.1140338853 9.871979525e-40
0.1225518435 -0.03199143708 0.1136509925 9.871979525e-40
0.1238340512 -0.01309565082 0.1138707325 9.871979525e-40
0.1149624661 0.01674369536 0.1132222489 2.341805152e-38
0.1117380187 -0.02348022163 0.1147734448 9.871979525e-40
0.1124817133 0.006521992385 0.1132715717 2.341805152e-38
0.1129569411 -0.004301482812 0.1130425707 2.341805152e-38
0.3387215734 -0.1602006108 0.1075676903 9.871979525e-40
0.3253548145 -0.2217257321 0.1080128625 9.871979525e-40
0.3354115784 -0.2076136172 0.1080441773 9.871979525e-40
0.3368138373 -0.1842931509 0.1077380627 2.341805152e-38
0.328494966 -0.1469051391 0.1074436978 9.871979525e-40
0.3255346417 -0.1968910098 0.1089515835 2.341805152e-38
0.3256710172 -0.1600761116 0.1075705215 2.341805152e-38
0.3263741732 -0.173244521 0.106735602 9.871979525e-40
0.2009360194 0.01219675131 0.1024942622 2.341805152e-38
0.1860122979 -0.03372242674 0.1029986367 9.871979525e-40
0.1974168867 -0.02236398309 0.1021263003 2.341805152e-38
0.1990693808 -0.005289152265 0.103172116 2.341805152e-38
0.188399896 0.02156418003 0.1018773168 9.871979525e-40
0.185368076 -0.01446364447 0.1036344692 2.341805152e-38
0.1862511039 0.01164602861 0.1018906534 9.871979525e-40
0.1864973903 0.002205794677 0.1023961902 2.341805152e-38
0.3238927424 -0.2494377196 0.1131040677 2.341805152e-38
0.3104468882 -0.3142271936 0.1134899929 9.871979525e-40
0.3201744258 -0.2992266417 0.1138058454 2.341805152e-38
0.3218197227 -0.2747056186 0.1131681949 2.341805152e-38
0.3137263656 -0.2353571653 0.1131191999 9.871979525e-40
0.3109517992 -0.2878002524 0.1145363152 2.341805152e-38
0.3109205961 -0.2495089024 0.1130534708 2.341805152e-38
0.3116512895 -0.2631584704 0.1121132374 9.871979525e-40
0.08898812532 -0.06191393733 0.1616394818 2.341805152e-38
0.08617418259 -0.125654012 0.150807023 9.871979525e-40
0.08692305535 -0.1114624515 0.1610547155 9.871979525e-40
0.08839537203 -0.08720108122 0.1411553919 9.871979525e-40
0.08869454265 -0.04933290184 0.1481290758 9.871979525e-40
0.08752321452 -0.09987363219 0.1510419846 2.341805152e-38
0.08694222569 -0.06211538613 0.1385498643 2.341805152e-38
0.08792985976 -0.07535362989 0.1509370506 9.871979525e-40
0.09108956903 -0.3945802152 0.2462048084 9.871979525e-40
0.08835930377 -0.4101760685 0.2315813303 2.341805152e-38
0.0908812955 -0.4014619589 0.2394236177 2.341805152e-38
0.09333571792 -0.3998025954 0.221155718 2.341805152e-38
0.09265346825 -0.387337625 0.2230330408 9.871979525e-40
0.08921388537 -0.3984681368 0.2302251458 2.341805152e-38
0.08915145695 -0.3979247212 0.2117448151 9.871979525e-40
0.09143470973 -0.3990993798 0.2343048155 2.341805152e-38
0.1016574055 -0.2137936652 0.3748013675 9.871979525e-40
0.09916164726 -0.2645173967 0.3636332154 9.871979525e-40
0.1006610394 -0.2530450821 0.3726704419 2.341805152e-38
0.1018525362 -0.234014079 0.3545416892 9.871979525e-40
0.1016735584 -0.2036372423 0.3601514101 2.341805152e-38
0.09974911809 -0.2439365089 0.3636336625 2.341805152e-38
0.09975685924 -0.2138307989 0.3506968319 2.341805152e-38
0.1007809341 -0.2245938927 0.364192605 9.871979525e-40
0.08889868855 -0.237143591 0.2612845004 9.871979525e-40
0.08611299098 -0.30054304 0.2507664859 9.871979525e-40
0.08681832254 -0.286429137 0.2608270645 2.341805152e-38
0.0883083269 -0.262293011 0.2413692772 9.871979525e-40
0.08864974976 -0.2246667445 0.2482655346 2.341805152e-38
0.08747799695 -0.2749048471 0.2510617971 2.341805152e-38
0.08690396696 -0.2373494357 0.2388966233 9.871979525e-40
0.0878931582 -0.250515908 0.2507905364 2.341805152e-38
0.2497810572 -0.3616524935 0.1006427854 9.871979525e-40
0.2352489382 -0.4286612272 0.1011382416 9.871979525e-40
0.2457195371 -0.4129886925 0.1012229472 2.341805152e-38
0.2474713475 -0.387683928 0.1009332314 9.871979525e-40
0.2385953218 -0.3468813002 0.1005899757 2.341805152e-38
0.2358062118 -0.401117295 0.1021436974 2.341805152e-38
0.2357217669 -0.3618428707 0.1006725952 9.871979525e-40
0.2364271879 -0.3758377135 0.09987906367 9.871979525e-40
0.09838795662 -0.02476747707 0.3639997542 2.341805152e-38
0.09258387983 -0.06850039214 0.357937634 2.341805152e-38
