# .PCD v0.7 - Point Cloud Data file format
VERSION 0.7
FIELDS x y z rgb
SIZE 4 4 4 4
TYPE F F F F
COUNT 1 1 1 1
WIDTH 824
HEIGHT 1
VIEWPOINT 0 0 0 1 0 0 0
POINTS 824
DATA ascii
-0.2259331048 -0.3254232109 -0.1749002486 8.742304551e-39
-0.2260615826 -0.3359098732 -0.1725358516 8.742304551e-39
-0.225199908 -0.3494049907 -0.1688663661 8.742304551e-39
-0.2280566692 -0.3622379005 -0.1663220078 8.742304551e-39
-0.2344514728 -0.372607708 -0.1670737118 8.742304551e-39
-0.2415920198 -0.3869799078 -0.1693857163 8.742304551e-39
-0.2534724176 -0.4058663249 -0.1709016263 8.742304551e-39
-0.256868422 -0.4064179063 -0.1782398075 8.742304551e-39
-0.2413532436 -0.3764572442 -0.1764304787 8.742304551e-39
-0.2254324555 -0.3442188799 -0.1744864285 8.742304551e-39
-0.2057084888 -0.3083483577 -0.1751554608 8.742304551e-39
-0.1855384409 -0.2715741694 -0.1742338836 8.742304551e-39
-0.1630459428 -0.2311417013 -0.172864005 8.742304551e-39
-0.1390366554 -0.200412482 -0.1723365784 8.742304551e-39
-0.1081960648 -0.1728648245 -0.1716187596 8.742304551e-39
-0.07695500553 -0.1455584615 -0.1708757281 8.742304551e-39
-0.1980706155 -0.2638429999 -0.1856155246 8.742304551e-39
-0.2197183371 -0.1895222068 -0.1804001331 8.742304551e-39
-0.2373259366 -0.1321831346 -0.1784716696 8.742304551e-39
-0.2411126792 -0.131397754 -0.1766373515 8.742304551e-39
-0.2393470705 -0.13503851 -0.1734452397 8.742304551e-39
-0.2297612727 -0.1520273089 -0.1697686166 8.742304551e-39
-0.2140140831 -0.1676386744 -0.1625093818 8.742304551e-39
-0.1937741339 -0.1818630695 -0.1564855129 8.742304551e-39
-0.184192583 -0.1949308813 -0.1508699805 8.742304551e-39
-0.1785420775 -0.2117097974 -0.1522122175 8.742304551e-39
-0.1833757758 -0.2306039929 -0.1548818946 8.742304551e-39
-0.1921604425 -0.251637876 -0.1618266404 8.742304551e-39
-0.198516801 -0.2744340897 -0.1704330742 8.742304551e-39
-0.2031342983 -0.2897290587 -0.1757451445 8.742304551e-39
-0.2058195323 -0.3002179265 -0.1776402891 8.742304551e-39
-0.2090120763 -0.3098119795 -0.1786086559 8.742304551e-39
-0.2097576261 -0.3185605407 -0.1775370836 8.742304551e-39
-0.209533751 -0.3284674883 -0.1748997569 8.742304551e-39
-0.2084842771 -0.3418403268 -0.1712590158 8.742304551e-39
-0.2079433054 -0.3554184437 -0.1674460024 8.742304551e-39
-0.2117025852 -0.3693918586 -0.1651759148 8.742304551e-39
-0.2181014121 -0.3815044463 -0.1676250994 8.742304551e-39
-0.2266463041 -0.3987053037 -0.1700526774 8.742304551e-39
-0.2342583835 -0.4144979119 -0.1752797216 8.742304551e-39
-0.223831743 -0.3922407031 -0.1816008389 8.742304551e-39
-0.2086483985 -0.3607002497 -0.1795765758 8.742304551e-39
-0.1890052259 -0.3250509501 -0.1794630587 8.742304551e-39
-0.1663668454 -0.2892563939 -0.1798303425 8.742304551e-39
-0.1442811042 -0.2490387112 -0.1779142171 8.742304551e-39
-0.1201642603 -0.2116931975 -0.1768090576 8.742304551e-39
-0.09176494181 -0.180065617 -0.175657168 8.742304551e-39
-0.06096500531 -0.1504440457 -0.1754105985 8.742304551e-39
-0.1987624168 -0.2710720599 -0.1957996488 8.742304551e-39
-0.2222473621 -0.1901216507 -0.1853589565 8.742304551e-39
-0.2371397018 -0.1296203434 -0.1801713109 8.742304551e-39
-0.2397921383 -0.1191713363 -0.1787325293 8.742304551e-39
-0.2378578186 -0.1199375466 -0.1748203486 8.742304551e-39
-0.2270199955 -0.1350361854 -0.1715195924 8.742304551e-39
-0.2126755118 -0.1522588432 -0.1651968062 8.742304551e-39
-0.1878812462 -0.1668878198 -0.1574723274 8.742304551e-39
-0.1727398783 -0.1802739799 -0.1525969654 8.742304551e-39
-0.165409103 -0.1957018375 -0.1509637982 8.742304551e-39
-0.1689971089 -0.2167128623 -0.1539305747 8.742304551e-39
-0.1752566844 -0.2360967696 -0.1595575064 8.742304551e-39
-0.1804163009 -0.255810082 -0.168377772 8.742304551e-39
-0.1860488951 -0.2771638334 -0.1756566614 8.742304551e-39
-0.1880899668 -0.2930680513 -0.1794816405 8.742304551e-39
-0.1909230649 -0.3025531769 -0.1803055406 8.742304551e-39
-0.1918389499 -0.3118392825 -0.179147318 8.742304551e-39
-0.1916889548 -0.3214117885 -0.1768564135 8.742304551e-39
-0.1917953193 -0.3342759013 -0.1735107899 8.742304551e-39
-0.1917007565 -0.3480426371 -0.1697191596 8.742304551e-39
-0.1914960593 -0.3628830314 -0.1659269482 8.742304551e-39
-0.1950951964 -0.3766599894 -0.1653993428 8.742304551e-39
-0.1990932375 -0.3923783302 -0.1681000888 8.742304551e-39
-0.2047896832 -0.4111528993 -0.1706755608 8.742304551e-39
-0.2054177821 -0.4043196738 -0.179667145 8.742304551e-39
-0.190563038 -0.3764759898 -0.1843685061 8.742304551e-39
-0.1713675261 -0.3419575989 -0.1827975363 8.742304551e-39
-0.1487022936 -0.3074531555 -0.1833735555 8.742304551e-39
-0.126234293 -0.2654210925 -0.1810007244 8.742304551e-39
-0.1027498096 -0.2221576869 -0.1782530695 8.742304551e-39
-0.07521502674 -0.1869358718 -0.1779382974 8.742304551e-39
-0.04573105648 -0.155466482 -0.1786315143 8.742304551e-39
-0.2041378319 -0.2836170793 -0.2011574209 5.820783626e-39
-0.2241732478 -0.1923097372 -0.1898203194 5.820783626e-39
-0.2377851605 -0.1288460195 -0.184081167 5.820783626e-39
-0.2367608249 -0.1060114652 -0.1777271777 5.820783626e-39
-0.2365075946 -0.1058224589 -0.176068306 5.820783626e-39
-0.2256700695 -0.1185951605 -0.1734961122 5.820783626e-39
-0.2115129232 -0.1365791857 -0.1681715846 5.820783626e-39
-0.1838597059 -0.1512473524 -0.1597199142 5.820783626e-39
-0.1614801437 -0.1649291515 -0.1539707035 5.820783626e-39
-0.1522587836 -0.1774998307 -0.1495682895 5.820783626e-39
-0.1544371098 -0.1988771409 -0.1512382329 5.820783626e-39
-0.1603895724 -0.2204120308 -0.1566399336 5.820783626e-39
-0.1659412235 -0.2407002002 -0.1658933908 5.820783626e-39
-0.1695618927 -0.2598230541 -0.1745814681 5.820783626e-39
-0.1710708141 -0.2771641314 -0.1794565618 5.820783626e-39
-0.1725012809 -0.2912081182 -0.1805856228 5.820783626e-39
-0.1740796864 -0.3041120172 -0.1801595539 5.820783626e-39
-0.1732125282 -0.3141956627 -0.178634584 5.820783626e-39
-0.1733202189 -0.3268755674 -0.1755360216 5.820783626e-39
-0.1731292605 -0.3405584395 -0.1719746292 5.820783626e-39
-0.1730256975 -0.3555817604 -0.1680567116 5.820783626e-39
-0.1715129465 -0.3703570366 -0.1644605994 5.820783626e-39
-0.1740254462 -0.3873673081 -0.1657239497 5.820783626e-39
-0.1776804477 -0.4038712978 -0.1684007496 5.820783626e-39
-0.186759457 -0.4145333171 -0.1730718762 5.820783626e-39
-0.1718321443 -0.3899718821 -0.1844418943 5.820783626e-39
-0.1535249501 -0.3592090905 -0.1863242686 5.820783626e-39
-0.1314522624 -0.3223243952 -0.1856339723 5.820783626e-39
-0.1090917885 -0.2796433568 -0.1832400709 5.820783626e-39
-0.08572989702 -0.2341959476 -0.1805531383 5.820783626e-39
-0.05797711387 -0.194032833 -0.1802275032 5.820783626e-39
-0.03278855607 -0.1627400219 -0.1807913482 5.820783626e-39
-0.2164433897 -0.2953403592 -0.2027301192 5.820783626e-39
-0.2265898585 -0.1941316575 -0.1930562258 5.820783626e-39
-0.2350337505 -0.1319543421 -0.1869609952 5.820783626e-39
-0.2349482179 -0.09705737978 -0.1804544926 5.820783626e-39
-0.2341273129 -0.0935144946 -0.1763730943 5.820783626e-39
-0.2248405516 -0.1036627814 -0.174873963 5.820783626e-39
-0.2098641694 -0.1218330115 -0.1704644859 5.820783626e-39
-0.1815288961 -0.1350213587 -0.1626223624 5.820783626e-39
-0.1562568545 -0.149310261 -0.1548829526 5.820783626e-39
-0.1409680247 -0.1604673266 -0.1492299885 5.820783626e-39
-0.1398348808 -0.1808423996 -0.1486384571 5.820783626e-39
-0.1466083527 -0.2040790021 -0.1535090506 5.820783626e-39
-0.1520658284 -0.2249207497 -0.1632825434 5.820783626e-39
-0.1549922228 -0.2446908951 -0.1720984131 5.820783626e-39
-0.15591079 -0.2624786794 -0.1772117615 5.820783626e-39
-0.1549086124 -0.2750790119 -0.1790584177 5.820783626e-39
-0.1556116045 -0.2882224917 -0.1799096614 5.820783626e-39
-0.1554754674 -0.3062549233 -0.1794945747 5.820783626e-39
-0.1547932178 -0.3198361993 -0.1774239093 5.820783626e-39
-0.1547936797 -0.3341876268 -0.1738900095 5.820783626e-39
-0.1521767676 -0.3496006131 -0.1695120782 5.820783626e-39
-0.1487674564 -0.3640935421 -0.1654393077 5.820783626e-39
-0.1478928179 -0.3825072348 -0.1635407358 5.820783626e-39
-0.15147385 -0.3994985819 -0.1646616608 5.820783626e-39
-0.1572007537 -0.4179201424 -0.1663652658 5.820783626e-39
-0.1522140801 -0.40097332 -0.1774146408 5.820783626e-39
-0.1351512074 -0.3738229871 -0.1874195486 5.820783626e-39
-0.1144188493 -0.335375905 -0.1865340024 5.820783626e-39
-0.09218306839 -0.2936668396 -0.1855288744 5.820783626e-39
-0.06868179142 -0.2462143302 -0.1828181595 5.820783626e-39
-0.04399814829 -0.2020581961 -0.1822065562 5.820783626e-39
-0.01933403313 -0.170686394 -0.1828891337 5.820783626e-39
-0.230286926 -0.2976876497 -0.1971470565 5.820783626e-39
-0.2359485924 -0.1995681226 -0.1946132928 5.820783626e-39
-0.2322082818 -0.1387269646 -0.1892159581 5.820783626e-39
-0.2356208265 -0.09476317465 -0.1845025569 5.820783626e-39
-0.2311956286 -0.08140220493 -0.1759176999 5.820783626e-39
-0.2242096066 -0.08902548254 -0.175815329 5.820783626e-39
-0.2071315646 -0.1081155017 -0.1719302684 5.820783626e-39
-0.1798477918 -0.1218816638 -0.1651521027 5.820783626e-39
-0.1524594873 -0.1340193748 -0.156805262 5.820783626e-39
-0.1310629845 -0.1443585604 -0.1495796293 5.820783626e-39
-0.1257929653 -0.1630831361 -0.1462541074 5.820783626e-39
-0.1327410191 -0.1872977763 -0.1508834213 5.820783626e-39
-0.1365081668 -0.2091582119 -0.1600474119 5.820783626e-39
-0.1397890598 -0.2294145972 -0.169177115 5.820783626e-39
-0.1410560906 -0.2470681071 -0.1750200987 5.820783626e-39
-0.1401851326 -0.2626642883 -0.177663058 5.820783626e-39
-0.1389157474 -0.2759880424 -0.1787357479 5.820783626e-39
-0.1391632855 -0.2910143137 -0.1795884967 5.820783626e-39
-0.1345769316 -0.3104691803 -0.178802371 5.820783626e-39
-0.1339682937 -0.3262488842 -0.1753447354 5.820783626e-39
-0.1302929223 -0.3420213759 -0.1712308228 5.820783626e-39
-0.1269138008 -0.3573338389 -0.1669745594 5.820783626e-39
-0.1234146059 -0.3736474812 -0.1634010822 5.820783626e-39
-0.1257864088 -0.3945459425 -0.1615037918 5.820783626e-39
-0.1321661174 -0.4110452533 -0.1632785201 5.820783626e-39
-0.1320708096 -0.4116375744 -0.1706327051 5.820783626e-39
-0.1139690429 -0.3851424158 -0.1818946004 5.820783626e-39
-0.09488345683 -0.3493096828 -0.1861820668 5.820783626e-39
-0.07401897013 -0.3076061904 -0.1864902973 5.820783626e-39
-0.05422021076 -0.25939551 -0.1841637343 5.820783626e-39
-0.03071004525 -0.2117490023 -0.1835114658 5.820783626e-39
-0.007694397122 -0.1787359118 -0.1846687496 5.820783626e-39
-0.2368111312 -0.2968546152 -0.1918274462 5.820783626e-39
-0.252487421 -0.2133123577 -0.1936898977 5.820783626e-39
-0.2347629666 -0.1474538147 -0.1899746507 5.820783626e-39
-0.2358422875 -0.09482105076 -0.1866672933 5.820783626e-39
-0.2330313921 -0.07473155856 -0.1783162504 5.820783626e-39
-0.2227490842 -0.0745350793 -0.1752628088 5.820783626e-39
-0.2072845995 -0.09413537383 -0.1731915325 5.820783626e-39
-0.178848654 -0.1095109284 -0.1673950255 5.820783626e-39
-0.1520236433 -0.1218792275 -0.1591206938 5.820783626e-39
-0.1263294965 -0.1300987899 -0.1509740204 5.820783626e-39
-0.1120253652 -0.1455831826 -0.1453235745 5.820783626e-39
-0.1149951518 -0.1705352068 -0.14890939 5.820783626e-39
-0.1188023686 -0.1936823875 -0.1573839486 5.820783626e-39
-0.1232729256 -0.213960588 -0.1669522226 5.820783626e-39
-0.1251217872 -0.2317638099 -0.1732827872 5.820783626e-39
-0.1245813817 -0.2486955971 -0.1767602265 5.820783626e-39
-0.1237027794 -0.2634615898 -0.178021431 5.820783626e-39
-0.1229061037 -0.2781569958 -0.1785228848 5.820783626e-39
-0.1173914075 -0.2959891558 -0.1794529706 5.820783626e-39
-0.1127429157 -0.3155736327 -0.1772303134 5.820783626e-39
-0.1086185724 -0.3335786462 -0.1731375009 5.820783626e-39
-0.1053400785 -0.3496712148 -0.1688012779 5.820783626e-39
-0.1012402624 -0.3645565212 -0.1644831747 5.820783626e-39
-0.1030827612 -0.3853511214 -0.1611406207 5.820783626e-39
-0.1081820279 -0.4056821167 -0.1601168662 5.820783626e-39
-0.1106116772 -0.4222750068 -0.1636463106 5.820783626e-39
-0.09292925894 -0.3949456215 -0.175406307 5.820783626e-39
-0.07470263541 -0.3627976477 -0.1858913451 5.820783626e-39
-0.05786651745 -0.3204646409 -0.1862452775 5.820783626e-39
-0.0397429429 -0.2722561061 -0.1844825596 5.820783626e-39
-0.01964921132 -0.2221337706 -0.183275789 5.820783626e-39
0.001999177039 -0.1869547516 -0.1849502921 5.820783626e-39
-0.2426362038 -0.2947301269 -0.1862147897 2.898180898e-39
-0.254021138 -0.2269738913 -0.1913656592 2.898180898e-39
-0.2529743612 -0.1568147838 -0.1878266931 2.898180898e-39
-0.2388868034 -0.09868872166 -0.1879396141 2.898180898e-39
-0.2335513532 -0.06978777051 -0.181650117 2.898180898e-39
-0.2239975929 -0.06260897964 -0.1737613678 2.898180898e-39
-0.2061227262 -0.07972762734 -0.1741263717 2.898180898e-39
-0.1780427843 -0.09723128378 -0.1693996042 2.898180898e-39
-0.1495640576 -0.1092546582 -0.1611577868 2.898180898e-39
-0.1215129644 -0.1183688194 -0.151786834 2.898180898e-39
-0.09941574931 -0.1311023682 -0.1469988525 2.898180898e-39
-0.09720377624 -0.1539652348 -0.1471302509 2.898180898e-39
-0.100529477 -0.1782264113 -0.1549696028 2.898180898e-39
-0.1059955806 -0.1987879425 -0.1646985561 2.898180898e-39
-0.1082281619 -0.2163604349 -0.1718229353 2.898180898e-39
-0.1086247861 -0.2338651866 -0.1754338443 2.898180898e-39
-0.1085700691 -0.2510370612 -0.1777236909 2.898180898e-39
-0.1068315953 -0.265247643 -0.1789868921 2.898180898e-39
-0.100168705 -0.2832282186 -0.1798414886 2.898180898e-39
-0.09349815547 -0.3023601174 -0.1782644987 2.898180898e-39
-0.08770342171 -0.3212902546 -0.1750704646 2.898180898e-39
-0.08407790959 -0.3413474262 -0.1713453978 2.898180898e-39
-0.08124862611 -0.3571243584 -0.1659125239 2.898180898e-39
-0.08085367084 -0.3760792315 -0.1608364582 2.898180898e-39
-0.08469866216 -0.3983590305 -0.1585236937 2.898180898e-39
-0.08429718018 -0.4203450382 -0.1582002789 2.898180898e-39
-0.07259552181 -0.4044206738 -0.1688930541 2.898180898e-39
-0.05847094581 -0.3740244806 -0.181635648 2.898180898e-39
-0.04464806244 -0.33303985 -0.1854640096 2.898180898e-39
-0.02824613824 -0.2846238911 -0.1842526495 2.898180898e-39
-0.00757580623 -0.2324625105 -0.1829981655 2.898180898e-39
0.0115405079 -0.1945241988 -0.1854440868 2.898180898e-39
-0.248701632 -0.2923303843 -0.1811574996 2.898180898e-39
-0.2548974752 -0.2404045016 -0.1883397847 2.898180898e-39
-0.2663269043 -0.1676633656 -0.1840112805 2.898180898e-39
-0.2507876456 -0.1058014259 -0.185939312 2.898180898e-39
-0.2394809723 -0.06477659196 -0.1829803586 2.898180898e-39
-0.2281676829 -0.05414309725 -0.1739721596 2.898180898e-39
-0.2023938298 -0.06488766521 -0.1730645597 2.898180898e-39
-0.176209569 -0.08276772499 -0.1711275578 2.898180898e-39
-0.1466932744 -0.09675296396 -0.1637480259 2.898180898e-39
-0.115539521 -0.1062606126 -0.154621616 2.898180898e-39
-0.08842146397 -0.1183899716 -0.1497242153 2.898180898e-39
-0.07942508161 -0.1385087222 -0.1461536586 2.898180898e-39
-0.08236992359 -0.1626740247 -0.1532372236 2.898180898e-39
-0.08851419389 -0.1828855574 -0.1623918563 2.898180898e-39
-0.09141112864 -0.2015980482 -0.1701923907 2.898180898e-39
-0.09295329452 -0.2192501128 -0.1743030697 2.898180898e-39
-0.09313338995 -0.2370221168 -0.1782149971 2.898180898e-39
-0.09046308696 -0.2525941133 -0.1797258854 2.898180898e-39
-0.08336524665 -0.2701616585 -0.1801584959 2.898180898e-39
-0.07545784116 -0.2912529409 -0.1799881309 2.898180898e-39
-0.06949421763 -0.3095496893 -0.177025944 2.898180898e-39
-0.06379763782 -0.3293437958 -0.1731980294 2.898180898e-39
-0.06208727881 -0.3489651978 -0.1674664021 2.898180898e-39
-0.06081559882 -0.3669298291 -0.1615289152 2.898180898e-39
-0.06171905622 -0.3895958364 -0.1577410251 2.898180898e-39
-0.06080284342 -0.4137276709 -0.1550593674 2.898180898e-39
-0.05810864642 -0.4142866731 -0.1623645872 2.898180898e-39
-0.0463317968 -0.3840188682 -0.1754992008 2.898180898e-39
-0.03320969269 -0.3456505537 -0.1843827814 2.898180898e-39
-0.01606347784 -0.2964803576 -0.1843716651 2.898180898e-39
0.004303339869 -0.2439531982 -0.1833673269 2.898180898e-39
0.02314072475 -0.201628536 -0.1856345981 2.898180898e-39
-0.2541601658 -0.2926467657 -0.179338634 2.898180898e-39
-0.2589173317 -0.2470080256 -0.183208257 2.898180898e-39
-0.2671667039 -0.1813803464 -0.1810432673 2.898180898e-39
-0.2686867118 -0.114841111 -0.1819844544 2.898180898e-39
-0.2416543961 -0.0598725304 -0.1819315851 2.898180898e-39
-0.2340419292 -0.04403107986 -0.1753281057 2.898180898e-39
-0.2065675557 -0.05370127782 -0.1710041463 2.898180898e-39
-0.1751111597 -0.06785662472 -0.1725249141 2.898180898e-39
-0.1434172243 -0.08368279785 -0.1658652425 2.898180898e-39
-0.1111386269 -0.09356284887 -0.1576640904 2.898180898e-39
-0.08043786883 -0.1063963473 -0.1517089903 2.898180898e-39
-0.06447689235 -0.1242970601 -0.1470622569 2.898180898e-39
-0.06577946246 -0.1466073543 -0.1517538577 2.898180898e-39
-0.07081127167 -0.1672509462 -0.1601984501 2.898180898e-39
-0.07481662929 -0.1863306165 -0.1682055593 2.898180898e-39
-0.07717105746 -0.2039482892 -0.1740969419 2.898180898e-39
-0.07677868009 -0.2215612531 -0.1783664227 2.898180898e-39
-0.07447752357 -0.2398078591 -0.1802271307 2.898180898e-39
-0.06702294946 -0.2573615611 -0.1808615625 2.898180898e-39
-0.05840365216 -0.2781075835 -0.1805367172 2.898180898e-39
-0.05357047543 -0.2987363935 -0.1786499768 2.898180898e-39
-0.04862930998 -0.3171704412 -0.1739777178 2.898180898e-39
-0.04555686936 -0.3416154087 -0.1688853949 2.898180898e-39
-0.043671716 -0.3581235707 -0.1627331674 2.898180898e-39
-0.04266885296 -0.3814222813 -0.1577057242 2.898180898e-39
-0.04508824274 -0.405384779 -0.1544396579 2.898180898e-39
-0.0457178615 -0.4231749475 -0.1553791314 2.898180898e-39
-0.03421200439 -0.3914764524 -0.1701658666 2.898180898e-39
-0.02166948467 -0.3557258248 -0.1834452152 2.898180898e-39
-0.004068549722 -0.3055700958 -0.1844158322 2.898180898e-39
0.01589875296 -0.2511858046 -0.183827281 2.898180898e-39
0.03458748013 -0.2061858177 -0.1861712039 2.898180898e-39
-0.2562526464 -0.2985310555 -0.181103304 2.898180898e-39
-0.2589927912 -0.2540416718 -0.1807041019 2.898180898e-39
-0.2654848397 -0.1957318187 -0.1771433949 2.898180898e-39
-0.2748481929 -0.1245897263 -0.1759295911 2.898180898e-39
-0.2617359161 -0.0624146387 -0.1786906421 2.898180898e-39
-0.2352052033 -0.03406206891 -0.1750559211 2.898180898e-39
-0.2116920948 -0.04420788214 -0.1719734669 2.898180898e-39
-0.1805216223 -0.05637673661 -0.1755742133 2.898180898e-39
-0.1414293051 -0.06979745626 -0.1686020046 2.898180898e-39
-0.1069015861 -0.08061731607 -0.1602823436 2.898180898e-39
-0.0740891844 -0.09411178529 -0.1527203172 2.898180898e-39
-0.05139970407 -0.109409973 -0.1492727548 2.898180898e-39
-0.04901720211 -0.1312129796 -0.1499890983 2.898180898e-39
-0.05470089987 -0.1529639661 -0.1578240991 2.898180898e-39
-0.05857319757 -0.1708336622 -0.1666245759 2.898180898e-39
-0.06112552062 -0.18896541 -0.1735876948 2.898180898e-39
-0.06153616682 -0.2068412602 -0.1776750982 2.898180898e-39
-0.06043711677 -0.2257806361 -0.1809954494 2.898180898e-39
-0.0537459664 -0.2447687238 -0.1817042083 2.898180898e-39
-0.04517837986 -0.265758574 -0.1810841858 2.898180898e-39
-0.04156176373 -0.2884443402 -0.1793724 2.898180898e-39
-0.03663950786 -0.3078821301 -0.1749202609 2.898180898e-39
-0.03198143467 -0.3266615272 -0.1691137105 2.898180898e-39
-0.02990275249 -0.3518862128 -0.1639698148 2.898180898e-39
-0.02843404189 -0.3747282326 -0.1585012525 2.898180898e-39
-0.03140523657 -0.3984499574 -0.1551513821 2.898180898e-39
-0.0314171873 -0.4251130819 -0.1521848887 2.898180898e-39
-0.02292056754 -0.3974944353 -0.1666606367 2.898180898e-39
-0.009977150708 -0.361538887 -0.1803429723 2.898180898e-39
0.007538795471 -0.3129695952 -0.1837334186 2.898180898e-39
0.02736506239 -0.2576408982 -0.184129253 2.898180898e-39
0.0493128784 -0.2113831043 -0.1871998161 2.898180898e-39
-0.2569846213 -0.3054078817 -0.1807172 6.490113838e-41
-0.2581014335 -0.2637023926 -0.1782804281 6.490113838e-41
-0.2615944445 -0.2112443149 -0.1756748706 6.490113838e-41
-0.2739305198 -0.1341855526 -0.1704814285 6.490113838e-41
-0.2795583606 -0.06945756823 -0.1733796448 6.490113838e-41
-0.2427305877 -0.02367769182 -0.1730236262 6.490113838e-41
-0.2214671969 -0.03448254615 -0.1751133353 6.490113838e-41
-0.1875207424 -0.04831652343 -0.1776940674 6.490113838e-41
-0.1405009776 -0.05712588876 -0.1736591309 6.490113838e-41
-0.1033565104 -0.06830412149 -0.1624981016 6.490113838e-41
-0.0702496618 -0.08240867406 -0.1545631737 6.490113838e-41
-0.04019017145 -0.09680093825 -0.1518467814 6.490113838e-41
-0.0353939496 -0.1170966104 -0.1506698281 6.490113838e-41
-0.03994974867 -0.1402571797 -0.1564552635 6.490113838e-41
-0.04490243271 -0.1587173939 -0.16525805 6.490113838e-41
-0.04804215953 -0.176768899 -0.1732300371 6.490113838e-41
-0.04914316162 -0.1951915622 -0.1778451055 6.490113838e-41
-0.04849659279 -0.2138938457 -0.1817712635 6.490113838e-41
-0.04250403121 -0.2343251705 -0.1823671162 6.490113838e-41
-0.0354658924 -0.2550204396 -0.1812339723 6.490113838e-41
-0.03118712083 -0.2780703902 -0.1797241867 6.490113838e-41
-0.02587145939 -0.2990984023 -0.1759081483 6.490113838e-41
-0.02089900523 -0.3178339601 -0.170000568 6.490113838e-41
-0.01695171744 -0.3427349925 -0.1650867909 6.490113838e-41
-0.01442226022 -0.3679962754 -0.1592054665 6.490113838e-41
-0.01762573048 -0.391643405 -0.1558180898 6.490113838e-41
-0.01794303581 -0.4167844057 -0.153108567 6.490113838e-41
-0.01190137118 -0.4025885463 -0.163907975 6.490113838e-41
0.001117739826 -0.3658937812 -0.1778527945 6.490113838e-41
0.01805860363 -0.3177790046 -0.1839215755 6.490113838e-41
0.04259072617 -0.2629258037 -0.1844146848 6.490113838e-41
0.06539450586 -0.2154752761 -0.1872908473 6.490113838e-41
-0.2580412924 -0.3125876188 -0.17999053 6.490113838e-41
-0.2568146288 -0.2730532587 -0.176458329 6.490113838e-41
-0.2602991164 -0.2205903083 -0.1735996455 6.490113838e-41
-0.2702023983 -0.1491598487 -0.1668664664 6.490113838e-41
-0.2793499529 -0.08099675179 -0.1713496149 6.490113838e-41
-0.2661333978 -0.02345910668 -0.1741707474 6.490113838e-41
-0.228903234 -0.01759874821 -0.1765903234 6.490113838e-41
-0.1919458807 -0.04094409198 -0.179082647 6.490113838e-41
-0.1529637873 -0.05198032036 -0.1798140407 6.490113838e-41
-0.1018500775 -0.060168311 -0.1645465791 6.490113838e-41
-0.06819477677 -0.07336106151 -0.1565187722 6.490113838e-41
-0.03586914018 -0.08669365197 -0.1539591849 6.490113838e-41
-0.02638367936 -0.1053820699 -0.1533894092 6.490113838e-41
-0.02602008358 -0.128030166 -0.1554860622 6.490113838e-41
-0.03188366815 -0.1476981193 -0.1639662236 6.490113838e-41
-0.03507273272 -0.1655607522 -0.1725994051 6.490113838e-41
-0.03675219044 -0.1836698055 -0.1779254079 6.490113838e-41
-0.03690926358 -0.2023134232 -0.1816074103 6.490113838e-41
-0.03283234313 -0.2236292511 -0.1823158413 6.490113838e-41
-0.02590211853 -0.2441968918 -0.1814361662 6.490113838e-41
-0.02039955556 -0.267727375 -0.1798474789 6.490113838e-41
-0.01478116959 -0.2897930145 -0.1766252667 6.490113838e-41
-0.009840629995 -0.3089640141 -0.1710058302 6.490113838e-41
-0.004040256143 -0.3278340697 -0.1654677093 6.490113838e-41
-0.001691527665 -0.3594779968 -0.1607718617 6.490113838e-41
-0.00371645391 -0.3844583631 -0.1564023048 6.490113838e-41
-0.004402093589 -0.4100525379 -0.1536795944 6.490113838e-41
-0.0008909478784 -0.4076107144 -0.161100626 6.490113838e-41
0.01243010163 -0.3699193597 -0.1755585521 6.490113838e-41
0.0340622291 -0.3222817183 -0.1838607937 6.490113838e-41
0.05838030949 -0.2676394582 -0.1848408431 6.490113838e-41
0.07983130217 -0.218508631 -0.187323004 6.490113838e-41
-0.2577742338 -0.319422543 -0.1795278639 6.490113838e-41
-0.2573916316 -0.27917853 -0.1767014265 6.490113838e-41
-0.2598468661 -0.2289368957 -0.1723893136 6.490113838e-41
-0.2666694224 -0.1637897789 -0.1669475287 6.490113838e-41
-0.276758939 -0.09290169924 -0.1704219878 6.490113838e-41
-0.2762686014 -0.02848090604 -0.1766905189 6.490113838e-41
-0.2418393791 -0.007171578705 -0.1748706996 6.490113838e-41
-0.2021050453 -0.03025243804 -0.1782568395 6.490113838e-41
-0.1642544717 -0.04741804302 -0.1833638847 6.490113838e-41
-0.1053954214 -0.05217306688 -0.1704966128 6.490113838e-41
-0.06828789413 -0.06454071403 -0.1586883068 6.490113838e-41
-0.03613904491 -0.0769361034 -0.1564967781 6.490113838e-41
-0.01839916408 -0.09380811453 -0.1555335969 6.490113838e-41
-0.01242271066 -0.1148562133 -0.1552526057 6.490113838e-41
-0.01798033714 -0.1360366493 -0.1632528752 6.490113838e-41
-0.02255518362 -0.1545635462 -0.1713955402 6.490113838e-41
-0.02537185326 -0.1724754721 -0.1768198311 6.490113838e-41
-0.02594378963 -0.1907471716 -0.1803445667 6.490113838e-41
-0.02278924361 -0.211382255 -0.1819198281 6.490113838e-41
-0.01635174453 -0.2337725312 -0.1815513521 6.490113838e-41
-0.008640676737 -0.257086575 -0.1798356622 6.490113838e-41
-0.003531020135 -0.2791708708 -0.1766946465 6.490113838e-41
0.001599896699 -0.3000798225 -0.1721253842 6.490113838e-41
0.007136374712 -0.3189172149 -0.166597113 6.490113838e-41
0.01088236645 -0.3452325761 -0.1617534012 6.490113838e-41
0.01054208353 -0.3768124878 -0.1570083946 6.490113838e-41
0.009159782901 -0.4033569992 -0.1542297304 6.490113838e-41
0.01122442633 -0.4120047092 -0.1584063023 6.490113838e-41
0.02861225232 -0.3727990389 -0.1733880937 6.490113838e-41
0.04904541746 -0.326880157 -0.1834733039 6.490113838e-41
0.07210598886 -0.272577703 -0.1852431446 6.490113838e-41
0.09352278709 -0.2215388864 -0.1871861219 6.490113838e-41
-0.2576669753 -0.3254200518 -0.1789487451 6.490113838e-41
-0.258166194 -0.2853797674 -0.1769815683 6.490113838e-41
-0.2594065964 -0.2372501343 -0.1711171418 6.490113838e-41
-0.2637013197 -0.1812828183 -0.1683301479 6.490113838e-41
-0.274245888 -0.1056871563 -0.1693368256 6.490113838e-41
-0.2787927687 -0.03980914876 -0.1774333566 6.490113838e-41
-0.2545153499 -0.003667630255 -0.1756830513 6.490113838e-41
-0.2205484509 -0.01097631454 -0.1762901992 6.490113838e-41
-0.1716609895 -0.04002597928 -0.1840434819 6.490113838e-41
-0.1227635592 -0.04854782298 -0.1769722253 6.490113838e-41
-0.0696246922 -0.05605239049 -0.162929967 6.490113838e-41
-0.03810131177 -0.06818935275 -0.1581999958 6.490113838e-41
-0.01034442335 -0.08263450861 -0.1572351903 6.490113838e-41
-0.003472775221 -0.1030590907 -0.1566588283 6.490113838e-41
-0.00405805558 -0.1243634075 -0.1615056247 6.490113838e-41
-0.01004734263 -0.1433092505 -0.1698950678 6.490113838e-41
-0.01525628194 -0.1617805958 -0.175274685 6.490113838e-41
-0.01488761976 -0.1791516989 -0.1788392365 6.490113838e-41
-0.01238821447 -0.1989048421 -0.1812527031 6.490113838e-41
-0.006375111639 -0.2232648879 -0.1815214604 6.490113838e-41
0.003557898104 -0.2460586578 -0.1797258854 6.490113838e-41
0.007918145508 -0.2682871222 -0.1766594797 6.490113838e-41
0.01330121607 -0.2899278998 -0.1728313267 6.490113838e-41
0.01850753464 -0.3098357916 -0.1676764637 6.490113838e-41
0.0272628963 -0.3298466206 -0.1619460732 6.490113838e-41
0.03090123273 -0.3688221276 -0.157307893 6.490113838e-41
0.02771255374 -0.3964882493 -0.1544376463 6.490113838e-41
0.02767858654 -0.4164823592 -0.1550773531 6.490113838e-41
0.04315342382 -0.3758867979 -0.1707967222 6.490113838e-41
0.06330440193 -0.3315278888 -0.1829884052 6.490113838e-41
0.08532010764 -0.277171731 -0.185564369 6.490113838e-41
0.1059916466 -0.2246521562 -0.1876595467 6.490113838e-41
-0.2591575384 -0.3327012658 -0.1780040115 3.015101038e-39
-0.258880496 -0.2921216488 -0.1768358946 3.015101038e-39
-0.2591744959 -0.2473206222 -0.170916006 3.015101038e-39
-0.2626819015 -0.195363462 -0.169923842 3.015101038e-39
-0.2712471485 -0.1223485321 -0.1714811921 3.015101038e-39
-0.2760105133 -0.05168705434 -0.1750551462 3.015101038e-39
-0.2591526508 -0.002229332924 -0.1757502705 3.015101038e-39
-0.2326142192 0.006776839495 -0.1768232584 3.015101038e-39
-0.1882836223 -0.02011182904 -0.1810872406 3.015101038e-39
-0.1398758739 -0.04371910915 -0.1821967512 3.015101038e-39
-0.07573279738 -0.04868156463 -0.1693875194 3.015101038e-39
-0.04059122875 -0.05984524637 -0.159710288 3.015101038e-39
-0.007383100688 -0.07326106727 -0.1579479575 3.015101038e-39
0.004915382713 -0.09206151217 -0.1582829803 3.015101038e-39
0.009495209903 -0.1126570106 -0.159191072 3.015101038e-39
0.00257210061 -0.1320738792 -0.1678301543 3.015101038e-39
-0.004577178508 -0.1507343203 -0.1734930426 3.015101038e-39
-0.004562500864 -0.1684601903 -0.1771053523 3.015101038e-39
-0.001509837806 -0.1868275106 -0.1799075007 3.015101038e-39
0.004077214748 -0.2123984694 -0.1810488403 3.015101038e-39
0.01494573429 -0.2350211442 -0.1795327216 3.015101038e-39
0.0206945315 -0.2573778629 -0.1765220016 3.015101038e-39
0.02713694796 -0.2786589265 -0.1727785319 3.015101038e-39
0.03482981399 -0.3006437421 -0.1684434116 3.015101038e-39
0.04426385462 -0.3203039169 -0.1627138108 3.015101038e-39
0.04968990386 -0.3546386957 -0.1575147212 3.015101038e-39
0.04566774145 -0.3888636827 -0.1543476135 3.015101038e-39
0.04660879821 -0.415440321 -0.1532460153 3.015101038e-39
0.05748097971 -0.378887713 -0.1685725152 3.015101038e-39
0.0769777894 -0.3362740576 -0.183764413 3.015101038e-39
0.09828979522 -0.2819708288 -0.1863145232 3.015101038e-39
0.1173538566 -0.2280800045 -0.1883154064 3.015101038e-39
-0.2634820044 -0.3413589001 -0.1760205925 3.015101038e-39
-0.2612612545 -0.299672246 -0.1765308082 3.015101038e-39
-0.2617492676 -0.2556686699 -0.1737899929 3.015101038e-39
-0.2637910247 -0.2053661197 -0.1718813479 3.015101038e-39
-0.2678969502 -0.1386756152 -0.1711543798 3.015101038e-39
-0.2721576393 -0.06289082766 -0.1730957627 3.015101038e-39
-0.261770308 -0.002977289259 -0.1763863415 3.015101038e-39
-0.2351981103 0.01184169948 -0.1790706515 3.015101038e-39
-0.2054753453 0.000365421176 -0.1778097451 3.015101038e-39
-0.1588184834 -0.02824609727 -0.1829330325 3.015101038e-39
-0.09704424441 -0.04509576783 -0.1752798855 3.015101038e-39
-0.04416821525 -0.05213254318 -0.165244773 3.015101038e-39
-0.008426513523 -0.06401766837 -0.1597072333 3.015101038e-39
0.01302678511 -0.08154840022 -0.1591747701 3.015101038e-39
0.01908152178 -0.1005593836 -0.1588874012 3.015101038e-39
0.01522444934 -0.120839484 -0.1653798372 3.015101038e-39
0.00749495998 -0.1398803443 -0.171485886 3.015101038e-39
0.006777022034 -0.157864809 -0.1753036976 3.015101038e-39
0.009740196168 -0.175589323 -0.178100884 3.015101038e-39
0.01625604928 -0.1999990344 -0.1803614497 3.015101038e-39
0.02857102826 -0.2238733023 -0.1792221814 3.015101038e-39
0.03787794337 -0.2464367747 -0.1760782599 3.015101038e-39
0.04355879873 -0.2674828172 -0.1725322753 3.015101038e-39
0.05060943216 -0.2898057699 -0.1684270054 3.015101038e-39
0.05950585008 -0.3114757836 -0.1634661555 3.015101038e-39
0.06650362909 -0.3385560215 -0.1579393893 3.015101038e-39
0.06323813647 -0.3818767965 -0.1554638892 3.015101038e-39
0.06321102381 -0.4111845195 -0.1537428498 3.015101038e-39
0.0719833374 -0.3818361461 -0.1671489775 3.015101038e-39
0.09061250091 -0.3391675651 -0.1840326786 3.015101038e-39
0.1097369045 -0.2864139676 -0.187816456 3.015101038e-39
0.1284831613 -0.2327911258 -0.1902492046 3.015101038e-39
-0.2679011524 -0.3498184383 -0.1794140935 3.015101038e-39
-0.2640057504 -0.3086468577 -0.1778047383 3.015101038e-39
-0.2634889483 -0.2640299797 -0.1764181554 3.015101038e-39
-0.2639425993 -0.2162998915 -0.1729195565 3.015101038e-39
-0.2651127875 -0.1569109559 -0.1709418595 3.015101038e-39
-0.2691692412 -0.07492086291 -0.1724357754 3.015101038e-39
-0.2629117668 -0.008717730641 -0.177300632 3.015101038e-39
-0.2398990691 0.01443002373 -0.1800183803 3.015101038e-39
-0.2127710283 0.01587062329 -0.1752201915 3.015101038e-39
-0.1720137149 -0.009167388082 -0.1827494502 3.015101038e-39
-0.1116453409 -0.03244085982 -0.1765640825 3.015101038e-39
-0.05042638257 -0.04477836937 -0.1703069508 3.015101038e-39
-0.01164859533 -0.05558658391 -0.1616589725 3.015101038e-39
0.01938868314 -0.07094959915 -0.1593336165 3.015101038e-39
0.02740906924 -0.09012363106 -0.1594090015 3.015101038e-39
0.0301938355 -0.1095185801 -0.1625830978 3.015101038e-39
0.02308277413 -0.1287689209 -0.1690946817 3.015101038e-39
0.02167259157 -0.1473341286 -0.1734414101 3.015101038e-39
0.02493552864 -0.16516307 -0.1759560108 3.015101038e-39
0.03275389597 -0.187827155 -0.1790857017 3.015101038e-39
0.04374495149 -0.2127357572 -0.1790892929 3.015101038e-39
0.05337588117 -0.235199973 -0.1760911345 3.015101038e-39
0.05944536254 -0.2564912438 -0.1729098558 3.015101038e-39
0.06509017199 -0.2789332271 -0.1694469452 3.015101038e-39
0.07315553725 -0.3029667437 -0.1656058729 3.015101038e-39
0.08019351959 -0.3275862038 -0.1597462893 3.015101038e-39
0.07976904511 -0.3745893538 -0.1568934619 3.015101038e-39
0.07916432619 -0.4055047631 -0.1547202021 3.015101038e-39
0.08638311923 -0.3849329054 -0.1655860692 3.015101038e-39
0.1032587141 -0.3415748179 -0.18312186 3.015101038e-39
0.1208986193 -0.2910238504 -0.1892634779 3.015101038e-39
0.1394479424 -0.2376128137 -0.1921149194 3.015101038e-39
-0.2730096281 -0.3592628241 -0.1826150268 3.015101038e-39
-0.269192636 -0.3191860914 -0.1841136217 3.015101038e-39
-0.2652560174 -0.2731220424 -0.179020077 3.015101038e-39
-0.2638442814 -0.2277208418 -0.1743239909 3.015101038e-39
-0.2631111741 -0.1729671657 -0.1721936315 3.015101038e-39
-0.2657534182 -0.09102287889 -0.1727623343 3.015101038e-39
-0.265039891 -0.01556070149 -0.1782030016 3.015101038e-39
-0.2432895899 0.01454841346 -0.180946216 3.015101038e-39
-0.215591073 0.02478523552 -0.1788896322 3.015101038e-39
-0.1846215278 0.01024407148 -0.1798107624 3.015101038e-39
-0.1322398037 -0.01580744237 -0.1771528274 3.015101038e-39
-0.06796836853 -0.03830739111 -0.174153626 3.015101038e-39
-0.01536292955 -0.04724752158 -0.1663009822 3.015101038e-39
0.02029121481 -0.06088598445 -0.1601601541 3.015101038e-39
0.0371748805 -0.07954853028 -0.1599160284 3.015101038e-39
0.04236376286 -0.09845820814 -0.1608895957 3.015101038e-39
0.03968124092 -0.1175391302 -0.1664878279 3.015101038e-39
0.03743354604 -0.1368614733 -0.1714236736 3.015101038e-39
0.0401250273 -0.1547527015 -0.1738698632 3.015101038e-39
0.04730050638 -0.1766223311 -0.1779630631 3.015101038e-39
0.05811150372 -0.2022583485 -0.1793982983 3.015101038e-39
0.06755184382 -0.2245392948 -0.1766963303 3.015101038e-39
0.07358225435 -0.2462152541 -0.1740807891 3.015101038e-39
0.07999937981 -0.2687574625 -0.1707485616 3.015101038e-39
0.08650889248 -0.2931844294 -0.1670335382 3.015101038e-39
0.09353139997 -0.3195281327 -0.161966905 3.015101038e-39
0.09430237114 -0.3599607348 -0.158107996 3.015101038e-39
0.09462063015 -0.398206383 -0.1562099606 3.015101038e-39
0.1000441015 -0.3880499899 -0.1636916101 3.015101038e-39
0.1152403653 -0.3444677889 -0.1820567101 3.015101038e-39
0.1320593953 -0.2956336141 -0.1907108575 3.015101038e-39
0.1504130065 -0.2424347997 -0.1939807385 3.015101038e-39
-0.2786054015 -0.3717876077 -0.1847731173 5.962428276e-39
-0.2737473249 -0.331502974 -0.1917232126 5.962428276e-39
-0.2692078054 -0.2823284566 -0.1870562285 5.962428276e-39
-0.2654492557 -0.236954689 -0.1791578233 5.962428276e-39
-0.2634434104 -0.1839994639 -0.1762875468 5.962428276e-39
-0.2636834681 -0.1089863479 -0.1764782667 5.962428276e-39
-0.265978694 -0.0282779485 -0.1797443926 5.962428276e-39
-0.2477875948 0.01341556013 -0.1825525016 5.962428276e-39
-0.2200291753 0.02815064043 -0.1817679703 5.962428276e-39
-0.1954203993 0.02360453457 -0.1778249443 5.962428276e-39
-0.1530829072 0.00286347419 -0.1781518459 5.962428276e-39
-0.0837187171 -0.02263641357 -0.1737593561 5.962428276e-39
-0.02339867875 -0.04053141549 -0.1715083569 5.962428276e-39
0.02068686485 -0.05277776346 -0.1617340595 5.962428276e-39
0.04677467048 -0.06905440986 -0.160496667 5.962428276e-39
0.05375431851 -0.0875293687 -0.1605471075 5.962428276e-39
0.05510025844 -0.1070648879 -0.1634315699 5.962428276e-39
0.05190531909 -0.1261795312 -0.168958962 5.962428276e-39
0.05343705416 -0.1449792981 -0.1725929081 5.962428276e-39
0.06000874564 -0.1666238308 -0.1771089584 5.962428276e-39
0.07153655589 -0.1909551173 -0.1799421757 5.962428276e-39
0.08096012473 -0.2143037021 -0.1776044518 5.962428276e-39
0.08776485175 -0.2366096973 -0.1746518463 5.962428276e-39
0.0947561115 -0.258785069 -0.1718303412 5.962428276e-39
0.09963019192 -0.2833834291 -0.1683866382 5.962428276e-39
0.1065019965 -0.3119653463 -0.1642858386 5.962428276e-39
0.1076833755 -0.3452902436 -0.1595554352 5.962428276e-39
0.1080330014 -0.3907664716 -0.1575448215 5.962428276e-39
0.112425074 -0.3907567263 -0.1614897847 5.962428276e-39
0.1272866279 -0.3477216661 -0.1807744801 5.962428276e-39
0.1432204247 -0.3002437353 -0.1921580434 5.962428276e-39
0.1611688882 -0.2470800281 -0.1957722008 5.962428276e-39
-0.283993125 -0.3842775822 -0.1865902543 5.962428276e-39
-0.2785760164 -0.3451833129 -0.1962106973 5.962428276e-39
-0.273735702 -0.2924850583 -0.1958207339 5.962428276e-39
-0.2687466443 -0.2455377579 -0.1897289753 5.962428276e-39
-0.2642722428 -0.1940505803 -0.181577459 5.962428276e-39
-0.2619987428 -0.1271019876 -0.1810110956 5.962428276e-39
-0.2641276717 -0.04594568163 -0.1829128414 5.962428276e-39
-0.2531647086 0.009350642562 -0.1862485707 5.962428276e-39
-0.2249928713 0.0293264389 -0.1851350516 5.962428276e-39
-0.1996943802 0.03308530897 -0.1775824577 5.962428276e-39
-0.1663092226 0.02095116675 -0.177397579 5.962428276e-39
-0.1045849025 -0.007093191147 -0.1744068414 5.962428276e-39
-0.03754713759 -0.02976256236 -0.1731964052 5.962428276e-39
0.02055898868 -0.04389432445 -0.1647512913 5.962428276e-39
0.04717091843 -0.0594015345 -0.1618243009 5.962428276e-39
0.06347540766 -0.07770248502 -0.1601866633 5.962428276e-39
0.0660687387 -0.09703383595 -0.1614370048 5.962428276e-39
0.06387715787 -0.1165628284 -0.1674709767 5.962428276e-39
0.0656895414 -0.1356699467 -0.1719612926 5.962428276e-39
0.07272967696 -0.1567178965 -0.1764572412 5.962428276e-39
0.08403119445 -0.1801438332 -0.1803009212 5.962428276e-39
0.09474944323 -0.2040389627 -0.1786437929 5.962428276e-39
0.1020290256 -0.2269383073 -0.1753669679 5.962428276e-39
0.1091641486 -0.2493184656 -0.1724717915 5.962428276e-39
0.113844201 -0.2744116783 -0.1692364067 5.962428276e-39
0.1190431863 -0.3031671941 -0.1655746549 5.962428276e-39
0.1206076145 -0.3322719038 -0.1612901241 5.962428276e-39
0.1206847429 -0.3829437494 -0.1589334309 5.962428276e-39
0.1247698069 -0.3933383226 -0.1594897062 5.962428276e-39
0.1393926144 -0.3510146737 -0.1792877614 5.962428276e-39
0.1543895751 -0.3047160506 -0.1938371807 5.962428276e-39
0.1720746756 -0.2511858344 -0.1973470747 5.962428276e-39
-0.2887049317 -0.3950503469 -0.1873890162 5.962428276e-39
-0.2839389145 -0.3595403135 -0.198715508 5.962428276e-39
-0.2780115902 -0.3039262593 -0.2032449543 5.962428276e-39
-0.2727814913 -0.2541631758 -0.1998272985 5.962428276e-39
-0.2663140297 -0.2054281533 -0.1899693161 5.962428276e-39
-0.2615644336 -0.1445030421 -0.1883161366 5.962428276e-39
-0.2635145187 -0.06445555389 -0.190235883 5.962428276e-39
-0.2604058683 0.003840722144 -0.1925750971 5.962428276e-39
-0.2314587235 0.02779373527 -0.1891099215 5.962428276e-39
-0.2045080215 0.03805969656 -0.1798535585 5.962428276e-39
-0.1775366813 0.03264574707 -0.178337723 5.962428276e-39
-0.1326589584 0.01056241989 -0.1751618683 5.962428276e-39
-0.05061450973 -0.01483796537 -0.1727854759 5.962428276e-39
0.01684859209 -0.03667667881 -0.1700148731 5.962428276e-39
0.04810979962 -0.04987426847 -0.1628418267 5.962428276e-39
0.07140217721 -0.06882487237 -0.1613430977 5.962428276e-39
0.07511818409 -0.0869217962 -0.1619322151 5.962428276e-39
0.07538835704 -0.1070448682 -0.1659565717 5.962428276e-39
0.07751319557 -0.1265877485 -0.1709153205 5.962428276e-39
0.08592811972 -0.1468701959 -0.1759428382 5.962428276e-39
0.096596919 -0.1698235273 -0.1801466644 5.962428276e-39
0.1082050055 -0.1940622628 -0.1797172576 5.962428276e-39
0.1159372926 -0.2167927176 -0.1764817536 5.962428276e-39
0.1229622215 -0.2405352294 -0.1729945242 5.962428276e-39
0.127865389 -0.2657189369 -0.1699503809 5.962428276e-39
0.13009426 -0.294434309 -0.1662454754 5.962428276e-39
0.1325644851 -0.3249425292 -0.162786141 5.962428276e-39
0.1331547648 -0.3709457517 -0.1600397974 5.962428276e-39
0.1348996907 -0.3916827142 -0.1604501158 5.962428276e-39
0.1517766714 -0.3541540802 -0.1776962727 5.962428276e-39
0.1660359055 -0.3093493879 -0.1955178678 5.962428276e-39
0.1830176264 -0.2553479671 -0.1991274953 5.962428276e-39
-0.2883147895 -0.4031462073 -0.1859084219 5.962428276e-39
-0.2881840467 -0.3723240197 -0.2008024305 5.962428276e-39
-0.2828897238 -0.3176801205 -0.2071692795 5.962428276e-39
-0.2773367167 -0.2648290992 -0.2081537694 5.962428276e-39
-0.2700160146 -0.2145396322 -0.2004959583 5.962428276e-39
-0.2634208798 -0.1582469046 -0.1958723217 5.962428276e-39
-0.2635121047 -0.08074072748 -0.1977308989 5.962428276e-39
-0.2641342878 -0.00577801466 -0.1992391795 5.962428276e-39
-0.2400515079 0.02561191469 -0.1958701015 5.962428276e-39
-0.2114621997 0.04107451439 -0.1837547123 5.962428276e-39
-0.1875240058 0.04027210176 -0.1784765869 5.962428276e-39
-0.1502660513 0.02764380723 -0.1758310646 5.962428276e-39
-0.06906430423 0.0004071518779 -0.1731605977 5.962428276e-39
0.002219438553 -0.02165141702 -0.1711914986 5.962428276e-39
0.05153467879 -0.04174143448 -0.1645492315 5.962428276e-39
0.07253348827 -0.05965971202 -0.1640133262 5.962428276e-39
0.08366274834 -0.07727693021 -0.1631428897 5.962428276e-39
0.08626787364 -0.09783483297 -0.16465725 5.962428276e-39
0.09001719207 -0.1173371896 -0.1697772592 5.962428276e-39
0.09922656417 -0.1377242059 -0.1750105768 5.962428276e-39
0.1094512939 -0.1598076224 -0.1793670505 5.962428276e-39
0.1206319779 -0.1837452948 -0.1807817817 5.962428276e-39
0.1298587322 -0.2065737396 -0.177622959 5.962428276e-39
0.1357540935 -0.2319348752 -0.1740527004 5.962428276e-39
0.1392970383 -0.2571336627 -0.1707487106 5.962428276e-39
0.1406976879 -0.2856559753 -0.1671093404 5.962428276e-39
0.1445645094 -0.3157819211 -0.1632607579 5.962428276e-39
0.1453640014 -0.3565402627 -0.1604479253 5.962428276e-39
0.1448205113 -0.3903924227 -0.1608188152 5.962428276e-39
0.164021045 -0.3571351171 -0.1761253625 5.962428276e-39
0.1781098545 -0.3138071001 -0.1968010217 5.962428276e-39
0.1941611022 -0.2594766021 -0.2010333836 5.962428276e-39
-0.2881279588 -0.4121345878 -0.1846365482 8.906165387e-39
-0.2871507108 -0.3850712776 -0.2028911412 8.906165387e-39
-0.287260443 -0.3337230384 -0.2106101364 8.906165387e-39
-0.2823385 -0.2777786255 -0.212640211 8.906165387e-39
-0.2750372887 -0.2249142528 -0.2103653997 8.906165387e-39
-0.2660924196 -0.170408994 -0.2036969066 8.906165387e-39
-0.2641155124 -0.09786906838 -0.204768002 8.906165387e-39
-0.2649754584 -0.01684892178 -0.2059400976 8.906165387e-39
-0.2497605979 0.02337687463 -0.1996529549 8.906165387e-39
-0.2213065624 0.03924867511 -0.1899491102 8.906165387e-39
-0.1956056207 0.04456350207 -0.1779441088 8.906165387e-39
-0.1619588286 0.0388174504 -0.1781794727 8.906165387e-39
-0.09633004665 0.01576851308 -0.1744963378 8.906165387e-39
-0.01157706976 -0.006217285991 -0.1722237319 8.906165387e-39
0.05313418806 -0.03367523104 -0.1702913493 8.906165387e-39
0.07525843382 -0.0497639589 -0.1658794284 8.906165387e-39
0.09119230509 -0.06817005575 -0.1648644209 8.906165387e-39
0.09681010991 -0.08778233826 -0.1648433954 8.906165387e-39
0.1027170867 -0.1077172607 -0.1682817638 8.906165387e-39
0.111704275 -0.1279283166 -0.1733875573 8.906165387e-39
0.1217312217 -0.1503170729 -0.1783314645 8.906165387e-39
0.1329706013 -0.1727819741 -0.1814736724 8.906165387e-39
0.1424903274 -0.1976719797 -0.1790499538 8.906165387e-39
0.1479453892 -0.2230039835 -0.1754119098 8.906165387e-39
0.1499433517 -0.2485523969 -0.1716177464 8.906165387e-39
0.1516382247 -0.2767426968 -0.1679230034 8.906165387e-39
0.155562073 -0.3066224456 -0.1639648825 8.906165387e-39
0.1579879969 -0.3427543342 -0.1610716581 8.906165387e-39
0.1561471671 -0.3875956237 -0.1610518992 8.906165387e-39
0.1762171537 -0.3614462018 -0.1731931269 8.906165387e-39
0.1905639917 -0.3172661662 -0.1947793216 8.906165387e-39
0.2050433308 -0.2639285624 -0.2021570355 8.906165387e-39
-0.2904209197 -0.4230878949 -0.1855810732 8.906165387e-39
-0.2859176397 -0.3951185048 -0.2040510476 8.906165387e-39
-0.2864323854 -0.3502390385 -0.2139817625 8.906165387e-39
-0.2868216038 -0.2910469174 -0.2160983086 8.906165387e-39
-0.2796989083 -0.2361495197 -0.2169483602 8.906165387e-39
-0.2679519951 -0.1853179783 -0.2112401426 8.906165387e-39
-0.2650316358 -0.1177358404 -0.2118968219 8.906165387e-39
-0.2662846744 -0.03189204633 -0.2112793177 8.906165387e-39
-0.2616695464 0.02067942917 -0.2064491212 8.906165387e-39
-0.2305577993 0.0370799154 -0.1940858662 8.906165387e-39
-0.2021349967 0.04790392518 -0.1804755926 8.906165387e-39
-0.1708527058 0.04553645849 -0.179306969 8.906165387e-39
-0.1181197613 0.03127787262 -0.176312089 8.906165387e-39
-0.02708325163 0.007894657552 -0.1737938374 8.906165387e-39
0.03952948004 -0.01824592054 -0.1715262979 8.906165387e-39
0.07820475101 -0.03980340064 -0.1670591682 8.906165387e-39
0.09597329795 -0.05876031518 -0.166859746 8.906165387e-39
0.1065043807 -0.07706800848 -0.1656663567 8.906165387e-39
0.1156122535 -0.09785756469 -0.1668242812 8.906165387e-39
0.124190703 -0.1176483035 -0.171753794 8.906165387e-39
0.1338283271 -0.1404743344 -0.1773211956 8.906165387e-39
0.1448193938 -0.163299799 -0.1809520721 8.906165387e-39
0.1544169188 -0.1894460618 -0.1806149185 8.906165387e-39
0.1583667696 -0.2147450745 -0.1767320484 8.906165387e-39
0.160802424 -0.2395815104 -0.1725231558 8.906165387e-39
0.1626523733 -0.2678463161 -0.168726638 8.906165387e-39
0.1659682095 -0.2975958288 -0.1647766382 8.906165387e-39
0.1714912802 -0.3306696713 -0.1614553332 8.906165387e-39
0.1702960432 -0.3827054203 -0.1612278223 8.906165387e-39
0.1886165887 -0.3647353053 -0.1705240011 8.906165387e-39
0.2027416378 -0.3218947053 -0.192229256 8.906165387e-39
0.2149643749 -0.2702941 -0.2016848624 8.906165387e-39
-0.293391645 -0.4344534874 -0.188223809 8.906165387e-39
-0.2851265669 -0.4037632644 -0.2022362351 8.906165387e-39
-0.2852216363 -0.366636008 -0.2174634635 8.906165387e-39
-0.2860020399 -0.3047472835 -0.2195836902 8.906165387e-39
-0.2841411531 -0.2485259622 -0.2209801972 8.906165387e-39
-0.2739924788 -0.1962282807 -0.2176676989 8.906165387e-39
-0.2667576075 -0.1381143034 -0.2187005579 8.906165387e-39
-0.2677977681 -0.05321720243 -0.2160482407 8.906165387e-39
-0.2701016366 0.01572062075 -0.2101742774 8.906165387e-39
-0.2403286099 0.03533658385 -0.1992818117 8.906165387e-39
-0.2107978761 0.04947808385 -0.184978947 8.906165387e-39
-0.1827809513 0.04925066233 -0.178743273 8.906165387e-39
-0.1377880871 0.04311966896 -0.179144904 8.906165387e-39
-0.05113926902 0.02076295018 -0.17508623 8.906165387e-39
0.02501735836 -0.002102717757 -0.1716116518 8.906165387e-39
0.08072286844 -0.0307405293 -0.1701400131 8.906165387e-39
0.09991948307 -0.04916500673 -0.1681279838 8.906165387e-39
0.1152209789 -0.06767481565 -0.1668440551 8.906165387e-39
0.126908049 -0.08793931454 -0.1669786721 8.906165387e-39
0.136699453 -0.1076766774 -0.1702576876 8.906165387e-39
0.1450902075 -0.1303180158 -0.1758645475 8.906165387e-39
0.1569151878 -0.1540469527 -0.1800804436 8.906165387e-39
0.1655262113 -0.1812296659 -0.1814252287 8.906165387e-39
0.1689341962 -0.206264317 -0.1780221611 8.906165387e-39
0.1718875021 -0.230952248 -0.1739742756 8.906165387e-39
0.1738668531 -0.2596528232 -0.1701890379 8.906165387e-39
0.1770709902 -0.289511025 -0.1662856638 8.906165387e-39
0.1843543649 -0.3207695186 -0.161979273 8.906165387e-39
0.1846062988 -0.3750769496 -0.1612219661 8.906165387e-39
0.2007567436 -0.3678075373 -0.168372497 8.906165387e-39
0.2149248719 -0.3265720606 -0.1896832287 8.906165387e-39
0.2251039445 -0.2767516971 -0.2006868422 8.906165387e-39
-0.2935037315 -0.4445180893 -0.1863699853 8.906165387e-39
-0.2866749763 -0.4137402773 -0.2017486691 8.906165387e-39
-0.2843048275 -0.3820257485 -0.220787555 8.906165387e-39
-0.284673512 -0.3209378123 -0.2229752243 8.906165387e-39
-0.2834437191 -0.2619985342 -0.2247582972 8.906165387e-39
-0.27933833 -0.2084881514 -0.2233514488 8.906165387e-39
-0.2706263363 -0.1535452604 -0.223538667 8.906165387e-39
-0.2696428001 -0.07445529103 -0.2208273113 8.906165387e-39
