# .PCD v0.7 - Point Cloud Data file format
VERSION 0.7
FIELDS x y z rgb
SIZE 4 4 4 4
TYPE F F F F
COUNT 1 1 1 1
WIDTH 828
HEIGHT 1
VIEWPOINT 0 0 0 1 0 0 0
POINTS 828
DATA ascii
-0.3110127449 -0.2162948549 -0.2536838055 2.898180898e-39
-0.248467952 -0.1586159468 -0.2599717975 2.898180898e-39
-0.1609200388 -0.1196608841 -0.2469830066 2.898180898e-39
-0.08212633431 -0.07604487985 -0.2154450268 2.898180898e-39
-0.03155321628 -0.03275418654 -0.1198411584 2.898180898e-39
0.04598883912 -0.03149275482 -0.01141299307 2.898180898e-39
0.1306162328 -0.06862326711 0.07380843163 2.898180898e-39
0.1475344598 -0.1642615199 0.09332823008 2.898180898e-39
0.1281589419 -0.2612706423 0.08661925793 2.898180898e-39
0.1197967306 -0.3305244148 0.08458314836 2.898180898e-39
0.1275289357 -0.3909412324 0.07724833488 2.898180898e-39
0.1357090622 -0.4262443185 0.06860630214 2.898180898e-39
0.1420810223 -0.4479773343 0.07257757336 2.898180898e-39
0.1538739502 -0.4644611478 0.08424704522 2.898180898e-39
0.1786890924 -0.465093255 0.1081830561 2.898180898e-39
0.1994149387 -0.4608768225 0.1263759732 2.898180898e-39
0.2216570675 -0.4574099183 0.1442911029 2.898180898e-39
0.2433336973 -0.4539499581 0.1644486934 2.898180898e-39
0.2655510902 -0.427975446 0.1744181961 2.898180898e-39
0.2826063335 -0.3854897022 0.1735960543 2.898180898e-39
0.2972967923 -0.3436785936 0.1695301086 2.898180898e-39
-0.1159642637 -0.4917647541 0.1503516436 2.898180898e-39
-0.1662680954 -0.4905179441 0.1056520343 2.898180898e-39
-0.2234516442 -0.489556849 0.05582759157 2.898180898e-39
-0.2825948 -0.4891711473 0.00411644578 2.898180898e-39
-0.3295898139 -0.4890976846 -0.04241470993 2.898180898e-39
-0.3652111292 -0.4892571568 -0.0834152922 2.898180898e-39
-0.3986217976 -0.4889452457 -0.1236104816 2.898180898e-39
-0.4158788025 -0.4733249247 -0.1722108722 2.898180898e-39
-0.4287343621 -0.4551674128 -0.2195661515 2.898180898e-39
-0.4185085297 -0.416484803 -0.2482524961 2.898180898e-39
-0.3804351091 -0.3373731673 -0.25429672 2.898180898e-39
-0.3435244858 -0.2220704854 -0.2582882643 2.898180898e-39
-0.2902519405 -0.1543183923 -0.2617846727 2.898180898e-39
-0.215251267 -0.1119744927 -0.2539836168 2.898180898e-39
-0.1123075336 -0.05848321319 -0.2204283029 2.898180898e-39
-0.04204304516 -0.008127536625 -0.131804347 2.898180898e-39
0.03114573658 0.003867052495 -0.03010908514 2.898180898e-39
0.1269587576 -0.01642727852 0.06190030649 2.898180898e-39
0.1786882132 -0.09000897408 0.1009443551 2.898180898e-39
0.1591741443 -0.2103389502 0.09270151705 2.898180898e-39
0.1474711001 -0.2866924703 0.09139695764 2.898180898e-39
0.1473427415 -0.3518294394 0.0743521452 2.898180898e-39
0.1567984819 -0.405562222 0.06197795272 2.898180898e-39
0.1590230167 -0.4350959361 0.0550349243 2.898180898e-39
0.1636413783 -0.46000126 0.06198205799 2.898180898e-39
0.1846284419 -0.4644605517 0.08681858331 2.898180898e-39
0.2056163847 -0.4606548548 0.104977943 2.898180898e-39
0.2278435975 -0.4572733045 0.1236190721 2.898180898e-39
0.2570454478 -0.4538857639 0.1449992359 2.898180898e-39
0.2815617919 -0.4364675283 0.1591817737 2.898180898e-39
0.2963771224 -0.3939381242 0.1591569483 2.898180898e-39
0.3030392528 -0.3503255546 0.1546255052 2.898180898e-39
-0.1080999672 -0.4921611249 0.1423580647 6.490113838e-41
-0.1587688327 -0.4908633232 0.09798906744 6.490113838e-41
-0.2158266604 -0.4898883402 0.04780867323 6.490113838e-41
-0.2739852965 -0.4892468452 -0.004319805652 6.490113838e-41
-0.3194838762 -0.4891257286 -0.05001305044 6.490113838e-41
-0.3549847007 -0.4892338812 -0.09151688218 6.490113838e-41
-0.3890995383 -0.4896840751 -0.1312417239 6.490113838e-41
-0.4128933847 -0.4778915644 -0.1800247133 6.490113838e-41
-0.4277673066 -0.4595884383 -0.2281116098 6.490113838e-41
-0.4367083907 -0.4179825187 -0.2496228963 6.490113838e-41
-0.4098568857 -0.3408798873 -0.2493330389 6.490113838e-41
-0.3747772872 -0.2277584076 -0.2602420449 6.490113838e-41
-0.3296106756 -0.1543436199 -0.2619587779 6.490113838e-41
-0.2682744563 -0.1084020883 -0.2607233524 6.490113838e-41
-0.1641677022 -0.0519522354 -0.2313757986 6.490113838e-41
-0.05966262519 -0.001112267375 -0.1552061886 6.490113838e-41
0.01532825083 0.02693874389 -0.04871101677 6.490113838e-41
0.1169440523 0.02542494237 0.0508601889 6.490113838e-41
0.1988084912 -0.02595464885 0.1034483388 6.490113838e-41
0.1853502542 -0.1490117013 0.0967939049 6.490113838e-41
0.1716741621 -0.2421398163 0.0888568759 6.490113838e-41
0.1682415903 -0.3109156191 0.07149331272 6.490113838e-41
0.1741387397 -0.3722876906 0.05468218774 6.490113838e-41
0.1758150309 -0.4173566103 0.03948718682 6.490113838e-41
0.180513531 -0.4477146268 0.04482484981 6.490113838e-41
0.1898779422 -0.4631053805 0.06319355965 6.490113838e-41
0.2110745758 -0.4604665041 0.0841640681 6.490113838e-41
0.240930602 -0.4571056962 0.1040539443 6.490113838e-41
0.2697645426 -0.4539273977 0.1251919568 6.490113838e-41
0.2937557697 -0.4448995292 0.1432558 6.490113838e-41
0.3003556132 -0.4016260505 0.1429241002 6.490113838e-41
0.3078996539 -0.3571799994 0.1403190792 6.490113838e-41
-0.1002229899 -0.4925720692 0.1350234449 6.490113838e-41
-0.1511523128 -0.491312772 0.08969056606 6.490113838e-41
-0.2075979412 -0.4902554452 0.04026222229 6.490113838e-41
-0.2648783326 -0.4894579649 -0.01181398332 6.490113838e-41
-0.3094725311 -0.4891595244 -0.05808380991 6.490113838e-41
-0.3442635834 -0.4892710447 -0.09983879328 6.490113838e-41
-0.3784801662 -0.4896565378 -0.1399078965 6.490113838e-41
-0.4071937799 -0.4824945331 -0.1875977367 6.490113838e-41
-0.4245334268 -0.4637548029 -0.2364862412 6.490113838e-41
-0.4360829294 -0.4196759462 -0.2496763319 6.490113838e-41
-0.4345468879 -0.3451374173 -0.2417095453 6.490113838e-41
-0.4078065455 -0.234691143 -0.2533591986 6.490113838e-41
-0.3629455864 -0.1541009843 -0.2622162104 6.490113838e-41
-0.3061583638 -0.1062711775 -0.2631409168 6.490113838e-41
-0.220590502 -0.04770706967 -0.2392175347 6.490113838e-41
-0.1037141979 0.00531219691 -0.1734754443 6.490113838e-41
-0.002190183848 0.03632608801 -0.07010284066 6.490113838e-41
0.1029172838 0.04481166601 0.02854393981 6.490113838e-41
0.2034880221 0.02013459802 0.09458528459 6.490113838e-41
0.2101802826 -0.07813156396 0.1007604897 6.490113838e-41
0.1905005723 -0.1993744671 0.08570518345 6.490113838e-41
0.1865086257 -0.2680100501 0.0735405609 6.490113838e-41
0.1908317804 -0.3304369748 0.05215767771 6.490113838e-41
0.191560179 -0.3845995665 0.03154025227 6.490113838e-41
0.1974047869 -0.4324736297 0.02825303935 6.490113838e-41
0.2040612698 -0.455008924 0.04063035548 6.490113838e-41
0.2240236849 -0.4604434073 0.06376594305 6.490113838e-41
0.2519571185 -0.4569480419 0.08343724161 6.490113838e-41
0.2782513201 -0.4539444149 0.104798533 6.490113838e-41
0.2997452617 -0.4508078396 0.1261267066 6.490113838e-41
0.3045241535 -0.4089182913 0.1265682876 6.490113838e-41
0.3127008379 -0.3641382754 0.1259302199 6.490113838e-41
-0.09170931578 -0.4929962456 0.1275173724 6.490113838e-41
-0.1425683945 -0.4917387068 0.08202631772 6.490113838e-41
-0.1990039051 -0.4906397462 0.03253974766 6.490113838e-41
-0.2561470568 -0.4898252189 -0.02013255283 6.490113838e-41
-0.2996972501 -0.4892874062 -0.06739101559 6.490113838e-41
-0.3336149752 -0.4893550277 -0.1084503233 6.490113838e-41
-0.3679848611 -0.4896050394 -0.1486826688 6.490113838e-41
-0.4019952714 -0.4866985679 -0.1956409961 6.490113838e-41
-0.419613719 -0.4673689306 -0.241742745 6.490113838e-41
-0.4324842095 -0.4222410619 -0.2486183494 6.490113838e-41
-0.4406604171 -0.348618269 -0.2343977243 6.490113838e-41
-0.4332771301 -0.2424213886 -0.2417831272 6.490113838e-41
-0.4034686387 -0.1603671312 -0.25380826 6.490113838e-41
-0.3453843594 -0.1025362387 -0.2601309419 6.490113838e-41
-0.269179672 -0.04533510655 -0.2451083809 6.490113838e-41
-0.1569958031 0.008714735508 -0.1895474792 6.490113838e-41
-0.03095816821 0.03917897493 -0.0943236202 6.490113838e-41
0.08155227453 0.05471726507 0.003199316561 6.490113838e-41
0.1965392083 0.04519423842 0.07254882157 6.490113838e-41
0.2308679521 -0.01718397811 0.1017944366 6.490113838e-41
0.2104211301 -0.1504800022 0.08466179669 6.490113838e-41
0.2035236806 -0.2243448198 0.0765158087 6.490113838e-41
0.2066215873 -0.2860893905 0.05472539365 6.490113838e-41
0.206393525 -0.3476828635 0.03147917613 6.490113838e-41
0.2123068422 -0.3987574279 0.01917964965 6.490113838e-41
0.2252469212 -0.4431408048 0.02033526264 6.490113838e-41
0.2358253449 -0.4578142762 0.04112847894 6.490113838e-41
0.2598930299 -0.4568350911 0.06258685142 6.490113838e-41
0.2835481763 -0.4537476599 0.0844964534 6.490113838e-41
0.3016121686 -0.450386703 0.1058135256 6.490113838e-41
0.3090631664 -0.416151166 0.1104105562 6.490113838e-41
0.3173725307 -0.3711369634 0.1106233224 6.490113838e-41
-0.08236643672 -0.4934215546 0.1204467043 6.490113838e-41
-0.1338635385 -0.4922165573 0.07399329543 6.490113838e-41
-0.1903301328 -0.4910466075 0.02477740496 6.490113838e-41
-0.247582525 -0.4902524352 -0.02817869931 6.490113838e-41
-0.2897216082 -0.4896275997 -0.07632528245 6.490113838e-41
-0.3232960701 -0.4894478619 -0.1181103587 6.490113838e-41
-0.3575739861 -0.489626348 -0.1589322984 6.490113838e-41
-0.3960639834 -0.4894081056 -0.2021938413 6.490113838e-41
-0.414309144 -0.46779567 -0.242072776 6.490113838e-41
-0.4287942946 -0.4246434569 -0.246803388 6.490113838e-41
-0.436089009 -0.353018254 -0.2303992063 6.490113838e-41
-0.4499593079 -0.2502467632 -0.2249834687 6.490113838e-41
-0.4290276766 -0.167449832 -0.2400159091 6.490113838e-41
-0.3842694461 -0.1011491939 -0.2518281341 6.490113838e-41
-0.3158728778 -0.04371901602 -0.2501205802 6.490113838e-41
-0.2120734453 0.007682144642 -0.2005271763 6.490113838e-41
-0.07414069772 0.04200142622 -0.1160068363 6.490113838e-41
0.05539194494 0.06015569717 -0.02949211746 6.490113838e-41
0.1752595752 0.06555555016 0.0434788093 6.490113838e-41
0.233652696 0.0186323598 0.09258367121 6.490113838e-41
0.2260671556 -0.0921292007 0.08827994764 6.490113838e-41
0.2173751593 -0.1793005615 0.0754134804 6.490113838e-41
0.2199643552 -0.2435704172 0.05791768432 6.490113838e-41
0.2243190557 -0.3062667549 0.03525086865 6.490113838e-41
0.2265885472 -0.3627830744 0.01317942701 6.490113838e-41
0.2353036106 -0.4156121612 0.007483201101 6.490113838e-41
0.2456972003 -0.4497863054 0.01873036474 6.490113838e-41
0.2656622529 -0.4556407034 0.04163366556 6.490113838e-41
0.2860789597 -0.4528563321 0.06474626064 6.490113838e-41
0.3042686582 -0.4495105445 0.08619594574 6.490113838e-41
0.3143964112 -0.4228649735 0.09540301561 6.490113838e-41
0.3226575851 -0.3780244291 0.09588046372 6.490113838e-41
-0.07312190533 -0.4937828183 0.1122001782 3.015101038e-39
-0.1245363206 -0.4927377701 0.06509230286 3.015101038e-39
-0.1814723909 -0.4915170968 0.01630391739 3.015101038e-39
-0.238838613 -0.4906887412 -0.03722070158 3.015101038e-39
-0.2798429728 -0.490039736 -0.08564787358 3.015101038e-39
-0.3136861622 -0.4896685481 -0.1288054287 3.015101038e-39
-0.3466627598 -0.4895345569 -0.1681887358 3.015101038e-39
-0.3859140277 -0.4890372455 -0.2097480297 3.015101038e-39
-0.4082614779 -0.4670419097 -0.2413132042 3.015101038e-39
-0.4223985076 -0.4265260696 -0.2442426234 3.015101038e-39
-0.4292711318 -0.3583190441 -0.2289109379 3.015101038e-39
-0.4415401816 -0.2588980496 -0.221862182 3.015101038e-39
-0.4486713707 -0.1744902134 -0.2217717916 3.015101038e-39
-0.4223898947 -0.1048566252 -0.2404371351 3.015101038e-39
-0.3602886796 -0.04166674614 -0.2460768074 3.015101038e-39
-0.2613734305 0.005687966943 -0.2128190845 3.015101038e-39
-0.1262075454 0.04234091938 -0.1369676739 3.015101038e-39
0.02186480165 0.06387720257 -0.06149832904 3.015101038e-39
0.1501581073 0.07384090871 0.01301054098 3.015101038e-39
0.2248931527 0.04614455998 0.07476481795 3.015101038e-39
0.2288315296 -0.04895225167 0.08390775323 3.015101038e-39
0.2214635015 -0.1436450034 0.07284962386 3.015101038e-39
0.2279403657 -0.202666223 0.06065038964 3.015101038e-39
0.2377338558 -0.2646609247 0.03873594478 3.015101038e-39
0.2382108718 -0.3274228573 0.01226662844 3.015101038e-39
0.2412338257 -0.3839216232 -0.004493698478 3.015101038e-39
0.2498203069 -0.4373447895 -0.00434269011 3.015101038e-39
0.2573796511 -0.4533354342 0.01824828237 3.015101038e-39
0.2824271023 -0.4513983428 0.04193056002 3.015101038e-39
0.3028289676 -0.4488050342 0.06555198133 3.015101038e-39
0.3200402558 -0.4297901988 0.08101341128 3.015101038e-39
0.328310132 -0.3847451508 0.08175399899 3.015101038e-39
-0.06348382682 -0.4939785898 0.1033115536 3.015101038e-39
-0.1147245616 -0.4932315648 0.05532246083 3.015101038e-39
-0.1724363267 -0.4920696914 0.005168881267 3.015101038e-39
-0.2301691175 -0.4911432266 -0.04755686969 3.015101038e-39
-0.2702129185 -0.4904718101 -0.09572795033 3.015101038e-39
-0.304662168 -0.4899258316 -0.1391247511 3.015101038e-39
-0.3360731006 -0.4893909097 -0.1767487675 3.015101038e-39
-0.3752606213 -0.4887578785 -0.218411997 3.015101038e-39
-0.40146029 -0.4664896429 -0.2422584742 3.015101038e-39
-0.4150392711 -0.4279310107 -0.2446889728 3.015101038e-39
-0.4227814674 -0.3639107645 -0.2299548537 3.015101038e-39
-0.4324457645 -0.2678724825 -0.2188913077 3.015101038e-39
-0.4520330727 -0.1817117482 -0.2178690881 3.015101038e-39
-0.4448892772 -0.1113488153 -0.2239797264 3.015101038e-39
-0.4013944268 -0.04033280164 -0.2407086343 3.015101038e-39
-0.3094558418 0.004506349564 -0.2231768519 3.015101038e-39
-0.1815804392 0.04219535738 -0.1595758349 3.015101038e-39
-0.01613733172 0.06448871642 -0.08929224312 3.015101038e-39
0.1196151897 0.07840309292 -0.01736859605 3.015101038e-39
0.2115372419 0.06250672787 0.04865780845 3.015101038e-39
0.2296762615 -0.01130653173 0.07806445658 3.015101038e-39
0.2200069577 -0.1217488348 0.06462818384 3.015101038e-39
0.2341727465 -0.1725712717 0.06116629019 3.015101038e-39
0.2475912124 -0.2282626033 0.04101019725 3.015101038e-39
0.2486035079 -0.2941141725 0.01303419285 3.015101038e-39
0.2510969043 -0.3516329229 -0.009980946779 3.015101038e-39
0.2510120869 -0.411567241 -0.02102204785 3.015101038e-39
0.2516096234 -0.4494232535 -0.003941509873 3.015101038e-39
0.2754520774 -0.4495992362 0.01936640032 3.015101038e-39
0.3003715873 -0.4479264021 0.0443728976 3.015101038e-39
0.3194928169 -0.4373468757 0.06437949836 3.015101038e-39
0.3340379894 -0.391463846 0.06753988564 3.015101038e-39
-0.05334405601 -0.4942073226 0.09299390018 3.015101038e-39
-0.1055937111 -0.4936933219 0.04441940039 3.015101038e-39
-0.1625970155 -0.492608279 -0.005941867828 3.015101038e-39
-0.2209693491 -0.4915660918 -0.0576890111 3.015101038e-39
-0.2601575851 -0.4908477366 -0.1049446911 3.015101038e-39
-0.2936207056 -0.4900970757 -0.1461991966 3.015101038e-39
-0.3261174262 -0.4893554449 -0.1844157577 3.015101038e-39
-0.365029484 -0.488502562 -0.2268552333 3.015101038e-39
-0.3944994509 -0.4661656022 -0.2415662855 3.015101038e-39
-0.4068662822 -0.4294271767 -0.2451130301 3.015101038e-39
-0.4167312086 -0.3686846197 -0.2322196811 3.015101038e-39
-0.4235497415 -0.2767113745 -0.2158370465 3.015101038e-39
-0.4430508316 -0.1886855215 -0.2162177712 3.015101038e-39
-0.4595487416 -0.1186992973 -0.2148560435 3.015101038e-39
-0.4376152158 -0.04555281997 -0.2325653583 3.015101038e-39
-0.3642029464 0.005423679948 -0.2260285169 3.015101038e-39
-0.2316046655 0.04262165725 -0.1808918267 3.015101038e-39
-0.06191541255 0.06509070843 -0.1109325439 3.015101038e-39
0.08585296571 0.07758382708 -0.04432103783 3.015101038e-39
0.1953952163 0.07298595458 0.0176058989 3.015101038e-39
0.2303397804 0.02325111628 0.06670792401 3.015101038e-39
0.2217118591 -0.09144727886 0.05738308281 3.015101038e-39
0.2353904247 -0.152919665 0.05262377486 3.015101038e-39
0.2540139258 -0.2008093596 0.04334741831 3.015101038e-39
0.2587704659 -0.2580216825 0.01665480435 3.015101038e-39
0.2603189945 -0.3211308718 -0.009938407689 3.015101038e-39
0.2522082627 -0.384662658 -0.03288465738 3.015101038e-39
0.2521515787 -0.4372940361 -0.02609787136 3.015101038e-39
0.268725574 -0.4491262734 -0.001797370613 3.015101038e-39
0.2954196632 -0.4474502504 0.02261790261 3.015101038e-39
0.3189204037 -0.4448543489 0.04718641937 3.015101038e-39
0.3358971179 -0.3988815546 0.05155434087 3.015101038e-39
-0.04121235758 -0.4943221807 0.08423686028 3.015101038e-39
-0.09625308216 -0.4941312671 0.03418436274 3.015101038e-39
-0.1533993781 -0.4930959642 -0.0164379254 3.015101038e-39
-0.2103193402 -0.4918259978 -0.06576003879 3.015101038e-39
-0.2492989302 -0.4911372066 -0.1130227745 3.015101038e-39
-0.2828046679 -0.4902716279 -0.1530580521 3.015101038e-39
-0.3167365789 -0.4893062115 -0.1920472831 3.015101038e-39
-0.3545962274 -0.4872567058 -0.2316408902 3.015101038e-39
-0.3869600892 -0.4662818611 -0.2404473573 3.015101038e-39
-0.3983666599 -0.4281588793 -0.2438238114 3.015101038e-39
-0.4102731347 -0.3720631897 -0.2352046818 3.015101038e-39
-0.4152178466 -0.2836862504 -0.214098081 3.015101038e-39
-0.4339842498 -0.1951581538 -0.212832585 3.015101038e-39
-0.453396827 -0.1279978305 -0.2154428512 3.015101038e-39
-0.4583117068 -0.05316720158 -0.2246781439 3.015101038e-39
-0.4170702398 0.004579350352 -0.2251546532 3.015101038e-39
-0.2758494914 0.04314378649 -0.2011792064 3.015101038e-39
-0.1124783605 0.06363753229 -0.1283438802 3.015101038e-39
0.0527587384 0.07550748438 -0.06633111089 3.015101038e-39
0.1826873422 0.07845195383 -0.009560741484 3.015101038e-39
0.2284118235 0.05275031179 0.04851446673 3.015101038e-39
0.2261633426 -0.05975788832 0.04747316241 3.015101038e-39
0.2365128696 -0.134519428 0.04037132114 3.015101038e-39
0.255839467 -0.1849912405 0.03624955565 3.015101038e-39
0.2672894299 -0.2290554047 0.02030262724 3.015101038e-39
0.2667850554 -0.2934827507 -0.008739326149 3.015101038e-39
0.2585880458 -0.3578443825 -0.03459938616 3.015101038e-39
0.2530667782 -0.4197654128 -0.04395626485 3.015101038e-39
0.2617481947 -0.4488806129 -0.02131903917 3.015101038e-39
0.2890546024 -0.4472304285 0.001311544329 3.015101038e-39
0.3163176775 -0.4459823668 0.0271064043 3.015101038e-39
0.3360206187 -0.4057658017 0.03345999494 3.015101038e-39
-0.03063748032 -0.4943519831 0.0764952749 5.962428276e-39
-0.08564530313 -0.4943733513 0.02596280724 5.962428276e-39
-0.1434975863 -0.4934020638 -0.02417644858 5.962428276e-39
-0.199885875 -0.4921270013 -0.07264005393 5.962428276e-39
-0.2384617925 -0.4912682474 -0.119429186 5.962428276e-39
-0.2719070017 -0.4903448224 -0.1595718563 5.962428276e-39
-0.3074025512 -0.4892009795 -0.1990309805 5.962428276e-39
-0.3446927667 -0.4858832955 -0.23518233 5.962428276e-39
-0.377297014 -0.4641137421 -0.238639459 5.962428276e-39
-0.3903732598 -0.4271280468 -0.2420486659 5.962428276e-39
-0.4021989107 -0.3745326102 -0.2354489714 5.962428276e-39
-0.408551693 -0.2873248756 -0.2159065753 5.962428276e-39
-0.4248510301 -0.2019827962 -0.2109208405 5.962428276e-39
-0.4442732036 -0.1364197433 -0.2172463387 5.962428276e-39
-0.460960716 -0.06845282018 -0.2217076868 5.962428276e-39
-0.45088467 9.73045826e-05 -0.2261512429 5.962428276e-39
-0.3253277838 0.04320123047 -0.2121970505 5.962428276e-39
-0.1679329127 0.06159108132 -0.1453646868 5.962428276e-39
0.0180965513 0.07468713075 -0.08980633318 5.962428276e-39
0.1617662907 0.08151651174 -0.03185027093 5.962428276e-39
0.2235801965 0.06896803528 0.02667533234 5.962428276e-39
0.2321834266 -0.02468607947 0.03905685619 5.962428276e-39
0.2378107905 -0.1195779741 0.0271557495 5.962428276e-39
0.2572880685 -0.1689592004 0.02503369749 5.962428276e-39
0.2707746327 -0.2146601677 0.01187393814 5.962428276e-39
0.2732641697 -0.2677749395 -0.006217971444 5.962428276e-39
0.2646673322 -0.3329743743 -0.03552434593 5.962428276e-39
0.2541758418 -0.3991535604 -0.05777729303 5.962428276e-39
0.2546567917 -0.4440788031 -0.04117379338 5.962428276e-39
0.2831019163 -0.4470828474 -0.01786704361 5.962428276e-39
0.312615633 -0.4458478987 0.004997529089 5.962428276e-39
0.3372942805 -0.4120750129 0.01574790478 5.962428276e-39
-0.02078863233 -0.4942668974 0.06962697953 5.962428276e-39
-0.07250639796 -0.4944603443 0.01984542981 5.962428276e-39
-0.132357657 -0.4935924113 -0.0310786441 5.962428276e-39
-0.1899796277 -0.4923960268 -0.07982011884 5.962428276e-39
-0.2279265821 -0.4913758636 -0.1243127286 5.962428276e-39
-0.2612943351 -0.4904101193 -0.165210858 5.962428276e-39
-0.2974112034 -0.4891207814 -0.2046347857 5.962428276e-39
-0.3338900506 -0.4825672507 -0.2339558154 5.962428276e-39
-0.3650915921 -0.4600067437 -0.2368412763 5.962428276e-39
-0.3826423287 -0.4264579117 -0.2399122268 5.962428276e-39
-0.3945639729 -0.3773571253 -0.2356225103 5.962428276e-39
-0.4024878144 -0.2898313105 -0.2180939466 5.962428276e-39
-0.4169066846 -0.210091114 -0.2129015476 5.962428276e-39
-0.4353124499 -0.1445652544 -0.2183853239 5.962428276e-39
-0.4538273513 -0.0801550746 -0.223171398 5.962428276e-39
-0.4667805135 -0.005863845348 -0.229933396 5.962428276e-39
-0.3756470978 0.0411709398 -0.2196885496 5.962428276e-39
-0.2119317949 0.06136081368 -0.1630261093 5.962428276e-39
-0.02532325685 0.07477942854 -0.1131031811 5.962428276e-39
0.1302535534 0.08270741254 -0.05206912011 5.962428276e-39
0.2158130407 0.07234119624 0.002297129482 5.962428276e-39
0.2398824245 0.009779281914 0.031085141 5.962428276e-39
0.2424232811 -0.09973791987 0.0161455851 5.962428276e-39
0.2605117559 -0.152620852 0.01486664265 5.962428276e-39
0.2741870284 -0.2016351521 0.00313873589 5.962428276e-39
0.2754025459 -0.2540830076 -0.01398892328 5.962428276e-39
0.2729402781 -0.3100957572 -0.03543383628 5.962428276e-39
0.2637719214 -0.3748211861 -0.06002439559 5.962428276e-39
0.2591351569 -0.4319986999 -0.06215368956 5.962428276e-39
0.2803345919 -0.44755283 -0.03922593594 5.962428276e-39
0.3109407127 -0.4458895326 -0.01553497463 5.962428276e-39
0.3398748934 -0.4187826216 -0.00232873112 5.962428276e-39
-0.01143773645 -0.4941582084 0.06304402649 5.962428276e-39
-0.06237232685 -0.4943872094 0.01371814869 5.962428276e-39
-0.1207357943 -0.4937984645 -0.03754010797 5.962428276e-39
-0.1790435612 -0.4925080836 -0.08641334623 5.962428276e-39
-0.2161163092 -0.4912734926 -0.1279286444 5.962428276e-39
-0.250905484 -0.49045223 -0.1705559641 5.962428276e-39
-0.2876021266 -0.489056915 -0.2094736546 5.962428276e-39
-0.3226408958 -0.4800278544 -0.2324883491 5.962428276e-39
-0.3541058898 -0.4567563832 -0.2351004928 5.962428276e-39
-0.3753548265 -0.4259828925 -0.237751022 5.962428276e-39
-0.386941582 -0.3794108927 -0.2359613031 5.962428276e-39
-0.3967676461 -0.2933271527 -0.2217207104 5.962428276e-39
-0.4094231725 -0.2178974748 -0.2157740146 5.962428276e-39
-0.4265004396 -0.1527288556 -0.2186702639 5.962428276e-39
-0.4451882541 -0.09007291496 -0.2255688161 5.962428276e-39
-0.4650585949 -0.01449068636 -0.2344429344 5.962428276e-39
-0.4276924431 0.03596661985 -0.2231106609 5.962428276e-39
-0.2538353205 0.06110598892 -0.1831516027 5.962428276e-39
-0.0763194114 0.07347162813 -0.130294323 5.962428276e-39
0.09656491876 0.08281173557 -0.07236408442 5.962428276e-39
0.2104952633 0.07621256262 -0.01961420476 5.962428276e-39
0.2448953837 0.03878746927 0.01811996475 5.962428276e-39
0.2488526702 -0.06986233592 0.007207281888 5.962428276e-39
0.2639255226 -0.1376597285 0.003815628588 5.962428276e-39
0.2791220248 -0.1878867447 -0.005226220936 5.962428276e-39
0.2777841389 -0.2426632643 -0.02258472517 5.962428276e-39
0.2794871628 -0.2877051532 -0.03532347083 5.962428276e-39
0.2724861503 -0.3525394797 -0.06424076855 5.962428276e-39
0.2648703158 -0.415330261 -0.07922484726 5.962428276e-39
0.279358983 -0.446206063 -0.06066096574 5.962428276e-39
0.3092560768 -0.446672678 -0.03720482439 5.962428276e-39
0.338404119 -0.4253656268 -0.02219522744 5.962428276e-39
-0.002269778401 -0.4940511584 0.05683191121 5.962428276e-39
-0.0528832823 -0.4942430556 0.007705992088 5.962428276e-39
-0.1087213904 -0.4939325452 -0.0433088541 5.962428276e-39
-0.1679189503 -0.4926232696 -0.09278646111 5.962428276e-39
-0.2035275102 -0.4910866022 -0.1314117312 5.962428276e-39
-0.2381493747 -0.4903206229 -0.1741783917 5.962428276e-39
-0.2773311436 -0.488935262 -0.213238731 5.962428276e-39
-0.3107416034 -0.4775364697 -0.2308410555 5.962428276e-39
-0.3425183892 -0.454387933 -0.2333302051 5.962428276e-39
-0.3685144782 -0.4258054197 -0.2355998904 5.962428276e-39
-0.3797936738 -0.3811400235 -0.2355706543 5.962428276e-39
-0.3911764324 -0.2989755273 -0.2259693295 5.962428276e-39
-0.4025309682 -0.2258856297 -0.2188180238 5.962428276e-39
-0.4184161723 -0.1603680104 -0.2209767252 5.962428276e-39
-0.4366879463 -0.09880201519 -0.2248334438 5.962428276e-39
-0.4605584443 -0.0271708481 -0.2327189296 5.962428276e-39
-0.454095453 0.02743305266 -0.2295552939 5.962428276e-39
-0.304589808 0.06139364094 -0.1989179701 5.962428276e-39
-0.1302437484 0.07157219201 -0.1453724355 5.962428276e-39
0.05925553665 0.08161795884 -0.08931645751 5.962428276e-39
0.1929406077 0.07860206813 -0.040710181 5.962428276e-39
0.2464701831 0.05994539708 0.002959825099 5.962428276e-39
0.2553309202 -0.04262851551 -0.001032773405 5.962428276e-39
0.2668280005 -0.1226730794 -0.007726397365 5.962428276e-39
0.2823671997 -0.1767973751 -0.01295702159 5.962428276e-39
0.2806969285 -0.2319844663 -0.02959766239 5.962428276e-39
0.2818775475 -0.2795423865 -0.04451408237 5.962428276e-39
0.2795750499 -0.3331470191 -0.06648243219 5.962428276e-39
0.2703330815 -0.4000530839 -0.09234440327 5.962428276e-39
0.2778789997 -0.4401453137 -0.08079533279 5.962428276e-39
0.3083844781 -0.4483878016 -0.05703417212 5.962428276e-39
0.3368758559 -0.4311538637 -0.0392010957 5.962428276e-39
0.006637983024 -0.4939035475 0.05050457269 8.906165387e-39
-0.04406078905 -0.4940897524 0.001518823206 8.906165387e-39
-0.09952887893 -0.4938954115 -0.04843018949 8.906165387e-39
-0.1560367793 -0.4927728176 -0.09854768217 8.906165387e-39
-0.1918532997 -0.4910838604 -0.1371458322 8.906165387e-39
-0.2255907357 -0.4900493324 -0.1769739985 8.906165387e-39
-0.2635656595 -0.4885531366 -0.2139193863 8.906165387e-39
-0.2969523072 -0.4751110971 -0.2283206433 8.906165387e-39
-0.3309310675 -0.452019304 -0.2315599471 8.906165387e-39
-0.3621143997 -0.425432831 -0.2338190526 8.906165387e-39
-0.3727490902 -0.3832637966 -0.2344581634 8.906165387e-39
-0.3840492368 -0.3038876355 -0.2272424847 8.906165387e-39
-0.3959044814 -0.2346017659 -0.2210319191 8.906165387e-39
-0.410787195 -0.1682252586 -0.2218227237 8.906165387e-39
-0.428271383 -0.1067587882 -0.2240024954 8.906165387e-39
-0.4514758289 -0.0417816788 -0.2331313938 8.906165387e-39
-0.453142494 0.01946712285 -0.2362904996 8.906165387e-39
-0.3552398086 0.06117401272 -0.2089195102 8.906165387e-39
-0.1749545187 0.07056035846 -0.1634745598 8.906165387e-39
0.01890020072 0.0815532878 -0.1047041118 8.906165387e-39
0.1619408429 0.081333749 -0.05963667482 8.906165387e-39
0.2438834459 0.06964264065 -0.01501623169 8.906165387e-39
0.2618148923 -0.01629594713 -0.008540648967 8.906165387e-39
0.2689558566 -0.1093746871 -0.01860338077 8.906165387e-39
0.2840886712 -0.165428251 -0.02095733956 8.906165387e-39
0.2838036418 -0.2223029137 -0.03765625507 8.906165387e-39
0.2844284773 -0.2709927559 -0.05290055275 8.906165387e-39
0.2859621644 -0.3160904646 -0.06834244728 8.906165387e-39
0.2768748701 -0.3845446706 -0.09591765702 8.906165387e-39
0.2756367028 -0.4359450042 -0.0973508358 8.906165387e-39
0.3061751127 -0.4502332211 -0.07400388271 8.906165387e-39
0.3359034657 -0.4368778467 -0.05363452435 8.906165387e-39
0.01540471241 -0.4937437475 0.04412107542 8.906165387e-39
-0.03538284451 -0.4939253032 -0.004768289626 8.906165387e-39
-0.09073853493 -0.4938293397 -0.05385238677 8.906165387e-39
-0.1459314525 -0.4927742779 -0.1039799452 8.906165387e-39
-0.1792594939 -0.4911549389 -0.1421696395 8.906165387e-39
-0.2133982182 -0.4897742569 -0.1798116267 8.906165387e-39
-0.2486991584 -0.487573266 -0.2134508342 8.906165387e-39
-0.281793505 -0.4726596177 -0.2254268378 8.906165387e-39
-0.3154985011 -0.4493173361 -0.2273303121 8.906165387e-39
-0.3527874053 -0.4235394299 -0.2310785204 8.906165387e-39
-0.3660030663 -0.3859395087 -0.2341725379 8.906165387e-39
-0.3770906627 -0.309119463 -0.2282278687 8.906165387e-39
-0.3891140223 -0.2430588603 -0.2231759578 8.906165387e-39
-0.4032952487 -0.1762079298 -0.2233951539 8.906165387e-39
-0.420152694 -0.1151299924 -0.2247829586 8.906165387e-39
-0.4423490465 -0.05522413924 -0.2320180982 8.906165387e-39
-0.4513922632 0.01188146323 -0.2402488738 8.906165387e-39
-0.3987486064 0.05739208311 -0.2197314948 8.906165387e-39
-0.2179214656 0.07174291462 -0.1809714735 8.906165387e-39
-0.02708331496 0.07902794331 -0.1238575429 8.906165387e-39
0.1307220012 0.08407341689 -0.07730087638 8.906165387e-39
0.239036411 0.07335219532 -0.03506764024 8.906165387e-39
0.2700318098 0.01031497866 -0.01335893571 8.906165387e-39
0.2721768916 -0.09433742613 -0.0273180604 8.906165387e-39
0.284927398 -0.1552588642 -0.0295246169 8.906165387e-39
0.2863371074 -0.2131113112 -0.04532295465 8.906165387e-39
0.2871765494 -0.2623295486 -0.06096535176 8.906165387e-39
0.2891212702 -0.3067149818 -0.07491063327 8.906165387e-39
0.2827956676 -0.3682982922 -0.09790302813 8.906165387e-39
0.2735997736 -0.4308044314 -0.111967653 8.906165387e-39
0.3027283549 -0.4495699704 -0.09040497243 8.906165387e-39
0.3329720795 -0.4426970482 -0.06828668714 8.906165387e-39
0.02500676736 -0.4935669005 0.03814096749 8.906165387e-39
-0.02689653635 -0.4937227666 -0.01067390293 8.906165387e-39
-0.08142012358 -0.4936119318 -0.05935497582 8.906165387e-39
-0.1369793713 -0.4926974475 -0.1092092097 8.906165387e-39
-0.1680637747 -0.4911652803 -0.1472087502 8.906165387e-39
-0.2006610334 -0.4895483255 -0.1823815554 8.906165387e-39
-0.2351462543 -0.4866777658 -0.2133893222 8.906165387e-39
-0.2667741477 -0.4701491892 -0.2224451154 8.906165387e-39
-0.2992965281 -0.4467460811 -0.2229694277 8.906165387e-39
-0.3382886946 -0.4200650454 -0.225860253 8.906165387e-39
-0.3568363488 -0.3865840137 -0.2307133824 8.906165387e-39
-0.3699494004 -0.313329339 -0.2285744101 8.906165387e-39
-0.3823284209 -0.2504039407 -0.2250939459 8.906165387e-39
-0.3962493837 -0.1842273474 -0.2252762169 8.906165387e-39
-0.4118376076 -0.1228209957 -0.2256413847 8.906165387e-39
-0.4327422976 -0.0655823499 -0.2322367877 8.906165387e-39
-0.4446320832 0.001974232495 -0.2409368902 8.906165387e-39
-0.4180387557 0.05253692716 -0.2316203266 8.906165387e-39
-0.2638581991 0.0737997517 -0.195541352 8.906165387e-39
-0.07531237602 0.07609320432 -0.1421086937 8.906165387e-39
0.1009265482 0.08539136499 -0.09170086682 8.906165387e-39
0.219863534 0.07578802854 -0.05166013539 8.906165387e-39
0.2754890025 0.03030794859 -0.02149314806 8.906165387e-39
0.2771251202 -0.071298711 -0.03374243528 8.906165387e-39
0.2859071493 -0.1441034675 -0.03991202265 8.906165387e-39
0.2887239456 -0.2035124898 -0.05294556916 8.906165387e-39
0.2893891335 -0.2540898323 -0.06874699891 8.906165387e-39
0.2910627127 -0.2998008728 -0.08313822746 8.906165387e-39
0.2888031006 -0.3515789211 -0.09973932803 8.906165387e-39
0.2754842639 -0.4210270643 -0.1231636703 8.906165387e-39
0.2993254066 -0.4458223879 -0.1058929563 8.906165387e-39
0.3299687505 -0.448687464 -0.08290121704 8.906165387e-39
0.03439528495 -0.4933636487 0.03294733539 8.906165387e-39
-0.0177981928 -0.4934957623 -0.01629398763 8.906165387e-39
-0.07291676104 -0.4933873415 -0.06516253203 8.906165387e-39
-0.1281184256 -0.4926244617 -0.1143016219 8.906165387e-39
-0.1588409543 -0.4910985827 -0.1522503346 8.906165387e-39
-0.1890850067 -0.4894969165 -0.1863547117 8.906165387e-39
-0.2214458883 -0.4857812524 -0.213022396 8.906165387e-39
-0.2529743016 -0.4674988985 -0.2197993547 8.906165387e-39
-0.2852117717 -0.4443284869 -0.2196707278 8.906165387e-39
-0.3236960471 -0.4180404544 -0.2210883349 8.906165387e-39
-0.3469084501 -0.3865488768 -0.2269001752 8.906165387e-39
-0.359959662 -0.3162008524 -0.2266272455 8.906165387e-39
-0.3741340041 -0.2546008229 -0.2252128869 8.906165387e-39
-0.3886623979 -0.1907661259 -0.2263628989 8.906165387e-39
-0.403267771 -0.1292523444 -0.2263689488 8.906165387e-39
-0.4239357412 -0.07189627737 -0.2321621329 8.906165387e-39
-0.4341548383 -0.008842501789 -0.2404450923 8.906165387e-39
-0.4221712649 0.04461555183 -0.2415068001 8.906165387e-39
-0.3069355488 0.07364162058 -0.2052950859 8.906165387e-39
-0.1186577678 0.0744106248 -0.1578360051 8.906165387e-39
0.06819865853 0.08400505036 -0.104957059 8.906165387e-39
0.1965695024 0.07818444818 -0.06789556891 8.906165387e-39
0.2770371437 0.04856407642 -0.03336441517 8.906165387e-39
0.2820641398 -0.04858078063 -0.03991853446 8.906165387e-39
0.2858425975 -0.1326173246 -0.05088183284 8.906165387e-39
0.2910313606 -0.192959398 -0.06089939177 8.906165387e-39
0.2912154794 -0.246080786 -0.07676294446 8.906165387e-39
0.2930377722 -0.2933993638 -0.09134358168 8.906165387e-39
0.2941685915 -0.3363254368 -0.1024804413 8.906165387e-39
0.2807880044 -0.4099410474 -0.1290848851 8.906165387e-39
0.2962492108 -0.4431405365 -0.1209962815 8.906165387e-39
0.3277323544 -0.4526040852 -0.09778136015 8.906165387e-39
0.04409229383 -0.4931517541 0.02792630717 1.184631237e-38
-0.008711360395 -0.4932816029 -0.02130694687 1.184631237e-38
-0.06380683184 -0.4931925833 -0.07075759768 1.184631237e-38
-0.1199900657 -0.4925820529 -0.1195299774 1.184631237e-38
-0.1500982791 -0.4910790324 -0.1573512554 1.184631237e-38
-0.1798977852 -0.4893917143 -0.1891880184 1.184631237e-38
-0.2088232934 -0.48508057 -0.2137883753 1.184631237e-38
-0.2405145168 -0.4647228718 -0.2174133807 1.184631237e-38
-0.2721278667 -0.4419470727 -0.2167125791 1.184631237e-38
-0.3093786836 -0.4166799784 -0.2184969932 1.184631237e-38
-0.3368236721 -0.3866128027 -0.2230263501 1.184631237e-38
-0.3488013148 -0.319206804 -0.2241384834 1.184631237e-38
-0.3634371459 -0.2586126626 -0.2238910645 1.184631237e-38
-0.3807634711 -0.1960675716 -0.2271387726 1.184631237e-38
-0.3944502473 -0.1358033121 -0.2273406535 1.184631237e-38
-0.4144609272 -0.07827382535 -0.2320893556 1.184631237e-38
-0.4232265353 -0.02010924369 -0.2396925837 1.184631237e-38
-0.4193278253 0.03457237035 -0.2446539849 1.184631237e-38
-0.3409082592 0.07037252933 -0.2164428383 1.184631237e-38
-0.1663362235 0.07443072647 -0.1739951223 1.184631237e-38
0.0233974494 0.08161469549 -0.1194618493 1.184631237e-38
0.1695067883 0.08043069392 -0.08368226141 1.184631237e-38
0.2750026584 0.06441553682 -0.04390762001 1.184631237e-38
0.2870960236 -0.02786739916 -0.04640443623 1.184631237e-38
0.2858687341 -0.1212618947 -0.06114427 1.184631237e-38
0.2937274575 -0.1815343201 -0.06871510297 1.184631237e-38
0.293066442 -0.2368580401 -0.08464296162 1.184631237e-38
0.2952202857 -0.286070466 -0.0989177227 1.184631237e-38
0.2964857817 -0.3291608393 -0.1107364744 1.184631237e-38
0.2869926095 -0.3963897824 -0.1312284023 1.184631237e-38
0.2941907048 -0.4406809211 -0.1343721747 1.184631237e-38
0.3256894648 -0.4538522065 -0.113116771 1.184631237e-38
0.05405668914 -0.4930107296 0.02284296229 1.184631237e-38
0.0006142705679 -0.4931321442 -0.0262523666 1.184631237e-38
-0.05444835126 -0.4930600524 -0.07573998719 1.184631237e-38
-0.1112938821 -0.4925597608 -0.1243902892 1.184631237e-38
-0.1418130398 -0.4910637736 -0.1624129564 1.184631237e-38
-0.1708343625 -0.4892834127 -0.1920205504 1.184631237e-38
-0.1969389319 -0.4845609069 -0.2163291425 1.184631237e-38
-0.2278681695 -0.4624061584 -0.2154432982 1.184631237e-38
-0.2593753934 -0.4398790896 -0.2148776501 1.184631237e-38
-0.2950060666 -0.4153907895 -0.2160470337 1.184631237e-38
-0.3266292214 -0.3864780664 -0.219236061 1.184631237e-38
-0.338159591 -0.3218800426 -0.2218097299 1.184631237e-38
-0.3516508937 -0.2621430457 -0.2218962461 1.184631237e-38
-0.3699479699 -0.2019907534 -0.2262933403 1.184631237e-38
-0.3866465688 -0.1418818235 -0.228537932 1.184631237e-38
-0.4051230252 -0.084134534 -0.2323038429 1.184631237e-38
-0.4119898975 -0.03330805525 -0.2381833941 1.184631237e-38
-0.4149419069 0.02404720336 -0.2429820448 1.184631237e-38
-0.3629520237 0.06594135612 -0.2253442556 1.184631237e-38
-0.2096229494 0.07480522245 -0.1883622706 1.184631237e-38
-0.0222408846 0.07943276316 -0.1367984861 1.184631237e-38
0.1447921395 0.08265761286 -0.0974599123 1.184631237e-38
0.2631315887 0.07141380757 -0.0564147979 1.184631237e-38
0.2919728756 -0.008495736867 -0.05304461718 1.184631237e-38
0.2874293029 -0.1076570153 -0.06996072829 1.184631237e-38
0.2963696122 -0.1704461277 -0.07631076127 1.184631237e-38
0.2949159443 -0.2278813124 -0.09222404659 1.184631237e-38
0.297211051 -0.2781678736 -0.1059127897 1.184631237e-38
0.2987883091 -0.3228188753 -0.1184504479 1.184631237e-38
0.2933737338 -0.3805518746 -0.1331352741 1.184631237e-38
0.2921730876 -0.4376044571 -0.1477123052 1.184631237e-38
0.3236173987 -0.4526125789 -0.1279169321 1.184631237e-38
0.06394446641 -0.4928690195 0.01778298058 1.184631237e-38
0.01041967794 -0.4929805398 -0.03135237098 1.184631237e-38
-0.04497469962 -0.4929222465 -0.0808032155 1.184631237e-38
-0.1013278514 -0.4925006926 -0.1283213347 1.184631237e-38
-0.1334708035 -0.4910440445 -0.1672980487 1.184631237e-38
-0.1614988744 -0.4891681075 -0.1947854459 1.184631237e-38
-0.1877608448 -0.4839515984 -0.2189144641 1.184631237e-38
-0.215569526 -0.4613339603 -0.2166643888 1.184631237e-38
-0.2459886372 -0.4378552437 -0.2124551088 1.184631237e-38
-0.281630218 -0.4137949049 -0.2136420459 1.184631237e-38
-0.3156894743 -0.3867976069 -0.2160967737 1.184631237e-38
-0.3279896379 -0.3233743608 -0.2193778008 1.184631237e-38
-0.3401210308 -0.2654350698 -0.2195980102 1.184631237e-38
-0.3574449718 -0.2072737813 -0.2228396684 1.184631237e-38
-0.3759534657 -0.1482589841 -0.2286240608 1.184631237e-38
-0.3959468901 -0.0893670097 -0.2323421687 1.184631237e-38
-0.4012643695 -0.04371264949 -0.2377085835 1.184631237e-38
-0.407045424 0.0130559057 -0.2427204996 1.184631237e-38
-0.3767933846 0.06126122922 -0.2328658551 1.184631237e-38
-0.2436302006 0.07271588594 -0.1951077878 1.184631237e-38
-0.07023714483 0.07691594213 -0.1539451927 1.184631237e-38
0.1180727333 0.08372532576 -0.1075869203 1.184631237e-38
0.2464562058 0.07357970625 -0.07098801434 1.184631237e-38
0.295288831 0.009254731238 -0.05926308781 1.184631237e-38
0.2922330499 -0.08623307943 -0.07618103921 1.184631237e-38
0.2987940907 -0.1599274874 -0.08448205888 1.184631237e-38
0.2966890931 -0.2190159559 -0.09949953854 1.184631237e-38
0.2990509868 -0.2695062757 -0.112846911 1.184631237e-38
0.3015286624 -0.3166257739 -0.1256650388 1.184631237e-38
0.2990079522 -0.3659004569 -0.1355585456 1.184631237e-38
0.2905598283 -0.4314072132 -0.1586331725 1.184631237e-38
0.3219287395 -0.4501489401 -0.1413864046 1.184631237e-38
0.07499200851 -0.4927950203 0.01339935139 1.184631237e-38
0.02038419247 -0.492816031 -0.03639570624 1.184631237e-38
-0.03537486494 -0.4927694201 -0.08600760251 1.184631237e-38
-0.08999568224 -0.4922974408 -0.1321854442 1.184631237e-38
-0.124241516 -0.4910798073 -0.1709873229 1.184631237e-38
-0.1523276567 -0.489125222 -0.1975190938 1.184631237e-38
-0.1777814925 -0.4835750163 -0.2213544995 1.184631237e-38
-0.2033813596 -0.4600336552 -0.2173688859 1.184631237e-38
-0.2335688472 -0.4361545742 -0.2124183327 1.184631237e-38
-0.2681170702 -0.4123532772 -0.2113758624 1.184631237e-38
-0.3051329553 -0.3864217401 -0.2134958953 1.184631237e-38
-0.3177194595 -0.3245514333 -0.2171257287 1.184631237e-38
-0.3291089833 -0.2680734694 -0.2171044797 1.184631237e-38
-0.3448832035 -0.2131000757 -0.219773367 1.184631237e-38
-0.3650962412 -0.1539662778 -0.2286355942 1.184631237e-38
-0.3838821948 -0.09539090842 -0.2314835042 1.184631237e-38
-0.3920376599 -0.0501174964 -0.2380270809 1.184631237e-38
-0.3976461887 0.001947961748 -0.242534712 1.184631237e-38
-0.3763329685 0.05383470654 -0.2335516959 1.184631237e-38
-0.2732926011 0.07045642287 -0.2046659738 1.184631237e-38
-0.1236926764 0.07668601722 -0.1683056951 1.184631237e-38
0.07943160832 0.08368545026 -0.1170105636 1.184631237e-38
0.223484084 0.07603497058 -0.0839670226 1.184631237e-38
0.2985959053 0.02620996535 -0.06681067497 1.184631237e-38
0.2977911532 -0.06572911143 -0.08199521899 1.184631237e-38
0.2999158204 -0.1480262578 -0.093705073 1.184631237e-38
0.2990747392 -0.2095764875 -0.1074331254 1.184631237e-38
0.3011367917 -0.260551393 -0.1194148958 1.184631237e-38
0.3038130999 -0.3092935085 -0.1319835335 1.184631237e-38
0.3024080396 -0.3575186729 -0.1413235217 1.184631237e-38
0.2920712233 -0.4241818786 -0.1653110534 1.184631237e-38
0.3205494583 -0.4481249154 -0.1543360204 1.184631237e-38
0.08503795415 -0.4928870499 0.008992891759 1.478322936e-38
0.02965611592 -0.4926693141 -0.0414640978 1.478322936e-38
-0.02616564929 -0.4926208854 -0.09090802073 1.478322936e-38
-0.07813836634 -0.4920994043 -0.1356206238 1.478322936e-38
-0.1146112233 -0.4911500216 -0.1735741794 1.478322936e-38
-0.142436564 -0.4891898334 -0.1995250881 1.478322936e-38
-0.1673840731 -0.4827408195 -0.2227669507 1.478322936e-38
-0.1917207688 -0.4587278366 -0.217742905 1.478322936e-38
-0.2215931118 -0.4344502389 -0.2127845138 1.478322936e-38
-0.2549336553 -0.4105813205 -0.2097065896 1.478322936e-38
-0.2947545648 -0.3856992126 -0.2112050205 1.478322936e-38
-0.3071681857 -0.3236583173 -0.2144768983 1.478322936e-38
-0.3180629015 -0.2706526816 -0.2146559805 1.478322936e-38
-0.3322076201 -0.2185015678 -0.216808036 1.478322936e-38
-0.3524897397 -0.1588217616 -0.225876078 1.478322936e-38
-0.3720645905 -0.1021185964 -0.2315342277 1.478322936e-38
-0.3803831339 -0.05656947941 -0.2368002385 1.478322936e-38
-0.3869785964 -0.009580943733 -0.2421619147 1.478322936e-38
-0.3738577664 0.04431988299 -0.2341623455 1.478322936e-38
-0.3006046116 0.06806422025 -0.2141901404 1.478322936e-38
-0.1604317725 0.07603634149 -0.1817887276 1.478322936e-38
0.03037685901 0.08083388954 -0.1313872635 1.478322936e-38
0.200961858 0.07843010873 -0.09645794332 1.478322936e-38
0.3014568686 0.04355008155 -0.07358929515 1.478322936e-38
0.3015206158 -0.04568489641 -0.08716911077 1.478322936e-38
0.3012699187 -0.1361544281 -0.1028376222 1.478322936e-38
0.3025719523 -0.1981875598 -0.1141891778 1.478322936e-38
0.3032819033 -0.2512403131 -0.1258750409 1.478322936e-38
0.3057264984 -0.3009881079 -0.1384056956 1.478322936e-38
0.3046123981 -0.3511565328 -0.1481371522 1.478322936e-38
0.295709908 -0.4142851233 -0.1689450592 1.478322936e-38
0.3190677166 -0.4461387396 -0.1673645824 1.478322936e-38
0.09487976134 -0.4929868579 0.004466656595 1.478322936e-38
0.0394663848 -0.4925317764 -0.04594394565 1.478322936e-38
-0.01652944088 -0.4924691916 -0.09519188106 1.478322936e-38
-0.06650429964 -0.4918900132 -0.1392438114 1.478322936e-38
-0.1034070253 -0.4911771119 -0.17554456 1.478322936e-38
-0.1325368881 -0.4892644882 -0.201376617 1.478322936e-38
-0.1575706601 -0.4815642834 -0.2226463109 1.478322936e-38
-0.1813419163 -0.457255125 -0.2181857079 1.478322936e-38
-0.2095567286 -0.4328379035 -0.2133290917 1.478322936e-38
-0.2426047623 -0.4090080559 -0.210420683 1.478322936e-38
-0.2812722325 -0.3839328289 -0.2089372277 1.478322936e-38
-0.2968336046 -0.3213778734 -0.2119283825 1.478322936e-38
-0.3073414266 -0.2716437578 -0.21297203 1.478322936e-38
-0.3200321198 -0.2233206332 -0.2138548046 1.478322936e-38
-0.3399404287 -0.163493067 -0.2228942662 1.478322936e-38
-0.3601194918 -0.1097221822 -0.231525287 1.478322936e-38
-0.3685081005 -0.06399315596 -0.2356715351 1.478322936e-38
-0.3745443821 -0.02192884311 -0.2408902794 1.478322936e-38
-0.3695168495 0.03148790449 -0.2339768857 1.478322936e-38
-0.3195208907 0.06541838497 -0.2180189639 1.478322936e-38
-0.189726904 0.07376391441 -0.187279731 1.478322936e-38
-0.01965734363 0.07767464966 -0.1478611678 1.478322936e-38
0.1776485443 0.08064381033 -0.1106150746 1.478322936e-38
0.2969133258 0.05963716656 -0.07848569006 1.478322936e-38
0.3049497306 -0.02614901215 -0.09256583452 1.478322936e-38
0.3035646081 -0.1242516264 -0.1115237623 1.478322936e-38
0.3061819375 -0.1862988174 -0.1201973259 1.478322936e-38
0.3053471446 -0.2418402433 -0.1322958767 1.478322936e-38
0.3072774708 -0.2929176688 -0.1446529478 1.478322936e-38
0.3066791892 -0.3440091312 -0.1549361795 1.478322936e-38
0.3013099134 -0.4023967087 -0.170242399 1.478322936e-38
0.317389518 -0.4439759254 -0.1797499657 1.478322936e-38
0.1043926999 -0.4930426478 0.0004309937358 1.478322936e-38
0.04945491999 -0.492447108 -0.04988525808 1.478322936e-38
-0.006887063384 -0.4922760427 -0.09953805804 1.478322936e-38
-0.05513560027 -0.4917188585 -0.1426781714 1.478322936e-38
-0.08964115381 -0.4910106659 -0.1767791063 1.478322936e-38
-0.1227058619 -0.4893365204 -0.2028395981 1.478322936e-38
-0.1477110982 -0.4802853465 -0.2226360887 1.478322936e-38
-0.1709920466 -0.45590657 -0.2183351368 1.478322936e-38
-0.1974013746 -0.4311417639 -0.2139410824 1.478322936e-38
-0.2300077975 -0.4075362086 -0.2108849138 1.478322936e-38
-0.2678219974 -0.3821164966 -0.2070918977 1.478322936e-38
-0.2850519717 -0.3171333969 -0.2094589919 1.478322936e-38
-0.2965428233 -0.2714998424 -0.2113412321 1.478322936e-38
-0.308290422 -0.2273823917 -0.2112459838 1.478322936e-38
-0.3271113336 -0.1690132767 -0.219687596 1.478322936e-38
-0.3464945853 -0.1165631935 -0.2286648601 1.478322936e-38
-0.3569218814 -0.07249829173 -0.2347603887 1.478322936e-38
-0.3614143431 -0.03090133891 -0.2394565195 1.478322936e-38
-0.3603983521 0.01747606695 -0.233565554 1.478322936e-38
-0.3236627579 0.06343594939 -0.2200079709 1.478322936e-38
-0.2165183127 0.06987255067 -0.1935358793 1.478322936e-38
-0.06630145013 0.07536142319 -0.1636247039 1.478322936e-38
0.148196131 0.08185578138 -0.1199065 1.478322936e-38
0.2837163806 0.06887812167 -0.08551438898 1.478322936e-38
0.3084134758 -0.008007805794 -0.0966348201 1.478322936e-38
0.3065320253 -0.1061621979 -0.1169590056 1.478322936e-38
0.3095616698 -0.1739519536 -0.1265534312 1.478322936e-38
0.307995975 -0.2311039567 -0.138421759 1.478322936e-38
0.3088297248 -0.2846275866 -0.1509459466 1.478322936e-38
0.3084729612 -0.3368857503 -0.161760509 1.478322936e-38
0.3062956035 -0.3876928985 -0.1718132049 1.478322936e-38
0.3161077201 -0.4410321116 -0.1905502975 1.478322936e-38
0.113960214 -0.4930465817 -0.00325422734 1.478322936e-38
0.05904255807 -0.4924511015 -0.05363312364 1.478322936e-38
0.002942733467 -0.4920810163 -0.1033888608 1.478322936e-38
-0.04279055446 -0.4915504158 -0.1453372985 1.478322936e-38
-0.07659171522 -0.4907844663 -0.1776341796 1.478322936e-38
-0.1128373146 -0.4894159436 -0.2046410888 1.478322936e-38
-0.1379097551 -0.4787850082 -0.2226490527 1.478322936e-38
-0.1613505483 -0.4544881284 -0.218336001 1.478322936e-38
-0.1858731806 -0.4296548069 -0.214246586 1.478322936e-38
-0.2175086737 -0.4059030712 -0.2112662047 1.478322936e-38
-0.2551370263 -0.3796939552 -0.2075935304 1.478322936e-38
-0.2731517255 -0.3132591546 -0.2071854323 1.478322936e-38
-0.2855135202 -0.2718558609 -0.2099469602 1.478322936e-38
-0.2971475422 -0.2302124202 -0.2097988129 1.478322936e-38
-0.3142522871 -0.1758456826 -0.2169175297 1.478322936e-38
-0.3328496516 -0.1236895621 -0.2258900255 1.478322936e-38
-0.3453433812 -0.08067832142 -0.2341471761 1.478322936e-38
-0.3489844203 -0.03777971119 -0.2375961095 1.478322936e-38
-0.3493351042 0.005002640188 -0.2327268273 1.478322936e-38
-0.3256109357 0.05768347532 -0.2210100144 1.478322936e-38
-0.2451774776 0.0678852573 -0.2028927058 1.478322936e-38
-0.1038276702 0.07441618294 -0.1776276976 1.478322936e-38
0.1067318767 0.08107369393 -0.127671659 1.478322936e-38
0.2608296275 0.07408215851 -0.0972763449 1.478322936e-38
0.3123996556 0.01059834659 -0.0977434963 1.478322936e-38
0.3109233975 -0.08417292684 -0.1192294508 1.478322936e-38
0.3118097186 -0.1597569287 -0.1326039881 1.478322936e-38
0.3109079897 -0.2199614346 -0.1453721672 1.478322936e-38
0.3102180362 -0.2756111324 -0.1572446823 1.478322936e-38
0.3102139235 -0.3291022778 -0.1687367409 1.478322936e-38
0.3090362251 -0.3790371716 -0.1771083474 1.478322936e-38
0.3145554066 -0.4352160096 -0.1997234374 1.478322936e-38
0.1234439388 -0.4930294752 -0.006784725934 1.771655483e-38
0.06820496172 -0.4924381077 -0.057264328 1.771655483e-38
0.01462291926 -0.4919121861 -0.1062305272 1.771655483e-38
-0.03043099493 -0.4913697541 -0.1475595236 1.771655483e-38
-0.06349315494 -0.4905557036 -0.1786539406 1.771655483e-38
-0.1017216444 -0.4890674949 -0.2064459473 1.771655483e-38
-0.1281082928 -0.4772850275 -0.2226619273 1.771655483e-38
