# .PCD v0.7 - Point Cloud Data file format
VERSION 0.7
FIELDS x y z rgb
SIZE 4 4 4 4
TYPE F F F F
COUNT 1 1 1 1
WIDTH 834
HEIGHT 1
VIEWPOINT 0 0 0 1 0 0 0
POINTS 834
DATA ascii
-0.2121138573 -0.4797743261 0.136322245 3.015101038e-39
-0.2481445074 -0.480325371 0.09000252187 3.015101038e-39
-0.2839922011 -0.4789895415 0.04596660286 3.015101038e-39
-0.3178734481 -0.4718326628 -0.006070666015 3.015101038e-39
-0.3496919572 -0.4625099599 -0.04915072396 3.015101038e-39
-0.3571867645 -0.4188831151 -0.07178619504 3.015101038e-39
-0.3344904184 -0.3750682473 -0.09005966783 3.015101038e-39
-0.2837560475 -0.3559539616 -0.1152376831 3.015101038e-39
-0.1879160255 -0.3650242984 -0.1331972629 3.015101038e-39
-0.05572387204 -0.3662356734 -0.1293572783 3.015101038e-39
0.04660211876 -0.3515886962 -0.08503067493 3.015101038e-39
0.10007862 -0.2968087196 0.01291810907 3.015101038e-39
0.1343100518 -0.1810123622 0.1119380891 3.015101038e-39
0.1489173472 -0.09833724797 0.1764489263 3.015101038e-39
0.1687224805 -0.1061284617 0.187080726 3.015101038e-39
0.179522261 -0.1260791123 0.1812549084 3.015101038e-39
0.1839438081 -0.149712652 0.1741505563 3.015101038e-39
0.182016179 -0.1768575609 0.1658385396 3.015101038e-39
0.1832432449 -0.2092493027 0.1533784121 3.015101038e-39
0.1869960427 -0.243739754 0.1421893537 3.015101038e-39
0.1863132268 -0.2751566768 0.1302629709 3.015101038e-39
0.1824474782 -0.3031773567 0.1201564223 3.015101038e-39
0.1776093841 -0.334646523 0.1105492115 3.015101038e-39
0.1785401851 -0.3664217889 0.1029538214 3.015101038e-39
0.1785591394 -0.3942821324 0.09414687753 3.015101038e-39
0.1757461131 -0.4284260869 0.08768969774 3.015101038e-39
0.1721418351 -0.4687044322 0.07685168087 3.015101038e-39
0.1597346961 -0.4329412282 0.05439753085 3.015101038e-39
0.1614655703 -0.3873766363 0.033440236 3.015101038e-39
0.1676969379 -0.3375890255 0.01558331959 3.015101038e-39
-0.09446181357 -0.4780747294 0.2348761857 5.962428276e-39
-0.1498293281 -0.4785497487 0.1827178895 5.962428276e-39
-0.1996750981 -0.4795884788 0.1297718734 5.962428276e-39
-0.2332111001 -0.4805898666 0.08195105195 5.962428276e-39
-0.2691796422 -0.481013 0.04057734087 5.962428276e-39
-0.3063279986 -0.4761248827 -0.01313464344 5.962428276e-39
-0.3386673331 -0.4684194326 -0.05608837679 5.962428276e-39
-0.358292371 -0.4339925647 -0.08598081768 5.962428276e-39
-0.3443675935 -0.3850198388 -0.09995721281 5.962428276e-39
-0.3019453287 -0.3569550216 -0.1259591132 5.962428276e-39
-0.2184299529 -0.3595331311 -0.1496805251 5.962428276e-39
-0.09934061766 -0.3702176511 -0.145777598 5.962428276e-39
0.03458983451 -0.3587737083 -0.1221327484 5.962428276e-39
0.09737110883 -0.3181130886 -0.03621554747 5.962428276e-39
0.1289821416 -0.2088232785 0.06968128681 5.962428276e-39
0.1456957757 -0.1104173288 0.1382122785 5.962428276e-39
0.1643284857 -0.1008488461 0.167129457 5.962428276e-39
0.1769508719 -0.1176564097 0.1617765725 5.962428276e-39
0.1845429391 -0.1414379478 0.157592997 5.962428276e-39
0.183054775 -0.1678431779 0.1521821171 5.962428276e-39
0.1830820143 -0.1992208809 0.1401284784 5.962428276e-39
0.18581146 -0.2342712134 0.1270436794 5.962428276e-39
0.1836645305 -0.2676510215 0.1134934574 5.962428276e-39
0.1792642027 -0.2939902842 0.1026862264 5.962428276e-39
0.1748360693 -0.3254974484 0.09304641187 5.962428276e-39
0.1762156188 -0.3571159542 0.0868749693 5.962428276e-39
0.177714467 -0.3875259161 0.07979363203 5.962428276e-39
0.17601116 -0.4187535942 0.07439148426 5.962428276e-39
0.1729947776 -0.4633244276 0.05929648876 5.962428276e-39
0.1601404697 -0.4383058846 0.0397067368 5.962428276e-39
0.1595850587 -0.3932820857 0.0177672673 5.962428276e-39
0.1691426188 -0.3434191048 0.001536950469 5.962428276e-39
-0.08391724527 -0.478048116 0.2302544713 5.962428276e-39
-0.1380674243 -0.4784376919 0.1788416654 5.962428276e-39
-0.1878064126 -0.4794911742 0.1249580532 5.962428276e-39
-0.2227368355 -0.4806601405 0.07502017915 5.962428276e-39
-0.2532483339 -0.481151402 0.03529934213 5.962428276e-39
-0.2918598056 -0.4801468849 -0.01879591122 5.962428276e-39
-0.3279468715 -0.4723727405 -0.06148022786 5.962428276e-39
-0.3588122129 -0.4494995475 -0.0987867415 5.962428276e-39
-0.3496821821 -0.396610111 -0.1107912809 5.962428276e-39
-0.3160598874 -0.3645038605 -0.1358506382 5.962428276e-39
-0.2482287586 -0.3579296768 -0.1628894359 5.962428276e-39
-0.1367554814 -0.370095402 -0.1617516279 5.962428276e-39
0.005904968828 -0.3597171605 -0.1421580911 5.962428276e-39
0.0908375904 -0.3317837715 -0.07612544298 5.962428276e-39
0.1250294 -0.2376727313 0.01645687595 5.962428276e-39
0.1403187513 -0.1288437992 0.09556436539 5.962428276e-39
0.1579794288 -0.09762257338 0.142801702 5.962428276e-39
0.1731086671 -0.1105013788 0.1436203718 5.962428276e-39
0.1847550869 -0.1331531554 0.1422775835 5.962428276e-39
0.1839778572 -0.1592840254 0.1374166012 5.962428276e-39
0.1825659126 -0.1900823712 0.1264228523 5.962428276e-39
0.1836455464 -0.2249355465 0.1119649112 5.962428276e-39
0.1801050752 -0.2611807585 0.09818781912 5.962428276e-39
0.1760291606 -0.2854649425 0.08617214859 5.962428276e-39
0.1735358089 -0.3165958226 0.07816503942 5.962428276e-39
0.1745916754 -0.3488279879 0.07224688679 5.962428276e-39
0.1775253266 -0.3821376562 0.06606739014 5.962428276e-39
0.1768959165 -0.4122462869 0.05947669595 5.962428276e-39
0.1740703732 -0.4546703398 0.04478769377 5.962428276e-39
0.1608600765 -0.4431652427 0.02493172884 5.962428276e-39
0.1572523266 -0.3990330398 0.001339457929 5.962428276e-39
0.1671092212 -0.3494041562 -0.01370549574 5.962428276e-39
-0.07355111837 -0.4780399501 0.2256264687 5.962428276e-39
-0.1265196204 -0.4783328176 0.1750240624 5.962428276e-39
-0.1767933965 -0.4793454707 0.1209202409 5.962428276e-39
-0.212349236 -0.4808046818 0.06866728514 5.962428276e-39
-0.2381662726 -0.4812995791 0.02844762988 5.962428276e-39
-0.2758577168 -0.4822665155 -0.02337568626 5.962428276e-39
-0.3154550493 -0.4761313498 -0.06629852951 5.962428276e-39
-0.3526527286 -0.4601940811 -0.1075797379 5.962428276e-39
-0.3502039313 -0.4109770954 -0.1211866289 5.962428276e-39
-0.327627331 -0.3734945953 -0.1431862265 5.962428276e-39
-0.2689796984 -0.3578155041 -0.1747579873 5.962428276e-39
-0.166354537 -0.36814183 -0.1778037399 5.962428276e-39
-0.02721624449 -0.3595865965 -0.1576716751 5.962428276e-39
0.08334805071 -0.3382181525 -0.1110439003 5.962428276e-39
0.122519806 -0.2622208595 -0.03226008639 5.962428276e-39
0.1341730654 -0.1458883882 0.04939968511 5.962428276e-39
0.1512870342 -0.09682930261 0.1100249588 5.962428276e-39
0.1710087061 -0.1053943858 0.1226835698 5.962428276e-39
0.1834728718 -0.1263656616 0.1251435578 5.962428276e-39
0.1846043617 -0.1517076641 0.1222917736 5.962428276e-39
0.1830374897 -0.1811803281 0.1135942638 5.962428276e-39
0.180940032 -0.2160533518 0.0975728184 5.962428276e-39
0.17679362 -0.2522073388 0.08327753097 5.962428276e-39
0.1739691645 -0.2773316503 0.07123099267 5.962428276e-39
0.1723626554 -0.307775557 0.06411060691 5.962428276e-39
0.1730014086 -0.3414831161 0.05745909363 5.962428276e-39
0.1769794971 -0.3763590753 0.05214421824 5.962428276e-39
0.1780070215 -0.4070360065 0.04419734329 5.962428276e-39
0.1760844886 -0.4468898773 0.0307440199 5.962428276e-39
0.1621203423 -0.4479199648 0.01077839732 5.962428276e-39
0.1584631354 -0.4033805132 -0.01123470068 5.962428276e-39
0.1650441885 -0.3554244339 -0.02876577899 5.962428276e-39
-0.06427563727 -0.4780827761 0.2209125608 5.962428276e-39
-0.1160373241 -0.4782898128 0.1709924042 5.962428276e-39
-0.1667088568 -0.479300648 0.116827637 5.962428276e-39
-0.2020318955 -0.4807886183 0.06382316351 5.962428276e-39
-0.2276615202 -0.4815032184 0.02171108499 5.962428276e-39
-0.2607084513 -0.4821893573 -0.02707605064 5.962428276e-39
-0.301735729 -0.4799597561 -0.06961868703 5.962428276e-39
-0.3414048553 -0.4696090817 -0.1127423346 5.962428276e-39
-0.3502651751 -0.42525509 -0.1314226538 5.962428276e-39
-0.3320740759 -0.3823478818 -0.1510747075 5.962428276e-39
-0.2867481112 -0.3570577502 -0.1824110895 5.962428276e-39
-0.1943547279 -0.3619784415 -0.1942525208 5.962428276e-39
-0.06189328805 -0.3592002988 -0.1719564348 5.962428276e-39
0.07081220299 -0.3441015482 -0.1393347681 5.962428276e-39
0.1218146682 -0.284568727 -0.07695882022 5.962428276e-39
0.133852452 -0.164726615 0.008611790836 5.962428276e-39
0.1458562165 -0.09817566723 0.07546121627 5.962428276e-39
0.1684701145 -0.10276144 0.09947125614 5.962428276e-39
0.1809849888 -0.1206218004 0.1039786637 5.962428276e-39
0.1849023849 -0.1461980939 0.1046162844 5.962428276e-39
0.1836170703 -0.1743091494 0.1008128524 5.962428276e-39
0.1781345159 -0.2080890834 0.08419764787 5.962428276e-39
0.17377159 -0.243140921 0.06940886378 5.962428276e-39
0.1723860353 -0.2702591121 0.05839497596 5.962428276e-39
0.1709472835 -0.299390018 0.04970739409 5.962428276e-39
0.1716322303 -0.3339835107 0.04285321385 5.962428276e-39
0.1756619066 -0.3693497181 0.03780777752 5.962428276e-39
0.1795312166 -0.4019553065 0.03018564358 5.962428276e-39
0.1781542152 -0.4401183724 0.01678721234 5.962428276e-39
0.1635112911 -0.4527058601 -0.003694593906 5.962428276e-39
0.1593898684 -0.4079949856 -0.02512748539 5.962428276e-39
0.1633220315 -0.3613411486 -0.04327466711 5.962428276e-39
-0.05436369404 -0.4781242013 0.215921849 8.906165387e-39
-0.1049194783 -0.4782639444 0.1665504426 8.906165387e-39
-0.1563715935 -0.4792661965 0.1123130023 8.906165387e-39
-0.1909056157 -0.4806780219 0.05934473872 8.906165387e-39
-0.2175225317 -0.481636107 0.01527455635 8.906165387e-39
-0.2466815412 -0.4821213782 -0.03009509668 8.906165387e-39
-0.2873354256 -0.4822536707 -0.07217232883 8.906165387e-39
-0.3287065923 -0.4748877585 -0.1168594509 8.906165387e-39
-0.350138247 -0.4398297668 -0.1419143528 8.906165387e-39
-0.3348605931 -0.3909056783 -0.1596284211 8.906165387e-39
-0.3016272783 -0.3616295457 -0.191957891 8.906165387e-39
-0.222033143 -0.3541254699 -0.2118283808 8.906165387e-39
-0.09682735801 -0.3587631285 -0.1879094839 8.906165387e-39
0.05453915894 -0.3427959681 -0.1624009162 8.906165387e-39
0.1209969372 -0.303042978 -0.1156253368 8.906165387e-39
0.1346653104 -0.1857079268 -0.02453242615 8.906165387e-39
0.1441512108 -0.1048845276 0.04451213777 8.906165387e-39
0.1667254716 -0.1015192121 0.07587505877 8.906165387e-39
0.1778536886 -0.1154532135 0.08203567564 8.906165387e-39
0.1827740818 -0.1407283098 0.08366182446 8.906165387e-39
0.1823807955 -0.1690542847 0.08198626339 8.906165387e-39
0.1752642244 -0.2013835013 0.07009355724 8.906165387e-39
0.1720663458 -0.2353224009 0.05776940659 8.906165387e-39
0.1708706915 -0.2652845979 0.0457447283 8.906165387e-39
0.169780612 -0.2922528684 0.03476221487 8.906165387e-39
0.1708867252 -0.3268147707 0.02842000499 8.906165387e-39
0.1754715294 -0.3625955284 0.02344477922 8.906165387e-39
0.1809336692 -0.3969408572 0.01665009372 8.906165387e-39
0.1798918694 -0.4336308241 0.003669135273 8.906165387e-39
0.1655263901 -0.4558412135 -0.01766837388 8.906165387e-39
0.160410583 -0.4128175378 -0.03903746977 8.906165387e-39
0.1612164229 -0.3670588732 -0.05857023224 8.906165387e-39
-0.04446658865 -0.4781585634 0.2110141218 8.906165387e-39
-0.09399966896 -0.4782651067 0.161844179 8.906165387e-39
-0.1457450539 -0.4792391956 0.1075957566 8.906165387e-39
-0.179608494 -0.4805972576 0.05494002998 8.906165387e-39
-0.2077890337 -0.4817748368 0.01036129892 8.906165387e-39
-0.2341860235 -0.4817503393 -0.03120587394 8.906165387e-39
-0.2721618414 -0.4819731414 -0.0741071105 8.906165387e-39
-0.3149318695 -0.4790279269 -0.1201651841 8.906165387e-39
-0.3457487822 -0.4536676705 -0.1519695669 8.906165387e-39
-0.3350524008 -0.4010120928 -0.1684648097 8.906165387e-39
-0.310146749 -0.3682741821 -0.2020317763 8.906165387e-39
-0.2390817106 -0.3533116281 -0.2284006178 8.906165387e-39
-0.1276003271 -0.3565145731 -0.2033848912 8.906165387e-39
0.02133255452 -0.3391929865 -0.1794912666 8.906165387e-39
0.1134352982 -0.3160739243 -0.1435845494 8.906165387e-39
0.1354990005 -0.207388103 -0.0587262623 8.906165387e-39
0.1459710598 -0.1162350178 0.01190127619 8.906165387e-39
0.1644958854 -0.1004764512 0.05688268691 8.906165387e-39
0.1757390499 -0.1125471741 0.06343749166 8.906165387e-39
0.1798610538 -0.1356853843 0.06430588663 8.906165387e-39
0.1795769334 -0.1634829342 0.06352023035 8.906165387e-39
0.1734337807 -0.1945618391 0.05449541658 8.906165387e-39
0.1706511974 -0.2279271036 0.04361093044 8.906165387e-39
0.1695417315 -0.2609320879 0.03123954125 8.906165387e-39
0.1690430641 -0.2870057225 0.01796191372 8.906165387e-39
0.1706408411 -0.3216391802 0.01118754409 8.906165387e-39
0.1755528748 -0.3570964932 0.006166530773 8.906165387e-39
0.1821823716 -0.3927262425 0.001027189195 8.906165387e-39
0.1815778911 -0.4275297821 -0.009500134736 8.906165387e-39
0.1698542982 -0.4557234347 -0.03096127883 8.906165387e-39
0.1615273505 -0.4172689617 -0.0532704331 8.906165387e-39
0.1590794921 -0.3727865815 -0.07397001982 8.906165387e-39
-0.03501527384 -0.4782065749 0.2062615603 8.906165387e-39
-0.0841448158 -0.4783414006 0.156876564 8.906165387e-39
-0.1352329999 -0.4792169333 0.1029402614 8.906165387e-39
-0.1684869528 -0.4804861248 0.05149333924 8.906165387e-39
-0.1981619596 -0.4818050563 0.006323931739 8.906165387e-39
-0.2234293222 -0.4815128148 -0.03483735397 8.906165387e-39
-0.2575449944 -0.4816841483 -0.0761590153 8.906165387e-39
-0.2997059524 -0.4818488359 -0.121116817 8.906165387e-39
-0.3361056745 -0.4639137387 -0.1623900831 8.906165387e-39
-0.3328721821 -0.4138566852 -0.1784776002 8.906165387e-39
-0.3122726381 -0.3764059544 -0.2119855136 8.906165387e-39
-0.2503291368 -0.3523983061 -0.2408900261 8.906165387e-39
-0.1517703533 -0.3516189158 -0.2183068097 8.906165387e-39
-0.0114293918 -0.3324433565 -0.1950502694 8.906165387e-39
0.1023481041 -0.3189339638 -0.1645149589 8.906165387e-39
0.1361383647 -0.2263795882 -0.09856937826 8.906165387e-39
0.1481999904 -0.1294545531 -0.01954933628 8.906165387e-39
0.1600556672 -0.1003179848 0.03391465545 8.906165387e-39
0.1736859083 -0.1106190756 0.045575317 8.906165387e-39
0.1773062199 -0.1309422106 0.04850466549 8.906165387e-39
0.1760735214 -0.1579863727 0.04780507088 8.906165387e-39
0.1721336097 -0.1885589361 0.04202727601 8.906165387e-39
0.1692899019 -0.2211990654 0.03179360926 8.906165387e-39
0.1682394445 -0.2566685677 0.01795329899 8.906165387e-39
0.1690194905 -0.2817417085 0.003761034459 8.906165387e-39
0.1701931208 -0.3170273304 -0.005320698023 8.906165387e-39
0.1752490848 -0.3525576293 -0.01127307117 8.906165387e-39
0.1824922413 -0.3883781135 -0.01722617075 8.906165387e-39
0.1831151992 -0.4225954115 -0.02683047578 8.906165387e-39
0.1738891304 -0.455870837 -0.04740728065 8.906165387e-39
0.1619511247 -0.4213929474 -0.07117432356 8.906165387e-39
0.159330532 -0.3770681322 -0.09183348715 8.906165387e-39
-0.02606432512 -0.4782278836 0.2020899057 8.906165387e-39
-0.07483617961 -0.4783786535 0.1524387151 8.906165387e-39
-0.1247287095 -0.4791631699 0.09887509048 8.906165387e-39
-0.1576501727 -0.4803658128 0.04809868336 8.906165387e-39
-0.1876742691 -0.4816104174 0.003306251019 8.906165387e-39
-0.2142167985 -0.481363982 -0.03906750306 8.906165387e-39
-0.2431667149 -0.4814018011 -0.07872650027 8.906165387e-39
-0.2847732306 -0.4815162122 -0.1227420121 8.906165387e-39
-0.3233031929 -0.472517103 -0.1681630313 8.906165387e-39
-0.328786701 -0.4279633164 -0.1908390522 8.906165387e-39
-0.3124936223 -0.3846747875 -0.2221238911 8.906165387e-39
-0.2612163126 -0.3525269032 -0.2522563338 8.906165387e-39
-0.1748151779 -0.346072942 -0.2358592451 8.906165387e-39
-0.04234036431 -0.3291322291 -0.2104016989 8.906165387e-39
0.09144961834 -0.3160632849 -0.1805584878 8.906165387e-39
0.1395786107 -0.2451984733 -0.1303671151 8.906165387e-39
0.1500272453 -0.1427187324 -0.04939356074 8.906165387e-39
0.1579109281 -0.1001958996 0.01367221773 8.906165387e-39
0.1714546233 -0.1084590033 0.03052281588 8.906165387e-39
0.1761367768 -0.1261562109 0.03388304263 8.906165387e-39
0.1745021194 -0.1531141251 0.03325384483 8.906165387e-39
0.1707485169 -0.1828420609 0.02950943634 8.906165387e-39
0.1683183759 -0.2155590504 0.01860003918 8.906165387e-39
0.1676327139 -0.2508949041 0.005334965885 8.906165387e-39
0.168852374 -0.2778297067 -0.008995242417 8.906165387e-39
0.1698823124 -0.3119347692 -0.01903872937 8.906165387e-39
0.1748131365 -0.348231256 -0.02714485675 8.906165387e-39
0.181982249 -0.3840996027 -0.03410640731 8.906165387e-39
0.1843759567 -0.4184444845 -0.04327008501 8.906165387e-39
0.1776870489 -0.4563067257 -0.06285329163 8.906165387e-39
0.1625148803 -0.4254392684 -0.08875405788 8.906165387e-39
0.1601796895 -0.3803933859 -0.1117945313 8.906165387e-39
-0.01713839918 -0.4782420695 0.197991088 1.184631237e-38
-0.06588418782 -0.4783755839 0.1483434588 1.184631237e-38
-0.1142179072 -0.4790320098 0.09588102996 1.184631237e-38
-0.1467037648 -0.4801917374 0.04561705142 1.184631237e-38
-0.1774879992 -0.4813649058 0.0003412924707 1.184631237e-38
-0.2054370493 -0.4812430143 -0.04246331379 1.184631237e-38
-0.2323997319 -0.4810135067 -0.08121727407 1.184631237e-38
-0.2705057263 -0.4812178016 -0.1254932135 1.184631237e-38
-0.309921205 -0.4796369374 -0.1717653424 1.184631237e-38
-0.323007971 -0.4417262375 -0.2017034292 1.184631237e-38
-0.3092571795 -0.3947768509 -0.2330108583 1.184631237e-38
-0.2698006928 -0.3570175171 -0.2633111775 1.184631237e-38
-0.1922231317 -0.3401155174 -0.2530740798 1.184631237e-38
-0.07741068304 -0.3261339962 -0.225379169 1.184631237e-38
0.06975381076 -0.3091770113 -0.1940903813 1.184631237e-38
0.1376575828 -0.2644758224 -0.1570779085 1.184631237e-38
0.1507295668 -0.1582324207 -0.0763361901 1.184631237e-38
0.1591983587 -0.1032678559 -0.01085598022 1.184631237e-38
0.1710337996 -0.1051407754 0.01897776313 1.184631237e-38
0.1753203124 -0.1224232465 0.02135754377 1.184631237e-38
0.1728396565 -0.1483165026 0.02031495422 1.184631237e-38
0.1686004698 -0.1777993292 0.01725809649 1.184631237e-38
0.167950049 -0.21014449 0.006953714415 1.184631237e-38
0.1670266986 -0.2444292456 -0.005934718996 1.184631237e-38
0.1681648046 -0.2744350433 -0.02047301829 1.184631237e-38
0.1696596295 -0.3067550361 -0.03074364737 1.184631237e-38
0.1747607887 -0.3433664739 -0.03918721154 1.184631237e-38
0.1815811098 -0.380076468 -0.04698300734 1.184631237e-38
0.1847864389 -0.4148373604 -0.05730651692 1.184631237e-38
0.18118909 -0.4564518034 -0.07327154279 1.184631237e-38
0.1634742767 -0.4295319319 -0.1035330296 1.184631237e-38
0.161435008 -0.3843977153 -0.1253698617 1.184631237e-38
-0.008575942367 -0.4781863093 0.1948674023 1.184631237e-38
-0.05709098652 -0.4783351123 0.14523682 1.184631237e-38
-0.1041995138 -0.4789341092 0.09273171425 1.184631237e-38
-0.1355544776 -0.4799735248 0.04383408651 1.184631237e-38
-0.1671449244 -0.4811269343 -0.002329386771 1.184631237e-38
-0.1969353408 -0.4812299907 -0.04559246078 1.184631237e-38
-0.2234531045 -0.480674386 -0.08484210074 1.184631237e-38
-0.2569927871 -0.4809564948 -0.1287810057 1.184631237e-38
-0.2958019078 -0.480746001 -0.1737880856 1.184631237e-38
-0.3142612278 -0.4528421164 -0.210938707 1.184631237e-38
-0.3037020862 -0.404573679 -0.2405640483 1.184631237e-38
-0.2732484639 -0.3624928296 -0.2737449706 1.184631237e-38
-0.2049114555 -0.3357574046 -0.2697922289 1.184631237e-38
-0.1037895977 -0.3225782514 -0.2411293685 1.184631237e-38
0.03945234418 -0.30216223 -0.2042559236 1.184631237e-38
0.1338303387 -0.27896294 -0.180180952 1.184631237e-38
0.1487273872 -0.1763013154 -0.1060968041 1.184631237e-38
0.161065951 -0.110442698 -0.03893850371 1.184631237e-38
0.169922635 -0.1001555622 0.008390353993 1.184631237e-38
0.1739717722 -0.1190282404 0.01015054807 1.184631237e-38
0.1707624346 -0.1438141763 0.0104762949 1.184631237e-38
0.1680137068 -0.1736570001 0.004624811932 1.184631237e-38
0.1678925753 -0.2051457465 -0.003429632634 1.184631237e-38
0.1665877849 -0.2391870916 -0.01513978466 1.184631237e-38
0.167479828 -0.2715137005 -0.02967170253 1.184631237e-38
0.1694766581 -0.3017416 -0.04091829434 1.184631237e-38
0.1747206748 -0.338529855 -0.05019680038 1.184631237e-38
0.1810996383 -0.3753318489 -0.05801965669 1.184631237e-38
0.1849059463 -0.4119739234 -0.06886021793 1.184631237e-38
0.1830866337 -0.4529027641 -0.08419394493 1.184631237e-38
0.1645078957 -0.4342186451 -0.114521876 1.184631237e-38
0.1621726304 -0.3886800706 -0.1368532479 1.184631237e-38
-8.787959814e-05 -0.4780707955 0.1910892427 1.184631237e-38
-0.04861763492 -0.4782634377 0.1433613002 1.184631237e-38
-0.0938193351 -0.4787684381 0.09164401889 1.184631237e-38
-0.1244156659 -0.4797612429 0.04307111353 1.184631237e-38
-0.1571825147 -0.4808883071 -0.005068082362 1.184631237e-38
-0.1886864603 -0.4811790586 -0.05029805377 1.184631237e-38
-0.2152656913 -0.4804854393 -0.08971697092 1.184631237e-38
-0.2432873249 -0.4806767106 -0.1317026317 1.184631237e-38
-0.2813136578 -0.481064707 -0.1772896349 1.184631237e-38
-0.3053030968 -0.4637518227 -0.2204711139 1.184631237e-38
-0.2967329323 -0.4134815931 -0.2462573349 1.184631237e-38
-0.2742397785 -0.3710972667 -0.2814491689 1.184631237e-38
-0.2176989019 -0.3322191536 -0.2854840755 1.184631237e-38
-0.1310816407 -0.3182289004 -0.2561674416 1.184631237e-38
0.009060731158 -0.2954005897 -0.2186183035 1.184631237e-38
0.1207448542 -0.2784053087 -0.1935258806 1.184631237e-38
0.1449508816 -0.193832472 -0.1381471902 1.184631237e-38
0.1618015319 -0.115851298 -0.06435160339 1.184631237e-38
0.1686544418 -0.09640689194 -0.00848737359 1.184631237e-38
0.1736421138 -0.114616625 0.002057820559 1.184631237e-38
0.1698414534 -0.1388695687 0.0001280196011 1.184631237e-38
0.1676875204 -0.1695946604 -0.006963748485 1.184631237e-38
0.1674752086 -0.201300621 -0.01544338465 1.184631237e-38
0.1662613899 -0.2343432605 -0.02480465546 1.184631237e-38
0.1669351608 -0.2687191367 -0.03749855235 1.184631237e-38
0.1693678945 -0.2971314788 -0.05017317459 1.184631237e-38
0.1747256219 -0.3337296844 -0.06064267829 1.184631237e-38
0.1806210577 -0.3705678284 -0.0688303262 1.184631237e-38
0.1847111434 -0.4085723162 -0.07912552357 1.184631237e-38
0.1836427599 -0.4487532377 -0.09587648511 1.184631237e-38
0.1650088727 -0.4391068518 -0.1260327697 1.184631237e-38
0.1628055722 -0.3931089044 -0.1479166746 1.184631237e-38
0.009163383394 -0.4779470265 0.1882634461 1.184631237e-38
-0.04029615596 -0.4782050848 0.1412681341 1.184631237e-38
-0.08312293887 -0.478515178 0.09158605337 1.184631237e-38
-0.1143057048 -0.4795181751 0.04239021242 1.184631237e-38
-0.1477910727 -0.4806109667 -0.00802641362 1.184631237e-38
-0.1805497408 -0.4811510146 -0.05539558455 1.184631237e-38
-0.207532689 -0.4804165661 -0.09578728676 1.184631237e-38
-0.2307726145 -0.4804910123 -0.1354810745 1.184631237e-38
-0.2663847804 -0.4808738828 -0.1822866499 1.184631237e-38
-0.2942243814 -0.4723617136 -0.2300537825 1.184631237e-38
-0.2877278924 -0.4229057729 -0.2534269989 1.184631237e-38
-0.2724632025 -0.3804846108 -0.2879675627 1.184631237e-38
-0.2241300941 -0.3331111968 -0.2950681448 1.184631237e-38
-0.1524381042 -0.312117517 -0.2683759034 1.184631237e-38
-0.02503376827 -0.2859126627 -0.2330722213 1.184631237e-38
0.1035725921 -0.27133587 -0.2052968442 1.184631237e-38
0.141884774 -0.2136895806 -0.1632615179 1.184631237e-38
0.1605807841 -0.1249396652 -0.09345683455 1.184631237e-38
0.1676662117 -0.09576747566 -0.02739976719 1.184631237e-38
0.1719196141 -0.1102337241 -0.006837662309 1.184631237e-38
0.1695723683 -0.134063676 -0.009488079697 1.184631237e-38
0.1669379026 -0.1656327546 -0.01511086524 1.184631237e-38
0.1668736041 -0.1975350231 -0.02619179711 1.184631237e-38
0.1660997123 -0.2304879576 -0.03451793268 1.184631237e-38
0.1661854684 -0.2660857439 -0.04459549859 1.184631237e-38
0.1693342626 -0.2926162779 -0.05828334764 1.184631237e-38
0.1748881638 -0.3290372491 -0.06962943077 1.184631237e-38
0.1803926826 -0.3658236861 -0.07862178981 1.184631237e-38
0.1845093369 -0.4049214721 -0.088720873 1.184631237e-38
0.1841242611 -0.4434062243 -0.1056036353 1.184631237e-38
0.1646960974 -0.4439871311 -0.1371418983 1.184631237e-38
0.1627604812 -0.3974428475 -0.1583657116 1.184631237e-38
0.01842007414 -0.4778372645 0.1856064349 1.478322936e-38
-0.0314113535 -0.4780984223 0.1390796006 1.478322936e-38
-0.07315856218 -0.4782750905 0.09030897915 1.478322936e-38
-0.1048798114 -0.4792540967 0.04010534286 1.478322936e-38
-0.1391048729 -0.4803456664 -0.01094239205 1.478322936e-38
-0.1725347489 -0.4811083078 -0.05887987837 1.478322936e-38
-0.1993329674 -0.4803739488 -0.1014934778 1.478322936e-38
-0.2213456035 -0.4802591503 -0.1387785375 1.478322936e-38
-0.251522243 -0.4806676507 -0.1867833734 1.478322936e-38
-0.281676203 -0.4778820574 -0.2375019789 1.478322936e-38
-0.2779152691 -0.4329485297 -0.259526968 1.478322936e-38
-0.2676571608 -0.3894152045 -0.2932091653 1.478322936e-38
-0.2267822325 -0.3350919485 -0.2987892032 1.478322936e-38
-0.1695661247 -0.3020206988 -0.2801352143 1.478322936e-38
-0.06335805357 -0.2786756754 -0.2465974391 1.478322936e-38
0.07685431093 -0.264665693 -0.2124805152 1.478322936e-38
0.1343968362 -0.2315714806 -0.1858571917 1.478322936e-38
0.1594071686 -0.1338670552 -0.1216867417 1.478322936e-38
0.1689293087 -0.1009415388 -0.05259716138 1.478322936e-38
0.1720587164 -0.1045151278 -0.019736249 1.478322936e-38
0.1707017124 -0.1286759973 -0.01869310066 1.478322936e-38
0.1670767218 -0.1611677706 -0.02479418367 1.478322936e-38
0.1659502834 -0.1937893927 -0.03442571685 1.478322936e-38
0.1663637906 -0.2275208384 -0.0426784046 1.478322936e-38
0.1656336188 -0.2625568807 -0.05244045332 1.478322936e-38
0.1692745835 -0.2893930078 -0.06470544636 1.478322936e-38
0.1751252711 -0.323987484 -0.07841520011 1.478322936e-38
0.1803557724 -0.3611168563 -0.08821041882 1.478322936e-38
0.1840164959 -0.4002305567 -0.09924705327 1.478322936e-38
0.1844345033 -0.438275665 -0.1154068261 1.478322936e-38
0.1641875356 -0.4487600923 -0.1484622359 1.478322936e-38
0.1622620821 -0.401861012 -0.1689308435 1.478322936e-38
0.02738433331 -0.4777510464 0.1828023344 1.478322936e-38
-0.02255724743 -0.4779272676 0.1364251524 1.478322936e-38
-0.06538254023 -0.4780951738 0.08650895953 1.478322936e-38
-0.09567949176 -0.4789819121 0.03789305314 1.478322936e-38
-0.1305590123 -0.4800877869 -0.01425492391 1.478322936e-38
-0.1635742635 -0.4809596837 -0.06270334125 1.478322936e-38
-0.1910237223 -0.4803578258 -0.1068316549 1.478322936e-38
-0.2125189602 -0.4800252318 -0.1415994167 1.478322936e-38
-0.2377899289 -0.480489403 -0.1897372156 1.478322936e-38
-0.2673961818 -0.4811099172 -0.2404022217 1.478322936e-38
-0.2678492665 -0.4436786175 -0.2648312449 1.478322936e-38
-0.2610553503 -0.3989412189 -0.2964077294 1.478322936e-38
-0.2303483188 -0.3375738859 -0.3011320531 1.478322936e-38
-0.1840813905 -0.2944763303 -0.2915551364 1.478322936e-38
-0.09683467448 -0.2714902759 -0.258747071 1.478322936e-38
0.0442513302 -0.2566297054 -0.2288770378 1.478322936e-38
0.123338908 -0.2390356213 -0.2050818056 1.478322936e-38
0.155034095 -0.1509413421 -0.1456996053 1.478322936e-38
0.1690302491 -0.1055352464 -0.0795609355 1.478322936e-38
0.1730193198 -0.09999030828 -0.03386681154 1.478322936e-38
0.1715251058 -0.1235292181 -0.02895907685 1.478322936e-38
0.1677215248 -0.1567835212 -0.0345489569 1.478322936e-38
0.1647748351 -0.1900612712 -0.04142710194 1.478322936e-38
0.1653795987 -0.2244525403 -0.05102792755 1.478322936e-38
0.1652391851 -0.2590844035 -0.06037116423 1.478322936e-38
0.1699297428 -0.2867848873 -0.07154561579 1.478322936e-38
0.1756037176 -0.3191902637 -0.08691382408 1.478322936e-38
0.1805829704 -0.3568728864 -0.09745492041 1.478322936e-38
0.1836399138 -0.3954358101 -0.1098288298 1.478322936e-38
0.1846622229 -0.433399111 -0.1252814829 1.478322936e-38
0.1648999453 -0.4522971213 -0.1580979824 1.478322936e-38
0.1619067937 -0.406416297 -0.1792428344 1.478322936e-38
0.03596963361 -0.4776209891 0.1789040864 1.478322936e-38
-0.0149108097 -0.4777303338 0.1324897557 1.478322936e-38
-0.05754887685 -0.4779198766 0.08268291503 1.478322936e-38
-0.08731248975 -0.4787124395 0.03493304178 1.478322936e-38
-0.1220527142 -0.4798420668 -0.01769988611 1.478322936e-38
-0.1548665464 -0.4807549715 -0.06727528572 1.478322936e-38
-0.1828030646 -0.4803477824 -0.112100184 1.478322936e-38
-0.2029311359 -0.4799354076 -0.1455554515 1.478322936e-38
-0.2248932719 -0.4803477228 -0.1927451193 1.478322936e-38
-0.2518258691 -0.4813739955 -0.2410045862 1.478322936e-38
-0.257933706 -0.4528732598 -0.2708554268 1.478322936e-38
-0.2538063228 -0.4070713818 -0.2988365591 1.478322936e-38
-0.2323173583 -0.3459813595 -0.3027390838 1.478322936e-38
-0.1925404519 -0.289229393 -0.3023507297 1.478322936e-38
-0.1246292889 -0.265086472 -0.2722059786 1.478322936e-38
0.007263269275 -0.249155879 -0.2425200939 1.478322936e-38
0.1107797176 -0.2374175936 -0.2140247226 1.478322936e-38
0.1451473087 -0.1670958847 -0.1694831699 1.478322936e-38
0.1679239571 -0.1092649996 -0.1063364893 1.478322936e-38
0.1737502068 -0.09615217149 -0.05063703284 1.478322936e-38
0.1740516126 -0.1185410321 -0.04242411628 1.478322936e-38
0.1687434912 -0.1516034752 -0.04489806667 1.478322936e-38
0.1640358269 -0.1861920357 -0.05074910447 1.478322936e-38
0.164270848 -0.2212013751 -0.05813071504 1.478322936e-38
0.1655188948 -0.2556619644 -0.06772390008 1.478322936e-38
0.1703741848 -0.2854471207 -0.07984305918 1.478322936e-38
0.176463291 -0.314966023 -0.09483611584 1.478322936e-38
0.180608511 -0.3524809778 -0.1066482812 1.478322936e-38
0.1832960099 -0.3905981779 -0.1204688996 1.478322936e-38
0.1848203838 -0.4285853505 -0.1349557936 1.478322936e-38
0.1681401283 -0.4527304173 -0.165534094 1.478322936e-38
0.1616909504 -0.4110127985 -0.1896152943 1.478322936e-38
0.04447041824 -0.4773736596 0.1746352911 1.478322936e-38
-0.007362712175 -0.477530092 0.1285568774 1.478322936e-38
-0.05006605014 -0.4777528644 0.07870621979 1.478322936e-38
-0.07818815112 -0.4784540832 0.03158806637 1.478322936e-38
-0.1133265793 -0.4796022475 -0.02087406442 1.478322936e-38
-0.1463267505 -0.4805402756 -0.07216952741 1.478322936e-38
-0.1745774001 -0.4803172648 -0.1178243905 1.478322936e-38
-0.1936549991 -0.4799565673 -0.1512044966 1.478322936e-38
-0.2132171392 -0.4802105129 -0.1949230731 1.478322936e-38
-0.2372096479 -0.4811761975 -0.2412412763 1.478322936e-38
-0.2475842237 -0.4588194489 -0.2759629786 1.478322936e-38
-0.244525075 -0.4143384993 -0.3022520244 1.478322936e-38
-0.2345182598 -0.3554284275 -0.3050204217 1.478322936e-38
-0.1947268993 -0.2899994552 -0.3060761392 1.478322936e-38
-0.1443497837 -0.2604964077 -0.2849419713 1.478322936e-38
-0.03525545076 -0.2408469319 -0.2544479668 1.478322936e-38
0.08519417048 -0.2335869223 -0.2225874662 1.478322936e-38
0.132432878 -0.1833956987 -0.192122221 1.478322936e-38
0.1663413942 -0.1131303236 -0.1310289651 1.478322936e-38
0.1757439375 -0.09601844847 -0.07540468872 1.478322936e-38
0.1765689552 -0.1141548008 -0.0560532026 1.478322936e-38
0.1694027632 -0.1463478208 -0.0551234819 1.478322936e-38
0.1646208912 -0.1817213446 -0.06091240421 1.478322936e-38
0.1632048786 -0.2172441632 -0.0667667836 1.478322936e-38
0.1655083448 -0.2518247962 -0.07468734682 1.478322936e-38
0.1707065701 -0.2841512561 -0.08855223656 1.478322936e-38
0.177162379 -0.3104627132 -0.1026267707 1.478322936e-38
0.1809065193 -0.3472330868 -0.1163147688 1.478322936e-38
0.1832508892 -0.3856391907 -0.1304040849 1.478322936e-38
0.1849261522 -0.4238145351 -0.1444076747 1.478322936e-38
0.1712953597 -0.4528667629 -0.1726229787 1.478322936e-38
0.1615508199 -0.4155900776 -0.1997160763 1.478322936e-38
0.05489845574 -0.4770751894 0.1703646481 1.771655483e-38
0.001081068069 -0.4772932529 0.1244448274 1.771655483e-38
-0.04239077494 -0.4776016176 0.07469305396 1.771655483e-38
-0.06865216792 -0.4781728089 0.02822088823 1.771655483e-38
-0.1039731205 -0.4792635441 -0.02463599294 1.771655483e-38
-0.1378241181 -0.4803171456 -0.07709862292 1.771655483e-38
-0.1660801917 -0.4802618027 -0.1236037016 1.771655483e-38
-0.184445858 -0.4800068736 -0.1570004672 1.771655483e-38
-0.2033560574 -0.4799773693 -0.1969545037 1.771655483e-38
-0.2242314816 -0.4809173048 -0.2417013049 1.771655483e-38
-0.2382002473 -0.4650125206 -0.2822395563 1.771655483e-38
-0.2347703874 -0.422318697 -0.3052860796 1.771655483e-38
-0.2322151065 -0.3639889359 -0.3075836599 1.771655483e-38
-0.1947404593 -0.2967651486 -0.3081670403 1.771655483e-38
-0.1551582962 -0.2591038346 -0.2970107496 1.771655483e-38
-0.07381565869 -0.2329530865 -0.2669028342 1.771655483e-38
0.0442661643 -0.2220828533 -0.2370161414 1.771655483e-38
0.1197970212 -0.1960115135 -0.2140921652 1.771655483e-38
0.1645152569 -0.1189085394 -0.1566504091 1.771655483e-38
0.1764498353 -0.09699950367 -0.09881359339 1.771655483e-38
0.1778874844 -0.1102603972 -0.0710131973 1.771655483e-38
0.1711538434 -0.1409574449 -0.06719340384 1.771655483e-38
0.1658358127 -0.1771733761 -0.07144713402 1.771655483e-38
0.1631564945 -0.2131579518 -0.07654067874 1.771655483e-38
0.1647799462 -0.2476032525 -0.08360016346 1.771655483e-38
0.1707129925 -0.2819864452 -0.09666667879 1.771655483e-38
0.1776542068 -0.3063008189 -0.1107917279 1.771655483e-38
0.1813417822 -0.3418360054 -0.1255082041 1.771655483e-38
0.1833258867 -0.3808416426 -0.1396944821 1.771655483e-38
0.1851113588 -0.4190713763 -0.153696239 1.771655483e-38
0.1743099093 -0.4524916112 -0.1793735474 1.771655483e-38
0.1616784632 -0.4201562703 -0.2096042335 1.771655483e-38
0.06507826596 -0.4767844677 0.16588144 1.771655483e-38
0.01131376252 -0.4770252407 0.1200359762 1.771655483e-38
-0.03323794529 -0.4774106443 0.07046999037 1.771655483e-38
-0.05981681868 -0.4779130816 0.02433001436 1.771655483e-38
-0.09433053434 -0.4788917005 -0.02854014561 1.771655483e-38
-0.1289368123 -0.4799787104 -0.08310438693 1.771655483e-38
-0.1572309434 -0.4802137315 -0.1291915774 1.771655483e-38
-0.1751838923 -0.4800257087 -0.1629863828 1.771655483e-38
-0.1942121685 -0.4797087312 -0.200524807 1.771655483e-38
-0.2123535275 -0.4806244671 -0.2431566715 1.771655483e-38
-0.2294580638 -0.471319437 -0.2870286405 1.771655483e-38
-0.2255082428 -0.4287504554 -0.3088744581 1.771655483e-38
-0.2270040512 -0.3715547025 -0.3108968139 1.771655483e-38
-0.196208775 -0.3062511981 -0.3108003139 1.771655483e-38
-0.1649047434 -0.2585116029 -0.308473289 1.771655483e-38
-0.1005393267 -0.2276673615 -0.2816233337 1.771655483e-38
0.002196390182 -0.2101412117 -0.252920568 1.771655483e-38
0.1052339971 -0.1991940737 -0.2274976373 1.771655483e-38
0.1557468325 -0.1334154755 -0.1804784685 1.771655483e-38
0.1767558753 -0.09740888327 -0.1183226705 1.771655483e-38
0.1784216017 -0.1057532877 -0.08573380113 1.771655483e-38
0.1736355424 -0.1360275745 -0.08181163669 1.771655483e-38
0.1671706736 -0.172629863 -0.08204032481 1.771655483e-38
0.1642979085 -0.208644405 -0.08719736338 1.771655483e-38
0.1642771065 -0.2435146123 -0.09232737124 1.771655483e-38
0.1715905368 -0.2791934907 -0.1041184813 1.771655483e-38
0.1782393306 -0.3030702472 -0.118467465 1.771655483e-38
0.1816448569 -0.3372994065 -0.1340312958 1.771655483e-38
0.1835783422 -0.3761154413 -0.1489432752 1.771655483e-38
0.1853718758 -0.4140608013 -0.1629742831 1.771655483e-38
0.1772755384 -0.4521258771 -0.1861467063 1.771655483e-38
0.1618027836 -0.4246903956 -0.2194955647 1.771655483e-38
0.07359723747 -0.4763995409 0.1608510315 1.771655483e-38
0.02210501395 -0.4767859876 0.1155474484 1.771655483e-38
-0.02224932238 -0.4771654308 0.06606061757 1.771655483e-38
-0.05009278283 -0.4776481688 0.02008087002 1.771655483e-38
-0.0835442692 -0.4784744084 -0.03200701252 1.771655483e-38
-0.1189895868 -0.4796063304 -0.08835069835 1.771655483e-38
-0.1483121365 -0.4801575243 -0.1348359436 1.771655483e-38
-0.1663314402 -0.4799474776 -0.1694563478 1.771655483e-38
-0.1857035756 -0.479567349 -0.2052201629 1.771655483e-38
-0.2010458559 -0.4802618921 -0.2455788851 1.771655483e-38
-0.2203989029 -0.4766935408 -0.2916226685 1.771655483e-38
-0.2163377702 -0.4348742962 -0.3104156256 1.771655483e-38
-0.2181688547 -0.3781396747 -0.3136873543 1.771655483e-38
-0.2004582733 -0.3169220388 -0.313511163 1.771655483e-38
-0.1687251776 -0.2625556886 -0.3139173687 1.771655483e-38
-0.1217632592 -0.2254824936 -0.2945326269 1.771655483e-38
-0.03900304064 -0.1994433552 -0.2686223686 1.771655483e-38
0.07130770385 -0.1938092113 -0.2393451333 1.771655483e-38
0.138665244 -0.1452322006 -0.2049689889 1.771655483e-38
0.1744406521 -0.1004668623 -0.1402772665 1.771655483e-38
0.1786205173 -0.1012238041 -0.1009153277 1.771655483e-38
0.1755614877 -0.1311882734 -0.09591925144 1.771655483e-38
0.1689044237 -0.1679436266 -0.09289810061 1.771655483e-38
0.165377304 -0.2041260898 -0.09799073637 1.771655483e-38
0.1646694094 -0.2391597331 -0.1003277749 1.771655483e-38
0.1716869026 -0.2749342322 -0.1119482219 1.771655483e-38
0.1786370277 -0.3008697033 -0.1270388365 1.771655483e-38
0.1818646193 -0.3330404758 -0.1416390538 1.771655483e-38
0.1839366406 -0.3713693023 -0.1575730741 1.771655483e-38
0.1860012412 -0.4091804922 -0.1719825715 1.771655483e-38
0.180175215 -0.4513573945 -0.1931062788 1.771655483e-38
0.1628574431 -0.4298526943 -0.228771776 1.771655483e-38
0.08157037199 -0.4760088921 0.1553993672 1.771655483e-38
0.03321348503 -0.476508379 0.1105770916 1.771655483e-38
-0.01135563105 -0.4769087434 0.06150936335 1.771655483e-38
-0.03868763521 -0.4773420095 0.01596690528 1.771655483e-38
-0.07028669119 -0.4779863358 -0.03542901203 1.771655483e-38
-0.1075870842 -0.4791801572 -0.09203465283 1.771655483e-38
-0.138102755 -0.4798307121 -0.1403621286 1.771655483e-38
-0.1577547938 -0.4798206389 -0.175836727 1.771655483e-38
-0.1781528741 -0.4793855548 -0.2116397023 1.771655483e-38
-0.1924399883 -0.479875803 -0.2479765713 1.771655483e-38
-0.2103390396 -0.4792185128 -0.2945356667 1.771655483e-38
-0.2072537243 -0.4403780103 -0.310856998 1.771655483e-38
-0.2087563276 -0.3834606707 -0.315372169 1.771655483e-38
-0.200979948 -0.3264305294 -0.3149141073 1.771655483e-38
-0.1688754261 -0.2666686773 -0.3161815703 1.771655483e-38
-0.1346759051 -0.2228632867 -0.3066985011 1.771655483e-38
-0.07144534588 -0.1922454238 -0.283610791 1.771655483e-38
0.03383896127 -0.1838232726 -0.2538714707 1.771655483e-38
0.1213236153 -0.1575638652 -0.2301031947 1.771655483e-38
0.1720660627 -0.1039563641 -0.1641518623 1.771655483e-38
0.1784888655 -0.09679333121 -0.1172886491 1.771655483e-38
0.1770570576 -0.1261191517 -0.1097112447 1.771655483e-38
0.1723393351 -0.1629106402 -0.108122617 1.771655483e-38
0.1664295197 -0.1995489895 -0.1088178307 1.771655483e-38
0.1657063961 -0.234515965 -0.1104628891 1.771655483e-38
0.1719951928 -0.2706001997 -0.120223254 1.771655483e-38
0.1784264296 -0.2987219989 -0.1362871677 1.771655483e-38
0.1817898154 -0.3285054564 -0.1495319456 1.771655483e-38
0.1837449223 -0.3652232587 -0.1652898192 1.771655483e-38
0.1855327338 -0.4039304554 -0.1814245284 1.771655483e-38
0.1835847497 -0.4477272332 -0.1993647665 1.771655483e-38
0.1651262343 -0.4387438595 -0.2365284264 1.771655483e-38
0.09011685848 -0.4755973816 0.1499885023 2.06466517e-38
0.04435903206 -0.4762221873 0.1060125977 2.06466517e-38
0.000219065696 -0.476644069 0.05721967667 2.06466517e-38
-0.02625824884 -0.4770611525 0.01167217456 2.06466517e-38
-0.05627695099 -0.4775240719 -0.03982928023 2.06466517e-38
-0.09496040642 -0.4786282182 -0.096308887 2.06466517e-38
-0.1271734238 -0.4794049859 -0.145975396 2.06466517e-38
-0.1501153708 -0.4795162976 -0.1842635572 2.06466517e-38
-0.1707485765 -0.4792343974 -0.2175162137 2.06466517e-38
-0.1840068847 -0.4795732796 -0.2513926625 2.06466517e-38
-0.2001537532 -0.4800155163 -0.2967138588 2.06466517e-38
-0.1983731985 -0.4438159168 -0.3127733767 2.06466517e-38
-0.1985463351 -0.3888079524 -0.3156961203 2.06466517e-38
-0.1951302886 -0.333253324 -0.3181049526 2.06466517e-38
-0.1700724065 -0.274628371 -0.3180914521 2.06466517e-38
-0.1432380974 -0.2252743244 -0.3155793548 2.06466517e-38
-0.09497280419 -0.189886868 -0.2979834974 2.06466517e-38
-0.005697820336 -0.1752105951 -0.2709245682 2.06466517e-38
0.1051237732 -0.1605116725 -0.2517787814 2.06466517e-38
0.1661196351 -0.106800437 -0.1901448965 2.06466517e-38
0.1771482974 -0.09360778332 -0.1346670836 2.06466517e-38
0.1757538915 -0.1204296947 -0.1237716079 2.06466517e-38
0.1736713499 -0.1583034545 -0.1229025424 2.06466517e-38
0.1672187448 -0.1944300234 -0.1204583943 2.06466517e-38
0.1658847332 -0.2295573205 -0.1223768145 2.06466517e-38
0.1708200276 -0.2658603787 -0.1303609014 2.06466517e-38
0.1777084172 -0.2962326407 -0.1450879723 2.06466517e-38
0.1806832552 -0.3242884874 -0.1595122814 2.06466517e-38
0.1829936206 -0.3600808084 -0.1738232523 2.06466517e-38
0.1848836988 -0.3985099196 -0.1900984347 2.06466517e-38
0.1831718981 -0.4424081445 -0.2091796249 2.06466517e-38
0.1670856327 -0.4445712864 -0.2417198122 2.06466517e-38
0.09898831695 -0.4751582742 0.14502424 2.06466517e-38
0.05545096844 -0.4759688377 0.1017004102 2.06466517e-38
0.01260551438 -0.4763693511 0.05299317092 2.06466517e-38
-0.01457765326 -0.4767750204 0.006121331826 2.06466517e-38
-0.04428018257 -0.4771459699 -0.04538295045 2.06466517e-38
-0.08094866574 -0.4780773818 -0.1006391943 2.06466517e-38
-0.1137094349 -0.4789272547 -0.1528287381 2.06466517e-38
-0.1408511102 -0.4792437851 -0.1908495426 2.06466517e-38
-0.1627702862 -0.4791062176 -0.223262459 2.06466517e-38
-0.1764373779 -0.4794699252 -0.2575521469 2.06466517e-38
-0.1902704388 -0.4806117713 -0.2994557917 2.06466517e-38
-0.1900470704 -0.445043385 -0.3159853518 2.06466517e-38
-0.1888612807 -0.3934000731 -0.3163332343 2.06466517e-38
-0.1867350638 -0.3400110304 -0.3194624186 2.06466517e-38
-0.17126894 -0.2887051404 -0.3186579943 2.06466517e-38
-0.1480897814 -0.2317896783 -0.3212786913 2.06466517e-38
-0.1158006638 -0.188657403 -0.3122841418 2.06466517e-38
-0.04302948341 -0.165262863 -0.2870490849 2.06466517e-38
0.06972154975 -0.1615905017 -0.2662729621 2.06466517e-38
0.1504226625 -0.1173177585 -0.2173797786 2.06466517e-38
0.1745585203 -0.0910096541 -0.1560415179 2.06466517e-38
0.1718462259 -0.1129099876 -0.1383154988 2.06466517e-38
0.1733132899 -0.1526451111 -0.140382424 2.06466517e-38
0.1682879031 -0.1885362267 -0.1384645253 2.06466517e-38
0.1647461802 -0.2241987884 -0.1355669349 2.06466517e-38
0.1689766049 -0.2607271969 -0.1402267963 2.06466517e-38
0.1755520254 -0.2932909131 -0.15330109 2.06466517e-38
0.1796408892 -0.3201424778 -0.1687150449 2.06466517e-38
0.1817329526 -0.3548292518 -0.1818977594 2.06466517e-38
0.1836286336 -0.3927868307 -0.1976311952 2.06466517e-38
0.1820957959 -0.4372133017 -0.2180079818 2.06466517e-38
0.1683223993 -0.4498591721 -0.2465922534 2.06466517e-38
0.1065869778 -0.474763304 0.1401963085 2.06466517e-38
0.06667399406 -0.475769639 0.09723161161 2.06466517e-38
0.02468671463 -0.4760681093 0.0488572903 2.06466517e-38
-0.003467567265 -0.4764401615 0.0001628063619 2.06466517e-38
-0.03371593729 -0.4768071175 -0.05134962127 2.06466517e-38
-0.06809850037 -0.4774856567 -0.1058697402 2.06466517e-38
-0.0999211669 -0.4784508049 -0.1588740796 2.06466517e-38
-0.1292460561 -0.4788970053 -0.1962281764 2.06466517e-38
-0.1529621035 -0.4789861143 -0.2288470566 2.06466517e-38
-0.1682927459 -0.4793991446 -0.2634822428 2.06466517e-38
-0.1800711155 -0.4805299342 -0.3021079302 2.06466517e-38
-0.1814198196 -0.4453528821 -0.3184666038 2.06466517e-38
-0.1801573187 -0.39695701 -0.3174209595 2.06466517e-38
-0.1789549738 -0.3464396 -0.3208312094 2.06466517e-38
-0.1728089601 -0.2985039949 -0.3201578557 2.06466517e-38
-0.1505421996 -0.241380319 -0.3246482313 2.06466517e-38
-0.1243811846 -0.1918585747 -0.3193904161 2.06466517e-38
-0.07310171425 -0.1591213793 -0.3049824238 2.06466517e-38
0.0251832325 -0.1558875442 -0.2817358375 2.06466517e-38
0.131048739 -0.1321516931 -0.2460601628 2.06466517e-38
0.1716218442 -0.09281408787 -0.1810294986 2.06466517e-38
0.1700611711 -0.1056023985 -0.1531293541 2.06466517e-38
0.1715035141 -0.1453078389 -0.1542212665 2.06466517e-38
0.1677782983 -0.1834423244 -0.1546808779 2.06466517e-38
0.1635798663 -0.2185361683 -0.1490068734 2.06466517e-38
0.1674884707 -0.2557679415 -0.1519425809 2.06466517e-38
0.1729715317 -0.2903657556 -0.1616342217 2.06466517e-38
0.1792901456 -0.3168125749 -0.1769353002 2.06466517e-38
0.1809931993 -0.3498160839 -0.1897028834 2.06466517e-38
0.1821668148 -0.3878246248 -0.205478549 2.06466517e-38
0.1810216159 -0.4317673147 -0.2247856855 2.06466517e-38
0.1700445861 -0.4547134042 -0.2510164082 2.06466517e-38
0.113354221 -0.4744218886 0.1352640986 2.06466517e-38
0.07666970789 -0.4753336608 0.0928748101 2.06466517e-38
0.03627293929 -0.475723803 0.04385830462 2.06466517e-38
0.007436100394 -0.4760915935 -0.005667060614 2.06466517e-38
-0.02402016148 -0.4764217138 -0.05780951306 2.06466517e-38
-0.05468932912 -0.4769016504 -0.1115838885 2.06466517e-38
-0.08570313454 -0.4779509008 -0.1637322456 2.06466517e-38
-0.1162682325 -0.478436172 -0.2018060386 2.06466517e-38
-0.1415772438 -0.4787371457 -0.2353354692 2.06466517e-38
-0.1598235816 -0.4791871011 -0.2709744275 2.06466517e-38
-0.1729726642 -0.4803480804 -0.3093880117 2.06466517e-38
-0.1709117591 -0.4428780079 -0.3185141087 2.06466517e-38
-0.170836851 -0.3990797698 -0.3176958263 2.06466517e-38
-0.1702232659 -0.3516703546 -0.3214146197 2.06466517e-38
-0.1665378064 -0.3052383065 -0.3231282234 2.06466517e-38
-0.1531355083 -0.2515981495 -0.3257137537 2.06466517e-38
-0.1314436793 -0.1973840892 -0.3247585893 2.06466517e-38
-0.09684124589 -0.1563532054 -0.3184057474 2.06466517e-38
-0.01720251516 -0.1444654018 -0.2966900766 2.06466517e-38
0.1054528058 -0.1365004182 -0.2785004079 2.06466517e-38
0.1671288311 -0.09667293727 -0.2063066959 2.06466517e-38
0.1685735136 -0.09831093997 -0.1679460704 2.06466517e-38
0.1706275046 -0.1380919516 -0.1674162 2.06466517e-38
0.1675683856 -0.1782321036 -0.1695815176 2.06466517e-38
0.1642290652 -0.2126629949 -0.1655038893 2.06466517e-38
0.1652154922 -0.2505156398 -0.1636400372 2.06466517e-38
0.1703458279 -0.2876570821 -0.1705362797 2.06466517e-38
0.1780922562 -0.3138524592 -0.1851236671 2.06466517e-38
0.180098623 -0.3462629318 -0.1987234205 2.06466517e-38
0.1817047 -0.3827096522 -0.212870717 2.06466517e-38
0.1805511117 -0.4263595343 -0.2316724062 2.06466517e-38
0.1745442599 -0.4586257339 -0.2528984845 2.06466517e-38
0.1211927384 -0.4740791619 0.1311058253 2.348204041e-38
0.0862724185 -0.4748391211 0.08829598874 2.348204041e-38
0.04738463461 -0.4754018486 0.03897083178 2.348204041e-38
0.01764422469 -0.4756981432 -0.01208304986 2.348204041e-38
-0.01578805968 -0.4759860933 -0.06779770553 2.348204041e-38
-0.04329363629 -0.4764116406 -0.1207784116 2.348204041e-38
-0.07354237139 -0.4773334563 -0.1728300452 2.348204041e-38
-0.1051990241 -0.4778819382 -0.2118686587 2.348204041e-38
-0.1315004677 -0.4783501029 -0.245082289 2.348204041e-38
-0.1504124254 -0.4787858129 -0.2809258699 2.348204041e-38
-0.1639141291 -0.4768794179 -0.3145561814 2.348204041e-38
-0.1586323977 -0.439894408 -0.3192212284 2.348204041e-38
-0.1604451835 -0.4003351331 -0.3183096349 2.348204041e-38
-0.160692513 -0.3561764359 -0.3212028444 2.348204041e-38
-0.1584929824 -0.3120702207 -0.3236933649 2.348204041e-38
-0.1510858387 -0.2627361417 -0.3236774206 2.348204041e-38
-0.1342683882 -0.2065636367 -0.32561782 2.348204041e-38
-0.1100243181 -0.1611356735 -0.3259450495 2.348204041e-38
-0.05676771328 -0.1388338208 -0.3130793273 2.348204041e-38
0.06259965897 -0.1368047893 -0.2957395017 2.348204041e-38
0.1574432403 -0.1006645113 -0.2341876626 2.348204041e-38
0.1690919697 -0.09341517836 -0.188858375 2.348204041e-38
0.1689534187 -0.1294873804 -0.1790390164 2.348204041e-38
0.16724509 -0.1716147363 -0.1820132434 2.348204041e-38
0.1643088162 -0.2079548836 -0.1797447205 2.348204041e-38
0.1635450423 -0.2450685948 -0.1740766913 2.348204041e-38
0.1677643806 -0.2834675908 -0.1796676069 2.348204041e-38
0.1757212728 -0.3110631108 -0.1938109249 2.348204041e-38
0.1798161715 -0.3430019021 -0.2078978866 2.348204041e-38
0.1810932755 -0.3781827986 -0.2201524675 2.348204041e-38
0.1806027293 -0.4218309522 -0.2376187444 2.348204041e-38
0.1778402328 -0.4607508183 -0.2558437586 2.348204041e-38
0.1260216236 -0.4736281633 0.1244846284 2.348204041e-38
0.09128145874 -0.4742911756 0.07877568901 2.348204041e-38
0.05386974663 -0.475009799 0.02825541608 2.348204041e-38
0.02220808342 -0.4752087891 -0.02689683065 2.348204041e-38
