# .PCD v0.7 - Point Cloud Data file format
VERSION 0.7
FIELDS x y z rgb
SIZE 4 4 4 4
TYPE F F F F
COUNT 1 1 1 1
WIDTH 808
HEIGHT 1
VIEWPOINT 0 0 0 1 0 0 0
POINTS 808
DATA ascii
-0.05806222185 -0.04409286752 0.1356461346 8.012284103e-39
0.02710774168 -0.06025916338 0.0297856424 8.012284103e-39
-0.04050788283 -0.05757709965 0.1143309474 8.012284103e-39
-0.01233985182 -0.05220022798 0.04761068523 8.012284103e-39
-0.1211250275 -0.04538077116 0.04609403759 8.012284103e-39
0.1188903823 -0.06162487715 0.02924975567 8.012284103e-39
-0.1269311905 -0.05597339198 0.03029976599 8.012284103e-39
0.00961750187 -0.05955493823 0.04318640754 8.012284103e-39
-0.09074273705 -0.04639005288 0.0375440456 8.012284103e-39
0.02471364662 -0.06072564051 0.03051210567 8.012284103e-39
-0.1759865284 -0.02720918134 0.04139163345 8.012284103e-39
-0.01343415305 -0.05041906983 0.03732507303 8.012284103e-39
-0.1723197401 -0.0365029946 0.03926537931 8.012284103e-39
0.1161193997 -0.05419462174 0.04067339376 8.012284103e-39
-0.2106370926 -0.02444037981 0.01803971268 8.012284103e-39
0.03866067156 -0.06852805614 0.03158341721 8.012284103e-39
-0.08168938011 -0.04141417891 0.0403165631 8.012284103e-39
-0.05694254115 -0.04425088316 0.04768943042 7.281903522e-39
-0.1487473994 -0.01517960057 -0.02606060915 7.281903522e-39
0.2551436424 -0.03679120541 0.02641100809 7.281903522e-39
-0.1395070702 -0.01016326994 -0.04985396564 7.281903522e-39
-0.1226696372 -0.02112542093 0.04625032097 7.281903522e-39
-0.2449907959 0.01637188904 -0.007817094214 7.281903522e-39
0.023654202 -0.04476008564 0.05337629467 7.281903522e-39
-0.2595045269 -0.0239628125 -0.05713547021 7.281903522e-39
-0.2260964811 -0.03295439482 0.04499962553 7.281903522e-39
-0.3657492399 0.02240443788 -0.001985055627 7.281903522e-39
0.07461886108 -0.05303278565 0.05143801495 7.281903522e-39
-0.1977855563 -0.03026446141 -0.05518663675 7.281903522e-39
-0.220350191 -0.03878972307 0.04255263507 7.281903522e-39
-0.3622654378 0.01244470291 0.002187069738 7.281903522e-39
0.2183087319 -0.0450668484 0.03290490061 7.281903522e-39
-0.1597291231 -0.01861174032 -0.05001038313 7.281903522e-39
-0.1582497507 -0.03673656285 0.03963956237 7.281903522e-39
-0.27572155 0.01629107818 0.02176951803 7.281903522e-39
0.01579517685 -0.04276705161 0.04634788632 7.281903522e-39
-0.2984108627 -0.005578832701 -0.05254488438 7.281903522e-39
-0.2047867626 -0.03361818939 0.04376089945 7.281903522e-39
-0.3172543347 0.0001644790173 0.004222010262 7.281903522e-39
0.2554898858 -0.04718073457 0.0004760175652 7.281903522e-39
-0.2356956899 -0.01354685985 -0.0465935953 7.281903522e-39
-0.1325723678 -0.03583838791 0.0375360772 7.281903522e-39
-0.2458307743 0.008489889093 0.02006213926 7.281903522e-39
-0.0241800528 -0.03745985404 0.05906060338 7.281903522e-39
-0.3384322822 -0.01453456748 -0.04576364532 7.281903522e-39
-0.2366283089 -0.03983635455 0.04672468454 7.281903522e-39
-0.3394142687 -0.01786505245 0.01779353619 7.281903522e-39
0.1916773766 -0.04848894849 0.01472652052 7.281903522e-39
-0.1775469482 -0.000244051218 -0.02698813565 7.281903522e-39
-0.2278871387 -0.0429071337 0.03420694917 6.55152294e-39
-0.2096094936 -0.02870517038 -0.05227663741 6.55152294e-39
-0.2770835757 -0.008320787922 0.01261101849 6.55152294e-39
-0.02084891871 -0.0398988314 -0.057993792 6.55152294e-39
-0.2443789244 -0.02499291487 0.04711679369 6.55152294e-39
-0.2595593929 -0.02009308338 -0.04552004486 6.55152294e-39
-0.3430229723 -0.004641953856 0.05563669279 6.55152294e-39
-0.06906329095 -0.01964949071 -0.04687863961 6.55152294e-39
-0.2276777774 -0.04028451815 -0.009666395374 6.55152294e-39
-0.1750110984 -0.02393586002 -0.04820974171 6.55152294e-39
-0.3902952075 -0.01402338315 0.05241972953 6.55152294e-39
-0.03432599455 -0.02929600701 -0.04155290872 6.55152294e-39
-0.2629347146 -0.06087667868 -0.007330316119 6.55152294e-39
-0.1656617373 -0.01839759387 -0.04066708684 6.55152294e-39
-0.3043977916 -0.02863309346 0.01735254563 6.55152294e-39
-0.01309892163 -0.02741346136 -0.03892476484 6.55152294e-39
-0.2885797322 -0.04533114657 0.01919471845 6.55152294e-39
-0.2233573794 -0.01635872573 -0.03726079315 6.55152294e-39
-0.3341320455 -0.009589184076 0.008741722442 6.55152294e-39
-0.06555895507 -0.01824082062 -0.03902665898 6.55152294e-39
-0.2299091667 -0.06713469326 -0.03330872953 6.55152294e-39
-0.1580334902 -0.02236154675 -0.04462505877 6.55152294e-39
-0.333474189 -0.01745480672 0.006668305025 6.55152294e-39
-0.1029261574 -0.03023610078 -0.04348090664 6.55152294e-39
-0.2876133025 -0.0656991601 0.01395720523 6.55152294e-39
-0.2352741808 -0.01819639653 -0.02732934803 6.55152294e-39
-0.3917360306 -0.01801126078 0.01041575894 6.55152294e-39
-0.09050303698 -0.01616464555 -0.03433166817 6.55152294e-39
-0.2518017888 -0.07585212588 -0.01225676108 6.55152294e-39
-0.1785129756 -0.03003364615 -0.0453488864 6.55152294e-39
-0.3108303845 -0.03029935993 -0.01485974062 6.55152294e-39
-0.1036601141 -0.04836656898 -0.04473917186 6.55152294e-39
0.03837995604 1.755543053e-05 0.005177451763 5.820783626e-39
-0.1510917097 0.002397592179 -0.009830709547 5.820783626e-39
-0.01249516942 -0.03591011465 0.02567543462 5.820783626e-39
-0.1492925882 -0.04074348882 0.06675796211 5.820783626e-39
0.1755380034 0.0081694033 -0.01143611316 5.820783626e-39
-0.1279293597 0.007447452284 -0.01404424012 5.820783626e-39
-0.1432791054 -0.05116196349 -0.05254204571 5.820783626e-39
-0.3662933409 -0.04039374739 0.01888117753 5.820783626e-39
0.02144963481 -0.003976933192 -0.02908428572 5.820783626e-39
-0.2748369277 -0.0001717004925 -0.02588514797 5.820783626e-39
-0.06356763095 -0.08202568442 -0.01885972731 5.820783626e-39
-0.3335155249 -0.05397287756 0.02767552622 5.820783626e-39
0.07494778186 -0.007355298381 -0.02059116401 5.820783626e-39
-0.2294071764 -0.00629974762 -0.02586336248 5.820783626e-39
-0.02191819809 -0.06611677259 0.008979496546 5.820783626e-39
-0.2302168757 -0.05584305525 0.04602150992 5.820783626e-39
0.1674777716 0.004145749379 -0.01209353562 5.820783626e-39
-0.177152276 -0.004853366874 -0.02159676887 5.820783626e-39
-0.1288576424 -0.04719568789 -0.03711151704 5.820783626e-39
-0.3351101577 -0.04817757383 0.02697701938 5.820783626e-39
0.07782266289 -0.00863627065 -0.02990435809 5.820783626e-39
-0.2497749627 -0.009282669052 -0.02105879784 5.820783626e-39
-0.02810083516 -0.05929911137 -0.01837653108 5.820783626e-39
-0.2221881598 -0.04547905177 0.04620039091 5.820783626e-39
0.1750933826 -0.003542795777 -0.02036604285 5.820783626e-39
-0.183442235 -0.004354663659 -0.01884551719 5.820783626e-39
-0.1703964323 -0.05129984021 -0.03049284779 5.820783626e-39
-0.3924662769 -0.04181178659 0.0315650329 5.820783626e-39
0.03968588263 -0.009807227179 -0.03042765707 5.820783626e-39
-0.2680240571 -0.009292428382 -0.0203793738 5.820783626e-39
-0.1031768918 -0.02979198098 0.02363494225 5.820783626e-39
-0.149652198 -0.05659674108 0.04534401745 5.820783626e-39
0.1864780337 -0.07576426864 0.03066534735 5.090401643e-39
-0.09684440494 -0.03479014337 0.1711650044 5.090401643e-39
6.926059723e-05 -0.06935398281 0.02268145792 5.090401643e-39
-0.1185332313 -0.04717858508 0.1780472249 5.090401643e-39
0.2184911072 -0.07857787609 0.007332297973 5.090401643e-39
-0.01451747958 -0.05253059417 0.17090334 5.090401643e-39
0.100059554 -0.07808162272 -0.00106202031 5.090401643e-39
-0.0635239929 -0.04626340047 0.2329610139 5.090401643e-39
0.3917553723 -0.07305273414 0.01325434353 5.090401643e-39
-0.05547021329 -0.05105996877 0.1890072674 5.090401643e-39
0.1130791605 -0.0858919248 -0.008713263087 5.090401643e-39
-0.04342230409 -0.04760312662 0.2482398748 5.090401643e-39
0.4020858705 -0.07559478283 0.03370734677 5.090401643e-39
-0.01482690219 -0.04855690151 0.1532822847 5.090401643e-39
0.0431304574 -0.08367548138 0.01458092965 5.090401643e-39
-0.08491376787 -0.0616617389 0.1435883492 5.090401643e-39
0.2937918901 -0.08043789864 0.02846681699 5.090401643e-39
0.006668908522 -0.05913762748 0.1021109149 5.090401643e-39
0.1146228537 -0.06725305319 -0.00746051548 5.090401643e-39
-0.1199260727 -0.01530687883 0.05739182234 5.090401643e-39
0.3388978839 -0.07646562159 0.02681896649 5.090401643e-39
-0.03174710646 -0.01435115747 0.04411618412 5.090401643e-39
0.02499934472 -0.08636008948 0.02273152955 5.090401643e-39
-0.1967095435 -0.01657281257 0.01215338428 5.090401643e-39
0.2483166158 -0.08252802491 0.02065355889 5.090401643e-39
-0.02085996233 -0.02564823441 0.03326829895 5.090401643e-39
0.08164262772 -0.07387144864 -0.01556239557 5.090401643e-39
-0.1634633988 -0.002551751211 -0.009675752372 5.090401643e-39
0.3428694904 -0.07404306531 0.01829177327 5.090401643e-39
-0.05251621827 0.003831598675 0.0129158916 5.090401643e-39
0.02478483692 -0.09711305052 0.02479185164 5.090401643e-39
-0.1981980056 -0.008791011758 0.02827635407 5.090401643e-39
-0.07599030435 -0.05320757255 0.2031210363 4.359662329e-39
0.08827593923 -0.03491462395 0.03827761486 4.359662329e-39
-0.005196610466 -0.06399554014 0.02944509871 4.359662329e-39
0.260884732 -0.05368888751 0.01095421053 4.359662329e-39
-0.04576509446 -0.05278065801 0.1615617275 4.359662329e-39
0.03408637643 -0.004690560512 0.02332155593 4.359662329e-39
-0.0366402939 -0.05046236143 0.152047962 4.359662329e-39
0.4394293427 -0.04721453041 0.02457222342 4.359662329e-39
-0.05220337585 -0.05024699867 0.2276270688 4.359662329e-39
0.1593283266 -0.01803759858 0.03050822765 4.359662329e-39
-0.01743987389 -0.05349923298 0.1425928324 4.359662329e-39
0.4402553439 -0.04049955308 0.02785200626 4.359662329e-39
-0.005993521772 -0.05440312251 0.1822831184 4.359662329e-39
0.1623752117 -0.01541954279 0.03255859017 4.359662329e-39
0.002370367991 -0.05281591788 0.03553591669 4.359662329e-39
0.3563719094 -0.05272325501 0.03835781664 4.359662329e-39
0.01945011877 -0.05208395794 0.1369581074 4.359662329e-39
0.07929421961 -0.01544448081 0.02885708585 4.359662329e-39
-0.04512448981 -0.04194797575 0.03632124141 4.359662329e-39
0.4150060713 -0.04231609777 0.02265910245 4.359662329e-39
-0.05672990158 -0.03573734686 0.02517047711 4.359662329e-39
0.1339966357 -0.004729377106 0.02731229365 4.359662329e-39
0.004941453226 -0.03427273408 0.02683459967 4.359662329e-39
0.2883033454 -0.06161505729 0.02802552842 4.359662329e-39
-0.02998793311 -0.02719577216 0.04247164726 4.359662329e-39
0.07760484517 -0.007926529273 0.02584595419 4.359662329e-39
-0.038873896 -0.05243216828 0.02666312084 4.359662329e-39
0.3961163163 -0.04047518596 0.02760293148 4.359662329e-39
-0.08980121464 -0.04293112457 -0.009748656303 4.359662329e-39
0.158065021 -0.01772356592 0.02771089599 4.359662329e-39
-0.01212370954 -0.06197994575 0.02469620109 4.359662329e-39
0.2407125086 -0.06000717357 0.03184764087 4.359662329e-39
-0.335029453 0.07054488361 -0.03089832142 3.628921614e-39
-0.124907665 -0.07400343567 -0.02968695574 3.628921614e-39
-0.2659493685 -0.01550250687 -0.04232624918 3.628921614e-39
-0.252212584 -0.03238101304 0.05236788467 3.628921614e-39
-0.3971326053 0.07531324774 -0.003996648826 3.628921614e-39
-0.01369775087 -0.07223000377 -0.02803589962 3.628921614e-39
-0.3429250419 0.04282705113 0.0009524893831 3.628921614e-39
-0.2116418779 -0.06228724495 -0.02042752877 3.628921614e-39
-0.4405822158 0.09977595508 -0.05906773731 3.628921614e-39
-0.1646391004 -0.06431714445 -0.02406172082 3.628921614e-39
-0.3664763868 -0.01803068258 0.009776489809 3.628921614e-39
-0.2206401974 -0.07128707319 -0.003091712948 3.628921614e-39
-0.4663479328 0.04849122465 -0.01010867022 3.628921614e-39
-0.1475027949 -0.06985072047 -0.0226805564 3.628921614e-39
-0.3236447871 -0.02843723819 -0.009325576946 3.628921614e-39
-0.238253206 -0.06070480868 0.004580100533 3.628921614e-39
-0.453815192 0.08939970285 0.005766193848 3.628921614e-39
-0.07312276959 -0.06959995627 -0.04004887119 3.628921614e-39
-0.304305166 0.004716581199 0.0100071216 3.628921614e-39
-0.226773724 -0.05907573923 -0.009164136834 3.628921614e-39
-0.4276416004 -0.001296880888 -0.01327495556 3.628921614e-39
-0.1272505522 -0.06588273495 -0.029662719 3.628921614e-39
-0.2900412083 -0.07060208917 -0.01082970295 3.628921614e-39
-0.2702403367 -0.0605478026 0.03004760854 3.628921614e-39
-0.4497873485 -0.01856337301 0.02455371991 3.628921614e-39
-0.09913176298 -0.06850055605 -0.02284314111 3.628921614e-39
-0.3016928434 -0.04144148156 0.03721426055 3.628921614e-39
-0.227238968 -0.07042735815 -0.002177898074 3.628921614e-39
-0.470672369 -0.01376419049 -0.00654939888 3.628921614e-39
-0.1892817616 -0.06088906527 -0.0320315361 3.628921614e-39
-0.2724737227 -0.06964828819 -0.0136192441 3.628921614e-39
-0.294911921 -0.04477615654 0.02771067992 3.628921614e-39
-0.02887497842 -0.05093540251 0.06216634437 2.898180898e-39
0.1714677364 -0.04150112718 0.03184647858 2.898180898e-39
-0.07725892216 -0.04553841427 0.1134723425 2.898180898e-39
-0.1248799115 -0.04133851081 0.1442696899 2.898180898e-39
-0.07812147588 -0.05147694796 0.1237128079 2.898180898e-39
0.09768810868 -0.04507849738 0.04710559174 2.898180898e-39
-0.06693685055 -0.06553662568 0.1632593572 2.898180898e-39
0.0005089267506 -0.04896898195 0.155060634 2.898180898e-39
0.05994510278 -0.07994003594 0.02459252067 2.898180898e-39
0.3314289153 -0.05285489932 0.03310401738 2.898180898e-39
0.0003661736555 -0.07363674045 0.1442498565 2.898180898e-39
0.006295808125 -0.05614002421 0.1531309634 2.898180898e-39
0.1025066897 -0.07531549782 0.03359346837 2.898180898e-39
0.3154128492 -0.05055074766 0.02794293687 2.898180898e-39
-0.06737498194 -0.0637018308 0.1365654469 2.898180898e-39
-0.08224125206 -0.05575784668 0.1205811277 2.898180898e-39
-0.05475183204 -0.07133956999 0.05584296212 2.898180898e-39
0.18889229 -0.05759152398 0.02370055206 2.898180898e-39
-0.0113348132 -0.07224874943 0.06506298482 2.898180898e-39
-0.1317792833 -0.04456521198 0.05199124292 2.898180898e-39
0.09349434078 -0.07322859764 0.03202564642 2.898180898e-39
0.2844872773 -0.05440812558 0.01569414884 2.898180898e-39
-0.06955460459 -0.07060313225 0.0509313792 2.898180898e-39
-0.2590474486 -0.04747929797 0.02994519472 2.898180898e-39
-0.03524546698 -0.06996045262 0.01897646673 2.898180898e-39
0.1995466352 -0.0424002856 0.01759703644 2.898180898e-39
-0.01693702862 -0.07532791048 0.04071497545 2.898180898e-39
-0.1535967588 -0.04335347563 0.04243231192 2.898180898e-39
0.2021207809 -0.06650333852 0.02483981848 2.898180898e-39
0.334526062 -0.05883338675 0.02144793049 2.898180898e-39
-0.04353937507 -0.07948870212 0.02267054096 2.898180898e-39
-0.2942401469 -0.03178261593 0.04266706854 2.898180898e-39
-0.2216340303 -0.02635160834 -0.04631979764 2.167082852e-39
-0.0777861923 -0.01071842667 -0.04155410081 2.167082852e-39
-0.3299203217 0.05433244631 -0.01049754117 2.167082852e-39
0.2095562816 -0.002431462286 -0.03266110644 2.167082852e-39
-0.1646247208 -0.02618209086 -0.04576623067 2.167082852e-39
-0.003717707936 -0.001818297314 -0.04083722085 2.167082852e-39
-0.4185072184 0.09720987082 0.002659471007 2.167082852e-39
0.0457310155 -0.01477147453 -0.03738938272 2.167082852e-39
-0.2755383253 -0.03201926127 -0.03781647608 2.167082852e-39
-0.1241893694 -0.009525309317 -0.03618169576 2.167082852e-39
-0.4210753739 0.06997181475 -0.003109999932 2.167082852e-39
0.0781596154 -0.01284789387 -0.03903615102 2.167082852e-39
-0.2585443854 -0.03561597317 -0.04295438156 2.167082852e-39
-0.08944591135 -0.01779553108 -0.04109469056 2.167082852e-39
-0.3875309825 0.06481980532 -0.005713199265 2.167082852e-39
0.1808690876 -0.02789018303 -0.04232227802 2.167082852e-39
-0.2208404392 -0.02265147865 -0.04362287745 2.167082852e-39
-0.0272713583 -0.01016811281 -0.04626580328 2.167082852e-39
-0.4146568179 0.02842210419 -0.01142531727 2.167082852e-39
0.05940845609 -0.01836051792 -0.04520026594 2.167082852e-39
-0.2508444488 -0.01852753386 -0.04115908965 2.167082852e-39
-0.1033090428 -0.003549218178 -0.04098238796 2.167082852e-39
-0.3560551405 -0.004725674167 -0.02130875736 2.167082852e-39
0.2015503198 -0.0403450802 -0.05230309814 2.167082852e-39
-0.2080371231 -0.02265073359 -0.04834808409 2.167082852e-39
-0.03311988339 -0.014465441 -0.04884581268 2.167082852e-39
-0.4130406082 0.01617006026 -0.0134525504 2.167082852e-39
0.07880034298 -0.02527068369 -0.05061244592 2.167082852e-39
-0.2952866554 -0.002731286688 -0.03041468933 2.167082852e-39
-0.1244804785 -0.01665339805 -0.04534596205 2.167082852e-39
-0.3235089481 -0.01909974404 -0.02706368826 2.167082852e-39
0.2495369017 0.004380242899 -0.023562029 2.167082852e-39
-0.3019671738 -0.03944731504 0.0048693032 1.435982003e-39
-0.1114162356 -0.0781903863 -0.005563537125 1.435982003e-39
-0.1750485003 -0.03173287958 0.05570329726 1.435982003e-39
-0.1643617302 -0.06398820132 -0.0352313295 1.435982003e-39
-0.3351280689 -0.0116226133 -0.01617002301 1.435982003e-39
0.04934019223 -0.07144942135 0.009368212894 1.435982003e-39
-0.3245985806 -0.01859642752 0.01653026044 1.435982003e-39
-0.3081156909 -0.0583246015 -0.01085530035 1.435982003e-39
-0.420886457 0.06135259941 0.01259626169 1.435982003e-39
-0.116739206 -0.07383742183 0.01996019669 1.435982003e-39
-0.3394473791 -0.02786206454 0.03141608089 1.435982003e-39
-0.2756740749 -0.06769218296 -0.01897858828 1.435982003e-39
-0.434926331 0.05636592954 0.006901512388 1.435982003e-39
-0.07440775633 -0.07753920555 -0.002171639586 1.435982003e-39
-0.2741592824 -0.03969160467 0.05301581323 1.435982003e-39
-0.2145226598 -0.07785790414 -0.02610195428 1.435982003e-39
-0.3854696751 0.04524984956 -0.01051012427 1.435982003e-39
-0.003567009931 -0.06649076194 0.02276621014 1.435982003e-39
-0.2994711697 -0.0207708627 0.03052114137 1.435982003e-39
-0.3048916757 -0.06873838603 -0.02631033771 1.435982003e-39
-0.4293882549 -0.02515123785 0.01451396383 1.435982003e-39
-0.08755857497 -0.07227319479 0.01724205725 1.435982003e-39
-0.2675665319 -0.06475859135 0.01122926641 1.435982003e-39
-0.2242570817 -0.07528550923 -0.02149942704 1.435982003e-39
-0.3968608975 -0.0390377678 0.004230690189 1.435982003e-39
-0.06401442736 -0.07324872166 0.03695455566 1.435982003e-39
-0.348112911 -0.05232078582 0.03809781373 1.435982003e-39
-0.3451225162 -0.06340640038 -0.02346622013 1.435982003e-39
-0.4490363598 -0.0150128575 0.004375698045 1.435982003e-39
-0.168038547 -0.0609315671 0.02553498559 1.435982003e-39
-0.2693195641 -0.04578756541 0.04386359453 1.435982003e-39
-0.148280412 -0.07863400877 -0.03146249801 1.435982003e-39
0.1098054051 0.005581682548 0.01784122735 7.045238224e-40
-0.2663018405 0.0003604590602 0.02924229018 7.045238224e-40
0.3352845907 0.002678026678 0.02454241738 7.045238224e-40
-0.08300951868 0.01457246765 -0.004717881326 7.045238224e-40
0.1242617518 0.01278883126 0.004518284462 7.045238224e-40
-0.2029830068 0.002019406296 0.02658305503 7.045238224e-40
0.1997995228 0.009449793026 -0.0008455811185 7.045238224e-40
-0.1749343425 0.007916988805 -0.007715817075 7.045238224e-40
-0.0009302307735 0.005785661284 0.01383210439 7.045238224e-40
-0.3368245959 0.007700555492 0.008647003211 7.045238224e-40
0.2469956279 0.0001043453813 0.001400410198 7.045238224e-40
-0.1345296204 0.004792605061 0.002614506986 7.045238224e-40
0.03475516289 0.002914368408 0.02020061761 7.045238224e-40
-0.2914873362 0.004191347864 -0.009993757121 7.045238224e-40
0.3108160794 -0.001884700381 0.00888368953 7.045238224e-40
-0.1049194336 0.005338442978 -0.01818246394 7.045238224e-40
0.1007265523 0.008065566421 0.005316967145 7.045238224e-40
-0.2341713905 -0.00661681639 -0.009641586803 7.045238224e-40
0.1975974292 0.008025514893 0.00591175817 7.045238224e-40
-0.1791909337 -0.0003177933395 -0.01065802481 7.045238224e-40
0.001894224086 0.007674751803 0.002373348223 7.045238224e-40
-0.3323232532 -0.004293228965 -0.001747204107 7.045238224e-40
0.2769740522 -0.04064680263 0.03748217225 7.045238224e-40
-0.1436361372 -0.005682839546 -0.02638436854 7.045238224e-40
0.1098643616 0.005432447884 0.0005482732668 7.045238224e-40
-0.2726166248 -0.008210675791 -0.02595132403 7.045238224e-40
0.1494678408 0.002183083678 0.01785338111 7.045238224e-40
-0.2344603837 -0.009560345672 -0.03210131079 7.045238224e-40
0.003302291967 0.009123038501 -0.003887127154 7.045238224e-40
-0.3519426584 0.001124772709 -0.001852689078 7.045238224e-40
0.2521292567 -0.03175535426 0.03745014966 7.045238224e-40
-0.02227456309 0.003080920782 0.0180028677 7.045238224e-40
0.30380705 -0.05024157092 0.03717052191 6.490113838e-41
0.3171509802 -0.06859811395 -0.01392855216 6.490113838e-41
0.1218626425 -0.04343539849 0.03421669081 6.490113838e-41
0.09379789233 -0.07151544094 -0.01199111994 6.490113838e-41
0.3056429327 -0.04795318097 0.03795483336 6.490113838e-41
0.2150572538 -0.06833615154 0.004035037477 6.490113838e-41
0.3033696413 -0.01887449995 0.03901162744 6.490113838e-41
0.2638290524 -0.05613980442 -0.03130004182 6.490113838e-41
0.4344524741 -0.06236412376 0.02181973308 6.490113838e-41
0.3800737262 -0.06618046761 -0.01578903943 6.490113838e-41
0.2972966433 -0.02750094235 0.04254281893 6.490113838e-41
0.23716636 -0.07122134417 -0.03050233237 6.490113838e-41
0.4470756948 -0.07328637689 0.02301542088 6.490113838e-41
0.3801007867 -0.07669666409 -0.02258867212 6.490113838e-41
0.235512957 -0.02647433802 0.04246965051 6.490113838e-41
0.1698960513 -0.06399425864 -0.02426336519 6.490113838e-41
0.3709407747 -0.05826731771 0.03300018236 6.490113838e-41
0.2778401375 -0.07466639578 -0.001773769036 6.490113838e-41
0.2510481775 -0.0268235933 0.04038250446 6.490113838e-41
0.2595333457 -0.0444775857 -0.03006621078 6.490113838e-41
0.3840456307 -0.05872004852 0.02981773205 6.490113838e-41
0.3456296921 -0.06640926749 -0.03316639736 6.490113838e-41
0.1387073845 -0.04264865816 0.03776238114 6.490113838e-41
0.1258046627 -0.06529407948 -0.03081309423 6.490113838e-41
0.3507601023 -0.05365700275 0.03689879924 6.490113838e-41
0.2589550018 -0.06880493462 -0.003882872872 6.490113838e-41
0.2455542684 -0.02417684905 0.04111027718 6.490113838e-41
0.2669286728 -0.0407169424 -0.03495969623 6.490113838e-41
0.4159648716 -0.06579564512 0.02689275332 6.490113838e-41
0.357181102 -0.0572116375 -0.04008987918 6.490113838e-41
0.1422381103 -0.04389472306 0.03661964461 6.490113838e-41
0.07143255323 -0.06898602098 -0.04331311211 6.490113838e-41
-0.06616283208 -0.06759667397 0.005690896884 8.028094954e-40
0.002785608405 -0.06385597587 -0.0508463122 8.028094954e-40
-0.156953916 -0.04999088868 0.01473755296 8.028094954e-40
0.2188018262 -0.06404373795 -0.002695434727 8.028094954e-40
-0.03449259698 -0.0588173531 0.0430890657 8.028094954e-40
-0.07114424556 -0.05756670982 -0.03960461169 8.028094954e-40
-0.30765903 -0.04435256869 0.01743160188 8.028094954e-40
0.05873472989 -0.07665482908 0.0213859342 8.028094954e-40
-0.1447338909 -0.06964336336 0.03224802017 8.028094954e-40
0.05402087048 -0.07368579507 0.02174393646 8.028094954e-40
-0.320789814 -0.05631994829 0.01737096906 8.028094954e-40
0.0935812369 -0.0847536996 0.01451362111 8.028094954e-40
-0.1343890429 -0.07595241815 0.02155699767 8.028094954e-40
0.05836108699 -0.06538794935 -0.0133682834 8.028094954e-40
-0.2509256899 -0.05921230838 0.03478180617 8.028094954e-40
0.1871099472 -0.07798431814 -0.000118361786 8.028094954e-40
-0.07600407302 -0.0655804351 0.04520938545 8.028094954e-40
-0.005505506415 -0.06646599621 0.01382354647 8.028094954e-40
-0.2849129736 -0.04223521054 0.02797250822 8.028094954e-40
0.09610201418 -0.06775975972 0.01031983364 8.028094954e-40
-0.1497528553 -0.06714254618 0.047359135 8.028094954e-40
0.03056452237 -0.06973545253 0.01769276708 8.028094954e-40
-0.2035621107 -0.06260626018 0.03029405512 8.028094954e-40
0.2100190967 -0.0733178407 0.0138746025 8.028094954e-40
-0.1014553979 -0.06553695351 0.03504030406 8.028094954e-40
-0.04679479077 -0.06710520387 0.04684266821 8.028094954e-40
-0.3180766404 -0.0473892428 0.02908232436 8.028094954e-40
0.07651948184 -0.06821747124 0.027959181 8.028094954e-40
-0.1850736141 -0.06104775891 0.05703603849 8.028094954e-40
0.03256976232 -0.06931804121 0.0383951962 8.028094954e-40
-0.1495295465 -0.07990248501 0.02580625378 8.028094954e-40
0.2848858535 -0.07594843954 0.04033348337 8.028094954e-40
0.03166467696 -0.04390024021 -0.06510919333 1.540360521e-39
-0.1199802309 -0.05710884184 -0.08906056732 1.540360521e-39
-0.08395929635 -0.03505047411 -0.1065954939 1.540360521e-39
-0.04823800549 0.008669934236 -0.004255686421 1.540360521e-39
-0.07014953345 -0.03413319215 -0.1016257852 1.540360521e-39
-0.0337087661 -0.009647368453 0.1018159613 1.540360521e-39
-0.03910146654 -0.08544921875 0.03904231638 1.540360521e-39
-0.2487249821 -0.002739713294 0.01986462809 1.540360521e-39
0.08636546135 -0.06173701957 -0.04485533759 1.540360521e-39
-0.2018041164 -0.03044913895 -0.03214386851 1.540360521e-39
0.024853535 -0.08789748698 0.04511896893 1.540360521e-39
-0.1884422749 -0.00605461793 0.02777679823 1.540360521e-39
0.09689120203 -0.05720762536 -0.05031402409 1.540360521e-39
-0.1362543553 -0.04394583777 -0.02886822261 1.540360521e-39
-0.01529040188 -0.07606896013 0.008572919294 1.540360521e-39
-0.1208795905 -0.005477209575 0.0187351834 1.540360521e-39
-0.02255205624 -0.04070226848 -0.07689184695 1.540360521e-39
0.01190306246 -0.0396142751 0.01575609297 1.540360521e-39
0.01323971245 -0.04825970903 0.005144372117 1.540360521e-39
-0.2795775533 -0.01000727806 0.006664669141 1.540360521e-39
0.06074170396 -0.05602389574 -0.05621755123 1.540360521e-39
-0.21764943 -0.02471986413 -0.03195042908 1.540360521e-39
-0.08858116716 -0.04425067455 -0.01815316267 1.540360521e-39
-0.164193511 -0.02764446661 -0.0117554469 1.540360521e-39
-0.06005424261 -0.04368692264 -0.05950733647 1.540360521e-39
-0.03342473507 -0.01513146609 0.01028312277 1.540360521e-39
0.03197601438 -0.05820830539 0.01159939263 1.540360521e-39
-0.2914913297 -0.04002125934 -0.00999284815 1.540360521e-39
0.04421437904 -0.04504130036 -0.05408289656 1.540360521e-39
-0.2436845005 -0.008684238419 -0.0357141085 1.540360521e-39
0.02519272268 -0.06948903948 -0.01795273274 1.540360521e-39
-0.09246266633 -0.009128108621 -0.0199743472 1.540360521e-39
-0.1715532392 -0.07830639929 -0.005977674853 2.277910146e-39
-0.03677232936 -0.05481712148 0.09080542624 2.277910146e-39
-0.2441196293 -0.02348791435 0.003368656384 2.277910146e-39
-0.0321055688 -0.05271861702 0.08118250221 2.277910146e-39
-0.1449498236 -0.06851139665 0.01992440596 2.277910146e-39
-0.0491274707 -0.04936240613 0.1176739335 2.277910146e-39
-0.3759279549 0.04155934975 -0.02864231169 2.277910146e-39
-0.1475713402 -0.06351996958 0.0276154466 2.277910146e-39
-0.2629559338 -0.05751780421 0.01547382493 2.277910146e-39
0.007378548384 -0.05052753538 0.1254810095 2.277910146e-39
-0.3944397867 0.01986247487 -0.02840416133 2.277910146e-39
-0.0976941064 -0.06270491332 0.03168574721 2.277910146e-39
-0.2584632039 -0.06499069184 0.02029037662 2.277910146e-39
0.04645837843 -0.05814661458 0.1129950806 2.277910146e-39
-0.3009873927 -0.03427290916 -0.01217505895 2.277910146e-39
-0.06764005125 -0.06766156852 0.0304407943 2.277910146e-39
-0.1673082411 -0.06812128425 0.01785112917 2.277910146e-39
-0.0644832179 -0.06073940918 0.05804405734 2.277910146e-39
-0.3510328233 -0.0007990075392 -0.007115469314 2.277910146e-39
-0.1951605976 -0.07039782405 0.02393330261 2.277910146e-39
-0.2320248783 -0.06147194654 0.005431880709 2.277910146e-39
-0.0424967818 -0.06332547963 0.04814907908 2.277910146e-39
-0.3053940535 -0.06049707904 -0.02643770911 2.277910146e-39
-0.1433923542 -0.06822814047 0.03904503956 2.277910146e-39
-0.1712656319 -0.06731688976 0.02003584802 2.277910146e-39
-0.09914644063 -0.06279971451 0.03606871516 2.277910146e-39
-0.3933832049 -0.03181575611 -0.00914509967 2.277910146e-39
-0.2299571186 -0.06910825521 0.02810260653 2.277910146e-39
-0.2759920359 -0.06017451733 0.001233386225 2.277910146e-39
-0.1098743677 -0.06828960776 0.03269152343 2.277910146e-39
-0.3459479809 -0.06354571879 -0.009602504782 2.277910146e-39
-0.1094791815 -0.06694365293 0.03867786378 2.277910146e-39
-0.0753043294 -0.04632445425 0.05975360051 3.015101038e-39
0.1001601815 -0.08209167421 -0.00220185169 3.015101038e-39
-0.2318563759 -0.05145300925 0.002302493667 3.015101038e-39
0.0001815408468 -0.06494659185 -0.003899509786 3.015101038e-39
-0.08422290534 -0.04781016707 0.09034132957 3.015101038e-39
0.2739422917 -0.0688746348 -0.007252968382 3.015101038e-39
-0.2716876566 -0.06288681924 0.01625993662 3.015101038e-39
-0.03948943689 -0.0536788851 -0.1350445896 3.015101038e-39
-0.2035626471 -0.06159199774 0.03381699696 3.015101038e-39
0.1250588745 -0.06277601421 -0.02574500628 3.015101038e-39
-0.2559943795 -0.07971043885 0.00509524392 3.015101038e-39
-0.02425142191 -0.06863536686 -0.08909772336 3.015101038e-39
-0.151984334 -0.07159163803 0.03669440374 3.015101038e-39
0.1679473668 -0.07090283185 -0.02098174952 3.015101038e-39
-0.2518069148 -0.0686545521 0.0131445406 3.015101038e-39
-0.01745051332 -0.07795473933 0.0002025514841 3.015101038e-39
-0.1478274614 -0.05931535736 0.05279088765 3.015101038e-39
0.2449757755 -0.07251795381 -0.02202534489 3.015101038e-39
-0.3406252563 -0.04122702032 0.005265112966 3.015101038e-39
-0.0884090215 -0.08018643409 -0.007730821613 3.015101038e-39
-0.2024260759 -0.06560901552 0.0418394357 3.015101038e-39
0.1237814873 -0.06908040494 -0.02284731157 3.015101038e-39
-0.3011995852 -0.07209209353 0.02223603427 3.015101038e-39
0.001367054065 -0.07626412809 0.02847359143 3.015101038e-39
-0.1649357975 -0.07099170238 0.04588497058 3.015101038e-39
0.2104978561 -0.07587955147 -0.02441591397 3.015101038e-39
-0.3863232434 -0.04440046474 0.01727783121 3.015101038e-39
-0.09554816037 -0.07708878815 0.008761673234 3.015101038e-39
-0.2435156554 -0.05982479453 0.04954844713 3.015101038e-39
0.08203152567 -0.06763109565 -0.02453707717 3.015101038e-39
-0.3142223954 -0.06534229219 0.01394048892 3.015101038e-39
0.02860389277 -0.07639947534 0.05144028738 3.015101038e-39
-0.08582320064 -0.04607894272 0.176875174 3.75229193e-39
-0.06112037599 -0.05855908245 0.1075952575 3.75229193e-39
-0.07432134449 -0.06307064742 0.1555051208 3.75229193e-39
-0.05486681312 -0.07399717718 0.01562219393 3.75229193e-39
0.01811838709 -0.05342725664 0.111557059 3.75229193e-39
-0.06550020725 -0.05839833617 0.1222548559 3.75229193e-39
-0.05947484076 -0.04303247854 0.1839333177 3.75229193e-39
-0.009544470347 -0.05691075325 -0.105890587 3.75229193e-39
-0.003780421568 -0.05250001699 0.1608714312 3.75229193e-39
-0.000489272119 -0.06398402154 0.03652437404 3.75229193e-39
-0.03098066896 -0.05423419178 0.1658322215 3.75229193e-39
0.05249456689 -0.05982293561 -0.08204473555 3.75229193e-39
0.05163701251 -0.0564667359 0.1121004745 3.75229193e-39
0.041299887 -0.06264448166 0.04768370837 3.75229193e-39
-0.05916557088 -0.06086486951 0.1570105404 3.75229193e-39
0.01947702654 -0.08476606756 -0.03462448344 3.75229193e-39
0.06945724785 -0.04620338976 0.08582307398 3.75229193e-39
-0.01971017756 -0.06529981643 0.06929989904 3.75229193e-39
-0.07297167182 -0.04884645343 0.0662920922 3.75229193e-39
0.1812169403 -0.04847150669 -0.02632102184 3.75229193e-39
0.03966478631 -0.05197639763 0.07758200169 3.75229193e-39
0.03925402835 -0.0681097731 0.004106796347 3.75229193e-39
-0.09689632058 -0.0282949917 0.0376422964 3.75229193e-39
0.069062002 -0.06284680963 -0.03168612719 3.75229193e-39
0.06984141469 -0.05567504466 0.04134604707 3.75229193e-39
-0.02501198463 -0.06259520352 -0.004635598976 3.75229193e-39
-0.1001913175 -0.03366294131 0.04882385954 3.75229193e-39
0.2352416366 -0.061798729 0.004774012603 3.75229193e-39
0.01483342052 -0.03828537837 0.04608536884 3.75229193e-39
0.1432885677 -0.06592992693 -0.01316627767 3.75229193e-39
-0.09697694331 -0.02140885219 0.0169472564 3.75229193e-39
0.1149251685 -0.07590055466 -0.02301012538 3.75229193e-39
-0.1659573764 0.003703644266 -0.06524759531 4.48912409e-39
-0.01396578643 -0.1061271131 -0.03769819438 4.48912409e-39
-0.2461413592 0.01369791478 0.01386143919 4.48912409e-39
0.3410197496 -0.04668371752 -0.03153755516 4.48912409e-39
-0.1326540112 -0.04974956065 -0.04607047886 4.48912409e-39
-0.07540540397 -0.06810443103 -0.02517898008 4.48912409e-39
-0.3879984319 0.06628718972 -0.00528956484 4.48912409e-39
0.1263370514 -0.05489883572 -0.04296087474 4.48912409e-39
-0.2186446339 -0.05067516863 -0.04090164229 4.48912409e-39
-0.0263057705 -0.1022285298 -0.05956714973 4.48912409e-39
-0.375258863 0.04530954733 -0.001010980108 4.48912409e-39
0.208186239 -0.06290774047 -0.04401911423 4.48912409e-39
-0.2062026709 -0.06201511249 -0.03480003774 4.48912409e-39
-0.01770500652 -0.1010862887 -0.0582527183 4.48912409e-39
-0.3092088401 0.020561032 0.003245364642 4.48912409e-39
0.3139303029 -0.05499194562 -0.03649277985 4.48912409e-39
-0.1489158124 -0.04864167795 -0.03487582877 4.48912409e-39
-0.07229126245 -0.07102469355 -0.03947477415 4.48912409e-39
-0.3494812548 0.02957923338 -0.001621010248 4.48912409e-39
0.1574734151 -0.0549983345 -0.03947809339 4.48912409e-39
-0.2146241516 -0.04292263836 -0.04941728711 4.48912409e-39
-0.05484594405 -0.07702830434 -0.04634232447 4.48912409e-39
-0.2911657691 -0.003378810594 0.01172404643 4.48912409e-39
0.27259776 -0.04951334 -0.0378279835 4.48912409e-39
-0.1592211574 -0.04481302202 -0.04688291997 4.48912409e-39
-0.1101263463 -0.07094891369 -0.04212999344 4.48912409e-39
-0.3739953935 0.002071422292 -0.009930976667 4.48912409e-39
0.07115150243 -0.04931648076 -0.04159041494 4.48912409e-39
-0.2681382298 -0.03857075423 -0.04299812391 4.48912409e-39
-0.06225405633 -0.06678809226 -0.03418711573 4.48912409e-39
-0.237481907 -0.001571385772 0.02281532064 4.48912409e-39
0.2823132277 -0.05347126722 -0.04070328921 4.48912409e-39
-0.09638699889 -0.03911828622 -0.2334739566 5.225597518e-39
0.1571104527 -0.05765346065 0.0005758255138 5.225597518e-39
-0.05493149906 -0.05168764293 -0.08788059652 5.225597518e-39
0.2612012327 -0.06544776261 -0.008022821508 5.225597518e-39
-0.1148913503 -0.05241554603 -0.26183483 5.225597518e-39
0.06756231934 -0.05075993761 -0.05381410941 5.225597518e-39
0.01931351796 -0.05094635487 -0.0873035267 5.225597518e-39
0.422418952 -0.07112234086 0.002853713697 5.225597518e-39
-0.01258294191 -0.05281499773 -0.2056864351 5.225597518e-39
0.2104802877 -0.07830820233 -0.01486238185 5.225597518e-39
0.07748239487 -0.05248044804 -0.08305770904 5.225597518e-39
0.4207139909 -0.08858904988 0.0107661942 5.225597518e-39
0.007450480014 -0.04906593636 -0.1648758352 5.225597518e-39
0.2262066305 -0.07184237987 -0.03366141394 5.225597518e-39
0.0252409894 -0.05712473392 -0.101413101 5.225597518e-39
0.3652485609 -0.08707521856 -0.006998648401 5.225597518e-39
-0.07976263762 -0.04456216469 -0.193881914 5.225597518e-39
0.1637176424 -0.08253564686 -0.02184597775 5.225597518e-39
0.04801954329 -0.04923710227 -0.02651777491 5.225597518e-39
0.4123002887 -0.07085622847 0.004313427489 5.225597518e-39
-0.004457906354 -0.03930147365 -0.06823588908 5.225597518e-39
0.2232414931 -0.08032742888 -0.02728681825 5.225597518e-39
0.01915559545 -0.07338510454 -0.04456443712 5.225597518e-39
0.3510406017 -0.07780189812 -0.01082053315 5.225597518e-39
-0.08392037451 -0.05565882847 -0.05533201247 5.225597518e-39
0.185206756 -0.08701822907 -0.001728056115 5.225597518e-39
0.05407283828 -0.06123100966 -0.004131800495 5.225597518e-39
0.4136703312 -0.06945277005 0.007299353369 5.225597518e-39
-0.03244310245 -0.03778304905 -0.05625685677 5.225597518e-39
0.2418132722 -0.07481771708 -0.01811280847 5.225597518e-39
-0.02557134442 -0.06916277111 -0.04045481235 5.225597518e-39
0.3229436576 -0.07489722967 -0.01693995669 5.225597518e-39
0.3050430119 -0.04302883148 -0.02768922783 5.962428276e-39
0.2068729997 -0.02722347528 -0.03911518678 5.962428276e-39
0.2367512584 -0.00311076385 0.01635136455 5.962428276e-39
0.07360424846 -0.05732910708 0.01720903069 5.962428276e-39
0.2956674397 -0.04027944431 -0.03943330422 5.962428276e-39
0.1225429326 -0.02978957258 -0.0405837819 5.962428276e-39
0.4153032601 -0.03030944243 0.02750418149 5.962428276e-39
0.2709437013 -0.0506885387 0.03180942684 5.962428276e-39
0.4320114851 -0.06177873909 -0.02430642396 5.962428276e-39
0.2739540339 -0.007397308014 -0.03233403713 5.962428276e-39
0.4208216965 -0.03722499683 0.03416265547 5.962428276e-39
0.2522169948 -0.06113972515 0.03414477408 5.962428276e-39
0.4349106848 -0.05974195153 -0.02465406992 5.962428276e-39
0.2578125 -0.01403294038 -0.03652355447 5.962428276e-39
0.335038662 -0.02757251076 0.03346111625 5.962428276e-39
0.1428539604 -0.07057097554 0.03027096577 5.962428276e-39
0.3388490975 -0.05372283608 -0.03853411227 5.962428276e-39
0.1884826571 -0.0278903693 -0.03556710109 5.962428276e-39
0.3822455406 -0.03495785967 0.02327870205 5.962428276e-39
0.2342275232 -0.05753939971 0.03698569909 5.962428276e-39
0.3881702125 -0.05994085222 -0.02571201511 5.962428276e-39
0.2401274443 -0.01699537225 -0.03307496011 5.962428276e-39
0.2788300812 -0.03354841098 0.01967340149 5.962428276e-39
0.1192101762 -0.0789674446 0.03213208914 5.962428276e-39
0.3196161091 -0.04770741984 -0.03736104444 5.962428276e-39
0.1790212244 -0.03137524799 -0.03190791607 5.962428276e-39
0.3623485565 -0.02554132976 0.01591359265 5.962428276e-39
0.2593034804 -0.04486442357 0.03709511831 5.962428276e-39
0.4317730069 -0.05985858291 -0.01978351735 5.962428276e-39
0.2769704163 -0.0127565274 -0.02838382497 5.962428276e-39
0.2274142951 -0.02053111605 0.006482119206 5.962428276e-39
0.05643770099 -0.07099403441 0.02764498629 5.962428276e-39
0.2643990815 -0.07005758584 -0.008246413432 6.698542971e-39
0.01631480269 -0.07418484241 0.02038440853 6.698542971e-39
0.1443115175 -0.03492651507 -0.03595571592 6.698542971e-39
-0.04630381241 -0.06561411172 -0.01225101762 6.698542971e-39
0.3172495961 -0.05703627691 0.003321099095 6.698542971e-39
0.08702398837 -0.06571014971 0.00847675465 6.698542971e-39
0.2669010162 -0.06208546832 0.01833026484 6.698542971e-39
-0.2284267843 -0.05905232579 -0.01952493936 6.698542971e-39
0.3989348114 -0.0879919529 -0.006655550096 6.698542971e-39
-0.03283398971 -0.07082418352 -0.02269087173 6.698542971e-39
0.2832093835 -0.06160338223 0.02455730177 6.698542971e-39
-0.1593962163 -0.07020840049 -0.01071665343 6.698542971e-39
0.4064983726 -0.08622650802 0.01375233848 6.698542971e-39
-0.004358279053 -0.07193358243 -0.01595101133 6.698542971e-39
0.1990838647 -0.04342861846 0.01342058089 6.698542971e-39
-0.1153608114 -0.07933831215 -0.02661581337 6.698542971e-39
0.3437153995 -0.06790407002 0.01357442234 6.698542971e-39
0.07553524524 -0.07192739099 -0.01059714518 6.698542971e-39
0.2598049045 -0.02138772793 0.01975717396 6.698542971e-39
-0.1940318793 -0.06652767956 -0.006318127271 6.698542971e-39
0.3547833562 -0.06609010696 0.003568395739 6.698542971e-39
0.01527193654 -0.07684257627 -0.02450924367 6.698542971e-39
0.1999530047 -0.05672394857 -0.01131188311 6.698542971e-39
-0.07448074967 -0.08613826334 -0.02767581679 6.698542971e-39
0.3248776793 -0.06281273067 0.01555174403 6.698542971e-39
0.08808270842 -0.06692706794 -0.0143544348 6.698542971e-39
0.239067018 -0.01546705049 0.006398754194 6.698542971e-39
-0.2097872347 -0.07025399804 -0.01309498772 6.698542971e-39
0.3742616475 -0.05475118756 0.006453707814 6.698542971e-39
0.01290571596 -0.07456768304 -0.02565092221 6.698542971e-39
0.1540869325 -0.04579584673 -0.04313969612 6.698542971e-39
0.0482352078 -0.07732839137 -0.03464795649 6.698542971e-39
0.2874052823 -0.05754881352 0.01780339703 7.434656265e-39
-0.08518534899 0.00316755916 -0.003194507444 7.434656265e-39
0.03878839314 -0.04952951521 0.0429421179 7.434656265e-39
0.1661406904 -0.04929573834 -0.02064847201 7.434656265e-39
0.2829515636 -0.06217193976 -0.0227307193 7.434656265e-39
-0.008736026473 -0.01053804439 -0.03467514738 7.434656265e-39
0.3056918085 -0.06668630987 -0.02665710635 7.434656265e-39
0.01567630656 -0.0606456697 -0.03033470735 7.434656265e-39
0.419752121 -0.06552093476 -0.01725937426 7.434656265e-39
-0.1852163225 0.004670492839 -0.01120296214 7.434656265e-39
0.3282448947 -0.06367272139 -0.02293965034 7.434656265e-39
0.05253103375 -0.0859374404 -0.01419137511 7.434656265e-39
0.4349998534 -0.06162474304 -0.02356911451 7.434656265e-39
-0.1489632726 -0.0005854647025 -0.009480438195 7.434656265e-39
0.2354758531 -0.06487064809 0.004206968006 7.434656265e-39
0.1094457433 -0.06950882822 -0.0236477945 7.434656265e-39
0.3555186093 -0.06573200971 -0.02223265357 7.434656265e-39
-0.06849250942 -0.01694193482 -0.02807161026 7.434656265e-39
0.2667496502 -0.05364131927 0.007868992165 7.434656265e-39
0.01059815567 -0.05643724278 -0.02333190665 7.434656265e-39
0.3680627942 -0.05446510017 -0.03324097022 7.434656265e-39
-0.1778805405 -0.003791040275 -0.01371852681 7.434656265e-39
0.1316462308 -0.07763317972 0.01852282509 7.434656265e-39
0.1306686848 -0.0565459989 -0.02284078114 7.434656265e-39
0.2728651762 -0.038747143 -0.0306415353 7.434656265e-39
-0.09273552895 -0.02317045815 -0.03642295301 7.434656265e-39
0.223258093 -0.05484700203 0.01177984383 7.434656265e-39
0.01858974807 -0.04135262966 -0.02900524996 7.434656265e-39
0.3661788106 -0.05053275824 -0.02672126889 7.434656265e-39
-0.1929343045 -0.008776376955 -0.0207729321 7.434656265e-39
0.03528853133 -0.0643728897 0.05338684469 7.434656265e-39
0.1842196882 -0.06073287502 0.03229531646 7.434656265e-39
0.009832365438 -0.05933462456 -0.0574619621 8.170410826e-39
-0.02692922018 0.004579757806 -0.001030243584 8.170410826e-39
0.09287922829 -0.0326821804 -0.04687850177 8.170410826e-39
-0.1126018688 -0.0001676753163 0.01620244794 8.170410826e-39
-0.007631502114 -0.04544181004 -0.02481953241 8.170410826e-39
0.03015895188 0.001406959258 -0.01456643827 8.170410826e-39
0.1708208025 -0.0155121237 -0.02619058266 8.170410826e-39
-0.2802865207 -0.00958813075 0.0220849514 8.170410826e-39
0.06131276488 -0.04358698428 -0.05444281921 8.170410826e-39
-0.03860417753 -5.668029189e-05 0.01946569234 8.170410826e-39
0.1923761666 -0.02703411691 -0.03386368975 8.170410826e-39
-0.2189319879 -0.01582378335 0.03754147142 8.170410826e-39
0.06548553705 -0.05240018293 -0.0544314906 8.170410826e-39
-0.01145931985 -0.002279154724 0.0173758883 8.170410826e-39
0.1282282919 -0.02230696939 -0.03703914583 8.170410826e-39
-0.1485702842 -0.003298438387 0.02193056792 8.170410826e-39
0.03188148141 -0.04922055081 -0.02700928599 8.170410826e-39
0.03003272414 -0.002143580932 -0.0108423233 8.170410826e-39
0.183909744 -0.0195673462 -0.0267183315 8.170410826e-39
-0.2014596015 -0.01494751219 0.03793422505 8.170410826e-39
0.1035720184 -0.0136424033 -0.03996317089 8.170410826e-39
-0.03154845908 -0.01362289395 0.003448874922 8.170410826e-39
0.1297868192 -0.04638274759 -0.03723403066 8.170410826e-39
-0.1454194933 -0.01052008849 0.02081746049 8.170410826e-39
0.01691948809 -0.01235381234 -0.02954772674 8.170410826e-39
0.01759467088 -0.002554794773 -0.002239964902 8.170410826e-39
0.1909510344 -0.02716025896 -0.04092412814 8.170410826e-39
-0.2405981719 -0.01899630763 0.03551226854 8.170410826e-39
0.1037452742 -0.01185041294 -0.04074611887 8.170410826e-39
-0.05497963354 -0.01506308559 0.01293580327 8.170410826e-39
0.1660929024 -0.02436379157 -0.03965596482 8.170410826e-39
-0.08631721884 -0.009157002904 0.0221674256 8.170410826e-39
-0.01381341834 -0.04842303693 -0.07008473575 8.906165387e-39
-0.2223853171 -0.04014041647 -0.06275349855 8.906165387e-39
-0.1021983474 -0.04966390133 -0.02406300232 8.906165387e-39
-0.200455904 -0.04476620257 -0.02338722162 8.906165387e-39
-0.006929201074 -0.05768660083 -0.09177713841 8.906165387e-39
-0.1674899757 -0.01234765165 -0.07455926389 8.906165387e-39
-0.2829263806 -0.06083553657 -0.001918719616 8.906165387e-39
-0.3806151748 -0.04059742764 0.003269601148 8.906165387e-39
-0.02309896424 -0.08590328693 -0.02794527262 8.906165387e-39
-0.2419921309 -0.02430267259 -0.06157314405 8.906165387e-39
-0.269329071 -0.07047837228 -0.009999413043 8.906165387e-39
-0.4020049572 -0.03857827932 -0.0002631656826 8.906165387e-39
-0.01832795516 -0.09274573624 -0.03543863073 8.906165387e-39
-0.2027231753 -0.02236796357 -0.05573925376 8.906165387e-39
-0.191825375 -0.06820819527 -0.01175175514 8.906165387e-39
-0.3004825711 -0.0543711409 -0.02012715675 8.906165387e-39
-0.01065912005 -0.07564970106 -0.04555668682 8.906165387e-39
-0.1623978168 -0.0225521531 -0.07047795504 8.906165387e-39
-0.2393068969 -0.04634828493 -0.01265705191 8.906165387e-39
-0.3847999573 -0.04508466274 -0.01040782779 8.906165387e-39
-0.06470540911 -0.08311822265 -0.005959038157 8.906165387e-39
-0.2216723412 -0.03208956122 -0.05646254122 8.906165387e-39
-0.1267404705 -0.05067213997 0.01432283223 8.906165387e-39
-0.2689445317 -0.05308394507 -0.03710350394 8.906165387e-39
-0.0207215827 -0.07182374597 -0.01714573056 8.906165387e-39
-0.1850235462 -0.02026055567 -0.06014530361 8.906165387e-39
-0.2533004284 -0.06299874932 -0.0007439478068 8.906165387e-39
-0.3835201859 -0.04613843188 -0.02037241496 8.906165387e-39
-0.1163679808 -0.08277308941 -0.00735120289 8.906165387e-39
-0.2810607255 -0.02802634425 -0.05492327362 8.906165387e-39
-0.09033132344 -0.0830463469 0.01526295301 8.906165387e-39
-0.1985395998 -0.04113679007 -0.02896486968 8.906165387e-39
-0.08066260815 0.003543176223 -0.002791114384 9.641561216e-39
-0.04033213854 -0.03968757391 0.177067101 9.641561216e-39
0.04788080975 -0.001368502737 -0.006808637641 9.641561216e-39
0.269246161 -0.0009278591606 0.014731206 9.641561216e-39
-0.1360847205 0.014730772 -0.01061419025 9.641561216e-39
-0.05486935377 -0.0306679327 0.2167970538 9.641561216e-39
0.1804305613 0.003811740084 -0.0001803636551 9.641561216e-39
0.4045759737 -0.002457439201 0.003532320494 9.641561216e-39
0.02511034533 0.01004427392 -0.0204199478 9.641561216e-39
0.03447378799 -0.05540436506 0.1185686067 9.641561216e-39
0.1911116391 0.004697971977 0.00305872201 9.641561216e-39
0.3946914375 -0.007976949215 -0.001989496173 9.641561216e-39
0.04136674106 0.006892153062 -0.01218793541 9.641561216e-39
0.06208079681 -0.06028141081 0.1218296736 9.641561216e-39
0.1261144876 0.004772969056 -0.007750192191 9.641561216e-39
0.3212500513 -0.01120270696 0.006789177656 9.641561216e-39
-0.089887999 0.01523480751 -0.01501810923 9.641561216e-39
-0.02182890847 -0.05324552581 0.1235262901 9.641561216e-39
0.1552180201 -0.005708416924 -0.005403019022 9.641561216e-39
0.366984725 -0.02137318626 -0.007651596796 9.641561216e-39
0.03401160613 0.007814214565 -0.004590002354 9.641561216e-39
0.01841996051 -0.0506698899 0.05900197104 9.641561216e-39
0.1002830416 -0.005618282594 -0.01488341764 9.641561216e-39
0.3159523904 -0.0197149571 0.006150003988 9.641561216e-39
-0.05063147843 -0.004757609218 0.001350998064 9.641561216e-39
-0.07549814135 -0.03370685503 0.03928621858 9.641561216e-39
0.1553751379 0.0006565715885 0.00316602434 9.641561216e-39
0.3763487339 -0.02652570419 -0.009030781686 9.641561216e-39
0.03430369496 0.00695275655 -0.01087159291 9.641561216e-39
0.08745013177 -0.02810597979 0.01546834689 9.641561216e-39
0.02117691934 -0.01136308629 0.0002180188894 9.641561216e-39
0.2562596202 -0.0003956039145 0.02149798907 9.641561216e-39
-0.1929550171 0.008855081163 -0.01567607187 1.037659831e-38
0.09629549086 0.009359459393 0.0279634688 1.037659831e-38
-0.1073661968 -0.03267370537 -0.03414827585 1.037659831e-38
0.2449616045 -0.00555070024 0.03092123382 1.037659831e-38
-0.1284416765 -0.02025497146 0.03460359946 1.037659831e-38
0.01397952717 0.01216661464 0.01274145208 1.037659831e-38
0.03062576614 -0.02031118423 -0.03048912622 1.037659831e-38
0.4185862541 -0.01970003359 0.02749967016 1.037659831e-38
-0.3150295317 0.05369138345 -0.01491585746 1.037659831e-38
0.1540111154 0.001627533231 0.02905903012 1.037659831e-38
0.0294341743 -0.01973098703 -0.03423740342 1.037659831e-38
0.4106865227 -0.01584392786 0.02608007006 1.037659831e-38
-0.2763643563 0.01176702324 -0.002043320797 1.037659831e-38
0.1407507062 -0.00566485431 0.02988724411 1.037659831e-38
-0.0652756989 -0.02737862989 -0.03068659455 1.037659831e-38
0.3334686458 -0.01631988212 0.02911270224 1.037659831e-38
-0.1658829898 -0.01151774544 0.03400898725 1.037659831e-38
0.06235449761 -0.0004289149947 0.02193871699 1.037659831e-38
-0.01290065516 -0.0198752936 -0.03602129593 1.037659831e-38
0.3912771344 -0.02356097661 0.0291539412 1.037659831e-38
-0.2874232829 0.02402646281 -0.01295243762 1.037659831e-38
0.1190974414 -0.009268420748 0.03046810254 1.037659831e-38
-0.07620686293 -0.01668203063 -0.03258761391 1.037659831e-38
