# .PCD v0.7 - Point Cloud Data file format
VERSION 0.7
FIELDS x y z rgb
SIZE 4 4 4 4
TYPE F F F F
COUNT 1 1 1 1
WIDTH 808
HEIGHT 1
VIEWPOINT 0 0 0 1 0 0 0
POINTS 808
DATA ascii
-0.4108239114 0.08038084209 -0.004077068996 7.281903522e-39
0.08603959531 -0.05002404004 0.08268623054 7.281903522e-39
-0.1625711024 0.000799454574 -0.01354149636 7.281903522e-39
-0.03075036779 0.001504043816 -0.01113040186 7.281903522e-39
-0.4098745883 0.06624394655 -0.006737063173 7.281903522e-39
0.09448780119 -0.03585242108 0.09400032461 7.281903522e-39
-0.1584163457 0.01188677084 -0.01416766457 7.281903522e-39
-0.01056658663 0.008087652735 0.0004636794038 7.281903522e-39
-0.3837658167 0.06570512801 -0.002924039029 7.281903522e-39
0.04970223457 -0.03877805173 0.06148330867 7.281903522e-39
-0.198753804 0.006863810588 -0.02261648141 7.281903522e-39
-0.071729213 0.001348703285 -0.01414736919 7.281903522e-39
-0.3433281183 0.03514013067 -0.005428074859 7.281903522e-39
0.003883983009 -0.03313394263 0.03899715468 7.281903522e-39
-0.2074447274 0.009895739146 -0.02141061984 7.281903522e-39
-0.0959481895 -0.001881921315 -0.02551860921 7.281903522e-39
0.03105096333 -0.03177791089 -0.06885112822 6.55152294e-39
-0.09853804857 -0.03564976528 -0.2281536758 6.55152294e-39
-0.06351818144 -0.03864018992 -0.2013396621 6.55152294e-39
0.05569381639 -0.05025145411 -0.08169000596 6.55152294e-39
0.1594615281 -0.03396752104 -0.02690911293 6.55152294e-39
-0.09793438762 -0.0287410263 -0.3084749877 6.55152294e-39
-6.88212458e-05 -0.04311161116 -0.1540338695 6.55152294e-39
-0.05721070617 -0.05488565937 -0.1400801837 6.55152294e-39
0.1594615281 -0.03396752104 -0.02690911293 6.55152294e-39
-0.09793438762 -0.0287410263 -0.3084749877 6.55152294e-39
-6.88212458e-05 -0.04311161116 -0.1540338695 6.55152294e-39
-0.05721070617 -0.05488565937 -0.1400801837 6.55152294e-39
0.1181952283 -0.05063731596 -0.04937130213 6.55152294e-39
-0.09581211954 -0.03297178075 -0.2744330466 6.55152294e-39
-0.0328348577 -0.04824791104 -0.1905196905 6.55152294e-39
-0.005986272357 -0.05850531906 -0.1180004627 6.55152294e-39
0.1581353694 -0.03899941593 0.03124286793 6.55152294e-39
-0.1065070257 -0.03149439394 -0.3350943029 6.55152294e-39
0.03898302093 -0.04628339037 -0.137125358 6.55152294e-39
-0.06951303035 -0.05690003932 -0.1732019335 6.55152294e-39
0.189418003 -0.01919445023 0.0165547207 6.55152294e-39
-0.1194619685 -0.02426200733 -0.3328002691 6.55152294e-39
0.05150562897 -0.03749996796 -0.1161858067 6.55152294e-39
-0.06177722663 -0.04679436609 -0.1947962046 6.55152294e-39
0.1715222597 -0.0226774998 -0.02753367834 6.55152294e-39
-0.09885572642 -0.02472553961 -0.2904011607 6.55152294e-39
0.00440488616 -0.0415959619 -0.1465005726 6.55152294e-39
-0.05831333622 -0.05244492367 -0.1433874667 6.55152294e-39
0.137665987 -0.03139368072 -0.04666410387 6.55152294e-39
-0.1484688371 -0.02440666407 -0.1745770276 6.55152294e-39
-0.00733969314 -0.04162490368 -0.1336775422 6.55152294e-39
-0.04151406512 -0.05493308231 -0.1200362071 6.55152294e-39
0.3152499497 0.004222710617 -0.01722490974 5.820783626e-39
0.1084012836 -0.02091134153 -0.0453950949 5.820783626e-39
0.1233330593 -0.03013464063 0.08304542303 5.820783626e-39
0.3136538863 -0.01417491306 0.02851516195 5.820783626e-39
0.4043971002 -0.009978901595 -0.002016638406 5.820783626e-39
0.02709748968 -0.03642614186 -0.1232307032 5.820783626e-39
0.08085742593 -0.005450671539 0.02954510972 5.820783626e-39
0.2320300937 0.00986687094 0.01390382461 5.820783626e-39
0.4043971002 -0.009978901595 -0.002016638406 5.820783626e-39
0.02709748968 -0.03642614186 -0.1232307032 5.820783626e-39
0.08085742593 -0.005450671539 0.02954510972 5.820783626e-39
0.2320300937 0.00986687094 0.01390382461 5.820783626e-39
0.373170495 -0.007801508531 -0.002586016199 5.820783626e-39
0.06587089598 -0.03424244002 -0.1062138602 5.820783626e-39
0.09570226073 -0.03905085847 0.08073736727 5.820783626e-39
0.2763386071 -0.002381245838 0.01620356552 5.820783626e-39
0.433688283 -0.02564198896 -0.000322252512 5.820783626e-39
-0.01865026169 -0.04240010679 -0.1290829182 5.820783626e-39
0.05252135918 -0.0204558447 0.01334804017 5.820783626e-39
0.1688186675 0.01163087506 0.01148678456 5.820783626e-39
0.4344778657 -0.01992866211 -0.003982672002 5.820783626e-39
-0.03142223507 -0.03072072752 -0.13318488 5.820783626e-39
0.06006039679 0.003925288562 -0.009203777649 5.820783626e-39
0.1607681513 0.01773628779 0.004356610123 5.820783626e-39
0.408629775 -0.00926059857 -0.004146261606 5.820783626e-39
0.02072935924 -0.02976055443 -0.1241681799 5.820783626e-39
0.08311813325 0.001816047239 0.01953767426 5.820783626e-39
0.2282408774 0.01200435031 0.01376984362 5.820783626e-39
0.3683775961 -0.01113523729 -0.004641134292 5.820783626e-39
0.002110969974 -0.01139806025 -0.08897200972 5.820783626e-39
0.09503830969 -0.01284919027 0.03491524234 5.820783626e-39
0.2495497763 0.001694469014 0.01365695894 5.820783626e-39
-0.1817737967 -0.03831122816 0.05742454901 5.090401643e-39
-0.3408032358 -0.01808752678 0.05139733106 5.090401643e-39
-0.3063733876 -0.05675917491 0.01255300269 5.090401643e-39
-0.4247838259 -0.02903353795 -0.01919188909 5.090401643e-39
-0.08772986382 -0.04680907354 0.03202719614 5.090401643e-39
-0.2847864032 -0.01977681555 0.02712642774 5.090401643e-39
-0.2257211059 -0.05183177069 0.05221225694 5.090401643e-39
-0.43636024 0.002595284721 0.05393741652 5.090401643e-39
-0.08772986382 -0.04680907354 0.03202719614 5.090401643e-39
-0.2847864032 -0.01977681555 0.02712642774 5.090401643e-39
-0.2257211059 -0.05183177069 0.05221225694 5.090401643e-39
-0.43636024 0.002595284721 0.05393741652 5.090401643e-39
-0.1270856857 -0.04959716648 0.04760403186 5.090401643e-39
-0.3317655325 -0.01119395159 0.03382514045 5.090401643e-39
-0.274418056 -0.05964954197 0.03107282519 5.090401643e-39
-0.4437365532 -0.02167037129 0.03617998585 5.090401643e-39
-0.04068156332 -0.07101327926 0.02053213678 5.090401643e-39
-0.2706368864 -0.04439086467 -0.002013293095 5.090401643e-39
-0.182683602 -0.04627982154 0.04654745013 5.090401643e-39
-0.4510858953 -0.003804046893 0.07350644469 5.090401643e-39
-0.001101716887 -0.06673017144 0.02052961849 5.090401643e-39
-0.2553020716 -0.05593120679 -0.0183746554 5.090401643e-39
-0.1549462825 -0.03118478507 0.05898578465 5.090401643e-39
-0.4347541332 -0.00576911075 0.07614536583 5.090401643e-39
-0.07901255786 -0.03885837272 0.02792389318 5.090401643e-39
-0.2664013207 -0.02120277286 0.02145162411 5.090401643e-39
-0.2197186649 -0.04849229008 0.05477213487 5.090401643e-39
-0.434663713 0.006373155396 0.05273864046 5.090401643e-39
-0.1265492737 -0.03791265935 0.04099165276 5.090401643e-39
-0.2519523203 -0.01201480534 0.0454441905 5.090401643e-39
-0.2418149114 -0.0486744158 0.05405743048 5.090401643e-39
-0.4437307417 -0.01789494604 0.03993241116 5.090401643e-39
-0.407225281 -0.01056205668 0.01300558913 4.359662329e-39
-0.1710788459 -0.01993799396 0.04800986126 4.359662329e-39
-0.3629053235 0.1018739864 -0.002839393681 4.359662329e-39
-0.0418019928 -0.03692767397 0.04443174601 4.359662329e-39
-0.4242033064 -0.01035451423 -0.04152145982 4.359662329e-39
-0.2531361282 -0.02028832771 0.04756732658 4.359662329e-39
-0.4030788839 0.06217749789 0.002833775943 4.359662329e-39
0.1133454889 -0.02735811844 0.04328238592 4.359662329e-39
-0.4242033064 -0.01035451423 -0.04152145982 4.359662329e-39
-0.2531361282 -0.02028832771 0.04756732658 4.359662329e-39
-0.4030788839 0.06217749789 0.002833775943 4.359662329e-39
0.1133454889 -0.02735811844 0.04328238592 4.359662329e-39
-0.4238922894 -0.01988973469 -0.01717835106 4.359662329e-39
-0.2228766978 -0.02045699954 0.05189005286 4.359662329e-39
-0.3973245621 0.1073278859 -0.004633795936 4.359662329e-39
0.03395216167 -0.0438962169 0.04271344095 4.359662329e-39
-0.4340518415 -0.008459999226 -0.07520149648 4.359662329e-39
-0.280067414 -0.0350834392 0.04435077682 4.359662329e-39
-0.4114820361 0.026259128 0.0009273138712 4.359662329e-39
0.1874802113 -0.0307302326 0.04263538122 4.359662329e-39
-0.4279810488 -0.003212664509 -0.06976267695 4.359662329e-39
-0.2755449712 -0.03498104587 0.03995299339 4.359662329e-39
-0.3975384831 0.007993751206 -0.004558352754 4.359662329e-39
0.2016198933 -0.02847846784 0.0487367548 4.359662329e-39
-0.4274243116 -0.009107420221 -0.03463506699 4.359662329e-39
-0.2508119345 -0.01824755222 0.04600504413 4.359662329e-39
-0.40236184 0.05516325682 0.003602585988 4.359662329e-39
0.1177219003 -0.02591073886 0.04344207048 4.359662329e-39
-0.4171726406 -0.02211691998 -0.003425227012 4.359662329e-39
-0.2177975029 -0.02091657743 0.04918950424 4.359662329e-39
-0.3856062293 0.08467063308 -0.003352659289 4.359662329e-39
0.0731946826 -0.04331390187 0.04386165366 4.359662329e-39
0.002346332651 -0.04361908138 0.09291265905 3.628921614e-39
-0.05362295359 -0.08021569252 0.03039931133 3.628921614e-39
-0.06703642756 -0.0540317893 0.2327804863 3.628921614e-39
-0.2181268036 -0.0477026403 0.01071695145 3.628921614e-39
-0.03935141116 -0.03808265552 0.02427744493 3.628921614e-39
-0.1900299489 -0.05954745039 0.04294483736 3.628921614e-39
-0.00312234927 -0.05114033446 0.1612383723 3.628921614e-39
-0.3082225025 0.04607310146 -0.0005993842497 3.628921614e-39
-0.03935141116 -0.03808265552 0.02427744493 3.628921614e-39
-0.1900299489 -0.05954745039 0.04294483736 3.628921614e-39
-0.00312234927 -0.05114033446 0.1612383723 3.628921614e-39
-0.3082225025 0.04607310146 -0.0005993842497 3.628921614e-39
-0.04303051159 -0.05482706428 0.06171640009 3.628921614e-39
-0.1310864091 -0.07256177813 0.04074633494 3.628921614e-39
-0.05563406646 -0.06644837558 0.21637775 3.628921614e-39
-0.275495708 0.01089181937 0.001080974471 3.628921614e-39
-0.03534791246 -0.03972997889 -0.04162817821 3.628921614e-39
-0.2587289512 -0.0463566184 0.03583728895 3.628921614e-39
0.04118180275 -0.04449393973 0.1375428885 3.628921614e-39
-0.3822247088 0.07735811919 0.001728786272 3.628921614e-39
-0.04444516823 -0.027294131 -0.05522664264 3.628921614e-39
-0.2596879005 -0.03087079152 0.03080537543 3.628921614e-39
0.04532976449 -0.03461768851 0.1295557171 3.628921614e-39
-0.3397116065 0.07991332561 -0.002367655979 3.628921614e-39
-0.03165989742 -0.0327052474 0.01452215761 3.628921614e-39
-0.1959564537 -0.05552403629 0.04163272679 3.628921614e-39
0.01251279097 -0.04913778976 0.1461587101 3.628921614e-39
-0.308057487 0.04812538251 0.0001813173294 3.628921614e-39
-0.04496490955 -0.04014389217 0.04758674279 3.628921614e-39
-0.1659218669 -0.06827741861 0.03968989849 3.628921614e-39
-0.01833404787 -0.059655983 0.1345882118 3.628921614e-39
-0.289383471 0.01366645657 0.003540948033 3.628921614e-39
0.09022568911 -0.05632135272 -0.0411192812 2.898180898e-39
-0.1861400604 -0.008187588304 0.007529004477 2.898180898e-39
0.3384698927 -0.03025275841 -0.02938176319 2.898180898e-39
0.09050555527 -0.01343315467 0.02691980265 2.898180898e-39
-0.05479574949 -0.0433135964 -0.04378752783 2.898180898e-39
-0.02719907835 -0.02171329968 0.08931745589 2.898180898e-39
0.1947527975 -0.03624644876 -0.03908656538 2.898180898e-39
0.2471749485 0.01163236517 0.01784390397 2.898180898e-39
-0.05479574949 -0.0433135964 -0.04378752783 2.898180898e-39
-0.02719907835 -0.02171329968 0.08931745589 2.898180898e-39
0.1947527975 -0.03624644876 -0.03908656538 2.898180898e-39
0.2471749485 0.01163236517 0.01784390397 2.898180898e-39
0.004203972872 -0.05692977458 -0.03294795752 2.898180898e-39
-0.06392645091 -0.03352041543 0.04784630984 2.898180898e-39
0.2725193501 -0.04608142748 -0.03652014583 2.898180898e-39
0.1959161162 -0.005726155825 0.02137570083 2.898180898e-39
-0.1551325172 -0.04661981016 -0.05244528875 2.898180898e-39
-0.02062245831 -0.0205531083 0.146210596 2.898180898e-39
0.08916736394 -0.04928372055 -0.06599362195 2.898180898e-39
0.3268409967 0.004842213821 0.01830005459 2.898180898e-39
-0.1549203545 -0.03669273853 -0.05333254859 2.898180898e-39
-0.022659963 -0.002410705201 0.1599596441 2.898180898e-39
0.04357818142 -0.04199501127 -0.06984028965 2.898180898e-39
0.3305101991 0.02411377802 0.01526791044 2.898180898e-39
-0.05750003085 -0.03956730664 -0.04435760155 2.898180898e-39
-0.02749050036 -0.0130892368 0.08712994307 2.898180898e-39
0.1872961223 -0.03454484418 -0.04640163109 2.898180898e-39
0.2472581863 0.01583557017 0.01734947227 2.898180898e-39
-0.05191734061 -0.05257920921 -0.03935975954 2.898180898e-39
-0.09027767926 -0.02731257677 0.04246009886 2.898180898e-39
0.2233318686 -0.04187642783 -0.03683753684 2.898180898e-39
0.2281591296 -0.003231275827 0.02197750658 2.898180898e-39
-0.1034708917 -0.0400759019 0.04627019539 2.167082852e-39
0.2225110531 -0.057838168 0.03102052025 2.167082852e-39
0.05286450312 -0.05203838646 0.04090128466 2.167082852e-39
-0.002061373321 -0.02913610451 -0.1130649447 2.167082852e-39
-0.2473585457 -0.01883835904 0.02986201644 2.167082852e-39
0.3117543757 -0.0617011264 0.02545312047 2.167082852e-39
-0.02740281262 -0.06083607301 0.04509379342 2.167082852e-39
0.1283914894 -0.04481922463 -0.03635060415 2.167082852e-39
-0.2473585457 -0.01883835904 0.02986201644 2.167082852e-39
0.3117543757 -0.0617011264 0.02545312047 2.167082852e-39
-0.02740281262 -0.06083607301 0.04509379342 2.167082852e-39
0.1283914894 -0.04481922463 -0.03635060415 2.167082852e-39
-0.2009395063 -0.02679833397 0.03569489345 2.167082852e-39
0.2725868523 -0.0643344447 0.03099018149 2.167082852e-39
0.02995983884 -0.05899160728 0.06296613812 2.167082852e-39
0.0761449784 -0.04206046835 -0.0896063 2.167082852e-39
-0.3157483637 -0.01316317916 0.0162678007 2.167082852e-39
0.3443671465 -0.069842875 0.0194798205 2.167082852e-39
-0.09193240106 -0.07816396654 0.02867807634 2.167082852e-39
0.18242535 -0.06262231618 0.006888578646 2.167082852e-39
-0.3124467134 -0.01315587852 0.01414828934 2.167082852e-39
0.3570104241 -0.05723372102 0.01490805857 2.167082852e-39
-0.1077900603 -0.06918933988 0.02125567384 2.167082852e-39
0.1895048767 -0.05676130578 0.004117227159 2.167082852e-39
-0.2544265389 -0.01892444305 0.02866661176 2.167082852e-39
0.3110206425 -0.05474374443 0.02534426376 2.167082852e-39
-0.03089791723 -0.06217323989 0.03940830752 2.167082852e-39
0.1324122101 -0.04277711362 -0.03262436017 2.167082852e-39
-0.2293349952 -0.02518178709 0.03339248151 2.167082852e-39
0.2578499913 -0.04222700745 0.03639855236 2.167082852e-39
-0.02746722661 -0.05923484266 0.04213345051 2.167082852e-39
0.08464090526 -0.03218706697 -0.05671553686 2.167082852e-39
-0.02461704798 -0.04876601323 0.1380994618 1.435982003e-39
-0.07727341354 -0.04008562118 0.1853578687 1.435982003e-39
-0.08924662322 -0.05203816667 0.280857265 1.435982003e-39
-0.02921266854 -0.04580878094 0.152319476 1.435982003e-39
0.0396469757 -0.06040043756 0.1184116006 1.435982003e-39
-0.08710784465 -0.03997767344 0.2283745408 1.435982003e-39
-0.133758232 -0.04121267423 0.2871647477 1.435982003e-39
-0.07009527832 -0.04025679827 0.1883110553 1.435982003e-39
0.0396469757 -0.06040043756 0.1184116006 1.435982003e-39
-0.08710784465 -0.03997767344 0.2283745408 1.435982003e-39
-0.133758232 -0.04121267423 0.2871647477 1.435982003e-39
-0.07009527832 -0.04025679827 0.1883110553 1.435982003e-39
0.006286955439 -0.05978551134 0.128461048 1.435982003e-39
-0.09380024672 -0.04492615908 0.2028813362 1.435982003e-39
-0.1253321022 -0.0566563718 0.291249454 1.435982003e-39
-0.04114791751 -0.05245595798 0.1779764146 1.435982003e-39
0.07049830258 -0.06318122894 0.09393191338 1.435982003e-39
-0.08478690684 -0.0426768586 0.2530034482 1.435982003e-39
-0.1374463737 -0.04056265578 0.2979584634 1.435982003e-39
-0.09267126024 -0.03630136698 0.2027473897 1.435982003e-39
0.07582601905 -0.04670483246 0.07684298605 1.435982003e-39
-0.0857444331 -0.03294622898 0.2677731216 1.435982003e-39
-0.1428151429 -0.03542774171 0.2793224156 1.435982003e-39
-0.1176822186 -0.02733860537 0.200248301 1.435982003e-39
0.04952867702 -0.05872653052 0.1144075766 1.435982003e-39
-0.08918907493 -0.03015028127 0.222717002 1.435982003e-39
-0.1284608245 -0.03682142124 0.2819643021 1.435982003e-39
-0.07088621706 -0.03804375231 0.1873347014 1.435982003e-39
-0.007679743692 -0.05396755785 0.104501076 1.435982003e-39
-0.148384124 -0.0409770757 0.1483248323 1.435982003e-39
-0.136658445 -0.04947960377 0.2590103149 1.435982003e-39
-0.0603820011 -0.0481217429 0.1748435795 1.435982003e-39
0.03637769446 -0.04859816656 0.0300520584 7.045238224e-40
-0.102702111 -0.03418912739 0.1004456952 7.045238224e-40
-0.07314885408 -0.05213076249 0.2080899775 7.045238224e-40
-0.07377695292 -0.04660141841 0.2507279217 7.045238224e-40
0.1912029684 -0.07854565233 0.0186656937 7.045238224e-40
-0.02076568641 -0.05967087671 0.03598140553 7.045238224e-40
-0.06169361249 -0.04199058935 0.1581560373 7.045238224e-40
-0.1145363301 -0.04084512219 0.2747650146 7.045238224e-40
0.1912029684 -0.07854565233 0.0186656937 7.045238224e-40
-0.02076568641 -0.05967087671 0.03598140553 7.045238224e-40
-0.06169361249 -0.04199058935 0.1581560373 7.045238224e-40
-0.1145363301 -0.04084512219 0.2747650146 7.045238224e-40
0.1405138075 -0.08250918239 0.02646182291 7.045238224e-40
-0.06091441959 -0.05282699689 0.05202890933 7.045238224e-40
-0.06433290243 -0.06373538822 0.1742447168 7.045238224e-40
-0.09512638301 -0.04406033084 0.2660524547 7.045238224e-40
0.2420212775 -0.08422699571 0.009432461113 7.045238224e-40
0.02327516489 -0.0838432312 0.01973027922 7.045238224e-40
-0.03295961022 -0.05318979919 0.1251289845 7.045238224e-40
-0.1223833933 -0.04698131606 0.3061855137 7.045238224e-40
0.254278928 -0.07377239317 0.007914892398 7.045238224e-40
0.02415144816 -0.08201868832 0.01370282378 7.045238224e-40
-0.03668229282 -0.02940548025 0.1160033345 7.045238224e-40
-0.1358325779 -0.03779949993 0.2984279096 7.045238224e-40
0.2012831867 -0.07520968467 0.01710262336 7.045238224e-40
-0.01860660873 -0.05811608955 0.03235139698 7.045238224e-40
-0.0531303212 -0.03528733179 0.152948156 7.045238224e-40
-0.1119212508 -0.03984086961 0.2769687772 7.045238224e-40
0.1389042139 -0.08146977425 0.03318086639 7.045238224e-40
-0.08957670629 -0.0466523096 0.04705296457 7.045238224e-40
-0.08404767513 -0.04329630733 0.156973511 7.045238224e-40
-0.1352486908 -0.03769512847 0.2291457802 7.045238224e-40
0.04163530096 -0.03307938203 0.05028248951 6.490113838e-41
-0.161364004 -0.02720407397 0.03181492165 6.490113838e-41
-0.3073476255 0.007088244427 -0.004543757532 6.490113838e-41
-0.0009503510664 -0.06589569151 0.03103165515 6.490113838e-41
0.1815208793 -0.04078144208 0.03456802294 6.490113838e-41
-0.2439550757 -0.04520072415 0.03323683515 6.490113838e-41
-0.4120851159 0.03680824488 -0.005154437385 6.490113838e-41
-0.1167053059 -0.06773963571 0.04060414433 6.490113838e-41
0.1815208793 -0.04078144208 0.03456802294 6.490113838e-41
-0.2439550757 -0.04520072415 0.03323683515 6.490113838e-41
-0.4120851159 0.03680824488 -0.005154437385 6.490113838e-41
-0.1167053059 -0.06773963571 0.04060414433 6.490113838e-41
0.100544706 -0.04891937971 0.03834208846 6.490113838e-41
-0.2143003494 -0.04374434426 0.03471080586 6.490113838e-41
-0.3662709892 0.01847063005 -0.007309641689 6.490113838e-41
-0.07310511917 -0.07814416289 0.03321901709 6.490113838e-41
0.2437997013 -0.05159441009 0.03408680856 6.490113838e-41
-0.2839385867 -0.05734979734 0.029521944 6.490113838e-41
-0.4413512051 0.07098662853 -0.0006828232436 6.490113838e-41
-0.1679926366 -0.06534343213 0.04150315747 6.490113838e-41
0.2638089955 -0.03466740623 0.03502950445 6.490113838e-41
-0.2942809165 -0.04648319632 0.02898755483 6.490113838e-41
-0.4493645132 0.06364457309 0.001651836908 6.490113838e-41
-0.1735895574 -0.06020930782 0.05161506683 6.490113838e-41
0.1943371445 -0.0299024377 0.04017454013 6.490113838e-41
-0.2417211235 -0.04164985567 0.03262775391 6.490113838e-41
-0.4157041013 0.03743113205 -0.004799038637 6.490113838e-41
-0.1196736842 -0.06721591204 0.04220667109 6.490113838e-41
0.1093992963 -0.02870669216 0.04256089777 6.490113838e-41
-0.2043950856 -0.05031611025 0.02932898514 6.490113838e-41
-0.3825233877 0.03195967153 -0.009116866626 6.490113838e-41
-0.0993072167 -0.07143875211 0.03694691136 6.490113838e-41
-0.3081394136 -0.001890172833 0.01087075844 8.028094954e-40
-0.06128217652 -0.03939798847 0.1031116992 8.028094954e-40
-0.2853721976 -0.01648120396 0.03988637403 8.028094954e-40
-0.2023951262 0.02345890738 0.01200069953 8.028094954e-40
-0.3743599653 -0.007424382027 -0.001542313606 8.028094954e-40
0.02781058289 -0.03286675736 0.01906448603 8.028094954e-40
-0.2280384004 -0.009106287733 0.03806056082 8.028094954e-40
-0.1215193719 -0.01095339842 0.02344113216 8.028094954e-40
-0.3743599653 -0.007424382027 -0.001542313606 8.028094954e-40
0.02781058289 -0.03286675736 0.01906448603 8.028094954e-40
-0.2280384004 -0.009106287733 0.03806056082 8.028094954e-40
-0.1215193719 -0.01095339842 0.02344113216 8.028094954e-40
-0.3596687019 -0.01136870123 0.008617232554 8.028094954e-40
-0.01452253014 -0.04245515168 0.03039066121 8.028094954e-40
-0.2706485093 -0.01799519546 0.03748289496 8.028094954e-40
-0.1735938191 -0.00402294891 0.01166906115 8.028094954e-40
-0.4008419812 -0.008579691872 -0.02090368606 8.028094954e-40
0.07184850425 -0.03301874921 -0.009440931492 8.028094954e-40
-0.1662123054 -0.003721294459 0.02771545202 8.028094954e-40
-0.0489038825 -0.00740990648 0.02525659651 8.028094954e-40
-0.3995517492 -0.00236766343 -0.02702040225 8.028094954e-40
0.09106759727 -0.01877117902 -0.005073623266 8.028094954e-40
-0.176517725 0.0001100897789 0.03006408177 8.028094954e-40
-0.03014893271 -0.006896282081 0.03224720061 8.028094954e-40
-0.3753751516 -0.004986356478 -0.007426691707 8.028094954e-40
0.04500636831 -0.02563921176 0.00270510558 8.028094954e-40
-0.2231297493 -0.007864775136 0.03841172904 8.028094954e-40
-0.1148857474 -0.01059835218 0.02378110588 8.028094954e-40
-0.3564267159 -0.00912425667 -0.0003354847431 8.028094954e-40
0.003468648531 -0.03667563945 -0.01653247885 8.028094954e-40
-0.2623873055 -0.01436224207 0.04382583871 8.028094954e-40
-0.1523351967 -0.005561212543 0.01409827638 8.028094954e-40
0.137385577 -0.04488491267 0.06603437662 1.540360521e-39
0.05933250114 -0.07888335735 -0.01705044694 1.540360521e-39
0.00171263353 -0.05446180329 -0.1610218883 1.540360521e-39
-0.2446578741 -0.01954306662 0.03814657405 1.540360521e-39
0.04903215542 -0.04916477576 0.07615491003 1.540360521e-39
-0.09339191765 -0.07478132844 0.01192027517 1.540360521e-39
0.007966774516 -0.04736110196 -0.1089461595 1.540360521e-39
-0.313359648 -0.01849660091 0.03069521114 1.540360521e-39
0.04903215542 -0.04916477576 0.07615491003 1.540360521e-39
-0.09339191765 -0.07478132844 0.01192027517 1.540360521e-39
0.007966774516 -0.04736110196 -0.1089461595 1.540360521e-39
-0.313359648 -0.01849660091 0.03069521114 1.540360521e-39
0.08034516871 -0.05204144865 0.0679815039 1.540360521e-39
-0.04550392553 -0.08264467865 0.008250004612 1.540360521e-39
0.006790868938 -0.05297502875 -0.1580332518 1.540360521e-39
-0.2910226882 -0.02211261727 0.03669006005 1.540360521e-39
0.002922362648 -0.05646989867 0.09208334237 1.540360521e-39
-0.1582377702 -0.08139727265 0.009499219246 1.540360521e-39
0.008898671716 -0.05743797496 -0.0243986696 1.540360521e-39
-0.3526152372 -0.0196821671 0.02186757326 1.540360521e-39
-0.006010005716 -0.0471816361 0.09447038174 1.540360521e-39
-0.144725889 -0.06208404526 0.01283986308 1.540360521e-39
-0.001886529499 -0.04102383181 0.004659559578 1.540360521e-39
-0.3315226734 -0.01632829942 0.01588856056 1.540360521e-39
0.04700094834 -0.0459151417 0.07061320543 1.540360521e-39
-0.09369336814 -0.0634932518 0.005254533142 1.540360521e-39
0.01279221009 -0.04282292351 -0.09955935925 1.540360521e-39
-0.3092961609 -0.01578319818 0.02900293469 1.540360521e-39
0.06376640499 -0.04974021018 0.05722069368 1.540360521e-39
-0.1111356467 -0.05868950859 0.008260047063 1.540360521e-39
-0.0173408594 -0.04301706329 -0.1364985704 1.540360521e-39
-0.3267374933 -0.02583282813 0.03624699637 1.540360521e-39
-0.1285116822 -0.04086146131 -0.3051379621 2.277910146e-39
-0.2554288805 -0.05378011614 -0.04292301089 2.277910146e-39
-0.0211683251 -0.07227607816 -0.1009048149 2.277910146e-39
-0.3859845102 -0.0370134674 -0.02583704889 2.277910146e-39
-0.04963482171 -0.03947421536 -0.2233402282 2.277910146e-39
-0.2003736645 -0.05778488889 -0.04746187851 2.277910146e-39
0.06555685401 -0.03010989726 -0.04822370037 2.277910146e-39
-0.2972638607 -0.04535926506 -0.04022111744 2.277910146e-39
-0.04963482171 -0.03947421536 -0.2233402282 2.277910146e-39
-0.2003736645 -0.05778488889 -0.04746187851 2.277910146e-39
0.06555685401 -0.03010989726 -0.04822370037 2.277910146e-39
-0.2972638607 -0.04535926506 -0.04022111744 2.277910146e-39
-0.08524464071 -0.04538286477 -0.2557855844 2.277910146e-39
-0.2357034981 -0.06161252037 -0.04128106311 2.277910146e-39
0.003866750048 -0.06805140525 -0.06983270496 2.277910146e-39
-0.3466887772 -0.04578499869 -0.02914812788 2.277910146e-39
-0.02572165616 -0.04289605469 -0.1978931427 2.277910146e-39
-0.1461601555 -0.05927355215 -0.04956947267 2.277910146e-39
0.1312078387 -0.0001014098525 -0.02052497119 2.277910146e-39
-0.231243968 -0.04435288906 -0.05085578933 2.277910146e-39
-0.01911232248 -0.02961127274 -0.1904111356 2.277910146e-39
-0.1201185659 -0.05398311839 -0.05321518704 2.277910146e-39
0.1276423335 0.002984976862 -0.02738157846 2.277910146e-39
-0.2034028023 -0.04122555256 -0.05861824006 2.277910146e-39
-0.0493465364 -0.03428247571 -0.2053968906 2.277910146e-39
-0.1933230907 -0.05700212345 -0.0481044203 2.277910146e-39
0.07657065243 -0.02471523173 -0.04834583774 2.277910146e-39
-0.2921673656 -0.04494472966 -0.04108244181 2.277910146e-39
-0.08685026318 -0.04731566086 -0.1828517318 2.277910146e-39
-0.2269859016 -0.05592952669 -0.04629761353 2.277910146e-39
0.03605115414 -0.040041022 -0.0578484498 2.277910146e-39
-0.326382786 -0.04509492591 -0.03516325727 2.277910146e-39
-0.2635118365 -0.02564027533 -0.03506204486 3.015101038e-39
-0.4139870703 0.05547811463 0.001868879073 3.015101038e-39
-0.08448269218 -0.01188746747 -0.03798272461 3.015101038e-39
-0.2482338548 -0.022216985 -0.008084367029 3.015101038e-39
-0.1817989498 -0.03046237491 -0.04517001286 3.015101038e-39
-0.4090016782 0.07734076679 -0.002589339158 3.015101038e-39
0.01774096675 -0.01192391012 -0.03731110692 3.015101038e-39
-0.3155486584 0.02352775075 -0.002095554722 3.015101038e-39
-0.1817989498 -0.03046237491 -0.04517001286 3.015101038e-39
-0.4090016782 0.07734076679 -0.002589339158 3.015101038e-39
0.01774096675 -0.01192391012 -0.03731110692 3.015101038e-39
-0.3155486584 0.02352775075 -0.002095554722 3.015101038e-39
-0.2246815562 -0.03537464142 -0.04369438067 3.015101038e-39
-0.4322590232 0.09863473475 -0.003527812893 3.015101038e-39
-0.03304852545 -0.01225731988 -0.03628190607 3.015101038e-39
-0.2935747504 -0.001337274094 -0.001052565523 3.015101038e-39
-0.1428454518 -0.02818159945 -0.04500786588 3.015101038e-39
-0.3650089502 0.05903632566 0.000381335587 3.015101038e-39
0.07036825269 -0.03430917859 -0.04361998662 3.015101038e-39
-0.3404006064 0.03918489441 -0.003189702053 3.015101038e-39
-0.1205296442 -0.01757263578 -0.04353185743 3.015101038e-39
-0.3458392918 0.02001623251 -0.002069380833 3.015101038e-39
0.08167422563 -0.02383638918 -0.04442272708 3.015101038e-39
-0.3354319632 0.04304577038 6.372481585e-05 3.015101038e-39
-0.1687670797 -0.02355472185 -0.04163499922 3.015101038e-39
-0.4042010009 0.07452468574 -0.004942213185 3.015101038e-39
0.02369670942 -0.01089613233 -0.03702141717 3.015101038e-39
-0.3164186776 0.02436253987 -0.002439933596 3.015101038e-39
-0.1934362352 -0.02024914697 -0.03851116821 3.015101038e-39
-0.392683357 0.05680114776 -0.008184608072 3.015101038e-39
-0.001126914751 -0.004431457259 -0.03512205929 3.015101038e-39
-0.2917428613 0.003142450936 -0.001287131803 3.015101038e-39
-0.1374448985 -0.03797899932 -0.05589140207 3.75229193e-39
0.1044610664 -0.001862240722 0.01822584122 3.75229193e-39
0.04480215162 -0.008653320372 0.02656191029 3.75229193e-39
0.00612562662 -0.05580927804 -0.07313366234 3.75229193e-39
-0.2497738749 -0.02624496073 -0.03700171039 3.75229193e-39
0.2230913341 -0.003220010549 0.02738954313 3.75229193e-39
-0.05601715297 0.009952767752 0.00495119812 3.75229193e-39
0.07367817312 -0.04833209515 -0.06958921999 3.75229193e-39
-0.2497738749 -0.02624496073 -0.03700171039 3.75229193e-39
0.2230913341 -0.003220010549 0.02738954313 3.75229193e-39
-0.05601715297 0.009952767752 0.00495119812 3.75229193e-39
0.07367817312 -0.04833209515 -0.06958921999 3.75229193e-39
-0.204878509 -0.02895977162 -0.04546460882 3.75229193e-39
0.1672950834 -0.00949811656 0.02825497277 3.75229193e-39
-0.0202599857 -0.002853415674 0.008835398592 3.75229193e-39
0.03950108588 -0.05845611542 -0.07772027701 3.75229193e-39
-0.3159956038 -0.01289422903 -0.02251252159 3.75229193e-39
0.2641866505 -0.007950913161 0.03022219427 3.75229193e-39
-0.1055517197 0.005828493275 0.001129924785 3.75229193e-39
0.1099393442 -0.05501412973 -0.06772233546 3.75229193e-39
-0.3135439157 -0.005253937095 -0.02893411927 3.75229193e-39
0.272587806 2.329051495e-05 0.02515119314 3.75229193e-39
-0.1203980818 0.01399681903 -0.0048154369 3.75229193e-39
0.1274360269 -0.0281541422 -0.05808956549 3.75229193e-39
-0.2504827678 -0.020906277 -0.03576283157 3.75229193e-39
0.2312221676 0.001623793039 0.02504744194 3.75229193e-39
-0.05792222545 0.01146886125 0.00309160864 3.75229193e-39
0.08187928051 -0.03663659096 -0.06533567607 3.75229193e-39
-0.2320372164 -0.01719603315 -0.03790141642 3.75229193e-39
0.1725047231 -0.004114232026 0.02810707688 3.75229193e-39
-0.04136478901 0.009391151369 0.007849591784 3.75229193e-39
0.05695955455 -0.05081869289 -0.06573671848 3.75229193e-39
-0.2455654889 -0.01714116894 -0.02567530796 4.48912409e-39
-0.2161543369 -0.000518903078 -0.004965189844 4.48912409e-39
-0.1328961402 -0.0380240269 -0.02258611657 4.48912409e-39
-0.4473356009 0.02833297662 -0.00206960435 4.48912409e-39
-0.3108468056 0.00173197512 -0.01857350953 4.48912409e-39
-0.1491337717 -0.0007189026801 -0.01925219409 4.48912409e-39
-0.03311659396 -0.04543229565 0.06427813321 4.48912409e-39
-0.3966281414 0.02568707243 -0.002316947561 4.48912409e-39
-0.3108468056 0.00173197512 -0.01857350953 4.48912409e-39
-0.1491337717 -0.0007189026801 -0.01925219409 4.48912409e-39
-0.03311659396 -0.04543229565 0.06427813321 4.48912409e-39
-0.3966281414 0.02568707243 -0.002316947561 4.48912409e-39
-0.2908323407 -0.008648619056 -0.01670142636 4.48912409e-39
-0.1642258316 -0.003425800707 -0.01777044684 4.48912409e-39
-0.08284807205 -0.0774352178 0.03713019192 4.48912409e-39
-0.431400001 0.0406976752 -0.0002389401197 4.48912409e-39
-0.3301508427 0.01036116295 -0.01873738691 4.48912409e-39
-0.09051715583 -0.03627550229 -0.043464683 4.48912409e-39
0.02776542306 -0.02235878818 0.09045832604 4.48912409e-39
-0.3539491594 0.01527681202 -0.004432977177 4.48912409e-39
-0.3301745355 0.003252908355 -0.02452534251 4.48912409e-39
-0.08706941456 -0.02782206982 -0.03978009522 4.48912409e-39
0.03549920768 -0.01515725348 0.09105116129 4.48912409e-39
-0.3242907822 0.01300998405 0.003471435048 4.48912409e-39
-0.3130755723 0.00403322326 -0.02079573646 4.48912409e-39
-0.1488436311 0.002262953436 -0.01899093017 4.48912409e-39
-0.03007407859 -0.04054471105 0.06803231686 4.48912409e-39
-0.3949223161 0.02367873304 -0.002237539738 4.48912409e-39
-0.2910209894 -0.00954526756 -0.02574916929 4.48912409e-39
-0.1860677451 -0.004519543611 -0.01855925471 4.48912409e-39
-0.06682071835 -0.06400788575 0.04918804765 4.48912409e-39
-0.4126271605 0.03217215464 -0.002417962067 4.48912409e-39
0.04557146877 -0.01383357868 -0.02997275256 5.225597518e-39
0.2869242132 -0.04272900522 -0.0395290032 5.225597518e-39
0.1625100672 -0.02556035295 -0.0377480872 5.225597518e-39
0.2124064714 -0.01408269256 -0.03102087788 5.225597518e-39
-0.0475561209 -0.02132354677 -0.03299704567 5.225597518e-39
0.3504785001 -0.0352967158 -0.03455241024 5.225597518e-39
0.1268777996 -0.01555357594 -0.03659285605 5.225597518e-39
0.2417759746 -0.01329126209 -0.03320623934 5.225597518e-39
-0.0475561209 -0.02132354677 -0.03299704567 5.225597518e-39
0.3504785001 -0.0352967158 -0.03455241024 5.225597518e-39
0.1268777996 -0.01555357594 -0.03659285605 5.225597518e-39
0.2417759746 -0.01329126209 -0.03320623934 5.225597518e-39
-0.01209557708 -0.02430983633 -0.0322593227 5.225597518e-39
0.3283474147 -0.03944522515 -0.03695546836 5.225597518e-39
0.1493558884 -0.02132910304 -0.03876550123 5.225597518e-39
0.2299526781 -0.01902368665 -0.03348144516 5.225597518e-39
-0.1005567238 -0.02138504572 -0.03641724214 5.225597518e-39
0.3824596703 -0.03401299194 -0.03125686944 5.225597518e-39
0.08141472936 -0.01655260473 -0.03587444872 5.225597518e-39
0.2632911503 -0.01532884594 -0.03404267505 5.225597518e-39
-0.1038924158 -0.02324722521 -0.03860040382 5.225597518e-39
0.3738386631 -0.02969064191 -0.03132140264 5.225597518e-39
0.08125701547 -0.006528001744 -0.03261879459 5.225597518e-39
0.2693992257 -0.0002634078264 -0.02989788167 5.225597518e-39
-0.05009714887 -0.02136571333 -0.03376581892 5.225597518e-39
0.348507762 -0.03317612037 -0.03418329731 5.225597518e-39
0.1272025853 -0.01497995574 -0.03624917194 5.225597518e-39
0.2424094379 -0.01215116493 -0.03335245699 5.225597518e-39
-0.02427871153 -0.0294296965 -0.03654872626 5.225597518e-39
0.3059085011 -0.03723427281 -0.03650054708 5.225597518e-39
0.1346613616 -0.02429558523 -0.03715073317 5.225597518e-39
0.2307026833 -0.01356105786 -0.03198396787 5.225597518e-39
0.1607078463 -0.003401175141 0.001102342736 5.962428276e-39
0.005285869353 -0.04429254681 0.04495592415 5.962428276e-39
-0.09705539793 -0.03955877945 0.2184969336 5.962428276e-39
0.04360661656 -0.07060071081 0.1117150337 5.962428276e-39
0.1866661757 -0.04762677103 0.05950433016 5.962428276e-39
-0.1602582335 -0.04273853451 0.05107365176 5.962428276e-39
-0.0005437656655 -0.02366595715 0.1291644424 5.962428276e-39
-0.05800276995 -0.04575423896 0.05187401921 5.962428276e-39
0.1866661757 -0.04762677103 0.05950433016 5.962428276e-39
-0.1602582335 -0.04273853451 0.05107365176 5.962428276e-39
-0.0005437656655 -0.02366595715 0.1291644424 5.962428276e-39
-0.05800276995 -0.04575423896 0.05187401921 5.962428276e-39
0.1924103051 -0.05360934138 0.04865976423 5.962428276e-39
-0.1149486378 -0.04112406075 0.06078658998 5.962428276e-39
-0.05616138875 -0.05028051883 0.1965351701 5.962428276e-39
0.0103958603 -0.07250548154 0.07921483368 5.962428276e-39
0.1242651939 -0.04119798914 0.06997016072 5.962428276e-39
-0.2347317934 -0.05562113598 0.03698288649 5.962428276e-39
0.05727656558 -0.01744510606 0.07459781319 5.962428276e-39
-0.09717521071 -0.05028604344 0.02876589075 5.962428276e-39
0.08289287239 -0.02226717025 0.06759001315 5.962428276e-39
-0.2314133197 -0.03652038798 0.03952062875 5.962428276e-39
0.06239741668 -0.004516100511 0.05096082389 5.962428276e-39
-0.119729735 -0.02781580575 0.03107059933 5.962428276e-39
0.1683173031 -0.0418103002 0.04997431487 5.962428276e-39
-0.1634251922 -0.03712608293 0.0493779853 5.962428276e-39
0.01804871112 -0.0170580633 0.1166681498 5.962428276e-39
-0.05947680026 -0.04353491217 0.05124684796 5.962428276e-39
0.1296218038 -0.03917795792 0.01702799648 5.962428276e-39
-0.1799247265 -0.03660057113 0.05595230684 5.962428276e-39
-0.0381150879 -0.02925856225 0.1517077088 5.962428276e-39
-0.05286184326 -0.05687004328 0.06089873612 5.962428276e-39
0.2651863992 0.003870900022 -0.007508732844 6.698542971e-39
-0.1018237174 -0.0009161604103 0.0114211021 6.698542971e-39
0.2616753578 0.005755659193 0.003436216619 6.698542971e-39
0.1800095588 -0.004179393873 0.01889024116 6.698542971e-39
0.1761918962 0.00521599967 -0.001911362167 6.698542971e-39
-0.1852246076 0.002786837751 -0.004241001327 6.698542971e-39
0.3328198791 0.005162506364 0.01730316319 6.698542971e-39
0.02325140312 0.006279035937 0.0003408491611 6.698542971e-39
0.1761918962 0.00521599967 -0.001911362167 6.698542971e-39
-0.1852246076 0.002786837751 -0.004241001327 6.698542971e-39
0.3328198791 0.005162506364 0.01730316319 6.698542971e-39
0.02325140312 0.006279035937 0.0003408491611 6.698542971e-39
0.2124019861 0.002941182815 0.006063275039 6.698542971e-39
-0.1553183198 0.0007355137495 0.002812802792 6.698542971e-39
0.3104727268 0.002733767731 0.01738260686 6.698542971e-39
0.08671184629 0.0006262659444 0.01719954051 6.698542971e-39
0.1281273812 0.000843174581 0.002027672715 6.698542971e-39
-0.2469338626 0.002990967128 0.01236813795 6.698542971e-39
0.373293519 -0.00525387004 0.01393278688 6.698542971e-39
-0.02370170876 0.00239195209 -0.003252949333 6.698542971e-39
0.1174562052 0.008190105669 -0.01057843119 6.698542971e-39
-0.251524657 0.00745781837 0.02590992674 6.698542971e-39
0.3659622073 -0.0001818686724 0.01209423598 6.698542971e-39
-0.0353767015 0.00671814708 -0.01528313942 6.698542971e-39
0.1673960537 0.007820052095 -0.004951950628 6.698542971e-39
-0.181894511 0.005401819479 -0.003953838721 6.698542971e-39
0.332036972 0.006253414322 0.01828137413 6.698542971e-39
0.02039584145 0.00815143995 -0.001715941587 6.698542971e-39
0.1861369014 0.004316019826 -0.002883761656 6.698542971e-39
-0.1712372303 0.004874421749 0.003457927378 6.698542971e-39
0.3029505312 0.005774709396 0.01492556371 6.698542971e-39
0.04139409959 0.004983003717 0.007532707416 6.698542971e-39
-0.3949240744 -0.02511266805 0.0177904889 7.434656265e-39
-0.3050734699 -0.04411815479 -0.008190694265 7.434656265e-39
-0.2775524855 -0.07716996968 -0.01317189448 7.434656265e-39
-0.1191826165 -0.03479985148 -0.06264789402 7.434656265e-39
-0.2993776798 -0.0296981521 0.04527488351 7.434656265e-39
-0.3636946082 -0.02199898288 -0.02447159588 7.434656265e-39
-0.1914360076 -0.0616754517 0.03598786145 7.434656265e-39
-0.03421698883 -0.03534947708 -0.06609741598 7.434656265e-39
-0.2993776798 -0.0296981521 0.04527488351 7.434656265e-39
-0.3636946082 -0.02199898288 -0.02447159588 7.434656265e-39
-0.1914360076 -0.0616754517 0.03598786145 7.434656265e-39
-0.03421698883 -0.03534947708 -0.06609741598 7.434656265e-39
-0.3680746853 -0.02991331927 0.04321884736 7.434656265e-39
-0.34807235 -0.03223864734 -0.007340448443 7.434656265e-39
-0.2372689247 -0.08159689605 0.01888438873 7.434656265e-39
-0.09743060172 -0.04311534762 -0.05713303387 7.434656265e-39
-0.2499134988 -0.04174990952 0.04307966679 7.434656265e-39
-0.391623199 -0.02824142389 -0.03901845217 7.434656265e-39
-0.129063651 -0.05262770504 0.04888335243 7.434656265e-39
0.04687393084 -0.05189271271 -0.05716717988 7.434656265e-39
-0.2375505418 -0.03744176403 0.04452978075 7.434656265e-39
-0.3916830122 -0.01412915997 -0.04422906414 7.434656265e-39
-0.1223110482 -0.04117945209 0.05015039816 7.434656265e-39
0.09604112804 -0.03377738968 -0.05432577804 7.434656265e-39
-0.2882413864 -0.03079410456 0.04219711572 7.434656265e-39
-0.359098047 -0.01610317267 -0.02450942248 7.434656265e-39
-0.1868114173 -0.05814796686 0.03726483136 7.434656265e-39
-0.02435606159 -0.03372009471 -0.06682744622 7.434656265e-39
-0.3426695466 -0.03672866896 0.04138630256 7.434656265e-39
-0.3078324199 -0.03062582947 -0.02909642085 7.434656265e-39
-0.2136942446 -0.06976406276 0.02735104598 7.434656265e-39
-0.06288504601 -0.03819932789 -0.06602427363 7.434656265e-39
-0.2446257621 0.004812616855 0.01001326088 8.170410826e-39
-0.31323421 0.02089084685 -0.001962584676 8.170410826e-39
-0.05460165441 -0.02949978411 -0.02541830391 8.170410826e-39
0.02768092416 -0.05226428434 -0.1273929179 8.170410826e-39
-0.147681132 0.002861283254 0.004439607728 8.170410826e-39
-0.3729065955 0.02884042822 -0.002447391627 8.170410826e-39
0.01975876652 0.003751386888 -0.0004691779322 8.170410826e-39
-0.07108616829 -0.04708140716 -0.189415291 8.170410826e-39
-0.147681132 0.002861283254 0.004439607728 8.170410826e-39
-0.3729065955 0.02884042822 -0.002447391627 8.170410826e-39
0.01975876652 0.003751386888 -0.0004691779322 8.170410826e-39
-0.07108616829 -0.04708140716 -0.189415291 8.170410826e-39
-0.1964093447 -0.001078694593 0.01229851507 8.170410826e-39
-0.3442039192 0.02224028297 0.0002787262201 8.170410826e-39
-0.008493159898 -0.01633614302 -0.01243618131 8.170410826e-39
-0.01125827525 -0.05868348479 -0.1481481493 8.170410826e-39
-0.09674319625 -0.000724650803 0.0009828206385 8.170410826e-39
-0.4050704837 0.03955975547 -0.005242836196 8.170410826e-39
0.07572326809 0.0001211166382 -0.0006797312526 8.170410826e-39
-0.09787319601 -0.04666594788 -0.2185973525 8.170410826e-39
-0.07483007759 0.004073057324 -0.007109224331 8.170410826e-39
-0.4097555876 0.04798135906 -0.004980493337 8.170410826e-39
0.07724907994 0.01567085646 0.01598327793 8.170410826e-39
-0.1332913786 -0.03974656761 -0.2261347026 8.170410826e-39
-0.1400222182 0.002980513964 0.001146077644 8.170410826e-39
-0.3735742569 0.03414800391 -0.0005169212236 8.170410826e-39
0.02167743631 0.006352358032 0.003695501015 8.170410826e-39
-0.07275687158 -0.04532221705 -0.1955542117 8.170410826e-39
-0.1874909699 -0.003754292615 0.0160334222 8.170410826e-39
-0.3293475211 0.02996380441 -0.001871777349 8.170410826e-39
-0.002680101432 0.007504489738 0.004208838101 8.170410826e-39
-0.04629889131 -0.05282016844 -0.1596759558 8.170410826e-39
0.3166836202 -0.0162049178 0.03271384165 8.906165387e-39
0.08144392818 -0.004788702819 0.02936113626 8.906165387e-39
0.3505402207 -0.01779739745 0.02967901342 8.906165387e-39
0.2592436969 -0.002959738253 0.01585587673 8.906165387e-39
0.2686101496 -0.01082409918 0.03668591753 8.906165387e-39
-0.02638914809 -0.004938612692 0.03461480141 8.906165387e-39
0.43331635 -0.02078185976 0.02576104365 8.906165387e-39
0.1464074999 -0.002889297204 0.02006645873 8.906165387e-39
0.2686101496 -0.01082409918 0.03668591753 8.906165387e-39
-0.02638914809 -0.004938612692 0.03461480141 8.906165387e-39
0.43331635 -0.02078185976 0.02576104365 8.906165387e-39
0.1464074999 -0.002889297204 0.02006645873 8.906165387e-39
0.2956517339 -0.01274036057 0.03178069741 8.906165387e-39
0.008878236637 -0.006404172629 0.02703244053 8.906165387e-39
0.4122354984 -0.02382214181 0.03201154247 8.906165387e-39
0.2054879069 -0.003937199712 0.01402162481 8.906165387e-39
0.2322470546 -0.006729905494 0.03508229554 8.906165387e-39
-0.08977273107 -0.005682247225 0.03121666051 8.906165387e-39
0.4586216807 -0.03189374879 0.01778636314 8.906165387e-39
0.04863284901 -0.003809569636 0.01702942699 8.906165387e-39
0.2184845805 0.003801663639 0.03293439746 8.906165387e-39
-0.1011453718 -0.005311385263 0.02865187265 8.906165387e-39
0.4561487436 -0.02019325085 0.01839171723 8.906165387e-39
0.02150177397 -0.002241556533 0.02985047176 8.906165387e-39
0.2653130591 -0.007553080097 0.03590491042 8.906165387e-39
-0.03005499206 -0.004619043786 0.03603000194 8.906165387e-39
0.4341332912 -0.01808973774 0.02551381104 8.906165387e-39
0.141086787 -0.002534802305 0.02257374115 8.906165387e-39
0.2776350677 -0.01235100068 0.02751526609 8.906165387e-39
-0.02922298759 -0.008997059427 0.02488433011 8.906165387e-39
0.4106914997 -0.02047756687 0.02872275002 8.906165387e-39
0.1758741736 -0.003368064994 0.01840960048 8.906165387e-39
-0.04679280519 -0.06042966619 -0.2024423629 9.641561216e-39
-0.02041086927 -0.0862763077 -0.03098294511 9.641561216e-39
0.1296772361 -0.07910906523 -0.03161101043 9.641561216e-39
-0.01232543774 -0.05761670321 -0.1555746794 9.641561216e-39
-0.06721967459 -0.05075105652 -0.2774320245 9.641561216e-39
0.02425431833 -0.08217284828 0.02612121589 9.641561216e-39
0.2997532785 -0.06138572469 -0.03601216525 9.641561216e-39
0.003037450835 -0.06097961962 -0.1151835769 9.641561216e-39
-0.06721967459 -0.05075105652 -0.2774320245 9.641561216e-39
0.02425431833 -0.08217284828 0.02612121589 9.641561216e-39
0.2997532785 -0.06138572469 -0.03601216525 9.641561216e-39
0.003037450835 -0.06097961962 -0.1151835769 9.641561216e-39
-0.05991962925 -0.05833137035 -0.2505349815 9.641561216e-39
0.002364295768 -0.09110546112 -0.007500701584 9.641561216e-39
0.2610446811 -0.07084991783 -0.03422099352 9.641561216e-39
0.009257923812 -0.05986240506 -0.140419066 9.641561216e-39
-0.08259759098 -0.04793647677 -0.2953355312 9.641561216e-39
0.04956041276 -0.07243366539 0.06477817893 9.641561216e-39
0.3399241269 -0.06117755547 -0.03710301965 9.641561216e-39
0.01979844831 -0.05813587829 -0.08138103038 9.641561216e-39
-0.08255641907 -0.03638140112 -0.293017447 9.641561216e-39
0.07792547345 -0.06880832464 0.04823298007 9.641561216e-39
0.3205429614 -0.05024385452 -0.04401228949 9.641561216e-39
0.04728184268 -0.04537541047 -0.1034948602 9.641561216e-39
-0.06043210998 -0.04631679133 -0.2693250179 9.641561216e-39
0.05041110516 -0.07013287395 0.007297207601 9.641561216e-39
0.3009419441 -0.05727255344 -0.0376845859 9.641561216e-39
0.007105960976 -0.05590248108 -0.1159998178 9.641561216e-39
-0.08006953448 -0.06130704284 -0.1763365716 9.641561216e-39
0.04425411671 -0.06634775549 -0.03987780213 9.641561216e-39
0.271417588 -0.0659231618 -0.03558178991 9.641561216e-39
-0.0002326890826 -0.06154032424 -0.1079594791 9.641561216e-39
-0.007830131799 -0.03926133737 0.1175442412 1.037659831e-38
-0.4000534415 0.007092925254 -0.06516285986 1.037659831e-38
-0.1097489521 -0.07636795938 -0.0356332697 1.037659831e-38
0.001688717166 -0.06189079583 -0.04605696723 1.037659831e-38
0.08932867646 -0.04719460383 0.02743330598 1.037659831e-38
-0.4397375584 0.01257822476 -0.0005422233953 1.037659831e-38
-0.2283929735 -0.06900624186 -0.01785371639 1.037659831e-38
-0.1322019845 -0.06427115947 -0.04584190622 1.037659831e-38
0.08932867646 -0.04719460383 0.02743330598 1.037659831e-38
-0.4397375584 0.01257822476 -0.0005422233953 1.037659831e-38
-0.2283929735 -0.06900624186 -0.01785371639 1.037659831e-38
-0.1322019845 -0.06427115947 -0.04584190622 1.037659831e-38
0.04569292441 -0.05421108752 0.0586414896 1.037659831e-38
-0.4287504554 0.008412838914 -0.03919672593 1.037659831e-38
-0.197523877 -0.07667022198 -0.03124492243 1.037659831e-38
-0.06920910627 -0.06659018993 -0.04523305967 1.037659831e-38
0.1393349618 -0.04269663617 0.008065078408 1.037659831e-38
-0.4497708976 0.01825000905 0.04637593031 1.037659831e-38
-0.2463747561 -0.07441128045 0.004274267703 1.037659831e-38
-0.1902594864 -0.07538361102 -0.03059495986 1.037659831e-38
0.1551275402 -0.03979546577 -0.006120515987 1.037659831e-38
-0.4393003881 0.02334841527 0.06182621792 1.037659831e-38
-0.2419720292 -0.06894596666 0.001830545953 1.037659831e-38
-0.2092989385 -0.06427485496 -0.04607345909 1.037659831e-38
0.09127913415 -0.04350331426 0.01539525948 1.037659831e-38
-0.4410406351 0.0189932771 0.005132764112 1.037659831e-38
-0.2256366014 -0.06798993051 -0.01751671359 1.037659831e-38
-0.1336444318 -0.06184750795 -0.04688172042 1.037659831e-38
0.03409352899 -0.03892001882 0.03224533051 1.037659831e-38
-0.4130510986 0.04040493816 -0.0198016651 1.037659831e-38
-0.2037836015 -0.06757495552 -0.02619960159 1.037659831e-38
-0.1052885279 -0.06749016792 -0.0392895788 1.037659831e-38
0.1509090513 0.01150540914 -0.006248653401 1.111163541e-38
0.01108484715 0.008609035052 0.01041543856 1.111163541e-38
0.3231381178 0.004067669623 0.008005388081 1.111163541e-38
0.1558190137 -0.002603849862 -0.001308373408 1.111163541e-38
0.2328815907 -0.001706865616 -0.01398461033 1.111163541e-38
-0.09188348055 0.003300915007 -0.002478505019 1.111163541e-38
0.3817642033 0.002354970668 0.006347742397 1.111163541e-38
0.07301406562 0.007333600428 0.003666674951 1.111163541e-38
0.2328815907 -0.001706865616 -0.01398461033 1.111163541e-38
-0.09188348055 0.003300915007 -0.002478505019 1.111163541e-38
0.3817642033 0.002354970668 0.006347742397 1.111163541e-38
0.07301406562 0.007333600428 0.003666674951 1.111163541e-38
0.2012140602 -0.001406992204 -0.009816241451 1.111163541e-38
-0.05023378134 0.0008337516338 -0.001254736679 1.111163541e-38
0.366450429 0.001210689195 0.007613489404 1.111163541e-38
0.1237694174 -0.0007604249404 -0.002005075105 1.111163541e-38
0.2759492397 -0.01050656196 -0.02150934748 1.111163541e-38
-0.1596583426 0.0005805731635 -0.01386416517 1.111163541e-38
0.4101148248 -0.005831017625 -0.001077778172 1.111163541e-38
0.01888117753 0.005810362287 0.01396811008 1.111163541e-38
0.2820053101 -0.001289193984 -0.02862501331 1.111163541e-38
-0.1721149683 0.00704207411 0.0001310184598 1.111163541e-38
0.4094660878 -0.0001858125324 0.000579908432 1.111163541e-38
-0.01532885339 0.009127916768 0.02818919905 1.111163541e-38
