# .PCD v0.7 - Point Cloud Data file format
VERSION 0.7
FIELDS x y z rgb
SIZE 4 4 4 4
TYPE F F F F
COUNT 1 1 1 1
WIDTH 807
HEIGHT 1
VIEWPOINT 0 0 0 1 0 0 0
POINTS 807
DATA ascii
-0.05412271991 -0.06378227472 0.1111040115 2.277910146e-39
-0.1519595832 -0.09312366694 0.01584887877 2.277910146e-39
-0.08326122165 -0.06420794129 0.1656274647 2.277910146e-39
-0.2873050869 -0.0307744462 -0.0151887089 2.277910146e-39
-0.127457276 -0.05663285032 0.03318041563 2.277910146e-39
-0.2187520713 -0.07965987921 0.01319380011 2.277910146e-39
-0.01413333137 -0.06592474878 0.138551414 2.277910146e-39
-0.3255454004 -0.01876842044 -0.01740079373 2.277910146e-39
-0.1248985752 -0.07833644748 0.03538610414 2.277910146e-39
-0.2218820304 -0.06820585579 0.02236812189 2.277910146e-39
-0.03109797649 -0.06069559976 0.09217560291 2.277910146e-39
-0.2641766965 -0.05610337481 -0.007004507817 2.277910146e-39
-0.1549365073 -0.06874967366 0.03220289946 2.277910146e-39
-0.1901534349 -0.08594891429 0.01002703141 2.277910146e-39
-0.08758942038 -0.06321649253 0.05721236765 2.277910146e-39
-0.2408167273 -0.06093720347 -0.02042357624 2.277910146e-39
-0.1258345693 -0.07495733351 0.03907996789 2.277910146e-39
-0.1611258239 -0.0828012079 0.01137145236 2.277910146e-39
-0.06881841272 -0.06328388304 0.04963948205 2.277910146e-39
-0.3184720576 -0.05403839797 -0.01851459779 2.277910146e-39
-0.1733082086 -0.08451158553 0.03337106481 2.277910146e-39
-0.2328913957 -0.07432933152 0.01161061227 2.277910146e-39
-0.005365513731 -0.07078561932 0.05489971489 2.277910146e-39
-0.3675925434 -0.03948092833 -0.01441572793 2.277910146e-39
-0.1888578832 -0.07017296553 0.0222461801 2.277910146e-39
-0.2600358427 -0.06246376038 0.005533239339 2.277910146e-39
-0.08595660329 -0.06569394469 0.03848880529 2.277910146e-39
-0.3433005512 -0.0712640062 -0.008889972232 2.277910146e-39
-0.1078318059 -0.06687062979 0.03959024698 2.277910146e-39
-0.04352918267 -0.07323306799 0.09263209254 3.015101038e-39
0.169399783 -0.1014174819 0.01287752762 3.015101038e-39
-0.2089352608 -0.08845867962 -0.02106034756 3.015101038e-39
-0.01048968267 -0.08192056417 -0.04970709234 3.015101038e-39
-0.0581731759 -0.07291169465 0.09037316591 3.015101038e-39
0.2248020321 -0.09135762602 -0.002025258727 3.015101038e-39
-0.2463903427 -0.07928919047 -0.001871807151 3.015101038e-39
-0.0347241126 -0.05682796612 -0.1548112184 3.015101038e-39
-0.1593307853 -0.09696926177 -0.0006815491943 3.015101038e-39
0.1103975028 -0.08527528495 -0.01878655888 3.015101038e-39
-0.2653722465 -0.07926250994 -0.004774251021 3.015101038e-39
-0.04202722386 -0.07504932582 -0.09940426052 3.015101038e-39
-0.1719496995 -0.08453226089 0.03460852802 3.015101038e-39
0.115193814 -0.08871414512 -0.01726011932 3.015101038e-39
-0.3093327582 -0.05992458761 0.00841958262 3.015101038e-39
-0.04562928155 -0.09172062576 0.02227046899 3.015101038e-39
-0.1617093086 -0.09496460855 0.01917373016 3.015101038e-39
0.1267211139 -0.09466826916 -0.003602086799 3.015101038e-39
-0.2885993719 -0.07820516825 0.007871673442 3.015101038e-39
-0.02491245419 -0.09670241177 0.02930521592 3.015101038e-39
-0.1434778422 -0.08713883907 0.0365312919 3.015101038e-39
0.1772175729 -0.1005045697 0.001371457358 3.015101038e-39
-0.3342191577 -0.07264940441 -0.006462484132 3.015101038e-39
-0.0835898146 -0.0942754969 -0.005413956009 3.015101038e-39
-0.1959318072 -0.08576220274 0.03122433461 3.015101038e-39
0.1008018553 -0.08773948997 -0.02013049275 3.015101038e-39
-0.3608573079 -0.05205731466 -0.001504747896 3.015101038e-39
-0.08371023089 -0.08139589429 0.02297223732 3.015101038e-39
-0.2212890387 -0.06940927356 0.04108998924 3.015101038e-39
0.1466540545 -0.07374751568 -0.0232155174 3.015101038e-39
-0.3182815909 -0.0690837428 0.01626221463 3.015101038e-39
0.02499489486 -0.07702806592 0.0491095148 3.015101038e-39
-0.07905523479 -0.04627532139 0.2337427586 3.75229193e-39
-0.08356472105 -0.078535676 0.1156710833 3.75229193e-39
-0.06495017558 -0.05407080427 0.2893268764 3.75229193e-39
-0.03369810432 -0.0812529996 0.02226285823 3.75229193e-39
-0.0509942174 -0.05370622128 0.1695613861 3.75229193e-39
-0.08732014894 -0.07469078898 0.1450293064 3.75229193e-39
-0.0493514128 -0.06000412256 0.2043531388 3.75229193e-39
-0.01185594033 -0.07755520195 -0.09532576054 3.75229193e-39
0.01602888666 -0.05069419742 0.1873852611 3.75229193e-39
-0.009999806061 -0.07104824483 0.05679641291 3.75229193e-39
-0.03774098307 -0.06412789226 0.170425877 3.75229193e-39
-0.02632739581 -0.07995646447 -0.09503977001 3.75229193e-39
0.03868886083 -0.07571423054 0.1107586473 3.75229193e-39
0.01225283556 -0.08918649703 0.02453597635 3.75229193e-39
-0.02841753326 -0.07830087095 0.05791259557 3.75229193e-39
0.108116217 -0.07987498492 -0.00671314029 3.75229193e-39
0.01377119217 -0.05417015776 0.07653344423 3.75229193e-39
-0.06522092223 -0.09415791184 0.03930640593 3.75229193e-39
-0.04613244534 -0.07663173974 0.0397063233 3.75229193e-39
0.08201273531 -0.07702697068 -0.02454522438 3.75229193e-39
0.03721832111 -0.0511742942 0.06391970068 3.75229193e-39
-0.1145467237 -0.09319656342 0.02527902275 3.75229193e-39
-0.09016334265 -0.08956904709 0.03285037726 3.75229193e-39
0.1281201243 -0.06586715579 -0.02655422688 3.75229193e-39
0.01226216182 -0.0535341911 0.08326497674 3.75229193e-39
-0.02946536988 -0.09038841724 -0.01688421145 3.75229193e-39
-0.1068541408 -0.05282615125 0.07015509903 3.75229193e-39
0.1520294249 -0.0620701164 -0.007618518081 3.75229193e-39
0.006968117319 -0.04074330255 0.04089997709 3.75229193e-39
-0.01142332889 -0.06952337921 -0.01299711876 3.75229193e-39
-0.07119224966 -0.03730964661 0.02596408501 3.75229193e-39
0.08512414247 -0.08288908005 -0.02127053775 3.75229193e-39
-0.1557521075 -0.05906188115 -0.05338109285 4.48912409e-39
0.004139131401 -0.1176252887 -0.04082639143 4.48912409e-39
-0.2570079863 0.02664542384 0.003533184761 4.48912409e-39
0.2734417915 -0.06236400455 -0.04002470151 4.48912409e-39
-0.1217211336 -0.07238128036 -0.0401115045 4.48912409e-39
-0.07030753046 -0.07051292807 -0.03078624792 4.48912409e-39
-0.3435101211 0.05673198402 -0.004987835418 4.48912409e-39
0.08467385918 -0.06277427077 -0.04474050179 4.48912409e-39
-0.2124934047 -0.05973399431 -0.0332396999 4.48912409e-39
-0.002670631977 -0.1196779311 -0.07046993077 4.48912409e-39
-0.3441214263 0.04564687982 -0.0005058273091 4.48912409e-39
0.1227035224 -0.06587283313 -0.04602842405 4.48912409e-39
-0.2103636116 -0.05515232682 -0.04386091232 4.48912409e-39
-0.02816529945 -0.1004896536 -0.05612163991 4.48912409e-39
-0.2416603565 0.005644812714 0.001644501812 4.48912409e-39
0.1535027027 -0.05117890239 -0.04087067023 4.48912409e-39
-0.1862250715 -0.04491207376 -0.05177705362 4.48912409e-39
-0.06698170304 -0.07402931154 -0.03933423758 4.48912409e-39
-0.236813426 -0.01139799319 0.004873810802 4.48912409e-39
0.1872548461 -0.05892051756 -0.0425128378 4.48912409e-39
-0.1587893218 -0.056831792 -0.04663383216 4.48912409e-39
-0.0675990358 -0.07434422523 -0.04358312488 4.48912409e-39
-0.328509599 -0.01905328408 0.004339392297 4.48912409e-39
0.08798449486 -0.06744431704 -0.04937462136 4.48912409e-39
-0.22413221 -0.0558094047 -0.0530626066 4.48912409e-39
-0.03577838093 -0.09416222572 -0.04602076113 4.48912409e-39
-0.3560352325 0.01313285995 -0.003437330481 4.48912409e-39
0.1506299675 -0.05310062319 -0.03834946826 4.48912409e-39
-0.2594083548 -0.0451284647 -0.03877677768 4.48912409e-39
-0.07058182359 -0.0710387826 -0.03329417482 4.48912409e-39
-0.2343048453 -0.01076665614 0.02203017846 4.48912409e-39
0.2633055747 -0.05608872324 -0.04166107252 4.48912409e-39
-0.1174619719 -0.05808842182 -0.2782280743 5.225597518e-39
0.1262588352 -0.08153495938 -0.04383036867 5.225597518e-39
-0.06273274869 -0.0675765872 -0.1440476775 5.225597518e-39
0.2032177746 -0.08626513183 -0.02633647993 5.225597518e-39
-0.1355273426 -0.06201537699 -0.3069189191 5.225597518e-39
0.01304808725 -0.07552429289 -0.07073485106 5.225597518e-39
0.004748003092 -0.05773343518 -0.08721935749 5.225597518e-39
0.3836450875 -0.08537590504 0.004319342785 5.225597518e-39
-0.009398690425 -0.06919904053 -0.2177565545 5.225597518e-39
0.173607111 -0.1021824554 -0.009493229911 5.225597518e-39
0.03273023292 -0.0517311655 -0.06349796057 5.225597518e-39
0.355204165 -0.1026312709 0.01609308645 5.225597518e-39
0.01226453856 -0.0711716488 -0.1146538034 5.225597518e-39
0.1768928021 -0.09837450832 -0.009473368526 5.225597518e-39
0.005887596868 -0.06964681298 -0.05179547891 5.225597518e-39
0.3651031554 -0.0801012665 0.00505802175 5.225597518e-39
-0.06980042905 -0.05521312356 -0.082907781 5.225597518e-39
0.1403035522 -0.1004359946 -0.01639611088 5.225597518e-39
0.03549235687 -0.07336842269 -0.03743856028 5.225597518e-39
0.3250594139 -0.09019944817 -0.01800187677 5.225597518e-39
-0.1153856814 -0.05955691636 -0.08272113651 5.225597518e-39
0.1394795477 -0.1053184718 -0.02626564354 5.225597518e-39
0.08387777209 -0.07785692066 -0.02759722807 5.225597518e-39
0.3675262332 -0.09455943853 0.002844728297 5.225597518e-39
-0.01498763543 -0.05250005797 -0.08381344378 5.225597518e-39
0.2231791019 -0.09685312957 -0.03416175395 5.225597518e-39
0.05160364881 -0.06133788824 -0.03082706407 5.225597518e-39
0.3905523419 -0.07573321462 0.003254879033 5.225597518e-39
-0.08054006845 -0.02918612398 -0.04042334855 5.225597518e-39
0.2099367827 -0.08515375108 -0.02422170341 5.225597518e-39
-0.01921713725 -0.08079942316 -0.05556590855 5.225597518e-39
0.3181390464 -0.07586251944 -0.01976821013 5.225597518e-39
0.2948714793 -0.04048987851 -0.03737195581 5.962428276e-39
0.1722938865 -0.06077164039 -0.04837275296 5.962428276e-39
0.2245669067 -0.01930708438 0.01883461326 5.962428276e-39
-0.007800584659 -0.08633328229 0.01873175055 5.962428276e-39
0.2683217525 -0.05147143081 -0.03756677359 5.962428276e-39
0.07977110893 -0.06324860454 -0.04964534938 5.962428276e-39
0.3585616052 -0.03258240595 0.02395562641 5.962428276e-39
0.2269605249 -0.06934981048 0.03348512948 5.962428276e-39
0.3734876812 -0.08744008094 -0.02801664174 5.962428276e-39
0.2586010993 -0.02342256904 -0.03573309258 5.962428276e-39
0.3688207567 -0.0389467217 0.02910687961 5.962428276e-39
0.1798842698 -0.07881428301 0.03991797939 5.962428276e-39
0.3722204864 -0.07996957749 -0.02718153037 5.962428276e-39
0.2394184023 -0.03630494699 -0.03564788029 5.962428276e-39
0.2633360028 -0.02517160214 0.01851772331 5.962428276e-39
0.152526468 -0.07400394231 0.03876787424 5.962428276e-39
0.325940758 -0.07510704547 -0.0257460922 5.962428276e-39
0.1555193812 -0.03409690037 -0.03350716084 5.962428276e-39
0.2325938642 -0.03473484889 0.01626711711 5.962428276e-39
0.1009053588 -0.08741708845 0.03878653795 5.962428276e-39
0.2727784812 -0.05045673251 -0.03412486985 5.962428276e-39
0.1314358413 -0.03165175393 -0.03542717174 5.962428276e-39
0.3267432451 -0.04920263588 0.02295004576 5.962428276e-39
0.1535737216 -0.09186395258 0.04819176719 5.962428276e-39
0.3806037903 -0.07057693601 -0.02456804737 5.962428276e-39
0.2323662192 -0.03137074411 -0.03325241432 5.962428276e-39
0.3470190763 -0.02347416431 0.01742007211 5.962428276e-39
0.1994384378 -0.05539213121 0.03878716379 5.962428276e-39
0.3900975883 -0.0566498898 -0.03061465919 5.962428276e-39
0.2145802379 -0.02938444354 -0.03116194531 5.962428276e-39
0.22436212 -0.02551508322 0.006694585551 5.962428276e-39
0.04929337278 -0.07264876366 0.02861960791 5.962428276e-39
0.247932896 -0.08746563643 -0.01553167682 6.698542971e-39
0.03309568018 -0.09047804028 0.03948403522 6.698542971e-39
0.1125908121 -0.07656239718 0.004889210686 6.698542971e-39
-0.06500218064 -0.09855652601 0.005455037579 6.698542971e-39
0.2866115868 -0.08182360232 -0.00104290212 6.698542971e-39
0.06325079501 -0.09114063531 0.03667888418 6.698542971e-39
0.226079762 -0.08823186159 0.02528082393 6.698542971e-39
-0.1955723912 -0.08196831495 0.01565732248 6.698542971e-39
0.3519580066 -0.1095460951 -0.009712569416 6.698542971e-39
-0.003508806694 -0.08880905807 -0.007072241511 6.698542971e-39
0.2387227118 -0.08008432388 0.034231022 6.698542971e-39
-0.182642743 -0.08961902559 -0.01819744892 6.698542971e-39
0.3518585265 -0.09244289994 -0.001098304521 6.698542971e-39
0.0219524838 -0.09528215975 -0.006579676643 6.698542971e-39
0.188227728 -0.07048758864 -0.001303031342 6.698542971e-39
-0.103140004 -0.09149971604 -0.01001641899 6.698542971e-39
0.3206295073 -0.08555617929 -0.005476062186 6.698542971e-39
0.06344215572 -0.08250918984 0.0210723076 6.698542971e-39
0.1773652881 -0.08012603223 -0.009844015352 6.698542971e-39
-0.06347096711 -0.1092736647 -0.01565690525 6.698542971e-39
0.2951612473 -0.07003308088 -0.003768321825 6.698542971e-39
0.06287267804 -0.08110655844 0.008205512539 6.698542971e-39
0.253420949 -0.0516269654 0.03931210563 6.698542971e-39
-0.1821012348 -0.1014966518 -0.01554520335 6.698542971e-39
0.3467338383 -0.06734716147 0.002179753268 6.698542971e-39
-0.02082520537 -0.08239546418 -0.01476171706 6.698542971e-39
0.2246165574 -0.01357165072 0.01566754282 6.698542971e-39
-0.1987721175 -0.07390637696 -0.02646806836 6.698542971e-39
0.3510892689 -0.0446639359 0.005878008436 6.698542971e-39
0.05121235177 -0.07927246392 -0.0341366753 6.698542971e-39
0.1391719282 -0.05420893803 -0.03968236968 6.698542971e-39
0.04293055832 -0.088753663 -0.03230674937 6.698542971e-39
0.2752003968 -0.07318199426 0.03616752848 7.434656265e-39
-0.07037886977 -0.006124191917 -0.0125174839 7.434656265e-39
0.08142036945 -0.08659671992 0.02186822146 7.434656265e-39
0.1305536628 -0.07654090226 -0.02884170413 7.434656265e-39
0.2677989006 -0.08668276668 -0.01979873888 7.434656265e-39
-0.005997459404 -0.0273691006 -0.03822025284 7.434656265e-39
0.2168406844 -0.08538001776 -0.02363391407 7.434656265e-39
0.02214003354 -0.07045791298 -0.03093984164 7.434656265e-39
0.3417535126 -0.09393448383 -0.01493943296 7.434656265e-39
-0.1529562026 0.00122403109 -0.007501759566 7.434656265e-39
0.2340284437 -0.08146469295 -0.01618945785 7.434656265e-39
0.03680304065 -0.08876144141 -0.02596672066 7.434656265e-39
0.3483684957 -0.07446949929 -0.0313251242 7.434656265e-39
-0.1456629187 -0.009569369256 -0.01417547837 7.434656265e-39
0.1242624298 -0.07793504745 0.01645989344 7.434656265e-39
0.07574098557 -0.06889098883 -0.02600441128 7.434656265e-39
0.2075835615 -0.04404674098 -0.01984754391 7.434656265e-39
-0.1180689037 -0.02506367303 -0.02665485069 7.434656265e-39
0.1091038138 -0.08788221329 0.03362996131 7.434656265e-39
0.09096861631 -0.08743031323 -0.01616490632 7.434656265e-39
0.1676579416 -0.03720377013 -0.02129688673 7.434656265e-39
-0.0812035054 -0.02546157129 -0.0334251672 7.434656265e-39
0.1872774661 -0.0914895311 0.01862061769 7.434656265e-39
0.02663997374 -0.08394815028 -0.02106601559 7.434656265e-39
0.3448217213 -0.05837127566 -0.02174604498 7.434656265e-39
-0.1924242526 -0.01522049587 -0.01883441955 7.434656265e-39
0.1704695821 -0.046037063 0.04524888098 7.434656265e-39
0.04588810727 -0.06262948364 -0.0271368511 7.434656265e-39
0.2473547161 -0.02196679451 -0.03090764023 7.434656265e-39
-0.1609833837 -0.01603959128 -0.02480651997 7.434656265e-39
0.03820730373 -0.06969382614 0.05376595631 7.434656265e-39
0.1742810309 -0.05964401364 0.040566165 7.434656265e-39
-0.04053801671 -0.06306745112 -0.1244966015 8.170410826e-39
-0.03248256817 -0.006467468105 -0.005389105529 8.170410826e-39
0.01446757093 -0.06365878135 -0.09327415377 8.170410826e-39
-0.121383667 -0.007483107969 0.01381547749 8.170410826e-39
-0.02402326651 -0.07016128302 -0.05126790702 8.170410826e-39
0.02894261479 -0.006428630091 0.0009531673859 8.170410826e-39
0.1351545155 -0.04041497409 -0.03561850637 8.170410826e-39
-0.2453520596 -0.01143033151 0.02574120089 8.170410826e-39
0.02237677202 -0.05728865042 -0.05963936448 8.170410826e-39
-0.03360559791 -0.0136707956 0.02508981712 8.170410826e-39
0.1404817998 -0.04985845461 -0.03440825641 8.170410826e-39
-0.1912323385 -0.01269175112 0.03084507771 8.170410826e-39
0.07315262407 -0.05242008716 -0.05006485432 8.170410826e-39
-0.0235628169 -0.01792460494 0.01754306629 8.170410826e-39
0.1233281493 -0.04657909274 -0.03899526224 8.170410826e-39
-0.1322684884 -0.007458518725 0.03026207909 8.170410826e-39
0.01337402314 -0.05005062371 -0.02755337767 8.170410826e-39
0.005031985696 -0.004788749386 0.001793874311 8.170410826e-39
0.1164842248 -0.04096317291 -0.04070840403 8.170410826e-39
-0.1181890965 -0.002898718463 0.0234538354 8.170410826e-39
-0.0005168057396 -0.03340001404 -0.02415927127 8.170410826e-39
-0.002292446559 0.0004362798936 -0.01395472419 8.170410826e-39
0.1694111377 -0.0583447665 -0.02832016535 8.170410826e-39
-0.1493306458 -0.0185754206 0.03152763844 8.170410826e-39
0.08725324273 -0.03690224886 -0.04625441134 8.170410826e-39
-0.05068150163 -0.01101665664 0.002036822028 8.170410826e-39
0.1820738167 -0.03554951772 -0.0362640731 8.170410826e-39
-0.1946298182 -0.01378966589 0.03154564276 8.170410826e-39
0.06221240386 -0.02342646383 -0.04794635624 8.170410826e-39
-0.02668146789 -0.02046858706 0.002242993563 8.170410826e-39
0.1509224027 -0.02923535183 -0.03619343787 8.170410826e-39
-0.08451381326 -0.009177687578 0.02132811211 8.170410826e-39
0.008489550091 -0.0648618862 -0.08425799012 8.906165387e-39
-0.1654230207 -0.05360844731 -0.06447328627 8.906165387e-39
-0.0939976126 -0.07120171934 -0.02153835632 8.906165387e-39
-0.2105832994 -0.0606549643 -0.02824758179 8.906165387e-39
0.001719357562 -0.08596813679 -0.07060323656 8.906165387e-39
-0.1157905087 -0.03527585045 -0.107866317 8.906165387e-39
-0.2302620709 -0.07410848141 -0.01125090569 8.906165387e-39
-0.3622172773 -0.04821353406 0.00596056506 8.906165387e-39
-0.03322070092 -0.08917279541 -0.03235701472 8.906165387e-39
-0.1920836866 -0.04206610471 -0.05288165808 8.906165387e-39
-0.2279677093 -0.07939514518 -0.004529325757 8.906165387e-39
-0.3690454662 -0.06305217743 0.01313540433 8.906165387e-39
-0.05294924974 -0.0851835236 -0.03931097314 8.906165387e-39
-0.1936048716 -0.03846841678 -0.06210909039 8.906165387e-39
-0.1589422524 -0.05417599902 -0.0228988342 8.906165387e-39
-0.3075974882 -0.03497114033 -0.04136754572 8.906165387e-39
-0.05294924974 -0.0851835236 -0.03931097314 8.906165387e-39
-0.1570218652 -0.05149779469 -0.04983606189 8.906165387e-39
-0.117128633 -0.05384792015 0.01725612581 8.906165387e-39
-0.3015663326 -0.06029197574 -0.02342807129 8.906165387e-39
-0.04082099721 -0.07596646249 -0.03169326112 8.906165387e-39
-0.1551494747 -0.06304020435 -0.04744019359 8.906165387e-39
-0.1833713502 -0.08715697378 0.04154584929 8.906165387e-39
-0.3664569259 -0.07404771447 -0.007020696998 8.906165387e-39
-0.07278680056 -0.0838906765 -0.02017845958 8.906165387e-39
-0.2471030354 -0.03619964421 -0.06949120015 8.906165387e-39
-0.2254922539 -0.05242455751 -0.009526484646 8.906165387e-39
-0.3487932384 -0.05378947034 -0.0260379687 8.906165387e-39
-0.09038574249 -0.08361838758 -0.01802616939 8.906165387e-39
-0.230736509 -0.02496934496 -0.05823145062 8.906165387e-39
-0.08667068928 -0.09250219911 0.01788860373 8.906165387e-39
-0.2010452598 -0.04363049939 -0.03168173507 8.906165387e-39
-0.09321189672 -0.009081831202 0.01796150766 9.641561216e-39
-0.02686727047 -0.05317130312 0.2178244144 9.641561216e-39
0.05665462092 0.002665491076 0.001158937346 9.641561216e-39
0.2366204858 -0.01765085012 0.005097166169 9.641561216e-39
-0.1154787242 -0.01285317354 -0.001406653784 9.641561216e-39
-0.04883603379 -0.06236990169 0.2544487119 9.641561216e-39
0.141638115 -0.0172034055 -0.02911925875 9.641561216e-39
0.3688430488 -0.01110972743 -0.006932401098 9.641561216e-39
0.01212380268 0.008906385861 -0.02585219406 9.641561216e-39
0.0440281257 -0.06225818396 0.1317410916 9.641561216e-39
0.1604423523 -0.01042282488 -0.01255137846 9.641561216e-39
0.3551226258 -0.01664699614 -0.01472649816 9.641561216e-39
0.03612200543 0.0009758516098 -0.02474988624 9.641561216e-39
0.005969379097 -0.06275191903 0.09735974669 9.641561216e-39
0.0847068578 -0.0188779626 -0.02064864337 9.641561216e-39
0.3197290599 -0.02761854231 -0.007545297965 9.641561216e-39
-0.0304826647 -0.01650678366 -0.005319977179 9.641561216e-39
-0.0810977146 -0.05967103317 0.06175614521 9.641561216e-39
0.05198857561 -0.01116865594 -0.0105866259 9.641561216e-39
0.2723866999 -0.03356891498 -0.002445216058 9.641561216e-39
-0.05410697311 -0.02383611538 0.01192161627 9.641561216e-39
-0.09323761612 -0.08901999891 0.06102827936 9.641561216e-39
0.1476804465 -0.01984106377 -0.01949647255 9.641561216e-39
0.3409706354 -0.04467150941 -0.00782591477 9.641561216e-39
0.01975408196 0.006386309396 0.009525458328 9.641561216e-39
0.01238004211 -0.06581182033 0.07123824954 9.641561216e-39
0.1450456828 0.002622059546 0.003440262284 9.641561216e-39
0.3429963589 -0.02268899977 -0.007078737952 9.641561216e-39
-0.007328617387 0.006150285713 -0.01094075572 9.641561216e-39
-0.03381833807 -0.04416242242 0.03759443015 9.641561216e-39
0.006031596567 -0.01086447109 -0.00424078526 9.641561216e-39
0.2474830747 -0.003616695758 0.02017919905 9.641561216e-39
-0.2080614567 -0.0002542883158 -0.02461959235 1.037659831e-38
0.07095234096 -0.005249526352 0.03446264565 1.037659831e-38
-0.1098545417 -0.02725648694 -0.03450826555 1.037659831e-38
0.1696567982 -0.05966390297 0.04542852566 1.037659831e-38
-0.1416109651 -0.02712384425 0.03693617135 1.037659831e-38
-0.01872305945 -0.009628847241 0.03049132787 1.037659831e-38
0.01290834416 -0.02157861181 -0.03075913899 1.037659831e-38
0.3761921525 -0.03185149655 0.03337896243 1.037659831e-38
-0.2748751938 0.03560953215 -0.01640029252 1.037659831e-38
0.1361988485 -0.007413713261 0.03382811695 1.037659831e-38
0.01038440503 -0.01972190104 -0.03238521144 1.037659831e-38
0.3519667387 -0.03679047897 0.03572027385 1.037659831e-38
-0.2279300541 0.004090375733 -0.009717598557 1.037659831e-38
0.1040608436 -0.01872255094 0.03405825049 1.037659831e-38
-0.06773093343 -0.02866993286 -0.03289267793 1.037659831e-38
0.3092286289 -0.03195361421 0.03278177604 1.037659831e-38
-0.248616904 0.00726616988 -0.01788019575 1.037659831e-38
0.02953811362 -0.0004233717627 0.01745681092 1.037659831e-38
-0.07774107903 0.02413951233 -0.03220336884 1.037659831e-38
0.2433594465 -0.05376638472 0.04084128886 1.037659831e-38
-0.186117515 -0.002560788766 -0.004439304117 1.037659831e-38
0.01128048543 -0.005243223626 0.02093923278 1.037659831e-38
-0.00262279762 0.001786766574 -0.02904583327 1.037659831e-38
0.3107801378 -0.05687070638 0.04050855339 1.037659831e-38
-0.2697581649 0.01153452229 -0.01258055028 1.037659831e-38
0.1135126576 -0.01668332703 0.03306826204 1.037659831e-38
-0.05111004785 -0.02890441567 -0.03572214767 1.037659831e-38
0.3667756617 -0.02390665188 0.02802474797 1.037659831e-38
-0.3109548688 0.02409072407 0.005853513256 1.037659831e-38
0.085533306 -0.01101070829 0.02351679653 1.037659831e-38
-0.1419268996 -0.02575115673 -0.03703096882 1.037659831e-38
0.2234366834 -0.01584756374 0.03183701262 1.037659831e-38
-0.04387084395 -0.05715961009 -0.2259392738 1.111163541e-38
-0.0456526801 -0.054075405 -0.1135003865 1.111163541e-38
0.07423507422 -0.08079258353 -0.1022056565 1.111163541e-38
-0.2290393561 -0.04070954397 -0.03501690552 1.111163541e-38
-0.04148236662 -0.06727782637 -0.177226916 1.111163541e-38
-0.05860282853 -0.04760751501 -0.07792367041 1.111163541e-38
0.1530332863 -0.08790303022 0.01532016043 1.111163541e-38
-0.3436918557 -0.006469114684 0.000700846198 1.111163541e-38
-0.03228827193 -0.06338933855 -0.2390107214 1.111163541e-38
-0.1481962055 -0.02142725699 -0.03341864794 1.111163541e-38
0.1805049777 -0.091964975 0.02175306715 1.111163541e-38
-0.3436432183 -0.02975836024 -0.003037979826 1.111163541e-38
-0.0006559788017 -0.05397205427 -0.1474660039 1.111163541e-38
-0.1097560823 -0.01965714246 -0.03117753007 1.111163541e-38
0.1338324845 -0.09403510392 0.003096853616 1.111163541e-38
-0.2891099155 -0.03062876873 -0.01674565673 1.111163541e-38
-0.0002295486629 -0.04841889068 -0.09440465271 1.111163541e-38
-0.08489046991 -0.04585777968 -0.03467836231 1.111163541e-38
0.1369860321 -0.08987063169 -0.01338147186 1.111163541e-38
-0.2487903237 -0.01939968206 -0.02429286018 1.111163541e-38
0.02479523607 -0.04957976192 -0.06125153601 1.111163541e-38
-0.07637323439 -0.07192587107 -0.03986088932 1.111163541e-38
0.1876423657 -0.08478304744 0.01476788428 1.111163541e-38
-0.3029101491 -0.04241928086 -0.02412338369 1.111163541e-38
0.01512011047 -0.0489516668 -0.07565105706 1.111163541e-38
-0.1794815361 -0.00954309199 -0.01025894098 1.111163541e-38
0.191776827 -0.06440587342 0.01298734546 1.111163541e-38
-0.3203900456 -0.01929521188 -0.02356855571 1.111163541e-38
-0.01482638065 -0.0510405004 -0.06436261535 1.111163541e-38
-0.1078158617 -0.02062595077 -0.02193233185 1.111163541e-38
0.1200985834 -0.06892834604 -0.02846753038 1.111163541e-38
-0.1852945089 -0.01218254212 -0.02222822979 1.111163541e-38
-0.2886112928 -0.03001071513 -0.007020330057 1.184631237e-38
0.01514770463 -0.02888802439 0.02940373868 1.184631237e-38
-0.3221886158 0.01869074814 -0.0119348811 1.184631237e-38
-0.01400855929 -0.04473083466 -0.04458104447 1.184631237e-38
-0.1790100485 -0.05488311127 -0.03961255029 1.184631237e-38
-0.08526747674 -0.02849731036 0.04264886677 1.184631237e-38
-0.3823090792 0.03580335528 0.04348257184 1.184631237e-38
-0.2008257061 -0.03265399858 -0.04849707708 1.184631237e-38
-0.2862366736 -0.06067211926 -0.01040800288 1.184631237e-38
-0.2408215851 -0.01433006208 0.04281264544 1.184631237e-38
-0.3741785288 0.01902024448 0.03434940428 1.184631237e-38
-0.139662534 -0.04043941572 -0.05182539299 1.184631237e-38
-0.2891237736 -0.05543170869 -0.00247735763 1.184631237e-38
-0.2162940055 -0.02821789868 0.04777523875 1.184631237e-38
-0.3084442616 -0.02806712873 -0.02278919518 1.184631237e-38
-0.08491804451 -0.04347568378 -0.04928983748 1.184631237e-38
-0.2269005328 -0.02709190547 0.001790126786 1.184631237e-38
-0.124986425 -0.0318479389 0.04304059967 1.184631237e-38
-0.3020740449 -0.04197760671 -0.02249635011 1.184631237e-38
-0.04574094713 -0.04755575955 -0.04716967791 1.184631237e-38
-0.2201421112 -0.0224872753 0.0006030797376 1.184631237e-38
-0.1113829315 -0.01472521666 0.0430861339 1.184631237e-38
-0.3406424224 -0.03200605884 0.004923549946 1.184631237e-38
-0.1464334279 -0.04175748676 -0.05526419356 1.184631237e-38
-0.2952863872 -0.04135112092 0.02775676735 1.184631237e-38
-0.2232689708 -0.02122277208 0.05245508626 1.184631237e-38
-0.3837319613 0.01145965327 -0.01302472409 1.184631237e-38
-0.2003355473 -0.03102787398 -0.04130364582 1.184631237e-38
-0.3073567152 -0.006886403076 0.02694902197 1.184631237e-38
-0.2174414396 -0.03454698622 0.04380663484 1.184631237e-38
-0.2896627486 -0.01333613601 -0.02180089243 1.184631237e-38
0.03799950331 -0.04221813381 -0.04496454448 1.184631237e-38
-0.0615285784 -0.05786864087 0.2064295709 1.258099074e-38
0.1425846219 -0.05292360485 0.03072403185 1.258099074e-38
-0.05074249953 -0.06592870504 0.1719858199 1.258099074e-38
-0.0680404231 -0.06527287513 0.2249532193 1.258099074e-38
-0.03432012349 -0.08055280894 0.1918252409 1.258099074e-38
0.1232233271 -0.01982174441 0.03706454858 1.258099074e-38
-0.06081472337 -0.07191112638 0.0470331423 1.258099074e-38
0.0215630997 -0.04936879873 0.1284458041 1.258099074e-38
0.02402771451 -0.08373361081 0.04826806113 1.258099074e-38
0.1851057261 -0.02094967291 0.02810883522 1.258099074e-38
-0.06425268948 -0.07435191423 0.04665027186 1.258099074e-38
0.002539957175 -0.0650530532 0.1565057188 1.258099074e-38
0.04546071962 -0.0728861317 0.0504598543 1.258099074e-38
0.2129620612 -0.0229309164 0.03387083113 1.258099074e-38
-0.03630226105 -0.07585000992 0.04729624465 1.258099074e-38
-0.1366512179 -0.06858897209 0.06036965549 1.258099074e-38
0.04957940802 -0.06810135394 0.04870868474 1.258099074e-38
0.1988280416 -0.03504652157 0.04482812434 1.258099074e-38
-0.01792381145 -0.06760629267 0.05082532763 1.258099074e-38
-0.1445111185 -0.08833856881 0.03667099774 1.258099074e-38
0.07341967523 -0.06123548001 0.04856871814 1.258099074e-38
0.1899558604 -0.03876727074 0.04465277866 1.258099074e-38
-0.08920003474 -0.06686493754 0.04031464458 1.258099074e-38
-0.1773186326 -0.09438026696 0.04461733624 1.258099074e-38
0.0579007417 -0.05439130217 0.05401202291 1.258099074e-38
0.2557764947 -0.01387708168 0.03812614456 1.258099074e-38
-0.08674447984 -0.06114248931 0.04058243334 1.258099074e-38
-0.2499702126 -0.06375790387 0.06090968847 1.258099074e-38
0.04726143181 -0.04515001178 0.05359888822 1.258099074e-38
0.2434705943 -0.03164318576 0.03986074775 1.258099074e-38
-0.01159750856 -0.05193865672 0.04479887336 1.258099074e-38
-0.142147854 -0.07065056264 0.03028345667 1.258099074e-38
0.001048884937 -0.07796853781 -0.1065490097 1.331530897e-38
0.2061171681 -0.0911385864 0.00790285226 1.331530897e-38
0.08504661173 -0.03993311897 0.0394583419 1.331530897e-38
0.2698302269 -0.08550221473 -0.02327051014 1.331530897e-38
0.05662130564 -0.08102755994 -0.06247727945 1.331530897e-38
0.1026833057 -0.08418745548 0.04058772698 1.331530897e-38
-0.1064038724 -0.02678244002 0.03595994413 1.331530897e-38
0.4350999892 -0.07371263206 -0.01086611766 1.331530897e-38
-0.03003147617 -0.07491511852 -0.09906634688 1.331530897e-38
0.2903824449 -0.08395064622 0.02487748861 1.331530897e-38
-0.06579580158 -0.03676627949 0.03650043532 1.331530897e-38
0.4185836911 -0.07819968462 -0.005648158025 1.331530897e-38
-0.02447607182 -0.05799407512 -0.07439526916 1.331530897e-38
0.2562497258 -0.09201973677 0.01126620919 1.331530897e-38
-0.005040729418 -0.03161878139 0.03945567086 1.331530897e-38
0.3732539117 -0.06899317354 -0.02501035295 1.331530897e-38
-1.940876245e-05 -0.06000403687 -0.0473456569 1.331530897e-38
0.1745176464 -0.08245651424 -0.0009227392729 1.331530897e-38
0.03409411386 -0.04410660639 0.04490609095 1.331530897e-38
0.2981522083 -0.07928926498 -0.01060239691 1.331530897e-38
0.03787130117 -0.05377684534 -0.04149379954 1.331530897e-38
0.1524415463 -0.08631066978 0.009855301119 1.331530897e-38
-0.05371109024 -0.05613533407 0.04884588346 1.331530897e-38
0.3761597276 -0.07756519318 -0.01335136965 1.331530897e-38
-0.03104358725 -0.05508806556 -0.06363422424 1.331530897e-38
0.2527164519 -0.08878642321 0.01673138514 1.331530897e-38
-0.07580798119 -0.008617768995 0.03123587929 1.331530897e-38
0.4120938182 -0.06051952764 -0.007563260384 1.331530897e-38
-0.03227061406 -0.0382956937 -0.04250004143 1.331530897e-38
0.2323318571 -0.07962745428 -2.915412188e-05 1.331530897e-38
0.043445535 -0.03902654722 0.04000345618 1.331530897e-38
0.2379977852 -0.06746806204 -0.04190498218 1.331530897e-38
-0.08089420199 -0.05411680788 -0.1975023746 1.404926846e-38
-0.09867431223 -0.05685453117 -0.3009243608 1.404926846e-38
-0.006684084423 -0.06136286631 -0.1035718024 1.404926846e-38
-0.09000930935 -0.06293334067 -0.2881393433 1.404926846e-38
-0.04166374356 -0.06289763749 -0.1423768848 1.404926846e-38
-0.05692655221 -0.06512425095 -0.2554029822 1.404926846e-38
0.01081850659 -0.06993092597 -0.04455500841 1.404926846e-38
-0.0872458443 -0.05165588483 -0.2616825402 1.404926846e-38
-0.01667793095 -0.0757971257 -0.1082592383 1.404926846e-38
-0.05380161479 -0.06801617891 -0.1800978333 1.404926846e-38
0.0473766923 -0.07290600985 -0.03641033918 1.404926846e-38
-0.07570515573 -0.0637633726 -0.1848153323 1.404926846e-38
-0.02006831951 -0.069132559 -0.09252575785 1.404926846e-38
-0.05177063495 -0.06176462397 -0.06816399843 1.404926846e-38
0.02761214785 -0.07438781112 -0.04450007528 1.404926846e-38
-0.1385439336 -0.06301224232 -0.0515120253 1.404926846e-38
-0.03673899546 -0.05777527764 -0.06373363733 1.404926846e-38
-0.05476668477 -0.04638757184 -0.0655362159 1.404926846e-38
0.0604355745 -0.08548116684 -0.02976171672 1.404926846e-38
-0.1269071102 -0.06407108903 -0.04893003032 1.404926846e-38
-0.03016535752 -0.05148493871 -0.06730709225 1.404926846e-38
-0.0699037835 -0.04685551301 -0.07074478269 1.404926846e-38
0.1080370992 -0.08345737308 -0.01441139076 1.404926846e-38
-0.1780603677 -0.06728763878 -0.04285422713 1.404926846e-38
-0.04828839377 -0.04879434407 -0.06057805195 1.404926846e-38
-0.0797817409 -0.04147411883 -0.06807852536 1.404926846e-38
0.03432573006 -0.04466460645 -0.03568496928 1.404926846e-38
-0.2291319221 -0.0416155234 -0.06495508552 1.404926846e-38
-0.07598840445 -0.03257851303 -0.06113651395 1.404926846e-38
-0.1502245963 -0.02024316415 -0.05426969007 1.404926846e-38
-0.003361085895 -0.0624615401 -0.04084811732 1.404926846e-38
-0.1073520482 -0.04273148999 -0.05491444468 1.404926846e-38
-0.06865846366 -0.05815304071 -0.1947046816 1.478322936e-38
-0.1363166273 -0.01951194927 -0.041008275 1.478322936e-38
0.1890315413 -0.02551384829 -0.03805271909 1.478322936e-38
0.08822444826 -0.007436019368 -0.02749023028 1.478322936e-38
-0.1109894589 -0.06131291017 -0.2523294091 1.478322936e-38
-0.0948620066 -0.02722554468 -0.03902720287 1.478322936e-38
0.3000256121 -0.02486931905 -0.03584558889 1.478322936e-38
-0.03011726774 -0.00980980508 -0.02870738879 1.478322936e-38
0.01842858642 -0.05615762249 -0.07545676082 1.478322936e-38
-0.1850803792 -0.01577624865 -0.04007843882 1.478322936e-38
0.3171394169 -0.02164891362 -0.03397560492 1.478322936e-38
-0.01271702349 -0.004908700939 -0.02516702935 1.478322936e-38
0.1009309217 -0.02938271686 -0.04130091891 1.478322936e-38
-0.2068178058 -0.02105206624 -0.0339188613 1.478322936e-38
0.2245070487 -0.01522873342 -0.03216950223 1.478322936e-38
-0.04060930759 0.002028820105 -0.005753252655 1.478322936e-38
-0.07004527003 -0.0391741246 -0.04449110478 1.478322936e-38
-0.188787654 -0.02067996003 -0.03411348909 1.478322936e-38
0.1877560914 -0.02351815812 -0.03698233142 1.478322936e-38
-0.01210143231 0.0003996416635 -0.02276043035 1.478322936e-38
-0.07780279964 -0.03922338784 -0.04464607313 1.478322936e-38
-0.1687155962 -0.03148385882 -0.03631459922 1.478322936e-38
0.27353248 -0.02961780131 -0.038618844 1.478322936e-38
-0.1054626852 -0.004430153407 -0.01623569056 1.478322936e-38
0.1326810867 -0.02304758132 -0.0375295952 1.478322936e-38
-0.2518592179 -0.01751139574 -0.03856121376 1.478322936e-38
0.2696625292 -0.01087469235 -0.02926048264 1.478322936e-38
-0.1116522774 0.005696533248 -0.008814620785 1.478322936e-38
0.09124027938 -0.01276637521 -0.02464634925 1.478322936e-38
-0.2627515197 -0.01496223453 -0.03000882827 1.478322936e-38
0.1364603937 -0.002883359324 -0.02515367232 1.478322936e-38
-0.02615090832 0.0007031260757 -0.002068844391 1.478322936e-38
0.0435711816 -0.07163841277 0.06487540156 1.551683013e-38
-0.2920109034 0.008569604717 0.01776050031 1.551683013e-38
-0.2447946966 -0.05189641565 0.04641848803 1.551683013e-38
-0.3970577419 0.06386952847 -0.04954643175 1.551683013e-38
0.04013424367 -0.08266926557 0.1134096235 1.551683013e-38
-0.1275711507 -0.002973674331 -0.00104180316 1.551683013e-38
-0.08724193275 -0.02805673704 0.04052798077 1.551683013e-38
-0.3901090026 0.05571762472 -0.01043054275 1.551683013e-38
-0.03009723499 -0.09606742114 0.04615169019 1.551683013e-38
-0.3245617747 0.02708189189 0.002357035177 1.551683013e-38
-0.1433383822 -0.03030775301 0.0402491428 1.551683013e-38
-0.4049790204 0.01061025634 0.005599935539 1.551683013e-38
-0.0444146134 -0.08359991014 0.03900375217 1.551683013e-38
-0.2964962721 0.01540766936 -0.007791070733 1.551683013e-38
-0.2010869384 -0.04657563567 0.03578099608 1.551683013e-38
-0.3684434295 -0.007121673319 0.01085395552 1.551683013e-38
-0.03977946192 -0.09086185694 0.02260795981 1.551683013e-38
-0.1699798256 -0.01970980503 -0.00873121433 1.551683013e-38
-0.1672113538 -0.06521899253 0.01454200875 1.551683013e-38
-0.4007964134 -0.01142846234 0.0025351441 1.551683013e-38
0.009213216603 -0.07052989304 0.04517971352 1.551683013e-38
-0.184657827 -0.03131539747 0.002056379803 1.551683013e-38
-0.1363274306 -0.07632502913 0.02671159245 1.551683013e-38
-0.3622662425 -0.01849319786 0.02252032049 1.551683013e-38
-0.0476292409 -0.08044822514 -0.0003718845255 1.551683013e-38
-0.3436327875 0.01777992025 0.002089329762 1.551683013e-38
-0.2034305185 -0.01910929196 0.03874547035 1.551683013e-38
-0.3890628517 -0.002553986385 0.006969409995 1.551683013e-38
-0.07014344633 -0.06157248095 0.02946003526 1.551683013e-38
-0.3082409501 0.002962282626 0.01419595815 1.551683013e-38
-0.2453432083 -0.03127226979 0.02794501372 1.551683013e-38
-0.3516219556 0.01987347566 0.002204120392 1.551683013e-38
-0.3362958431 -0.04149919003 -0.02730476297 1.625043089e-38
-0.3445898592 0.04013491422 -0.006604098715 1.625043089e-38
-0.2288492918 -0.0212412402 -0.03230213001 1.625043089e-38
-0.3404918909 0.09056734294 -0.00556411827 1.625043089e-38
-0.2090734988 -0.02931674384 -0.06172094867 1.625043089e-38
-0.3306625485 0.02043658309 -0.002237129956 1.625043089e-38
-0.356197238 -0.03097868524 0.02438758127 1.625043089e-38
-0.4078395367 0.03915762529 0.003189173061 1.625043089e-38
-0.3192135394 -0.041421514 -0.01109417435 1.625043089e-38
-0.3477542102 0.06596753746 0.01248474326 1.625043089e-38
-0.3943748176 -0.02731329203 0.02936520055 1.625043089e-38
-0.3884322643 0.0187155474 0.004383036867 1.625043089e-38
-0.3135485053 -0.05324007198 -0.01129430532 1.625043089e-38
-0.3220172822 0.03791257367 -0.000563688518 1.625043089e-38
-0.2967054844 -0.04168637097 -0.0142493099 1.625043089e-38
-0.3616470993 -0.003689015284 0.0124748135 1.625043089e-38
-0.2316635847 -0.08425434679 -0.02229194529 1.625043089e-38
-0.2287460715 -0.0236841552 -0.02524168603 1.625043089e-38
-0.2805055678 -0.05521409959 -0.0253227409 1.625043089e-38
-0.3063169718 -0.0251816567 0.006462171208 1.625043089e-38
-0.2082308978 -0.07931554317 -0.044681523 1.625043089e-38
-0.2251624316 -0.03712434694 -0.01650760137 1.625043089e-38
-0.3942946494 -0.05553260073 -0.01057057548 1.625043089e-38
-0.3097010255 -0.04557121545 0.03100763634 1.625043089e-38
-0.3305401206 -0.05642965436 -0.02561806515 1.625043089e-38
-0.3026354313 0.005191115662 -0.009018429555 1.625043089e-38
-0.3963948488 -0.04377298057 -0.0194943659 1.625043089e-38
-0.4051436782 -0.001438508625 0.02732675336 1.625043089e-38
-0.3100064099 -0.05705085769 -0.02579947188 1.625043089e-38
-0.2946159244 -0.01743060723 -0.0206926167 1.625043089e-38
-0.2470163107 -0.02403321303 -0.02270564251 1.625043089e-38
-0.3121601641 -0.001564162434 -0.002245996147 1.625043089e-38
0.01485788263 -0.06476844847 -0.0386264585 1.698367293e-38
-0.05250349641 -0.05496914685 -0.1802054346 1.698367293e-38
0.04650148377 -0.08465794474 0.03199118748 1.698367293e-38
-0.1339434385 -0.05847176537 -0.2730630338 1.698367293e-38
-0.109201178 -0.08549502492 -0.0330333747 1.698367293e-38
-0.03350094706 -0.05850624293 -0.1419574171 1.698367293e-38
-0.04623861238 -0.09411929548 0.04765743762 1.698367293e-38
-0.03965709358 -0.05906222761 -0.1666166335 1.698367293e-38
0.09179216623 -0.09612223506 -0.03188515455 1.698367293e-38
-0.06289081275 -0.07004889101 -0.09987206757 1.698367293e-38
-0.01298838854 -0.08927172422 0.05783298984 1.698367293e-38
-0.04514106736 -0.06606378406 -0.1511662602 1.698367293e-38
0.1193266436 -0.07912641019 -0.03207057342 1.698367293e-38
-0.02776968107 -0.04324575886 -0.03433412313 1.698367293e-38
0.0637171492 -0.06800954044 0.03798895329 1.698367293e-38
-0.10930904 -0.03558166325 -0.04297311231 1.698367293e-38
0.03053039499 -0.08930002898 -0.003980749752 1.698367293e-38
0.02769320831 -0.0165909566 -0.005349495448 1.698367293e-38
0.09511778504 -0.07465543598 0.04716580734 1.698367293e-38
-0.1474441886 -0.03607329354 -0.03752096742 1.698367293e-38
-0.01594232582 -0.07706352323 -0.01814058982 1.698367293e-38
0.03751403093 -0.02484601922 -0.03166975081 1.698367293e-38
0.04325612634 -0.09881936759 0.04728356004 1.698367293e-38
-0.2085394263 -0.03632222489 -0.03300867975 1.698367293e-38
0.1253446043 -0.07489919662 -0.03745793179 1.698367293e-38
-0.03761899471 -0.01876905002 -0.02126402967 1.698367293e-38
0.04487150162 -0.06314245611 0.003912250046 1.698367293e-38
-0.1284618825 -0.03347767517 -0.03795117512 1.698367293e-38
0.1006989628 -0.05809465051 -0.01641154476 1.698367293e-38
0.0187914446 -0.01250858139 0.0003046244383 1.698367293e-38
0.1800333112 -0.0913791284 0.01594357751 1.698367293e-38
-0.1364682615 -0.02494714968 -0.03909110278 1.698367293e-38
-0.06964110583 -0.05452366546 0.2533864975 1.771655483e-38
-0.06573850662 -0.05578257889 0.1806305051 1.771655483e-38
0.2055446357 -0.07923951 -0.01736490987 1.771655483e-38
0.002146061976 -0.08868729323 -0.002601491055 1.771655483e-38
-0.1281982064 -0.06201514602 0.2812389731 1.771655483e-38
-0.1384865195 -0.06741049141 0.2149930447 1.771655483e-38
0.3444618881 -0.06803742796 -0.03316397965 1.771655483e-38
0.3105344176 -0.08418030292 0.001477687503 1.771655483e-38
0.1002372652 -0.08513554186 0.06305523962 1.771655483e-38
-0.03984907642 -0.09129088372 0.0415969044 1.771655483e-38
0.356613934 -0.06851743162 -0.0348251611 1.771655483e-38
0.3069345653 -0.09890625626 0.002198029542 1.771655483e-38
0.07155661285 -0.093658261 0.04540248215 1.771655483e-38
-0.0204212442 -0.09422316402 -0.008477644995 1.771655483e-38
0.2423802912 -0.06343431026 -0.03362602368 1.771655483e-38
0.2228806168 -0.07949537784 0.01667653024 1.771655483e-38
-0.07558791339 -0.09016256779 0.08662647009 1.771655483e-38
-0.08988609165 -0.09245239198 0.04029724747 1.771655483e-38
0.2231662422 -0.08548220992 -0.02330763824 1.771655483e-38
0.08460855484 -0.08533613384 0.02748835646 1.771655483e-38
-0.134711653 -0.08378591388 0.1091847047 1.771655483e-38
-0.1211917549 -0.09740754217 0.06403146684 1.771655483e-38
0.3282084167 -0.1012563035 -0.03634419665 1.771655483e-38
0.1740163565 -0.09772842377 -0.008425327018 1.771655483e-38
0.02069415525 -0.08976759762 0.03398057818 1.771655483e-38
-0.0767961964 -0.08453637362 -0.02184239216 1.771655483e-38
0.3174669147 -0.04260221869 -0.02734246105 1.771655483e-38
0.3190355599 -0.0722129792 0.02550070174 1.771655483e-38
-0.02098787017 -0.06987597048 0.0176503323 1.771655483e-38
-0.0708764717 -0.07490000874 -0.04025796056 1.771655483e-38
0.1973425299 -0.07980743796 -0.01516796183 1.771655483e-38
0.08540001512 -0.06083985791 0.05575174838 1.771655483e-38
-0.3551811576 0.07309119403 0.006484089885 1.844943813e-38
-0.271227479 -0.04789646342 -0.04411422089 1.844943813e-38
-0.2968110442 0.008167159744 -0.007839504629 1.844943813e-38
-0.1065716445 -0.04684873298 -0.04808984324 1.844943813e-38
-0.323980242 0.05603124946 -0.000274002552 1.844943813e-38
-0.1673393995 -0.03477393836 -0.05896700919 1.844943813e-38
-0.3636208773 0.04206071422 -0.003298687981 1.844943813e-38
-0.2389307618 -0.05166937038 -0.04085821286 1.844943813e-38
-0.3974527419 0.0686398074 -0.001939040958 1.844943813e-38
-0.2722739279 -0.02884560265 -0.04209148139 1.844943813e-38
-0.3818627298 0.02575499937 -0.003874491202 1.844943813e-38
-0.2481660992 -0.0546983555 -0.04398983717 1.844943813e-38
-0.4041056931 0.05465025082 0.001058220514 1.844943813e-38
-0.2513501942 -0.02854742296 -0.04224294424 1.844943813e-38
-0.3535414338 -0.001696659485 -0.01561728586 1.844943813e-38
-0.2353464812 -0.04757426307 -0.04480592906 1.844943813e-38
-0.3089302778 0.03016099893 0.007584054023 1.844943813e-38
-0.1857900172 -0.04221473634 -0.05688950792 1.844943813e-38
-0.3869680166 -0.0296635516 -0.02219134569 1.844943813e-38
-0.1617397368 -0.04714479297 -0.05497607589 1.844943813e-38
-0.2698635459 0.007703852374 0.006070330739 1.844943813e-38
-0.1942851245 -0.027560357 -0.05426584184 1.844943813e-38
-0.4184682369 -0.01264459267 -0.004649352282 1.844943813e-38
-0.2348403633 -0.05887779221 -0.04951534048 1.844943813e-38
-0.3699117601 0.03642731532 0.01579585485 1.844943813e-38
-0.3198345304 -0.03873982653 -0.03314916044 1.844943813e-38
-0.3915993273 0.02255011909 -0.008306625299 1.844943813e-38
-0.2688376009 -0.04448475316 -0.04647396877 1.844943813e-38
-0.3937041163 0.04116924852 -0.004223932512 1.844943813e-38
-0.3072010875 -0.03506954759 -0.03733759746 1.844943813e-38
-0.3601282239 -0.02009133995 -0.03003574163 1.844943813e-38
-0.1272884607 -0.03333742917 -0.0440194793 1.844943813e-38
-0.04069103673 -0.05845114216 0.08309106529 1.91819627e-38
0.2314929962 -0.008229576983 -0.02042474411 1.91819627e-38
-0.03243647516 -0.06668041646 0.1217247471 1.91819627e-38
0.2819525898 -0.0279667899 0.01878785528 1.91819627e-38
-0.1736456305 -0.03981013969 0.02934434265 1.91819627e-38
0.03260456398 -0.03356932476 -0.06557705253 1.91819627e-38
0.06787736714 -0.07999952137 0.04498386756 1.91819627e-38
0.4425040781 -0.05008481815 0.01030282024 1.91819627e-38
-0.02483305708 -0.05877411366 0.03168829903 1.91819627e-38
0.2656866014 -0.02394242398 -0.04519414157 1.91819627e-38
0.09466569871 -0.06251274794 0.03124319576 1.91819627e-38
0.4391052425 -0.0439601168 0.007300917525 1.91819627e-38
-0.07407382131 -0.03167581186 0.02926114574 1.91819627e-38
0.2315531075 -0.01956223696 -0.03475183994 1.91819627e-38
0.0548610501 -0.0306555219 0.0236707665 1.91819627e-38
0.4178082943 -0.03660336137 -0.005253296345 1.91819627e-38
-0.1387784481 -0.02478479221 0.02376487292 1.91819627e-38
0.1025063843 -0.04165330157 -0.06983152032 1.91819627e-38
0.08718848228 -0.02567804046 0.01726460271 1.91819627e-38
0.3531571031 -0.04832020029 -0.006702337414 1.91819627e-38
-0.1967020035 -0.0263674818 0.0251682438 1.91819627e-38
0.09238538891 -0.04858198017 -0.07276985794 1.91819627e-38
0.1049075425 -0.0432920903 0.01258902811 1.91819627e-38
0.4064725339 -0.04117321968 -0.0139861526 1.91819627e-38
-0.09200807661 -0.02545924112 0.04516145587 1.91819627e-38
0.2625507414 -0.02115098014 -0.04112319276 1.91819627e-38
0.09251582623 0.002929395996 0.02615367807 1.91819627e-38
0.4333639741 -0.03332101926 -0.009871743619 1.91819627e-38
-0.1073773876 -0.01326855645 0.03501043096 1.91819627e-38
0.2244518697 -0.01028388273 -0.03081235662 1.91819627e-38
0.02248321101 -0.01715155132 0.01896612905 1.91819627e-38
0.3628906906 -0.02103270404 -0.03558824956 1.91819627e-38
0.09017216414 -0.07714641094 -0.05744063854 1.991448586e-38
0.3496438861 -0.08942414075 -0.009115972556 1.991448586e-38
0.09735764563 -0.06400881708 0.05645911396 1.991448586e-38
0.3134884238 -0.0660276413 0.01314547192 1.991448586e-38
0.02049343102 -0.07135727257 -0.01705216058 1.991448586e-38
0.1534556746 -0.07198804617 0.03194196522 1.991448586e-38
-0.02630490996 -0.07691827416 0.03442199528 1.991448586e-38
0.4325200915 -0.05747382343 0.00261828443 1.991448586e-38
0.2932168841 -0.0852252692 -0.02530726418 1.991448586e-38
0.301335752 -0.07637476176 0.0172435008 1.991448586e-38
-0.03510932997 -0.08237209916 0.02456019446 1.991448586e-38
0.4259970188 -0.07484208792 0.014726975 1.991448586e-38
0.2708311081 -0.08331488818 -0.02012880147 1.991448586e-38
0.2562929392 -0.07827586681 0.02095525526 1.991448586e-38
0.08689519018 -0.0648843646 -0.03207477927 1.991448586e-38
0.3777862489 -0.06711010635 0.02216070145 1.991448586e-38
0.1116199568 -0.09082964808 -0.00446382165 1.991448586e-38
0.1850852668 -0.07703141868 0.02483535558 1.991448586e-38
0.08263342083 -0.06985015422 -0.04131300747 1.991448586e-38
0.3483478129 -0.07281335443 0.03230785951 1.991448586e-38
0.06696918607 -0.08229430765 -0.004272852093 1.991448586e-38
0.1819566637 -0.08449364454 0.03300392255 1.991448586e-38
-0.05995022878 -0.09708093852 0.01454715617 1.991448586e-38
0.3867524564 -0.07616000623 0.02372785844 1.991448586e-38
0.2401120663 -0.08379361033 -0.02243260108 1.991448586e-38
0.2818903625 -0.08262661099 0.01497925539 1.991448586e-38
-0.0006763039855 -0.06390308589 -0.05081366748 1.991448586e-38
0.4233114421 -0.05592123792 0.01387008 1.991448586e-38
0.2161475569 -0.0781814456 0.0008813214954 1.991448586e-38
0.2299843282 -0.05577804521 0.03407163918 1.991448586e-38
0.2056720853 -0.07121826708 -0.04857757688 1.991448586e-38
0.3181595504 -0.05209893733 0.04452840611 1.991448586e-38
0.2949938178 -0.0331758 -0.03062151931 2.06466517e-38
0.1160836816 -0.05100851506 -0.04825145006 2.06466517e-38
0.3236998618 -0.04658292234 -0.03905378655 2.06466517e-38
-0.1271131188 -0.05701439828 -0.2514486015 2.06466517e-38
0.1818321943 -0.04051794112 -0.02618091367 2.06466517e-38
0.0237847548 -0.05935467035 -0.03570194915 2.06466517e-38
0.4024389386 -0.06886428595 -0.0142307803 2.06466517e-38
0.01056587137 -0.06264115125 -0.1514923126 2.06466517e-38
0.3554492891 -0.04342313111 -0.0284173768 2.06466517e-38
0.1415740848 -0.06395810843 -0.03447436169 2.06466517e-38
