# .PCD v0.7 - Point Cloud Data file format
VERSION 0.7
FIELDS x y z rgb
SIZE 4 4 4 4
TYPE F F F F
COUNT 1 1 1 1
WIDTH 807
HEIGHT 1
VIEWPOINT 0 0 0 1 0 0 0
POINTS 807
DATA ascii
-0.2059749365 -0.01361797005 0.02726918831 2.167082852e-39
0.2927275598 -0.06258045137 0.02326000296 2.167082852e-39
0.005140554626 -0.05442593619 0.06322491914 2.167082852e-39
0.08953718841 -0.03214761987 -0.08213070035 2.167082852e-39
-0.2611262798 -0.01402266789 0.02350009419 2.167082852e-39
0.3196438551 -0.08344528824 0.0173455812 2.167082852e-39
0.003966681659 -0.04850774631 0.07735685259 2.167082852e-39
0.1206259206 -0.04567522183 -0.07081633061 2.167082852e-39
-0.2611264586 -0.01402263809 0.02350004949 2.167082852e-39
0.3196439445 -0.08344532549 0.0173455514 2.167082852e-39
0.003966431599 -0.04850777611 0.07735686004 2.167082852e-39
0.1206261367 -0.04567522183 -0.07081614435 2.167082852e-39
-0.2613212168 -0.01400128938 0.02347857319 2.167082852e-39
0.3197668493 -0.08345672488 0.01732621528 2.167082852e-39
0.003742852947 -0.04854023457 0.07728943974 2.167082852e-39
0.1207660958 -0.04568086565 -0.07065804303 2.167082852e-39
-0.1236522794 -0.0309246704 0.04036810994 2.167082852e-39
0.2354369462 -0.06463202834 0.02070732974 2.167082852e-39
0.04969502985 -0.04453822598 0.05641420931 2.167082852e-39
0.04201708734 -0.03932859004 -0.139442265 2.167082852e-39
0.02540889196 -0.0487033613 0.1549834907 1.435982003e-39
-0.04012522846 -0.04695764929 0.2120808214 1.435982003e-39
-0.01259714738 -0.03943697363 0.3225726485 1.435982003e-39
0.01685906574 -0.0375341922 0.1614346355 1.435982003e-39
0.07787188888 -0.05904161558 0.05890866369 1.435982003e-39
-0.1170384139 -0.03531128913 0.2995968759 1.435982003e-39
-0.1571107507 -0.05224873498 0.3230463862 1.435982003e-39
-0.09514858574 -0.03954136372 0.2376692891 1.435982003e-39
0.02210726216 -0.05512937531 0.1210959777 1.435982003e-39
-0.09113433957 -0.02365390398 0.244612962 1.435982003e-39
-0.146244213 -0.04254944995 0.2839680612 1.435982003e-39
-0.08379501849 -0.03715676814 0.189396441 1.435982003e-39
-0.004210268613 -0.05497047678 0.1312742382 1.435982003e-39
-0.1170601472 -0.03116205335 0.2221637517 1.435982003e-39
-0.1546227336 -0.04741929099 0.2837185264 1.435982003e-39
-0.07273828238 -0.04348284751 0.1868079901 1.435982003e-39
0.02361634746 -0.06448849291 0.1253157556 1.435982003e-39
-0.09802959114 -0.04172333702 0.2443139851 1.435982003e-39
-0.1355222762 -0.04453955591 0.3293015659 1.435982003e-39
-0.06986644119 -0.0448600091 0.2042168826 1.435982003e-39
0.02361646667 -0.06448850781 0.1253156811 1.435982003e-39
-0.09802953154 -0.04172332212 0.2443141192 1.435982003e-39
-0.1355222613 -0.04453956336 0.3293017149 1.435982003e-39
-0.06986652315 -0.0448599942 0.2042169124 1.435982003e-39
0.02372484095 -0.06450315565 0.1252427101 1.435982003e-39
-0.09802851081 -0.04172133654 0.2443639189 1.435982003e-39
-0.1355523169 -0.04454115406 0.3292944729 1.435982003e-39
-0.06994242221 -0.04484224692 0.2042314708 1.435982003e-39
-0.02777261473 -0.04334876686 0.1445455849 1.435982003e-39
-0.08165849 -0.03876097128 0.2042524964 1.435982003e-39
-0.0763522312 -0.04474853724 0.3001646101 1.435982003e-39
-0.02280790359 -0.04584359005 0.1662370116 1.435982003e-39
0.06632275134 -0.03549264371 0.05050260574 7.045238224e-40
-0.03671678528 -0.04846477136 0.1229197979 7.045238224e-40
0.007038096897 -0.04971890152 0.303684473 7.045238224e-40
-0.02862145379 -0.0426793918 0.2979306877 7.045238224e-40
0.2720868587 -0.08240846545 0.002479093615 7.045238224e-40
0.06902555376 -0.08545463532 0.007131962106 7.045238224e-40
-0.02191758715 -0.05061202124 0.1112237275 7.045238224e-40
-0.1245260611 -0.04205938429 0.3431657255 7.045238224e-40
0.1597465128 -0.06786729395 0.005866623949 7.045238224e-40
-0.02996202558 -0.05535027757 0.04763310403 7.045238224e-40
-0.08110462874 -0.03639042005 0.1554375738 7.045238224e-40
-0.1216863394 -0.04246965423 0.2727381289 7.045238224e-40
0.1131340042 -0.06834590435 0.005463128444 7.045238224e-40
-0.06777496636 -0.04823157191 0.06713159382 7.045238224e-40
-0.1015631557 -0.04595395923 0.1706459969 7.045238224e-40
-0.1229468137 -0.04291884601 0.2637603879 7.045238224e-40
0.153188616 -0.08837861568 0.01729560271 7.045238224e-40
-0.01823311858 -0.06203115359 0.04580309242 7.045238224e-40
-0.04304219037 -0.05817440525 0.1863025725 7.045238224e-40
-0.09337981045 -0.0501377508 0.3136762083 7.045238224e-40
0.15318878 -0.08837866038 0.01729563996 7.045238224e-40
-0.01823296212 -0.06203117594 0.04580306262 7.045238224e-40
-0.04304209352 -0.05817439407 0.1863025129 7.045238224e-40
-0.09337982535 -0.05013773963 0.3136762977 7.045238224e-40
0.1533814967 -0.08839702606 0.01730950922 7.045238224e-40
-0.01808487065 -0.06203410774 0.04574555159 7.045238224e-40
-0.04295808449 -0.05816797167 0.1862132251 7.045238224e-40
-0.09342221916 -0.05013041943 0.3137120008 7.045238224e-40
0.01929305308 -0.04948136955 0.02292626165 7.045238224e-40
-0.09423026443 -0.03195517883 0.1194299534 7.045238224e-40
-0.04286981001 -0.05004399642 0.2429741919 7.045238224e-40
-0.06547088921 -0.04392801598 0.2866229713 7.045238224e-40
0.07185069472 -0.02333284542 0.04431640729 6.490113838e-41
-0.1408405304 -0.02245644666 0.03039733134 6.490113838e-41
-0.3234606385 -0.03280930966 0.02348823845 6.490113838e-41
0.05003576726 -0.07463488728 0.02905068174 6.490113838e-41
0.2907150984 -0.05939931422 0.03148156777 6.490113838e-41
-0.3232230246 -0.05105325207 0.01117481757 6.490113838e-41
-0.4435856342 0.05683825165 -0.004018814303 6.490113838e-41
-0.183487609 -0.04878884554 0.0430085659 6.490113838e-41
0.180800125 -0.01939379796 0.03654349595 6.490113838e-41
-0.2443255782 -0.040540874 0.03893606365 6.490113838e-41
-0.40004614 0.03450092301 -0.005422978662 6.490113838e-41
-0.1183275133 -0.06660573184 0.04803180322 6.490113838e-41
0.1373900026 -0.01609274372 0.03711922467 6.490113838e-41
-0.225960806 -0.03986796364 0.04087042436 6.490113838e-41
-0.3729708493 0.02300963365 -0.003156748367 6.490113838e-41
-0.09964910895 -0.0699275732 0.04733697325 6.490113838e-41
0.171482265 -0.05921678618 0.03145090118 6.490113838e-41
-0.2561467886 -0.05897151306 0.03999556601 6.490113838e-41
-0.4066182673 0.01406286284 -0.0009767335141 6.490113838e-41
-0.1141979098 -0.07427117229 0.03931382298 6.490113838e-41
0.1714825034 -0.05921680853 0.03145090118 6.490113838e-41
-0.2561468184 -0.05897151306 0.03999555111 6.490113838e-41
-0.4066183269 0.01406292245 -0.0009767335141 6.490113838e-41
-0.1141980365 -0.07427114993 0.03931383044 6.490113838e-41
0.1716772914 -0.0592248477 0.03144869581 6.490113838e-41
-0.2562541068 -0.05895569175 0.03998506814 6.490113838e-41
-0.4067111015 0.01411475334 -0.0009891163791 6.490113838e-41
-0.1143347919 -0.07425179332 0.03932175413 6.490113838e-41
0.06819395721 -0.01464579534 0.04670361802 6.490113838e-41
-0.1227350831 -0.0227414947 0.03098984621 6.490113838e-41
-0.3280264139 -0.0001040995121 0.006419220474 6.490113838e-41
-0.001212819829 -0.08648949116 0.02912463434 6.490113838e-41
-0.278457433 0.009163645096 0.002607786795 8.028094954e-40
-0.02364762314 -0.03419923782 0.166256994 8.028094954e-40
-0.2600218654 -0.01450513676 0.03225069121 8.028094954e-40
-0.180179283 0.006844316609 0.008962122723 8.028094954e-40
-0.4136399627 -0.003349164966 -0.03307713568 8.028094954e-40
0.09930224717 -0.0390146412 -0.009115756489 8.028094954e-40
-0.09915694594 -0.008642033674 0.03049147874 8.028094954e-40
0.02229627967 0.007083431818 0.008001216687 8.028094954e-40
-0.3680212498 -0.008137217723 0.01296677068 8.028094954e-40
0.01406949293 -0.03167225048 0.05755857006 8.028094954e-40
-0.2360052913 -0.00995942764 0.04252286628 8.028094954e-40
-0.1225862578 -0.01150663104 0.02333224937 8.028094954e-40
-0.3570847213 -0.01538184378 0.0290576499 8.028094954e-40
-0.02053042315 -0.04024137929 0.09705740958 8.028094954e-40
-0.2645862699 -0.01553216856 0.04413323477 8.028094954e-40
-0.1593359709 -0.01256677695 0.02858570591 8.028094954e-40
-0.372661382 -0.01829977892 0.01779547147 8.028094954e-40
0.002955130069 -0.05213585496 0.05622616038 8.028094954e-40
-0.201506719 -0.008627707139 0.02934209444 8.028094954e-40
-0.07785566151 -0.003937097266 0.007341223303 8.028094954e-40
-0.3726614416 -0.01829978637 0.01779545657 8.028094954e-40
0.00295527908 -0.05213587731 0.05622594431 8.028094954e-40
-0.2015065253 -0.008627699688 0.02934210189 8.028094954e-40
-0.07785537839 -0.003937156871 0.007341342513 8.028094954e-40
-0.3727326989 -0.01829938404 0.01776591688 8.028094954e-40
0.003048946848 -0.0521122627 0.05597599223 8.028094954e-40
-0.201400578 -0.008612337522 0.02933541685 8.028094954e-40
-0.07772413641 -0.003965379205 0.007401703857 8.028094954e-40
-0.2997939587 -0.004038274754 0.02262635157 8.028094954e-40
-0.05429649353 -0.03597220033 0.1712134033 8.028094954e-40
-0.2706801295 -0.01475466229 0.03530490398 8.028094954e-40
-0.1693025678 0.00385146169 -0.002587729832 8.028094954e-40
0.1377382576 -0.03509820998 0.08039892465 1.540360521e-39
0.1177178472 -0.07441064715 -0.05874539167 1.540360521e-39
-0.007064120844 -0.05083950236 -0.1029958054 1.540360521e-39
-0.1371286511 -0.01256095152 0.029360421 1.540360521e-39
-0.0976261124 -0.0555287227 0.1281632334 1.540360521e-39
-0.1688271463 -0.0851233229 0.01780722477 1.540360521e-39
0.01136484277 -0.05961814523 0.1344017386 1.540360521e-39
-0.3641947806 -0.03097076155 0.01398226433 1.540360521e-39
0.0226845704 -0.03618786111 0.09635386616 1.540360521e-39
-0.06779704988 -0.07923289388 0.02011525445 1.540360521e-39
-0.004465803504 -0.04438408837 -0.1215717718 1.540360521e-39
-0.3162448108 -0.02556690574 0.02656488866 1.540360521e-39
0.04178621247 -0.03920019791 0.09382068366 1.540360521e-39
-0.05972771347 -0.08176912367 0.03132331371 1.540360521e-39
-0.01246710308 -0.04904075712 -0.1403722763 1.540360521e-39
-0.3063494861 -0.03049820848 0.02883960493 1.540360521e-39
0.01015707199 -0.05204074457 0.1072697565 1.540360521e-39
-0.08703246713 -0.09179294854 0.03312856331 1.540360521e-39
0.01656861976 -0.06477077305 -0.09890960902 1.540360521e-39
-0.3209457695 -0.02535885014 0.02920084819 1.540360521e-39
0.01015683357 -0.0520407334 0.1072698087 1.540360521e-39
-0.08703261614 -0.09179293364 0.03312856331 1.540360521e-39
0.01656863466 -0.0647707954 -0.0989093706 1.540360521e-39
-0.3209458888 -0.02535882778 0.02920087799 1.540360521e-39
0.009983051568 -0.05203592777 0.1073088646 1.540360521e-39
-0.08717061579 -0.09177464247 0.03311650455 1.540360521e-39
0.01658353209 -0.06479841471 -0.09875334799 1.540360521e-39
-0.3210665584 -0.02536233328 0.02919575572 1.540360521e-39
0.1249699965 -0.03859134391 0.0810739845 1.540360521e-39
0.04371070489 -0.07637124509 0.01597874984 1.540360521e-39
-0.003660364542 -0.04829384759 -0.1276655942 1.540360521e-39
-0.2305965126 -0.01784780994 0.03495316207 1.540360521e-39
-0.06266906857 -0.02628803998 -0.3423093557 2.277910146e-39
-0.2609735429 -0.05697059259 -0.03974002972 2.277910146e-39
0.01530787721 -0.03387123719 -0.1722405404 2.277910146e-39
-0.3853363693 -0.03301333636 -0.02739867195 2.277910146e-39
-0.008824856952 -0.03896918893 -0.1895994097 2.277910146e-39
-0.08063665777 -0.0606841594 -0.05157535896 2.277910146e-39
0.1411870122 0.01080091763 -0.02107007429 2.277910146e-39
-0.1970774531 -0.04423934221 -0.05665133893 2.277910146e-39
-0.0512570478 -0.02756773122 -0.2470208406 2.277910146e-39
-0.187550351 -0.05378417298 -0.0504241474 2.277910146e-39
0.03812004253 -0.03344317898 -0.05920484662 2.277910146e-39
-0.299302578 -0.04534522817 -0.04338680208 2.277910146e-39
-0.08521714061 -0.03964225948 -0.2689902782 2.277910146e-39
-0.2174683511 -0.05174389482 -0.04929495603 2.277910146e-39
-0.0009437871049 -0.05492354929 -0.07219947129 2.277910146e-39
-0.3218595982 -0.04622232914 -0.04173040763 2.277910146e-39
-0.0576896891 -0.04846483469 -0.2592293322 2.277910146e-39
-0.1905171871 -0.05959678814 -0.04736739397 2.277910146e-39
0.03154731169 -0.05610324815 -0.0755090937 2.277910146e-39
-0.2975081503 -0.04654582217 -0.03997998312 2.277910146e-39
-0.05768953264 -0.04846483469 -0.259229213 2.277910146e-39
-0.1905169934 -0.05959680304 -0.04736740142 2.277910146e-39
0.03154755011 -0.05610309914 -0.07550899684 2.277910146e-39
-0.2975080013 -0.04654582217 -0.03997999802 2.277910146e-39
-0.05756805465 -0.04846560583 -0.2590858638 2.277910146e-39
-0.1903632283 -0.05961214378 -0.04737070203 2.277910146e-39
0.03175069392 -0.0559806861 -0.07537800074 2.277910146e-39
-0.2974156737 -0.04655496776 -0.03998692334 2.277910146e-39
-0.1150603667 -0.03652660549 -0.3045815229 2.277910146e-39
-0.2368778437 -0.04957634583 -0.04721521214 2.277910146e-39
-0.01844340377 -0.05319293588 -0.1170206591 2.277910146e-39
-0.3634746671 -0.03834187984 -0.02903951518 2.277910146e-39
-0.255356431 -0.02041262016 -0.02818481438 3.015101038e-39
-0.4083734751 0.07894681394 0.001275225775 3.015101038e-39
-0.09144043922 -0.0195847284 -0.03771723062 3.015101038e-39
-0.2329247743 -0.02884617075 -0.01781445742 3.015101038e-39
-0.09065194428 -0.02496348135 -0.04971286282 3.015101038e-39
-0.3047615588 -0.0186173711 -0.004528529011 3.015101038e-39
0.09894540161 -0.03701357171 -0.04396567121 3.015101038e-39
-0.3485698104 0.04884126782 -0.003205057466 3.015101038e-39
-0.1818778068 -0.02808340266 -0.04920007288 3.015101038e-39
-0.3837346435 0.04516080394 0.001967814984 3.015101038e-39
0.00851811748 -0.006705645472 -0.0364863351 3.015101038e-39
-0.3024732172 0.02109277248 0.0001694709063 3.015101038e-39
-0.209176451 -0.03116169199 -0.04875298962 3.015101038e-39
-0.4004148245 0.06576628238 -0.00241992157 3.015101038e-39
-0.02675538324 -0.00203747768 -0.03553928435 3.015101038e-39
-0.2943846881 0.01722217724 0.0003585666127 3.015101038e-39
-0.1903377622 -0.03475536779 -0.04685014486 3.015101038e-39
-0.3719134331 0.06125411764 -0.001439458574 3.015101038e-39
0.01005369797 -0.01808318123 -0.03628090397 3.015101038e-39
-0.3016310632 0.01296854299 -0.003088948783 3.015101038e-39
-0.1903375983 -0.03475536779 -0.04685014486 3.015101038e-39
-0.3719132841 0.06125396863 -0.001439466025 3.015101038e-39
0.01005384699 -0.01808327064 -0.03628091887 3.015101038e-39
-0.3016311228 0.01296858769 -0.003088941332 3.015101038e-39
-0.1902069896 -0.034751378 -0.04685583711 3.015101038e-39
-0.3718105257 0.06119672582 -0.001438095118 3.015101038e-39
0.01018335484 -0.01812952198 -0.03629517183 3.015101038e-39
-0.3016930521 0.01299832575 -0.003093128558 3.015101038e-39
-0.2486995459 -0.02962004207 -0.04011797532 3.015101038e-39
-0.3418775797 0.06217059493 0.007268256042 3.015101038e-39
-0.07630693913 -0.007161703426 -0.03557985276 3.015101038e-39
-0.2445259839 -0.0223249644 -0.01184912492 3.015101038e-39
-0.1010148153 -0.01841794327 -0.04908998311 3.75229193e-39
0.1062924787 -0.000641405466 0.01691157743 3.75229193e-39
0.09877055883 -0.00217669853 0.02634684369 3.75229193e-39
0.01684147306 -0.07366552204 -0.06353718042 3.75229193e-39
-0.4113921821 -0.03090130538 -0.01209641062 3.75229193e-39
0.2878872454 -0.01139600389 0.03177959472 3.75229193e-39
-0.1119710132 0.0111259399 0.003899852512 3.75229193e-39
0.1470641494 -0.06232400239 -0.06536955386 3.75229193e-39
-0.2476084977 -0.04337338731 -0.04845708981 3.75229193e-39
0.2135704309 0.0004763304896 0.02649977058 3.75229193e-39
-0.05706651136 0.009971317835 0.004678677302 3.75229193e-39
0.07392323762 -0.04327160865 -0.07193537802 3.75229193e-39
-0.2272750586 -0.05814383924 -0.05356889218 3.75229193e-39
0.1704502255 -0.006682236679 0.02860471793 3.75229193e-39
-0.03806257993 0.007140291389 0.004626345355 3.75229193e-39
0.0567137152 -0.04664925113 -0.07562408596 3.75229193e-39
-0.2995411158 -0.0557314679 -0.03081372567 3.75229193e-39
0.2016643137 -0.01731516235 0.03427897766 3.75229193e-39
-0.03590558842 0.002156552393 0.0128358705 3.75229193e-39
0.0882139951 -0.05757699534 -0.08060860634 3.75229193e-39
-0.2995413244 -0.0557314381 -0.03081365116 3.75229193e-39
0.2016644329 -0.01731516235 0.03427896276 3.75229193e-39
-0.03590563312 0.002156552393 0.0128359152 3.75229193e-39
0.08821416646 -0.05757699534 -0.08060860634 3.75229193e-39
-0.2997315228 -0.05568033829 -0.03076830506 3.75229193e-39
0.201788947 -0.01731656305 0.03427792341 3.75229193e-39
-0.03594649956 0.002183418954 0.01283692848 3.75229193e-39
0.08829251677 -0.05757863075 -0.08058185875 3.75229193e-39
-0.1514374167 -0.05800340697 -0.05532289296 3.75229193e-39
0.1089393497 -0.003538012737 0.02078470774 3.75229193e-39
0.03633128107 -0.01164440345 0.02397304401 3.75229193e-39
0.03016093932 -0.05949250981 -0.07920933515 3.75229193e-39
-0.2235155255 -0.005332396831 -0.02204362117 4.48912409e-39
-0.2245733887 0.002308219206 -0.001561148674 4.48912409e-39
-0.1178583279 -0.04411697388 -0.01596111804 4.48912409e-39
-0.4256215692 0.03366452456 -0.001192077412 4.48912409e-39
-0.3272625208 -0.02493816428 -0.02691247687 4.48912409e-39
-0.004483207595 -0.05837122351 -0.08928383142 4.48912409e-39
0.07780038565 -0.03200427815 0.106583789 4.48912409e-39
-0.2824597359 0.009219221771 -8.951127529e-05 4.48912409e-39
-0.310631156 -0.002134737093 -0.02652286738 4.48912409e-39
-0.1528001428 0.00412506517 -0.01281712763 4.48912409e-39
-0.04893050715 -0.0577301383 0.05536875129 4.48912409e-39
-0.3925388753 0.01907133311 -0.003176797647 4.48912409e-39
-0.2981592119 -0.01073640306 -0.02702938952 4.48912409e-39
-0.1619106531 0.003149651689 -0.01214147266 4.48912409e-39
-0.08282958716 -0.05881869793 0.03226437047 4.48912409e-39
-0.406398356 0.02517269179 -0.002621331718 4.48912409e-39
-0.3020406067 -0.003109456273 -0.01621919125 4.48912409e-39
-0.1240977645 -0.02454035357 -0.03114449047 4.48912409e-39
-0.01027038321 -0.03730584681 0.05796497315 4.48912409e-39
-0.3875952065 0.02709249035 -0.001313715475 4.48912409e-39
-0.3020406663 -0.003109400393 -0.0162191838 4.48912409e-39
-0.1240975484 -0.02454048023 -0.03114455752 4.48912409e-39
-0.01027017459 -0.03730574623 0.05796509236 4.48912409e-39
-0.3875951171 0.02709244564 -0.001313730376 4.48912409e-39
-0.3021407425 -0.003054884961 -0.01621014252 4.48912409e-39
-0.1239310205 -0.02465059981 -0.03120782599 4.48912409e-39
-0.01012700424 -0.0372239165 0.05805844814 4.48912409e-39
-0.3875323832 0.0270712655 -0.001319839736 4.48912409e-39
-0.2526786625 -0.01412323117 -0.02531475574 4.48912409e-39
-0.1719411314 -0.0003269873559 -0.0127356844 4.48912409e-39
-0.1099022329 -0.04587132111 -0.005433848593 4.48912409e-39
-0.4196375906 0.03728789464 -0.001791520044 4.48912409e-39
0.06133645028 -0.005588085856 -0.03085597605 5.225597518e-39
0.2857696116 -0.04237049818 -0.04002497718 5.225597518e-39
0.1875254363 -0.03326506913 -0.04212162644 5.225597518e-39
0.1818796545 -0.0248963479 -0.03916980326 5.225597518e-39
-0.1642734706 -0.02989810519 -0.04591561481 5.225597518e-39
0.3875722885 -0.03338309005 -0.03091434017 5.225597518e-39
0.03286734596 -0.01171913743 -0.03385917097 5.225597518e-39
0.2744058073 -0.01611511968 -0.03334714472 5.225597518e-39
-0.04424056783 -0.01881016977 -0.03137325123 5.225597518e-39
0.3363344073 -0.035757415 -0.03602335602 5.225597518e-39
0.1170968786 -0.01992374659 -0.0347600989 5.225597518e-39
0.2332459986 -0.01012439746 -0.03291101009 5.225597518e-39
-0.02585287206 -0.02229811065 -0.03158370033 5.225597518e-39
0.3196256757 -0.03911005706 -0.03812339902 5.225597518e-39
0.1228363216 -0.0282118395 -0.0354109928 5.225597518e-39
0.2206151634 -0.01225536782 -0.03329085559 5.225597518e-39
-0.06258235127 -0.02371038124 -0.03310506046 5.225597518e-39
0.3410049677 -0.04352298751 -0.03629621118 5.225597518e-39
0.1187609211 -0.01903131232 -0.03779026493 5.225597518e-39
0.2291684896 -0.02352214977 -0.03521985561 5.225597518e-39
-0.06258253008 -0.02371035144 -0.03310504556 5.225597518e-39
0.3410049975 -0.04352300242 -0.03629621118 5.225597518e-39
0.1187608615 -0.01903128251 -0.03779025003 5.225597518e-39
0.2291685343 -0.02352214977 -0.03521984816 5.225597518e-39
-0.06272759289 -0.02369024605 -0.03310440481 5.225597518e-39
0.3411003649 -0.04351835325 -0.03628674522 5.225597518e-39
0.1187187135 -0.01902818494 -0.03779021278 5.225597518e-39
0.2292400002 -0.02351050451 -0.03521629795 5.225597518e-39
0.01875686087 -0.02553743497 -0.03030068241 5.225597518e-39
0.2705515623 -0.04588830099 -0.04099434242 5.225597518e-39
0.1502012461 -0.03584061936 -0.0389716737 5.225597518e-39
0.2015165389 -0.02107199468 -0.03455736116 5.225597518e-39
0.1605392247 -0.007484443486 0.01240779832 5.962428276e-39
0.09676408023 -0.04156066105 0.05349713936 5.962428276e-39
-0.004917164799 -0.02992512286 0.266020596 5.962428276e-39
0.07083461434 -0.06999179721 0.1397310346 5.962428276e-39
-0.003040021285 -0.02227026038 0.08801825345 5.962428276e-39
-0.2932707369 -0.06282502413 0.0281830579 5.962428276e-39
0.02796198055 -0.03875850886 0.03874815255 5.962428276e-39
-0.1423470229 -0.05805158988 -0.03013706766 5.962428276e-39
0.2333674729 -0.02506036684 0.05936687067 5.962428276e-39
-0.1611838788 -0.03401098028 0.05621005222 5.962428276e-39
-0.05097098649 -0.02624955028 0.1507032514 5.962428276e-39
-0.07922527939 -0.04865433276 0.04972391948 5.962428276e-39
0.2441055775 -0.02371988818 0.04704393446 5.962428276e-39
-0.1533548385 -0.04383392259 0.07131153345 5.962428276e-39
-0.1021594927 -0.03533482924 0.1889270842 5.962428276e-39
-0.0571353808 -0.0626001358 0.06105867773 5.962428276e-39
0.1582524478 -0.0601462014 0.0995214209 5.962428276e-39
-0.1798871905 -0.06099129468 0.05189242959 5.962428276e-39
-0.02197170444 -0.04959730431 0.1716999859 5.962428276e-39
-0.06766843051 -0.08003105223 0.03798446059 5.962428276e-39
0.1582522988 -0.06014619768 0.09952153265 5.962428276e-39
-0.1798873544 -0.06099130586 0.05189241469 5.962428276e-39
-0.02197136171 -0.04959726706 0.1716997176 5.962428276e-39
-0.06766853482 -0.08003102243 0.03798441589 5.962428276e-39
0.1581854075 -0.06013359129 0.09955468774 5.962428276e-39
-0.1800533235 -0.06100980192 0.05184594542 5.962428276e-39
-0.0217207782 -0.04957642034 0.171459645 5.962428276e-39
-0.06780385226 -0.0799850449 0.03794773668 5.962428276e-39
0.1540753394 -0.03161741793 0.02692430094 5.962428276e-39
-0.07375489175 -0.03583014756 0.06826153398 5.962428276e-39
-0.1093375012 -0.03656162694 0.2403933257 5.962428276e-39
0.03610474616 -0.08800676465 0.1057478562 5.962428276e-39
0.2814531028 0.001669420279 -0.01369690895 6.698542971e-39
-0.06960255653 -0.002529205987 0.01439483836 6.698542971e-39
0.2734537721 0.008192437701 0.01729037426 6.698542971e-39
0.2126767039 -0.007189567201 0.01880805381 6.698542971e-39
0.05154006183 -0.004650000483 -0.00486409571 6.698542971e-39
-0.2985303998 -0.002199899638 0.01883802377 6.698542971e-39
0.3895923793 -0.008653491735 0.009153489955 6.698542971e-39
-0.06264226139 0.002239566296 -0.01761925407 6.698542971e-39
0.1792057902 0.009795665741 -0.01648729667 6.698542971e-39
-0.1818448454 0.004418180324 -0.007331754081 6.698542971e-39
0.3118728399 0.004660543054 0.01074216887 6.698542971e-39
0.01396581437 0.002885199618 -0.0005841254606 6.698542971e-39
0.2078836709 0.00692460034 -0.01391233876 6.698542971e-39
-0.1672475487 0.002168212319 -0.002987755928 6.698542971e-39
0.2902793288 0.002604314825 0.009837041609 6.698542971e-39
0.03780997172 0.001309870975 0.006927148439 6.698542971e-39
0.1502801627 -0.007360027637 0.005701196846 6.698542971e-39
-0.2091307789 6.633251905e-05 -0.00716836378 6.698542971e-39
0.3323083818 -0.0001963302493 0.00841610413 6.698542971e-39
0.01256001275 -0.004290814977 0.007274625823 6.698542971e-39
0.1502799392 -0.007360042538 0.005701234099 6.698542971e-39
-0.2091309428 6.633251905e-05 -0.007168408483 6.698542971e-39
0.3323084414 -0.0001963376999 0.008416089229 6.698542971e-39
0.01255984884 -0.004290800076 0.00727458857 6.698542971e-39
0.1501158476 -0.007366665639 0.005726446398 6.698542971e-39
-0.209249571 7.101893425e-05 -0.007183331531 6.698542971e-39
0.3323786855 -0.0001902878284 0.008412870578 6.698542971e-39
0.01241520513 -0.004282061011 0.007239826024 6.698542971e-39
0.2536543906 0.004247751553 -0.008842648007 6.698542971e-39
-0.1074438021 0.001364185591 0.005226840265 6.698542971e-39
0.2552841008 0.0003135353327 0.004033029545 6.698542971e-39
0.1266062856 -0.009101735428 0.02924152277 6.698542971e-39
-0.391712755 -0.01170067769 0.01659825817 7.434656265e-39
-0.3126778603 -0.0405556038 -0.001729598385 7.434656265e-39
-0.2772932649 -0.07213260233 -0.007194215897 7.434656265e-39
-0.07116281241 -0.04126455262 -0.04537471756 7.434656265e-39
-0.2091111243 -0.05172671378 0.05729734153 7.434656265e-39
-0.4039178193 -0.01747586764 -0.07388625294 7.434656265e-39
-0.09506743401 -0.04494472966 0.05790078267 7.434656265e-39
0.1448203474 -0.055621095 -0.00786187686 7.434656265e-39
-0.290866673 -0.02384184673 0.06191122159 7.434656265e-39
-0.3583649397 -0.01707149483 -0.03963687643 7.434656265e-39
-0.1950180382 -0.06179299578 0.03271106631 7.434656265e-39
-0.02053215168 -0.03457434848 -0.0702079162 7.434656265e-39
-0.3291757107 -0.02160004526 0.06596361846 7.434656265e-39
-0.3451786041 -0.02432963625 -0.03323253244 7.434656265e-39
-0.219182238 -0.07406050712 0.02015879378 7.434656265e-39
-0.06375920773 -0.03910630941 -0.06968930364 7.434656265e-39
-0.2866585851 -0.03420831263 0.0535881035 7.434656265e-39
-0.3586115539 -0.02514992654 -0.03975216299 7.434656265e-39
-0.1905262321 -0.06290800124 0.03747399524 7.434656265e-39
0.02931803465 -0.05340606347 -0.06300157309 7.434656265e-39
-0.2866583467 -0.03420835733 0.0535880886 7.434656265e-39
-0.3586116731 -0.02514991909 -0.0397522524 7.434656265e-39
-0.1905260384 -0.06290794164 0.03747406229 7.434656265e-39
0.02931827307 -0.05340610817 -0.06300155818 7.434656265e-39
-0.2864794433 -0.03422908112 0.05357436091 7.434656265e-39
-0.3587104082 -0.02514844574 -0.03979075328 7.434656265e-39
-0.1904116869 -0.06287115812 0.03751920909 7.434656265e-39
0.02945524454 -0.05337956175 -0.06297510862 7.434656265e-39
-0.3700847626 -0.01468672045 0.04175198451 7.434656265e-39
-0.2757220864 -0.04143010825 -0.02597328834 7.434656265e-39
-0.2707945406 -0.07636170089 -0.007894262671 7.434656265e-39
-0.07159015536 -0.04635324702 -0.06273826957 7.434656265e-39
-0.2417347282 0.00660070125 0.01082816161 8.170410826e-39
-0.3166895509 0.02460690029 -0.002577790758 8.170410826e-39
-0.03706090897 -0.0440508239 -0.0550138019 8.170410826e-39
0.08585721999 -0.05304156616 -0.1396610886 8.170410826e-39
-0.04596125335 0.004994380753 -0.0114383027 8.170410826e-39
-0.4156668782 0.03767400607 -0.008565842174 8.170410826e-39
0.1214179695 0.01544656325 0.0001771301031 8.170410826e-39
-0.1084215865 -0.05371164903 -0.2582848966 8.170410826e-39
-0.1358274668 0.00995799806 0.0006379931583 8.170410826e-39
-0.3632734716 0.02420655079 -0.003527716035 8.170410826e-39
0.004031442571 0.007347485051 0.008123531938 8.170410826e-39
-0.104008086 -0.04230031371 -0.191659674 8.170410826e-39
-0.1699198931 0.005355269648 0.01172897033 8.170410826e-39
-0.3390978873 0.01470967103 -0.004405112471 8.170410826e-39
-0.01779089868 0.001435010694 0.004168009385 8.170410826e-39
-0.09333195537 -0.04766887799 -0.1775956154 8.170410826e-39
-0.1472469121 0.001993489685 0.009223393165 8.170410826e-39
-0.3657213449 0.01895580627 -0.005858935416 8.170410826e-39
0.02718285471 -0.005455834791 -0.01417404879 8.170410826e-39
-0.04668719321 -0.05509424582 -0.2136197835 8.170410826e-39
-0.1472467035 0.001993504586 0.00922333356 8.170410826e-39
-0.365721494 0.01895584352 -0.005858950317 8.170410826e-39
0.02718304843 -0.005455790088 -0.01417401899 8.170410826e-39
-0.04668732733 -0.05509422347 -0.2136199325 8.170410826e-39
-0.1471131891 0.001997974934 0.009186591022 8.170410826e-39
-0.3658250868 0.01898587681 -0.005862481892 8.170410826e-39
0.02732395381 -0.00540362997 -0.01415779442 8.170410826e-39
-0.04678237066 -0.0550878942 -0.2136844099 8.170410826e-39
-0.2152425647 0.003710711142 0.0166263897 8.170410826e-39
-0.2980501354 0.009383801371 -0.006657323334 8.170410826e-39
-0.0580561161 -0.01991776004 -0.02931478806 8.170410826e-39
0.03345377743 -0.05471308902 -0.1379359215 8.170410826e-39
0.3251132071 -0.0207821019 0.0331462957 8.906165387e-39
0.1034442559 -0.004267156124 0.02754850127 8.906165387e-39
0.3301325142 -0.01764645614 0.02431805059 8.906165387e-39
0.2520642877 -0.002817686647 0.01532467455 8.906165387e-39
0.1500481814 -0.007048901636 0.03371717781 8.906165387e-39
-0.1689636707 -0.008528741077 0.03734791651 8.906165387e-39
0.4615736306 -0.04112832621 0.01495710202 8.906165387e-39
-0.04322741926 -0.003744294168 0.02126998641 8.906165387e-39
0.2518502772 -0.01086522359 0.03896879405 8.906165387e-39
-0.0297697261 -0.004193815868 0.03655708209 8.906165387e-39
0.4160462022 -0.01852599904 0.03011635132 8.906165387e-39
0.1265460104 -0.003149918048 0.02252067439 8.906165387e-39
0.2671439052 -0.01205232646 0.04003086314 8.906165387e-39
-0.01208930463 -0.004229926504 0.03595446795 8.906165387e-39
0.3985031545 -0.02021288686 0.03132112697 8.906165387e-39
0.1663236916 -0.003211416537 0.02116706595 8.906165387e-39
0.246021226 -0.01156223845 0.03135766461 8.906165387e-39
-0.05734209716 -0.00830288697 0.02970661595 8.906165387e-39
0.4173071086 -0.03047144227 0.03109511733 8.906165387e-39
0.1097849011 -0.004447991494 0.01421552524 8.906165387e-39
0.246021077 -0.01156222541 0.03135767207 8.906165387e-39
-0.05734224617 -0.008302896284 0.02970665321 8.906165387e-39
0.4173071682 -0.03047143854 0.03109506518 8.906165387e-39
0.1097846851 -0.004448000807 0.01421551034 8.906165387e-39
0.2459226102 -0.01155240089 0.03135987744 8.906165387e-39
-0.05748829991 -0.008301568218 0.02972135507 8.906165387e-39
0.41739586 -0.03047400713 0.03107175417 8.906165387e-39
0.1096207276 -0.004454492126 0.01420780737 8.906165387e-39
0.2871933579 -0.01588558033 0.03225432336 8.906165387e-39
0.05074449629 -0.005869723391 0.02566410229 8.906165387e-39
0.3406793177 -0.0193552915 0.02474108525 8.906165387e-39
0.2205828726 -0.002600366948 0.01682627015 8.906165387e-39
-0.01319671515 -0.05123968795 -0.2366595268 9.641561216e-39
0.007491046097 -0.07129466534 -0.07515161484 9.641561216e-39
0.07947064936 -0.07970776409 -0.04460312054 9.641561216e-39
0.005224456079 -0.05328506604 -0.2057483345 9.641561216e-39
-0.133427456 -0.04330057651 -0.3133752942 9.641561216e-39
0.04064212739 -0.07198714465 0.1079056934 9.641561216e-39
0.3039749265 -0.05799266323 -0.03822723404 9.641561216e-39
0.020570416 -0.07687808573 -0.03347641602 9.641561216e-39
-0.08149117231 -0.0411006771 -0.2799666524 9.641561216e-39
0.02490380965 -0.0818381533 0.0165809691 9.641561216e-39
0.2630285919 -0.06599317491 -0.03552092239 9.641561216e-39
-0.003915185574 -0.06053198129 -0.1156882867 9.641561216e-39
-0.0831200853 -0.04868861288 -0.2725001574 9.641561216e-39
0.01148542203 -0.0856372416 -0.008964447305 9.641561216e-39
0.2291980833 -0.07019560784 -0.03519622982 9.641561216e-39
-0.004884472582 -0.05700312555 -0.1325940192 9.641561216e-39
-0.09557953477 -0.05484134331 -0.3018884063 9.641561216e-39
-0.01213878393 -0.09129568189 0.04221096262 9.641561216e-39
0.2429839969 -0.07377389073 -0.03309898451 9.641561216e-39
-0.006832240149 -0.0679596439 -0.1114162952 9.641561216e-39
-0.09557956457 -0.05484133586 -0.3018885255 9.641561216e-39
-0.01213868707 -0.09129559994 0.04221120104 9.641561216e-39
0.2429841608 -0.07377388328 -0.03309901431 9.641561216e-39
-0.006832232699 -0.0679596737 -0.1114161015 9.641561216e-39
-0.09561994672 -0.05483258516 -0.3019270897 9.641561216e-39
-0.01204325166 -0.09123554081 0.04238912836 9.641561216e-39
0.2431610674 -0.07374785841 -0.03310422599 9.641561216e-39
-0.006834258791 -0.06799888611 -0.1112267449 9.641561216e-39
-0.05735601485 -0.05477499217 -0.247537598 9.641561216e-39
-0.01571364328 -0.08663420379 -0.06384120136 9.641561216e-39
0.08650226891 -0.0832253322 -0.0403255932 9.641561216e-39
-0.009910646826 -0.05568197742 -0.1700194776 9.641561216e-39
-0.002467820887 -0.04190317169 0.1273200661 1.037659831e-38
-0.3831113577 0.001543822349 -0.06685996056 1.037659831e-38
-0.03375343606 -0.07691148669 -0.007661192678 1.037659831e-38
0.07313413173 -0.05431442335 -0.08933537453 1.037659831e-38
0.1884132624 -0.04433867335 0.00937857572 1.037659831e-38
-0.433062911 -0.009710881859 0.08311975747 1.037659831e-38
-0.2574535012 -0.06963243335 0.0105593903 1.037659831e-38
-0.2137342244 -0.07895474881 -0.0260448698 1.037659831e-38
0.08580317348 -0.04574738443 0.02616973035 1.037659831e-38
-0.4238606095 -0.003293643938 -0.01922169514 1.037659831e-38
-0.2236263454 -0.06236669049 -0.02969218977 1.037659831e-38
-0.1323093772 -0.0557413809 -0.05673773959 1.037659831e-38
0.05838526413 -0.04634603858 0.04760633782 1.037659831e-38
-0.4177260399 -0.007177531254 -0.05819104984 1.037659831e-38
-0.2214701623 -0.0587262027 -0.05429047719 1.037659831e-38
-0.1165310144 -0.05438907072 -0.06320070475 1.037659831e-38
0.0829044804 -0.05550594255 0.06149836257 1.037659831e-38
-0.4228579998 -0.01471951045 -0.01926264353 1.037659831e-38
-0.2161086202 -0.07337235659 -0.01910696737 1.037659831e-38
-0.09814833105 -0.06527015567 -0.05201910436 1.037659831e-38
0.08290464431 -0.05550592765 0.06149830297 1.037659831e-38
-0.4228579998 -0.01471949928 -0.01926244982 1.037659831e-38
-0.2161086947 -0.07337234169 -0.01910689287 1.037659831e-38
-0.09814845771 -0.06527017057 -0.05201908946 1.037659831e-38
0.08302745968 -0.05548667535 0.06141475588 1.037659831e-38
-0.4229049087 -0.01471746247 -0.01908651553 1.037659831e-38
-0.2162338793 -0.0733672753 -0.01906654052 1.037659831e-38
-0.09832414985 -0.06529930979 -0.05196715146 1.037659831e-38
-0.007036376279 -0.03057283349 0.108390063 1.037659831e-38
-0.3528986275 0.001319482108 -0.09611806273 1.037659831e-38
-0.07430310547 -0.07377924025 -0.02496672794 1.037659831e-38
0.02572719567 -0.05356227607 -0.08261685073 1.037659831e-38
0.1492819488 0.0131846182 -0.007702101488 1.111163541e-38
0.0348402895 0.0115339309 0.0122179566 1.111163541e-38
0.2968841493 0.003753761528 0.005470467266 1.111163541e-38
0.1575702578 -0.005920242053 -0.0115171792 1.111163541e-38
0.2900690138 -0.01278268266 -0.02075721882 1.111163541e-38
-0.2353429049 0.001062556054 -0.001262440579 1.111163541e-38
0.4116498232 -0.02076462656 -0.01216941606 1.111163541e-38
-0.04583111033 -0.007036783732 0.0430085063 1.111163541e-38
0.2198214382 0.003660738235 -0.01507116016 1.111163541e-38
-0.09353815019 0.007038412616 0.002131443936 1.111163541e-38
0.3644852042 0.003721175017 0.006576636806 1.111163541e-38
0.05859514698 0.007670220919 0.006604396738 1.111163541e-38
0.1910372078 0.009238368832 -0.01231409982 1.111163541e-38
-0.07219427079 0.00374414539 0.001725411159 1.111163541e-38
0.3490482271 0.003534964053 0.007810113486 1.111163541e-38
0.08545427769 0.006202831399 0.0008041856927 1.111163541e-38
0.2094723582 -0.004484592006 -0.01077648252 1.111163541e-38
-0.1174888834 -0.0001033264998 -0.001111402642 1.111163541e-38
0.3692819476 -0.008567764424 -0.002509551356 1.111163541e-38
0.06966564804 -0.001834936207 0.006302966271 1.111163541e-38
0.209472537 -0.004484609701 -0.01077651978 1.111163541e-38
-0.1174890697 -0.0001033221779 -0.001111432444 1.111163541e-38
0.3692820072 -0.008567788638 -0.002509588609 1.111163541e-38
0.06966552883 -0.001834922703 0.006302981172 1.111163541e-38
0.2096211463 -0.004500629846 -0.01080414373 1.111163541e-38
-0.1176528782 -0.0001068154525 -0.001145310234 1.111163541e-38
0.3693604171 -0.008585476317 -0.002508403966 1.111163541e-38
0.06955332309 -0.001826880267 0.00632556295 1.111163541e-38
0.1463364214 0.01138638984 -0.0061943857 1.111163541e-38
-0.01090410352 0.01008873247 0.02079360001 1.111163541e-38
0.3127115071 -0.0004293027741 0.006852080114 1.111163541e-38
0.1377143711 -0.001654668944 -0.004039444495 1.111163541e-38
-0.2246586382 -0.04545677453 -0.04174988717 1.184631237e-38
0.001853821566 -0.0617579557 -0.027460346 1.184631237e-38
-0.1353710145 -0.07445325702 -0.03722017258 1.184631237e-38
-0.4105856717 -0.03687520698 0.0119151799 1.184631237e-38
-0.3424645066 -0.02090376057 -0.03220940381 1.184631237e-38
-0.2456343323 -0.05869488046 -0.04440363124 1.184631237e-38
-0.3056326807 0.003054475179 -0.03869412839 1.184631237e-38
-0.2365611941 -0.05308448151 0.01438204106 1.184631237e-38
-0.3026253879 -0.02429588325 -0.0530625768 1.184631237e-38
-0.1349714696 -0.05950862169 -0.04228061438 1.184631237e-38
-0.2547360063 -0.01692166366 -0.07412149012 1.184631237e-38
-0.3430914283 -0.03129284456 -0.002716981573 1.184631237e-38
-0.2966258824 -0.03567631915 -0.0547674112 1.184631237e-38
-0.09215885401 -0.05166412517 -0.04814143851 1.184631237e-38
-0.2341194451 -0.02517753653 -0.07451727986 1.184631237e-38
-0.3765788376 -0.0224744752 -0.01077179704 1.184631237e-38
-0.2987315059 -0.03849407658 -0.04605938494 1.184631237e-38
-0.1055013686 -0.0881286934 -0.03147881851 1.184631237e-38
-0.2379362434 -0.03513702378 -0.05901563168 1.184631237e-38
-0.3429185748 -0.0471450761 0.008675714955 1.184631237e-38
-0.2987315953 -0.03849407658 -0.04605934024 1.184631237e-38
-0.1055015922 -0.08812876046 -0.03147879615 1.184631237e-38
-0.2379363328 -0.03513697535 -0.05901563168 1.184631237e-38
-0.342918396 -0.04714513943 0.008675744757 1.184631237e-38
-0.2988093197 -0.03847391158 -0.04603503644 1.184631237e-38
-0.1056924239 -0.08816323429 -0.03147171065 1.184631237e-38
-0.2380397767 -0.03508583456 -0.05903695524 1.184631237e-38
-0.3427753448 -0.04717194289 0.008695592172 1.184631237e-38
-0.220236674 -0.04333866015 -0.04749708995 1.184631237e-38
-0.001496477751 -0.04597139731 -0.04217420146 1.184631237e-38
-0.177422449 -0.05204951018 -0.05568659306 1.184631237e-38
-0.4002538323 -0.03293900564 0.002023187466 1.184631237e-38
-0.1529290378 -0.03556516767 -0.04441568628 1.258099074e-38
-0.3783881962 -0.03372091427 -0.03713972121 1.258099074e-38
-0.2903762162 -0.02661174349 -0.03212768957 1.258099074e-38
-0.3400541246 -0.03000469133 -0.06557775289 1.258099074e-38
0.06808632612 -0.0503050983 -0.0539360866 1.258099074e-38
-0.3765066266 -0.02120747045 0.1049234569 1.258099074e-38
-0.1329063773 -0.02141600288 -0.04224288464 1.258099074e-38
-0.3476734757 -0.03495264053 0.1051194742 1.258099074e-38
-0.06264814734 -0.03801518679 -0.05431388691 1.258099074e-38
-0.3776892126 -0.02913278714 0.03178244084 1.258099074e-38
-0.2364780754 -0.01014373451 -0.05411728844 1.258099074e-38
-0.3533772528 -0.04792750627 0.009958504699 1.258099074e-38
-0.09891841561 -0.03346863762 -0.05377876759 1.258099074e-38
-0.3715011179 -0.03543445468 0.02116888389 1.258099074e-38
-0.2574921846 -0.0153967021 -0.05032555386 1.258099074e-38
-0.3597884178 -0.05257166177 -0.01281697117 1.258099074e-38
-0.05710160732 -0.04244010523 -0.05414738879 1.258099074e-38
-0.3760105073 -0.0356810689 0.04745998234 1.258099074e-38
-0.2322745472 -0.02276040986 -0.03889517486 1.258099074e-38
-0.349262476 -0.05689452216 0.01995337382 1.258099074e-38
-0.05710138381 -0.04244012758 -0.05414740741 1.258099074e-38
-0.3760105968 -0.0356810838 0.04746004194 1.258099074e-38
-0.2322744727 -0.02276041359 -0.03889518976 1.258099074e-38
-0.3492624462 -0.05689453706 0.01995352283 1.258099074e-38
-0.05692903325 -0.04246496782 -0.05415447056 1.258099074e-38
-0.3760582507 -0.03566925228 0.04754650965 1.258099074e-38
-0.2322002202 -0.02276856452 -0.03889265284 1.258099074e-38
-0.349280864 -0.05688259006 0.02006279305 1.258099074e-38
-0.1430542767 -0.02877117507 -0.04985147342 1.258099074e-38
-0.3351386189 -0.04538473114 -0.0096654566 1.258099074e-38
-0.2693652511 -0.02851978317 -0.0295739118 1.258099074e-38
-0.3327568769 -0.05112610012 -0.03995532915 1.258099074e-38
0.1118609011 -0.04793614894 -0.08351263404 1.331530897e-38
0.03633522987 -0.004900416359 0.02462473884 1.331530897e-38
0.1687521338 -0.04867371544 0.04124906659 1.331530897e-38
0.02265975066 -0.04504295066 -0.1721961647 1.331530897e-38
-0.03814798594 -0.06327510625 0.07241883874 1.331530897e-38
0.2067369521 -0.009490428492 0.03322856501 1.331530897e-38
0.3683574796 -0.005458882079 0.0273422543 1.331530897e-38
-0.1094283089 -0.02894330584 -0.299478054 1.331530897e-38
0.03078650497 -0.03838802129 -0.1039429605 1.331530897e-38
0.1144925952 -0.004207333084 0.02911136672 1.331530897e-38
0.2786031067 -0.005890033208 0.02989758551 1.331530897e-38
-0.06865241379 -0.03527003154 -0.2226203084 1.331530897e-38
0.0559990108 -0.04362567514 -0.1098545119 1.331530897e-38
0.08449245989 -0.005590946879 0.02799721062 1.331530897e-38
0.2446261346 -0.02239431068 0.03602804989 1.331530897e-38
-0.06100413576 -0.04047418386 -0.2097228616 1.331530897e-38
0.03777341917 -0.04987000674 -0.1096010953 1.331530897e-38
0.09804865718 -0.01992741227 0.0338331759 1.331530897e-38
0.2788486481 -0.02726312727 0.03702792525 1.331530897e-38
-0.06260860711 -0.04019787163 -0.2562006712 1.331530897e-38
0.03777326271 -0.04987006634 -0.1096010506 1.331530897e-38
0.09804893285 -0.01992739737 0.0338331759 1.331530897e-38
0.2788488269 -0.02726309747 0.03702791035 1.331530897e-38
-0.06260862201 -0.04019785672 -0.2562008202 1.331530897e-38
0.03761404753 -0.04987575859 -0.1095633954 1.331530897e-38
0.09820504487 -0.01991704479 0.03383474797 1.331530897e-38
0.2790169418 -0.02723290026 0.03701676428 1.331530897e-38
-0.0626597926 -0.04017853364 -0.2562469542 1.331530897e-38
0.08523184806 -0.0435387753 -0.1018940657 1.331530897e-38
0.02333216742 -0.006736727897 0.02620298043 1.331530897e-38
0.1687421799 -0.05836224556 0.04352134466 1.331530897e-38
-0.009055262432 -0.04729371518 -0.1881118566 1.331530897e-38
0.01099869981 -0.03168110922 0.2001571655 1.404926846e-38
-0.03529505059 -0.03516132757 0.1000956744 1.404926846e-38
-0.004076711833 -0.05528967455 0.05030820519 1.404926846e-38
0.06763498485 -0.04488572106 -0.1491031945 1.404926846e-38
-0.0795295015 -0.03784177825 0.3026947379 1.404926846e-38
-0.04694247246 -0.03920026496 0.2097963691 1.404926846e-38
-0.4063262641 0.01032645069 0.001495091943 1.404926846e-38
0.03724681213 -0.04568506032 0.09590985626 1.404926846e-38
-0.0982267037 -0.03558100015 0.270342648 1.404926846e-38
-0.06954800338 -0.04422338307 0.1580228359 1.404926846e-38
-0.2979753613 -0.01743616723 0.04761470854 1.404926846e-38
0.01017198619 -0.04700225964 -0.01425083354 1.404926846e-38
-0.1007306725 -0.03939642012 0.2651548386 1.404926846e-38
-0.07625298202 -0.05454586819 0.1425565034 1.404926846e-38
-0.2411412448 -0.01551753841 0.06195320934 1.404926846e-38
-0.00128157367 -0.0485874638 -0.05013621971 1.404926846e-38
-0.1050077602 -0.04108362272 0.3101316094 1.404926846e-38
-0.07209631056 -0.04782665521 0.1609604061 1.404926846e-38
-0.3191559017 -0.03344799951 0.03721852228 1.404926846e-38
0.05171934143 -0.05829457194 -0.006596052554 1.404926846e-38
-0.1050078049 -0.04108362272 0.3101317286 1.404926846e-38
-0.07209632546 -0.0478265807 0.1609605849 1.404926846e-38
-0.3191562593 -0.033447925 0.03721850738 1.404926846e-38
0.05171925575 -0.05829455703 -0.006595933344 1.404926846e-38
-0.1050402522 -0.04106527939 0.3102085888 1.404926846e-38
-0.07208735496 -0.04778565094 0.1610661745 1.404926846e-38
-0.3194552362 -0.03340310976 0.03716871887 1.404926846e-38
0.05163719133 -0.05827920139 -0.006469606422 1.404926846e-38
-0.06918234378 -0.03388154879 0.2288152426 1.404926846e-38
-0.06101886928 -0.04859748483 0.1077537909 1.404926846e-38
-0.09454762936 -0.03947799653 0.06473121792 1.404926846e-38
0.0380579792 -0.03990769386 -0.1149394885 1.404926846e-38
-0.0857841596 -0.07174456865 -0.004497125279 1.478322936e-38
0.2798240781 -0.07551861554 -0.00862746872 1.478322936e-38
0.1043960527 -0.05491513386 -0.06356243044 1.478322936e-38
0.07377541065 -0.07095926255 0.04500687495 1.478322936e-38
-0.3628619313 -0.04258361831 -0.03012561984 1.478322936e-38
0.2484167516 -0.08021948487 -0.02754971385 1.478322936e-38
-0.1109233946 -0.0449003987 0.2188975215 1.478322936e-38
0.2434777766 -0.07363217324 0.01125006564 1.478322936e-38
-0.2372617573 -0.0610560067 -0.03043730371 1.478322936e-38
0.393478781 -0.0680873394 0.0004390775866 1.478322936e-38
-0.06522621214 -0.05015042797 0.1564624757 1.478322936e-38
0.1895466149 -0.07159787416 0.002295206999 1.478322936e-38
-0.1961286664 -0.06667938083 -0.01759888232 1.478322936e-38
0.3712885976 -0.07061495632 -0.003883550875 1.478322936e-38
-0.05781669915 -0.05245047063 0.1538397223 1.478322936e-38
0.1621018648 -0.07251406461 0.002078694059 1.478322936e-38
-0.236792773 -0.07817599177 -0.01458395459 1.478322936e-38
0.3960023522 -0.07442235202 0.001153528225 1.478322936e-38
-0.07387270778 -0.05020259321 0.1921848953 1.478322936e-38
0.1885428131 -0.07074384391 0.01119231619 1.478322936e-38
-0.2367929965 -0.07817594707 -0.01458393969 1.478322936e-38
0.3960023522 -0.07442235202 0.001153483521 1.478322936e-38
-0.07387281954 -0.05020258576 0.1921849847 1.478322936e-38
0.1885429621 -0.07074385881 0.01119233109 1.478322936e-38
-0.2370114028 -0.07812602818 -0.01458261348 1.478322936e-38
0.395991981 -0.07442034036 0.001117109787 1.478322936e-38
-0.07396996021 -0.05019570142 0.1922080964 1.478322936e-38
0.188676998 -0.07075610757 0.01117646322 1.478322936e-38
-0.1052286997 -0.07092896849 -0.005095676053 1.478322936e-38
0.2818264961 -0.06736709923 -0.0121728275 1.478322936e-38
0.050994277 -0.05811521411 0.1021847352 1.478322936e-38
0.09564401954 -0.06657252461 0.0130542703 1.478322936e-38
0.007380522788 -0.001924899872 -0.02455564402 1.551683013e-38
0.2561812699 0.01730402 -0.009475647472 1.551683013e-38
-0.1135304496 -0.02169265784 0.03817346692 1.551683013e-38
0.1494328082 -0.04834102839 -0.1033300757 1.551683013e-38
0.2232757509 -0.001385672949 -0.02561064623 1.551683013e-38
0.3923614323 -0.01941982098 -0.01850760169 1.551683013e-38
0.1293728352 -0.03176029027 0.04163359851 1.551683013e-38
-0.05734653026 -0.02464961819 -0.1398288012 1.551683013e-38
0.1100218594 0.01435815915 -0.01092775632 1.551683013e-38
0.3340637088 0.009503987618 -0.02633521706 1.551683013e-38
-0.04477319494 -0.02257068083 0.04016334936 1.551683013e-38
0.01529295743 -0.008317338303 -0.08874953538 1.551683013e-38
0.06843169779 0.01082574762 -0.01999364235 1.551683013e-38
0.3100409806 0.008092107251 -0.02384937182 1.551683013e-38
-0.09108579159 -0.02529089153 0.04045255855 1.551683013e-38
0.03198640794 -0.01791479252 -0.08301404864 1.551683013e-38
0.1093002334 0.00368244783 -0.01124395337 1.551683013e-38
0.3336471915 -0.01008851826 -0.03057024442 1.551683013e-38
-0.03088429756 -0.03111286275 0.03874628246 1.551683013e-38
0.02595515177 -0.03383753821 -0.1178252771 1.551683013e-38
0.1093004942 0.00368244783 -0.01124393847 1.551683013e-38
0.3336473107 -0.01008854806 -0.03057019599 1.551683013e-38
-0.03088411875 -0.03111295216 0.03874627873 1.551683013e-38
0.02595503256 -0.03383749351 -0.1178253517 1.551683013e-38
0.1095024571 0.003695009276 -0.01121767517 1.551683013e-38
0.3337807953 -0.01009620726 -0.03052796796 1.551683013e-38
-0.03071501665 -0.03111981601 0.03874532506 1.551683013e-38
0.02584427223 -0.03380525485 -0.1178486422 1.551683013e-38
-0.008757159114 0.000520288886 -0.02845251933 1.551683013e-38
0.2359011322 0.008557513356 -0.01866185479 1.551683013e-38
-0.1095931232 -0.02494707145 0.03896831721 1.551683013e-38
0.1011740118 -0.03355371207 -0.08771944046 1.551683013e-38
0.0455314368 -0.03823679686 0.144092381 1.625043089e-38
0.05435369909 -0.01149839163 0.02900257707 1.625043089e-38
0.02176371031 -0.03626065701 0.2040213346 1.625043089e-38
-0.01673485525 -0.06338463724 0.1816867441 1.625043089e-38
-0.09008701146 -0.03787322715 0.1848312765 1.625043089e-38
-0.1868537664 -0.002698334865 0.009714759886 1.625043089e-38
0.1618656367 0.00311894645 0.02537830546 1.625043089e-38
-0.1352527589 -0.04402344301 0.04664105922 1.625043089e-38
-0.03555522114 -0.04414873943 0.2020876408 1.625043089e-38
-0.1094205379 -0.004143773112 0.0302217938 1.625043089e-38
0.1041596755 -0.04282926396 0.06244780123 1.625043089e-38
-0.07163298875 -0.02841496281 0.1107166186 1.625043089e-38
-0.02360629477 -0.04614536837 0.1993635744 1.625043089e-38
-0.08721745759 -0.007553601172 0.03531752154 1.625043089e-38
0.08088109642 -0.0490739271 0.07935146987 1.625043089e-38
-0.06615185738 -0.03593559191 0.1269920319 1.625043089e-38
-0.05120364204 -0.04789217934 0.2364388555 1.625043089e-38
-0.1019609794 -0.01150403451 0.02566871792 1.625043089e-38
0.09705162048 -0.05890293047 0.07753975689 1.625043089e-38
