# .PCD v0.7 - Point Cloud Data file format
VERSION 0.7
FIELDS x y z rgb
SIZE 4 4 4 4
TYPE F F F F
COUNT 1 1 1 1
WIDTH 840
HEIGHT 1
VIEWPOINT 0 0 0 1 0 0 0
POINTS 840
DATA ascii
0.2062428743 0.1604329497 -0.4402795136 5.820783626e-39
0.06837202609 -0.1244004965 0.3996527493 5.820783626e-39
0.188823998 -0.07798680663 0.02992546931 5.820783626e-39
0.1672861427 0.1684824079 -0.1077570096 5.820783626e-39
0.1623093039 0.1609258503 -0.4706119895 5.820783626e-39
0.008817876689 -0.1253110766 0.4100311697 5.820783626e-39
0.1893732399 -0.08242820948 -0.03056546859 5.820783626e-39
0.00403899746 0.188536644 0.2912349403 5.090401643e-39
-0.1464985907 0.1493244171 0.1908118874 5.090401643e-39
-0.09736377001 0.1438915581 0.2556898296 5.090401643e-39
-0.1783784926 -0.112453118 0.1883119047 5.090401643e-39
0.0535438098 0.1593061537 0.1896052957 5.090401643e-39
-0.09886003286 0.1377466619 -0.05417227 5.090401643e-39
-0.05857700855 0.1534460485 0.3579936326 5.090401643e-39
-0.1986471564 -0.07693940401 0.3258411884 5.090401643e-39
0.04697364941 0.1578434259 0.145809859 5.090401643e-39
-0.104645744 0.1478931755 -0.1485216469 5.090401643e-39
-0.06212701648 0.150878951 0.3879491687 5.090401643e-39
-0.2018491179 -0.05774762481 0.35804528 5.090401643e-39
0.04676992446 0.1764995605 0.2229126692 5.090401643e-39
-0.04911119491 0.1330580562 0.03749832511 5.090401643e-39
-0.04955508932 0.1833739132 0.3388631046 5.090401643e-39
-0.1978528351 -0.1011779383 0.2818761766 5.090401643e-39
0.02255474404 0.1730222255 0.2524574995 5.090401643e-39
-0.06620666385 0.1348720789 0.1187148318 5.090401643e-39
-0.0683586821 0.1724086851 0.301205039 5.090401643e-39
-0.2053713202 -0.1071533859 0.2379075885 5.090401643e-39
0.05070866272 0.1617523134 0.1901601851 5.090401643e-39
-0.1120847911 0.1336155832 -0.05288847163 5.090401643e-39
-0.05990230292 0.1600944996 0.3595500588 5.090401643e-39
-0.195154652 -0.1007189676 0.3154333234 5.090401643e-39
0.03638546914 0.1701443791 0.2185059935 5.090401643e-39
-0.05406663194 0.1268565357 0.03221578896 5.090401643e-39
-0.05313254893 0.1723169982 0.3384507895 5.090401643e-39
-0.195937261 -0.1100667194 0.2866458297 5.090401643e-39
0.04896441475 0.1554398537 0.1827377528 5.090401643e-39
-0.1189501584 0.130356282 -0.07872785628 5.090401643e-39
-0.0559387356 0.1610981375 0.3644434214 5.090401643e-39
-0.1919303983 -0.09927312285 0.3203557134 5.090401643e-39
-0.1776155233 0.1857402176 0.08464747667 4.359662329e-39
-0.2140963972 0.1473047584 0.2052824795 4.359662329e-39
-0.2072345316 0.139369294 0.09534364194 4.359662329e-39
-0.1968683153 -0.1134177595 -0.05166997388 4.359662329e-39
-0.08376248181 0.1635056436 0.1685618907 4.359662329e-39
-0.0100472318 0.161969915 0.2890977859 4.359662329e-39
-0.2205479592 0.1468894184 -0.1551344991 4.359662329e-39
-0.1630607396 -0.1096046045 0.09259288013 4.359662329e-39
-0.0516269654 0.1732242405 0.1941592544 4.359662329e-39
0.02081898041 0.1713657081 0.3140212297 4.359662329e-39
-0.2176363468 0.109077096 -0.2056749463 4.359662329e-39
-0.1499854773 -0.1119102389 0.1465827823 4.359662329e-39
-0.1108046472 0.1655255556 0.1509979814 4.359662329e-39
-0.03739460185 0.1640386134 0.2625685632 4.359662329e-39
-0.2220883965 0.1484603882 -0.09844498336 4.359662329e-39
-0.1678294539 -0.1140794307 0.06433279812 4.359662329e-39
-0.1443205327 0.1594483256 0.1224909425 4.359662329e-39
-0.07412969321 0.1595159322 0.2321966141 4.359662329e-39
-0.2184296995 0.1399383694 -0.02371036634 4.359662329e-39
-0.1828612834 -0.110621646 0.008871128783 4.359662329e-39
-0.08580753952 0.1688626558 0.1684245616 4.359662329e-39
-0.01513566729 0.1672825813 0.2843806744 4.359662329e-39
-0.2160262167 0.1433359981 -0.1515423954 4.359662329e-39
-0.1666123122 -0.1154860854 0.09526826441 4.359662329e-39
-0.1069583446 0.1607643962 0.1523480117 4.359662329e-39
-0.03665404767 0.1587428451 0.2628589272 4.359662329e-39
-0.2168679684 0.1448671073 -0.1035832241 4.359662329e-39
-0.164987132 -0.1155873537 0.06455954164 4.359662329e-39
-0.0739024207 0.1641189903 0.1755060554 4.359662329e-39
-0.01057956368 0.1621022373 0.2864290774 4.359662329e-39
-0.208362624 0.1294524819 -0.1617266238 4.359662329e-39
-0.1567158103 -0.1200435311 0.09974562377 4.359662329e-39
-0.2025773078 0.1338826865 0.4558783174 3.628921614e-39
-0.1391478628 0.1727491915 0.2808895707 3.628921614e-39
-0.2238278836 -0.1140644997 0.354639262 3.628921614e-39
-0.1692840308 0.1669224948 0.4130494893 3.628921614e-39
-0.2230157405 0.1498042792 0.35806337 3.628921614e-39
-0.1789507568 0.154523164 0.01407408156 3.628921614e-39
-0.2050445825 -0.1372496188 0.3878237605 3.628921614e-39
-0.1959259659 0.1377254874 0.2105998397 3.628921614e-39
-0.2261585742 0.1662400067 0.3190482855 3.628921614e-39
-0.1764758974 0.1762674451 -0.03016005456 3.628921614e-39
-0.1808212996 -0.1482768506 0.3988375068 3.628921614e-39
-0.1969963759 0.135871917 0.1352854222 3.628921614e-39
-0.2244111449 0.1532261223 0.3868177533 3.628921614e-39
-0.1812529117 0.150364995 0.06362683326 3.628921614e-39
-0.2127978206 -0.1451437026 0.3541162014 3.628921614e-39
-0.2016188204 0.144229427 0.2670582831 3.628921614e-39
-0.230675146 0.1496269405 0.4360593259 3.628921614e-39
-0.1718624085 0.146816358 0.160436675 3.628921614e-39
-0.217692405 -0.1327084005 0.3539374769 3.628921614e-39
-0.2040452063 0.1451400518 0.3477194011 3.628921614e-39
-0.222088635 0.1491246074 0.3577705622 3.628921614e-39
-0.1817592084 0.157272175 0.02493232675 3.628921614e-39
-0.1984171122 -0.1441858858 0.3746031225 3.628921614e-39
-0.1922100931 0.1454696804 0.1994606853 3.628921614e-39
-0.2189897597 0.1391704977 0.3878709078 3.628921614e-39
-0.1766951531 0.1407219172 0.06777532399 3.628921614e-39
-0.2092790455 -0.1383793801 0.3693932593 3.628921614e-39
-0.195239976 0.1400398165 0.2646990418 3.628921614e-39
-0.2038064301 0.1347991377 0.3390438855 3.628921614e-39
-0.1714844853 0.1494239718 0.00419162726 3.628921614e-39
-0.1911228895 -0.1480259299 0.3810603619 3.628921614e-39
-0.1850812137 0.1473986506 0.1830856949 3.628921614e-39
-0.1223082393 0.1416312903 0.004545359407 2.898180898e-39
-0.01318260282 0.1290655732 -0.07382778823 2.898180898e-39
-0.102424711 0.1888499707 -0.1016463861 2.898180898e-39
0.07737931609 -0.1084465235 -0.07029267401 2.898180898e-39
-0.212245211 0.1544691771 0.2921058834 2.898180898e-39
0.1748345345 0.1659459472 0.03877993301 2.898180898e-39
-0.03175207227 0.1133737564 -0.2916463315 2.898180898e-39
-0.01685365476 -0.0827075541 -0.20145154 2.898180898e-39
-0.2322510034 0.177748993 0.3758844733 2.898180898e-39
0.1975586116 0.1733228564 0.08654753119 2.898180898e-39
-0.0814859271 0.1177400202 -0.3382846415 2.898180898e-39
-0.02993532829 -0.08995129913 -0.2377060503 2.898180898e-39
-0.2048565596 0.1448098868 0.2251247764 2.898180898e-39
0.1772672683 0.1627852917 0.02125556581 2.898180898e-39
-0.005167434458 0.1364624202 -0.2273286432 2.898180898e-39
0.003970020916 -0.09415625781 -0.1602558345 2.898180898e-39
-0.1969956756 0.1308216602 0.1404812932 2.898180898e-39
0.1299946904 0.1628151238 -0.005212960299 2.898180898e-39
-0.007476045284 0.1528933048 -0.1543407142 2.898180898e-39
0.05961251259 -0.09166141599 -0.1093613505 2.898180898e-39
-0.2139346153 0.1595589221 0.3043596745 2.898180898e-39
0.1773155332 0.1721034348 0.04042049497 2.898180898e-39
-0.04095058143 0.1252903193 -0.2818762064 2.898180898e-39
-0.009536052123 -0.09882613271 -0.1901389062 2.898180898e-39
-0.1969899982 0.1406077296 0.2322638482 2.898180898e-39
0.167736873 0.1578812152 0.02061081491 2.898180898e-39
-0.01139724813 0.1288452446 -0.2272894681 2.898180898e-39
0.01152353361 -0.09655830264 -0.1601413786 2.898180898e-39
-0.1991137117 0.1546333283 0.3134287894 2.898180898e-39
0.1717767715 0.1674218476 0.05062199757 2.898180898e-39
-0.05278643221 0.1261473894 -0.2864478827 2.898180898e-39
-0.008847303689 -0.1092608199 -0.1984282285 2.898180898e-39
-0.2081432045 0.1598552614 0.4365746677 2.167082852e-39
0.1605823338 0.0427059494 0.3871290088 2.167082852e-39
0.184075579 -0.1494093686 0.2465966195 2.167082852e-39
0.09175895154 -0.01825273037 0.445671767 2.167082852e-39
-0.01989745349 0.131408751 0.459716022 2.167082852e-39
0.1467848867 0.06829211861 0.4002933502 2.167082852e-39
0.1688693911 -0.1090367734 0.008220993914 2.167082852e-39
0.134112224 -0.1337119639 0.4360657334 2.167082852e-39
0.02303453721 0.1217365786 0.4553632736 2.167082852e-39
0.1351451874 -0.07473184913 0.3710374534 2.167082852e-39
0.15193066 -0.1109674722 -0.04545165598 2.167082852e-39
0.1601452082 -0.158689782 0.4259103537 2.167082852e-39
-0.05166550726 0.1297412366 0.46083197 2.167082852e-39
0.1117047668 0.0835493058 0.3818387985 2.167082852e-39
0.1939228475 -0.1329016685 0.03724042699 2.167082852e-39
0.1029197127 -0.1344870478 0.4211363494 2.167082852e-39
-0.1142488718 0.1225354001 0.4652148187 2.167082852e-39
0.07219008356 0.119852975 0.3874942958 2.167082852e-39
0.2048920542 -0.1307580173 0.1139963269 2.167082852e-39
0.08064057678 -0.09778393805 0.4439742565 2.167082852e-39
-0.02613745257 0.1220656037 0.4611061811 2.167082852e-39
0.1321224719 0.04228419065 0.3939060867 2.167082852e-39
0.1801973879 -0.115018703 -0.01780418679 2.167082852e-39
0.1252248138 -0.1429235935 0.432960093 2.167082852e-39
-0.05542265996 0.1227376238 0.4617909789 2.167082852e-39
0.1066614911 0.09449107945 0.3979600966 2.167082852e-39
0.1895616055 -0.1289253831 0.0348617807 2.167082852e-39
0.1045866981 -0.1255783737 0.4408013225 2.167082852e-39
-0.01921489462 0.1178971604 0.4589394927 2.167082852e-39
0.1138540134 0.008992325515 0.3924800754 2.167082852e-39
0.176548779 -0.1157083437 -0.03283235058 2.167082852e-39
0.1259042621 -0.1480476111 0.4273871481 2.167082852e-39
0.1135802791 0.177519843 0.3978619277 1.435982003e-39
-0.116696775 0.12008968 0.4281620383 1.435982003e-39
-0.08058646321 0.1249912307 0.2926119566 1.435982003e-39
-0.2192427665 0.1327745765 0.385748595 1.435982003e-39
-0.1807276607 0.1706231683 0.2863331139 1.435982003e-39
0.01389104221 0.1424042732 0.4364103377 1.435982003e-39
0.1463968009 0.1200604439 0.3567327559 1.435982003e-39
-0.1917334199 -0.0319721438 0.4196072817 1.435982003e-39
-0.1456651539 0.1739161909 0.2287524343 1.435982003e-39
0.07379402965 0.156260252 0.4430087805 1.435982003e-39
0.198378697 0.1459186971 0.4116815329 1.435982003e-39
-0.187572211 -0.07110409439 0.4334740639 1.435982003e-39
-0.1230790466 0.1679234505 0.348343879 1.435982003e-39
-0.01487902272 0.1044778302 0.4270406365 1.435982003e-39
0.07021957636 0.1250327528 0.3195109963 1.435982003e-39
-0.1913878769 0.008768409491 0.3978385329 1.435982003e-39
-0.03087439016 0.1600528955 0.3923880756 1.435982003e-39
-0.05298416317 0.1049478799 0.4376913607 1.435982003e-39
-0.01386464201 0.1291746795 0.2998357713 1.435982003e-39
-0.2040594369 0.05531845614 0.3794407845 1.435982003e-39
-0.1720186025 0.1741988212 0.3025485277 1.435982003e-39
0.01082334854 0.08092273027 0.4416108727 1.435982003e-39
0.1278276443 0.1107011735 0.3564989269 1.435982003e-39
-0.1912701577 -0.02366680093 0.4144637883 1.435982003e-39
-0.1122131422 0.1591964066 0.3570654988 1.435982003e-39
-0.01559344213 0.09225617349 0.4341950715 1.435982003e-39
0.06833802164 0.1124832332 0.3232962489 1.435982003e-39
-0.1907051206 0.007480541244 0.4014317095 1.435982003e-39
-0.1595835686 0.1677127779 0.3151314557 1.435982003e-39
0.01637102477 0.05679286644 0.4459106326 1.435982003e-39
0.1337615401 0.1117259264 0.3794813454 1.435982003e-39
-0.1875583977 -0.02956453152 0.413762331 1.435982003e-39
0.110308066 0.180333063 0.2612004876 7.045238224e-40
-0.1858874559 0.1644791961 0.3791188598 7.045238224e-40
0.05719509721 -0.1465240568 0.4229635298 7.045238224e-40
0.1284695268 0.1052427515 0.4084560275 7.045238224e-40
0.1319017559 0.1610382795 0.04172081128 7.045238224e-40
-0.116792433 0.1515884548 0.214849025 7.045238224e-40
0.1375824362 -0.1013752744 0.3063489795 7.045238224e-40
0.01144340634 0.1132899374 0.4596805573 7.045238224e-40
0.1539900303 0.1525017619 -0.0260019172 7.045238224e-40
-0.09865171462 0.169999063 0.1603734642 7.045238224e-40
0.1444719583 -0.105278194 0.2479003668 7.045238224e-40
-0.04193007201 0.1284944117 0.4607363343 7.045238224e-40
0.1374360323 0.1583634615 0.113951683 7.045238224e-40
-0.1365653127 0.1561919153 0.2492154837 7.045238224e-40
0.1130733117 -0.1235479265 0.334051013 7.045238224e-40
0.05833072588 0.1089617461 0.4543465376 7.045238224e-40
0.1252296269 0.1670157313 0.1883787215 7.045238224e-40
-0.1570799947 0.1529699564 0.2961415052 7.045238224e-40
0.08935199678 -0.1225804687 0.3740651906 7.045238224e-40
0.09663338214 0.09881941229 0.4443969429 7.045238224e-40
0.1454984993 0.156451866 0.04675906897 7.045238224e-40
-0.1209144294 0.1575450748 0.2186465412 7.045238224e-40
0.1401934028 -0.1067062542 0.3123002946 7.045238224e-40
0.01487535797 0.1141191125 0.4579893053 7.045238224e-40
0.1374259442 0.151767686 0.1124499962 7.045238224e-40
-0.1327149868 0.1516752243 0.2518469989 7.045238224e-40
0.1185836345 -0.1159935668 0.3403126597 7.045238224e-40
0.05786106735 0.1045262143 0.4561810791 7.045238224e-40
0.1408899724 0.141848132 0.03504607081 7.045238224e-40
-0.1136183366 0.1556975693 0.2159559876 7.045238224e-40
0.141384542 -0.1110232323 0.3081483543 7.045238224e-40
0.007048370782 0.1174879447 0.4576651156 7.045238224e-40
-0.05592252314 0.164575845 0.1500644535 6.490113838e-41
0.1951635331 0.1514011621 0.2626429796 6.490113838e-41
-0.2159386873 -0.1177829579 0.2638834417 6.490113838e-41
-0.1151620075 -0.06543918699 0.288829118 6.490113838e-41
-0.08524508774 0.1572827548 0.03714682162 6.490113838e-41
0.0786537081 0.1606063545 0.0965532437 6.490113838e-41
-0.1952769607 -0.1075172052 0.1229603067 6.490113838e-41
0.05214958265 -0.09218164533 0.3423236907 6.490113838e-41
-0.1150653884 0.1616011113 -0.03177829459 6.490113838e-41
0.05290566385 0.1680595428 0.04461536556 6.490113838e-41
-0.2038282156 -0.1129834652 0.05687554181 6.490113838e-41
0.07594747096 -0.09291983396 0.3700560927 6.490113838e-41
-0.0882588774 0.1716138721 0.07156738639 6.490113838e-41
0.1164539903 0.1441205144 0.1306650788 6.490113838e-41
-0.1909754425 -0.1177256852 0.1585089713 6.490113838e-41
0.009101511911 -0.0995792374 0.3221356273 6.490113838e-41
-0.05035074428 0.1574259549 0.1096026078 6.490113838e-41
0.1413142234 0.1276491284 0.1809654683 6.490113838e-41
-0.196882695 -0.1133300439 0.191005826 6.490113838e-41
-0.04039331153 -0.09812125564 0.3020010889 6.490113838e-41
-0.09806222469 0.1681085378 0.03397752345 6.490113838e-41
0.07705654949 0.1732535362 0.09511393309 6.490113838e-41
-0.1981083006 -0.1241740212 0.1203050017 6.490113838e-41
0.04333004728 -0.09612289071 0.3394026756 6.490113838e-41
-0.08404623717 0.1671862453 0.06895518303 6.490113838e-41
0.1136738956 0.142380923 0.1341235787 6.490113838e-41
-0.1914316565 -0.116048038 0.1570214331 6.490113838e-41
0.012012247 -0.1028041244 0.3220323622 6.490113838e-41
-0.09977824241 0.1654115319 0.01457344368 6.490113838e-41
0.07106347382 0.1708330214 0.08640719205 6.490113838e-41
-0.1920538098 -0.1214233711 0.1123016626 6.490113838e-41
0.04478597641 -0.09991644323 0.342779547 6.490113838e-41
0.03059921786 0.1087311879 0.4722045064 8.028094954e-40
-0.1176028401 -0.1549026221 0.347825408 8.028094954e-40
-0.04400295019 -0.01395191625 0.3827722073 8.028094954e-40
-0.2053931355 0.001839166274 0.3521926701 8.028094954e-40
-0.2358479202 0.1307453662 0.4739664495 8.028094954e-40
-0.1931315958 -0.03346254304 0.3392750323 8.028094954e-40
0.06535813957 -0.07631343603 0.2384161651 8.028094954e-40
-0.1081240103 -0.09927129745 0.2896689773 8.028094954e-40
-0.2458199561 0.176191777 0.4277716577 8.028094954e-40
-0.1986396164 0.01385618746 0.3512558043 8.028094954e-40
0.09619552642 -0.1038004756 0.1883453876 8.028094954e-40
-0.0776944235 -0.0963107273 0.2582912743 8.028094954e-40
-0.1799257249 0.1129159778 0.4787588716 8.028094954e-40
-0.1873321682 -0.06024543196 0.3124462068 8.028094954e-40
0.03335716203 -0.08225999773 0.2560570538 8.028094954e-40
-0.1384807229 -0.08186811209 0.3022685945 8.028094954e-40
-0.05798160657 0.091832228 0.4783932269 8.028094954e-40
-0.1709510088 -0.09477287531 0.309677422 8.028094954e-40
0.00848946441 -0.05197998881 0.3264555037 8.028094954e-40
-0.1896128953 -0.05173933879 0.3338861465 8.028094954e-40
-0.2288495749 0.1069747806 0.4795311689 8.028094954e-40
-0.1962962151 -0.03462253511 0.3380758762 8.028094954e-40
0.05968756974 -0.09499889612 0.2234172374 8.028094954e-40
-0.113542296 -0.1033765674 0.2751123607 8.028094954e-40
-0.1709026396 0.09720831364 0.4817925692 8.028094954e-40
-0.186875686 -0.06086184457 0.319090873 8.028094954e-40
0.03381657973 -0.08338820189 0.2459725589 8.028094954e-40
-0.1368445605 -0.07950094342 0.3028585017 8.028094954e-40
-0.2096305937 0.1081138477 0.4807159007 8.028094954e-40
-0.1883020997 -0.02674976923 0.3304250836 8.028094954e-40
0.06525234878 -0.105021216 0.2078953683 8.028094954e-40
-0.1067359075 -0.1055270582 0.2579881549 8.028094954e-40
-0.04396563396 0.1903272122 0.4862998724 1.540360521e-39
-0.1708495468 0.04414213821 0.4296821654 1.540360521e-39
-0.04806346446 -0.07376583666 0.4665839672 1.540360521e-39
-0.1808448285 0.1503459811 0.4736936688 1.540360521e-39
-0.166866824 0.1564782858 0.4764270782 1.540360521e-39
-0.1769807041 -0.1438963264 0.3943645954 1.540360521e-39
0.09918790311 0.0208454933 0.4613245726 1.540360521e-39
-0.2152439952 -0.008582411334 0.4581853449 1.540360521e-39
-0.1616064608 0.09514455497 0.4592880905 1.540360521e-39
-0.197380349 -0.165968582 0.3846306503 1.540360521e-39
0.1364070028 0.03502881154 0.4672597051 1.540360521e-39
-0.2106545866 -0.06965148449 0.4503960013 1.540360521e-39
-0.133003056 0.1582597792 0.4846060276 1.540360521e-39
-0.1596960127 -0.09827183187 0.3725885451 1.540360521e-39
0.06453815848 -0.001530787675 0.4610470831 1.540360521e-39
-0.2187646329 0.04496591911 0.4526312947 1.540360521e-39
-0.08724498004 0.1568895131 0.4853928983 1.540360521e-39
-0.1763564199 -0.01632784493 0.4070480764 1.540360521e-39
0.01588882878 -0.0371046029 0.4650708437 1.540360521e-39
-0.2091971487 0.1025999784 0.4652841687 1.540360521e-39
-0.156580925 0.1573733836 0.4772759974 1.540360521e-39
-0.1796655059 -0.1493064016 0.3989217281 1.540360521e-39
0.09808596969 0.006222153082 0.4633919299 1.540360521e-39
-0.2166141719 -0.008592580445 0.4498939216 1.540360521e-39
-0.1277903914 0.1561398655 0.4858460724 1.540360521e-39
-0.1661669463 -0.09592291713 0.3924618661 1.540360521e-39
0.06503468007 -0.01193673071 0.4663096964 1.540360521e-39
-0.2151650339 0.03799678013 0.455938369 1.540360521e-39
-0.1464532763 0.150445506 0.4774308503 1.540360521e-39
-0.1678720564 -0.1535878181 0.3894474506 1.540360521e-39
0.09963295609 0.003851953428 0.4663292468 1.540360521e-39
-0.2117744684 -0.01351039577 0.4451732039 1.540360521e-39
0.08250044286 0.1897013783 -0.1644013822 2.277910146e-39
-0.1948543042 0.179557845 -0.3672117889 2.277910146e-39
-0.1267268211 -0.1117239073 -0.2800532281 2.277910146e-39
-0.06048889831 -0.1114037558 -0.4187476635 2.277910146e-39
-0.02144766971 0.1713055074 -0.2132191211 2.277910146e-39
-0.06948207319 0.1740548313 -0.318046093 2.277910146e-39
0.08724176884 -0.1352409571 -0.1654826999 2.277910146e-39
-0.2021292448 -0.005260426551 -0.4090000987 2.277910146e-39
-0.05584735796 0.1766374558 -0.2315833271 2.277910146e-39
0.007843079977 0.1920729578 -0.3034099042 2.277910146e-39
0.1329214275 -0.1065292209 -0.1174467877 2.277910146e-39
-0.2132826149 0.0705935508 -0.4074693024 2.277910146e-39
0.00238164817 0.1797343791 -0.1799771488 2.277910146e-39
-0.1009108871 0.1672328115 -0.3235585988 2.277910146e-39
0.02210107446 -0.1535604 -0.1788214147 2.277910146e-39
-0.1896932274 -0.04336159304 -0.4050557017 2.277910146e-39
0.03605224192 0.1781571507 -0.1661757678 2.277910146e-39
-0.147721231 0.1519466043 -0.3376719952 2.277910146e-39
-0.07597065717 -0.1281951517 -0.1810640097 2.277910146e-39
-0.1525309682 -0.09110116959 -0.4036108553 2.277910146e-39
-0.01056349464 0.1751034111 -0.2199670821 2.277910146e-39
-0.06654535234 0.1748423874 -0.3197262287 2.277910146e-39
0.04263027012 -0.1555098444 -0.1618200839 2.277910146e-39
-0.2040915042 -0.009248112328 -0.4048579037 2.277910146e-39
0.008094990626 0.1750984639 -0.1897828132 2.277910146e-39
-0.1023966372 0.1576649845 -0.3224980533 2.277910146e-39
0.0107337879 -0.1541092247 -0.1769266874 2.277910146e-39
-0.1870053113 -0.04256314412 -0.4067449868 2.277910146e-39
-0.01220033877 0.1701379269 -0.2236529142 2.277910146e-39
-0.05259714648 0.1710533351 -0.3114612401 2.277910146e-39
0.03354445845 -0.1614622921 -0.1490714401 2.277910146e-39
-0.2023829371 -0.0002003014088 -0.4043016732 2.277910146e-39
-0.2414893061 0.127214089 -0.2956707776 3.015101038e-39
-0.2393948585 0.1654143333 -0.02874206193 3.015101038e-39
-0.211812079 -0.004964638501 0.131454289 3.015101038e-39
-0.1967389137 0.168319717 -0.00952729024 3.015101038e-39
-0.1492577642 0.1497308463 -0.3764394522 3.015101038e-39
-0.2525221407 0.1389709562 -0.1728312224 3.015101038e-39
-0.2051725537 -0.05022361502 -0.0930981338 3.015101038e-39
-0.2164300084 0.1391333938 0.1862121671 3.015101038e-39
-0.1178889871 0.1479195654 -0.409206003 3.015101038e-39
-0.2459939569 0.1512773335 -0.2253708839 3.015101038e-39
-0.1893657446 -0.09378062189 -0.1121733189 3.015101038e-39
-0.223360002 0.1469120383 0.2409104109 3.015101038e-39
-0.1617971659 0.143894732 -0.3696464598 3.015101038e-39
-0.260091275 0.1378870904 -0.1359895915 3.015101038e-39
-0.2182304263 -0.04067617655 -0.0750856027 3.015101038e-39
-0.2089901268 0.1415138245 0.1334823221 3.015101038e-39
-0.2063059658 0.1127238497 -0.3551552892 3.015101038e-39
-0.2601585388 0.1355971843 -0.09020198882 3.015101038e-39
-0.2317128927 -0.0487687476 -0.004876656923 3.015101038e-39
-0.2131765336 0.1403498352 0.05630202591 3.015101038e-39
-0.1613211036 0.1327461302 -0.4028846323 3.015101038e-39
-0.2505319118 0.1428426206 -0.178797856 3.015101038e-39
-0.2105466872 -0.04410514981 -0.0935362801 3.015101038e-39
-0.2148532569 0.1379301846 0.1812244654 3.015101038e-39
-0.1684323251 0.1358823031 -0.3838481605 3.015101038e-39
-0.2508945167 0.1355563998 -0.1432590634 3.015101038e-39
-0.2167263776 -0.04352596775 -0.06808169186 3.015101038e-39
-0.2045463771 0.1384474188 0.133336857 3.015101038e-39
-0.1547249109 0.1219405681 -0.422721684 3.015101038e-39
-0.2314630747 0.1404753476 -0.1869456023 3.015101038e-39
-0.2070373148 -0.04596877471 -0.09351046383 3.015101038e-39
-0.212213248 0.1389442235 0.1888293624 3.015101038e-39
-0.1244203299 0.1946021318 -0.06218541041 3.75229193e-39
0.1118285581 0.1688041985 -0.313352555 3.75229193e-39
-0.01312333252 0.163200736 -0.217771247 3.75229193e-39
-0.1516577452 0.08494197577 -0.4511470795 3.75229193e-39
-0.1226532906 0.169194743 0.152374357 3.75229193e-39
0.06767318398 0.1632843912 -0.178489849 3.75229193e-39
-0.03227572888 0.1497905552 -0.02154827304 3.75229193e-39
0.05704630166 -0.06107166782 -0.4405196011 3.75229193e-39
-0.119262673 0.1760204881 0.2371206135 3.75229193e-39
0.05401232839 0.1803141534 -0.07913422585 3.75229193e-39
-0.03698629141 0.1586617231 0.04448426515 3.75229193e-39
0.1181531921 -0.0761917308 -0.4372978806 3.75229193e-39
-0.1338068545 0.1730788797 0.09587884694 3.75229193e-39
0.07614213228 0.1619212776 -0.2065413743 3.75229193e-39
-0.009183241986 0.1489748061 -0.07460535318 3.75229193e-39
-0.0113183381 -0.04824381694 -0.4400703311 3.75229193e-39
-0.1364318728 0.1713928878 0.03473825008 3.75229193e-39
0.08974462748 0.1551150829 -0.2499544919 3.75229193e-39
0.002437229035 0.1449791789 -0.1285977066 3.75229193e-39
-0.1028364599 -0.03278711438 -0.4429194629 3.75229193e-39
-0.1226154044 0.172176525 0.1571846306 3.75229193e-39
0.06888383627 0.165559113 -0.1813959032 3.75229193e-39
-0.02893211693 0.1494870931 -0.02074604109 3.75229193e-39
0.03437258303 -0.0655580461 -0.4443255067 3.75229193e-39
-0.1259037405 0.167429328 0.09923909605 3.75229193e-39
0.07481443137 0.1586614102 -0.2144265026 3.75229193e-39
-0.01250102464 0.1429397315 -0.07104103267 3.75229193e-39
-0.01958736591 -0.06266580522 -0.4451812804 3.75229193e-39
-0.1102583855 0.1677027345 0.1746377498 3.75229193e-39
0.06526362151 0.1664962023 -0.17579934 3.75229193e-39
-0.02821038291 0.1492028236 -0.007846268825 3.75229193e-39
0.04057241976 -0.06584448367 -0.4464765191 3.75229193e-39
-0.2233044803 0.189117074 -0.3550718427 4.48912409e-39
-0.1743358374 0.1769584864 -0.27907902 4.48912409e-39
-0.1210111901 -0.005099080969 -0.1716537625 4.48912409e-39
-0.2155360878 0.1554356664 -0.2128098011 4.48912409e-39
-0.2208678424 0.08703449368 -0.4491291642 4.48912409e-39
-0.03409738094 0.1697499305 -0.3905801773 4.48912409e-39
-0.161330536 -0.04120675847 0.09528224915 4.48912409e-39
-0.1646008044 0.162632376 0.05654481053 4.48912409e-39
-0.1821883768 0.05873457715 -0.4530890882 4.48912409e-39
0.006824149285 0.177395463 -0.4139764607 4.48912409e-39
-0.1467592716 -0.06598457694 0.1814006418 4.48912409e-39
-0.1358767003 0.1513379067 0.164022401 4.48912409e-39
-0.206850335 0.1285190731 -0.435561806 4.48912409e-39
-0.05553526431 0.1704673767 -0.3746867478 4.48912409e-39
-0.1710369885 -0.03754878417 0.01626140997 4.48912409e-39
-0.1866464466 0.1741359979 -0.01865183376 4.48912409e-39
-0.2200998813 0.1563317329 -0.4065877795 4.48912409e-39
-0.100571841 0.1621702462 -0.3424341381 4.48912409e-39
-0.1704083681 -0.01322356984 -0.07023257762 4.48912409e-39
-0.2123878598 0.1577688307 -0.1066185758 4.48912409e-39
-0.2069265395 0.0812151581 -0.4503063858 4.48912409e-39
-0.0382444337 0.1730079502 -0.3913967609 4.48912409e-39
-0.1727569103 -0.04055680707 0.09457909316 4.48912409e-39
-0.1662095636 0.1726798862 0.04861582816 4.48912409e-39
-0.2047042102 0.1134717092 -0.4427513182 4.48912409e-39
-0.05903119966 0.1657634079 -0.3737571836 4.48912409e-39
-0.1656871736 -0.03018854931 0.01988421567 4.48912409e-39
-0.1805250794 0.1686143875 -0.009306430817 4.48912409e-39
-0.1829169691 0.07750463486 -0.4526340067 4.48912409e-39
-0.03749069944 0.1694826484 -0.393170923 4.48912409e-39
-0.1677681059 -0.04224351794 0.1096796542 4.48912409e-39
-0.1618838757 0.1712006181 0.06242370605 4.48912409e-39
0.1756694019 0.1614062339 -0.2569350004 5.225597518e-39
0.1225983649 0.06766930968 -0.3865593076 5.225597518e-39
0.1573833674 -0.1278695166 -0.197557494 5.225597518e-39
-0.1432209015 -0.1022244394 -0.2620684505 5.225597518e-39
0.04008585587 0.1424179226 0.01864993386 5.225597518e-39
0.1838944554 -0.06815362722 -0.3694758117 5.225597518e-39
0.05254387856 -0.1095577255 -0.04265142977 5.225597518e-39
0.01623542979 -0.1304080784 -0.2084220797 5.225597518e-39
-0.01838134229 0.1593323201 0.04908140376 5.225597518e-39
0.2057112455 -0.1108174175 -0.3913391531 5.225597518e-39
0.001372805913 -0.1318002194 -0.02739538066 5.225597518e-39
0.06556998193 -0.1285409927 -0.2162872553 5.225597518e-39
0.08609367907 0.1454270631 -0.01107388176 5.225597518e-39
0.1311226338 -0.06932381541 -0.351295054 5.225597518e-39
0.1098867953 -0.1144919172 -0.0250956323 5.225597518e-39
-0.04618192464 -0.1506924182 -0.2041684538 5.225597518e-39
0.1247792542 0.1377323568 -0.09046281874 5.225597518e-39
0.1132621318 -0.0324482061 -0.3760450482 5.225597518e-39
0.1592958421 -0.1194712222 -0.07457991689 5.225597518e-39
-0.09067818522 -0.1313457936 -0.2218438983 5.225597518e-39
0.04736635089 0.1510048807 0.01893821359 5.225597518e-39
0.1730766445 -0.07671556622 -0.3768455684 5.225597518e-39
0.05293454975 -0.1246312708 -0.01525948942 5.225597518e-39
0.01834012568 -0.1241057515 -0.2155536115 5.225597518e-39
0.08928851783 0.1411370933 -0.009023481049 5.225597518e-39
0.1269815564 -0.06882303953 -0.3673430383 5.225597518e-39
0.1114826947 -0.1080772951 -0.02048603632 5.225597518e-39
-0.03991983831 -0.1435569525 -0.2108867019 5.225597518e-39
0.05099305138 0.150783658 0.03135158494 5.225597518e-39
0.1515349299 -0.1002936214 -0.3800957799 5.225597518e-39
0.0480497703 -0.1270337552 -0.009118818678 5.225597518e-39
0.02981719188 -0.1199588552 -0.2171017379 5.225597518e-39
0.1471909136 0.1758646816 0.06235221401 5.962428276e-39
0.07794834673 0.1673000306 0.3420193493 5.962428276e-39
0.03988286108 -0.1609250754 0.2490731776 5.962428276e-39
-0.1464740038 0.05105463043 0.08179990202 5.962428276e-39
0.2148113549 0.16663526 0.2878159285 5.962428276e-39
0.05738982931 0.1573229879 0.184507966 5.962428276e-39
-0.0115333451 -0.09763837606 0.02723662369 5.962428276e-39
-0.1338228881 -0.01394466963 0.2882465422 5.962428276e-39
0.2372651249 0.1725589186 0.3404770792 5.962428276e-39
-0.01404112671 0.1634134948 0.1013779789 5.962428276e-39
0.01680214517 -0.09123270959 -0.06679324061 5.962428276e-39
-0.1218010634 -0.01810490713 0.3430459797 5.962428276e-39
0.1940042973 0.1790356338 0.2428563684 5.962428276e-39
0.07131418586 0.1571181715 0.2349118292 5.962428276e-39
-0.0336921066 -0.1394213885 0.1141191423 5.962428276e-39
-0.1366679966 -0.01357408334 0.2444586605 5.962428276e-39
0.179648608 0.1647074372 0.1463194489 5.962428276e-39
0.1120678037 0.1460190266 0.2901254594 5.962428276e-39
0.005625688005 -0.13056539 0.1915691644 5.962428276e-39
-0.1427801102 -0.01130875573 0.1927994043 5.962428276e-39
0.2136131376 0.177135244 0.2899432182 5.962428276e-39
0.05073962733 0.1591176838 0.182145521 5.962428276e-39
-0.02670083195 -0.1178214997 0.0413575694 5.962428276e-39
-0.1360786855 -0.01500221808 0.2891323566 5.962428276e-39
0.190358609 0.1746420562 0.2521549165 5.962428276e-39
0.06967325509 0.1513195485 0.2355755568 5.962428276e-39
-0.03072264045 -0.1325442791 0.1145983934 5.962428276e-39
-0.1303367615 -0.01227950584 0.2433515787 5.962428276e-39
0.2074058503 0.1701236963 0.3129683435 5.962428276e-39
0.03084629588 0.1544864178 0.1640917659 5.962428276e-39
-0.03070059977 -0.121479094 0.03490905091 5.962428276e-39
-0.13573502 -0.01547678281 0.2951591611 5.962428276e-39
0.2389293462 0.1514140517 0.2699574232 6.698542971e-39
-0.04848567024 0.1549922377 0.2387169003 6.698542971e-39
-0.1606920063 -0.112042442 0.4318890572 6.698542971e-39
0.1713615507 0.1678460538 0.1484205872 6.698542971e-39
0.01246083062 0.141168654 0.2386040837 6.698542971e-39
-0.08340739459 0.1589192897 -0.08813908696 6.698542971e-39
0.02796573937 -0.0480626002 0.4337966144 6.698542971e-39
0.06523963064 0.1467573941 -0.03088798188 6.698542971e-39
0.005060471129 0.1633791327 0.1862939447 6.698542971e-39
-0.07162768394 0.1755877137 -0.144914031 6.698542971e-39
0.07497872412 -0.05162521824 0.4375825524 6.698542971e-39
0.0754840374 0.1546783894 -0.09017861634 6.698542971e-39
0.09112741053 0.1412668675 0.2465572059 6.698542971e-39
-0.07912664115 0.1502913535 -0.02895364538 6.698542971e-39
-0.01100275572 -0.06587228179 0.4295609295 6.698542971e-39
0.08352223784 0.1540824473 0.007255360018 6.698542971e-39
0.1605608463 0.1391410977 0.2627936602 6.698542971e-39
-0.09172802418 0.1444201469 0.0669644475 6.698542971e-39
-0.05924621597 -0.08317220956 0.427074194 6.698542971e-39
0.1058605611 0.1634724587 0.08362664282 6.698542971e-39
0.03164481372 0.1448151469 0.2413941175 6.698542971e-39
-0.08115723729 0.1621163934 -0.08719528466 6.698542971e-39
0.02272245288 -0.06444529444 0.4352557659 6.698542971e-39
0.06501995772 0.148470968 -0.03558955714 6.698542971e-39
0.09276359528 0.1362956911 0.2497060001 6.698542971e-39
-0.07474942505 0.1425669938 -0.03881660104 6.698542971e-39
-0.01403413247 -0.06614869833 0.4342497885 6.698542971e-39
0.07862126827 0.1492968798 0.005436389241 6.698542971e-39
0.0317893438 0.1473831236 0.2348187268 6.698542971e-39
-0.06941340119 0.1655214131 -0.1122517586 6.698542971e-39
0.02392224409 -0.06677994132 0.4387499988 6.698542971e-39
0.06990919262 0.1509131193 -0.04586020485 6.698542971e-39
-0.1930289119 0.0442763418 0.09716872871 7.434656265e-39
-0.2205377072 0.168543756 0.1463887841 7.434656265e-39
-0.2138548344 -0.07223188877 0.406470865 7.434656265e-39
-0.2060544342 0.1768260151 0.1809157282 7.434656265e-39
-0.0390852429 0.1578523517 0.3669593036 7.434656265e-39
-0.2113870084 0.1440546364 -0.1454469115 7.434656265e-39
-0.1748339534 -0.1228301525 0.1930704862 7.434656265e-39
-0.196632117 0.1517696828 0.3445246816 7.434656265e-39
-0.002288173651 0.1783899069 0.4130645096 7.434656265e-39
-0.2210174352 0.143703416 -0.2149910331 7.434656265e-39
-0.1509182155 -0.1177323461 0.1400939822 7.434656265e-39
-0.1604309529 0.1462755203 0.3849260807 7.434656265e-39
-0.1004037932 0.1716480106 0.3184037805 7.434656265e-39
-0.2140850872 0.150399968 -0.0816822201 7.434656265e-39
-0.186839655 -0.1110109761 0.2250590324 7.434656265e-39
-0.2124679238 0.1637549549 0.303843379 7.434656265e-39
-0.1495269835 0.1390853822 0.2230302393 7.434656265e-39
-0.2314657122 0.1380055249 0.01336570922 7.434656265e-39
-0.2042503059 -0.09711376578 0.3087427914 7.434656265e-39
-0.2111432403 0.1538793445 0.2439776212 7.434656265e-39
-0.049104698 0.1657443941 0.3568300903 7.434656265e-39
-0.2134209871 0.1468005627 -0.1470311582 7.434656265e-39
-0.171714291 -0.1251251996 0.1855734885 7.434656265e-39
-0.1946592629 0.1551906317 0.3428699672 7.434656265e-39
-0.08848151565 0.1496837437 0.3041554987 7.434656265e-39
-0.2106434256 0.1501490176 -0.07947204262 7.434656265e-39
-0.185494706 -0.1044528782 0.2345831543 7.434656265e-39
-0.2073473781 0.1535458416 0.3074848354 7.434656265e-39
-0.04399259761 0.1619560868 0.3570801616 7.434656265e-39
-0.2033904791 0.1457975954 -0.1546293348 7.434656265e-39
-0.1665478051 -0.1274833828 0.1800159365 7.434656265e-39
-0.1863295734 0.1561635584 0.3502384722 7.434656265e-39
-0.07581587136 0.187446028 -0.1621134281 8.170410826e-39
-0.1891056299 0.1636809111 -0.475260675 8.170410826e-39
-0.1491779834 -0.06577652693 -0.3467100859 8.170410826e-39
0.09186196327 0.02007814683 -0.4586713016 8.170410826e-39
0.03691818565 0.1488536 -0.3200570047 8.170410826e-39
-0.2208186835 0.1715766191 -0.3688130677 8.170410826e-39
-0.196773693 -0.06026563793 -0.1180463284 8.170410826e-39
-0.06045558304 0.01337108389 -0.4657374024 8.170410826e-39
0.1022636369 0.1662210673 -0.3540569246 8.170410826e-39
-0.2273319811 0.1762566417 -0.3384676874 8.170410826e-39
-0.1978499591 -0.04621802643 -0.0524816364 8.170410826e-39
-0.146361649 0.02271910198 -0.4582937956 8.170410826e-39
-0.001154556405 0.1533577293 -0.2797884345 8.170410826e-39
-0.2241792679 0.168573603 -0.3837550282 8.170410826e-39
-0.1809873879 -0.06360952556 -0.1429010034 8.170410826e-39
-0.01555704698 0.02287157997 -0.4590554535 8.170410826e-39
-0.0334947221 0.1553844661 -0.2219819129 8.170410826e-39
-0.2292591482 0.1606476307 -0.419978857 8.170410826e-39
-0.1734839678 -0.05638652295 -0.1831352413 8.170410826e-39
0.03555427119 0.01062533911 -0.4547701776 8.170410826e-39
0.03432383761 0.1533842981 -0.3252623379 8.170410826e-39
-0.2219657749 0.1761179715 -0.3749293387 8.170410826e-39
-0.1889115423 -0.05933591723 -0.1082904786 8.170410826e-39
-0.06486295164 0.01233923435 -0.4641464055 8.170410826e-39
-0.004019313492 0.1484531164 -0.2898999155 8.170410826e-39
-0.2229507864 0.1654073298 -0.3869971335 8.170410826e-39
-0.1739758402 -0.06080726907 -0.1415253133 8.170410826e-39
-0.01580184326 0.01410879102 -0.4627531171 8.170410826e-39
0.03802466393 0.1528814733 -0.3366525769 8.170410826e-39
-0.211591363 0.170140475 -0.363404572 8.170410826e-39
-0.177312687 -0.04913346842 -0.09726744145 8.170410826e-39
-0.07747658342 0.01346976776 -0.4639475942 8.170410826e-39
0.2497078925 0.1669998169 -0.04516801611 8.906165387e-39
0.1676563025 0.1504232883 0.4523810148 8.906165387e-39
0.08043390512 -0.1138254032 0.2512377799 8.906165387e-39
0.196164459 0.09753441811 0.4014532566 8.906165387e-39
0.2204511315 0.144842729 0.1525734067 8.906165387e-39
0.05021851882 0.1511010528 0.4522225261 8.906165387e-39
0.159449771 -0.134036392 0.06434693933 8.906165387e-39
0.1916363686 0.008662764914 0.3329723179 8.906165387e-39
0.198150754 0.1587140113 0.2289501578 8.906165387e-39
0.009511437267 0.165354237 0.4538841248 8.906165387e-39
0.1720320433 -0.1402366608 -0.007131306455 8.906165387e-39
0.1770957112 -0.07670882344 0.2469161004 8.906165387e-39
0.2434472442 0.1523001939 0.1046200842 8.906165387e-39
0.07953220606 0.1463359296 0.451323092 8.906165387e-39
0.1432691962 -0.1414198875 0.1193888113 8.906165387e-39
0.1816723198 0.03763353452 0.3811759055 8.906165387e-39
0.2481722534 0.152888 0.03797234967 8.906165387e-39
0.1133840978 0.1357013881 0.4535998404 8.906165387e-39
0.1375719309 -0.128916353 0.2052466273 8.906165387e-39
0.1744877696 0.06484789401 0.4284343421 8.906165387e-39
0.2219920605 0.1503876895 0.1559390128 8.906165387e-39
0.05548836663 0.1511372328 0.4539048672 8.906165387e-39
0.1517735124 -0.1455570012 0.06584250927 8.906165387e-39
0.1897616833 -0.00552145578 0.3236781359 8.906165387e-39
0.2287808359 0.147580415 0.106743142 8.906165387e-39
0.08321619779 0.1411554813 0.4561379254 8.906165387e-39
0.1375239789 -0.1412150264 0.1197542176 8.906165387e-39
0.1824735403 0.03100571595 0.3731122315 8.906165387e-39
0.2050423622 0.1514974684 0.1734005809 8.906165387e-39
0.05213574693 0.1488512307 0.4592847228 8.906165387e-39
0.1464827061 -0.1492086202 0.05451485515 8.906165387e-39
0.1788263172 -0.04092912748 0.2977060676 8.906165387e-39
0.1049378291 0.1667855978 -0.3979158998 9.641561216e-39
0.1794950962 0.01958872192 -0.445045203 9.641561216e-39
0.1088211462 -0.1222005337 -0.2803548872 9.641561216e-39
0.1429571211 0.1410930753 -0.467803061 9.641561216e-39
-0.02717372775 0.145858407 -0.3999572694 9.641561216e-39
0.183105588 -0.1574432254 -0.3963341117 9.641561216e-39
0.1522628367 -0.09551799297 -0.1088323519 9.641561216e-39
0.2073288709 0.124394469 -0.4235309958 9.641561216e-39
-0.07785046101 0.1557136476 -0.3946701586 9.641561216e-39
0.1964845508 -0.1894054562 -0.3836692274 9.641561216e-39
0.1640325934 -0.1126906574 -0.04591485858 9.641561216e-39
0.207388863 0.0742290169 -0.4094523787 9.641561216e-39
0.005948063452 0.1552917063 -0.404263556 9.641561216e-39
0.1766124815 -0.1277814358 -0.4014644623 9.641561216e-39
0.1421006024 -0.1003845409 -0.1493554115 9.641561216e-39
0.2031467408 0.1481154114 -0.4368550181 9.641561216e-39
0.04420724511 0.1481847763 -0.4012176394 9.641561216e-39
0.1695787907 -0.08624060452 -0.4280643165 9.641561216e-39
0.1318996847 -0.1044911966 -0.2238679975 9.641561216e-39
0.175828144 0.1427009553 -0.4624957442 9.641561216e-39
-0.02394354902 0.1542598903 -0.4104214907 9.641561216e-39
0.1841447502 -0.1569272876 -0.4011006951 9.641561216e-39
0.1458652318 -0.1141160205 -0.09556574374 9.641561216e-39
0.1992031485 0.117431283 -0.4190964997 9.641561216e-39
0.01135511324 0.1531437933 -0.4103277028 9.641561216e-39
0.1783039421 -0.1242703497 -0.4097523987 9.641561216e-39
0.136699304 -0.1021643952 -0.1514199972 9.641561216e-39
0.1990325153 0.1399471909 -0.4361667931 9.641561216e-39
-0.02958822623 0.1560430527 -0.4111669064 9.641561216e-39
0.1790429056 -0.1566272229 -0.3963311613 9.641561216e-39
0.1394700855 -0.1211167648 -0.08213739842 9.641561216e-39
0.1936694235 0.1134716868 -0.4126321077 9.641561216e-39
-0.1430219561 0.1859297156 -0.2985256612 1.037659831e-38
-0.2271730155 0.1721908003 -0.4518347681 1.037659831e-38
-0.2257161736 -0.09132526815 -0.2695819736 1.037659831e-38
-0.1769268662 -0.01223289315 -0.4041085243 1.037659831e-38
0.04575848579 0.1638341844 -0.3366899192 1.037659831e-38
-0.1223152652 0.1566748768 -0.4727316201 1.037659831e-38
-0.1679069102 -0.09507165104 0.01880263165 1.037659831e-38
-0.1803941131 -0.07249626517 -0.290715903 1.037659831e-38
0.09584227204 0.1715736985 -0.3455502093 1.037659831e-38
-0.08631503582 0.1654808968 -0.4723872542 1.037659831e-38
-0.1811934263 -0.1040782854 0.1291587353 1.037659831e-38
-0.1836886555 -0.03260242939 -0.2120828778 1.037659831e-38
0.008807252161 0.1631553769 -0.329279691 1.037659831e-38
-0.1622886062 0.1504763216 -0.4608695209 1.037659831e-38
-0.1797934026 -0.1083276123 -0.09647860378 1.037659831e-38
-0.1754107922 -0.1074493527 -0.3191404343 1.037659831e-38
-0.03920805454 0.1544108093 -0.3224510849 1.037659831e-38
-0.1962691694 0.1437936574 -0.4607425928 1.037659831e-38
-0.1929826736 -0.09877065569 -0.2087256759 1.037659831e-38
-0.1794763952 -0.05282643437 -0.3529389203 1.037659831e-38
0.04168428481 0.1656212062 -0.3482429981 1.037659831e-38
-0.1314373165 0.1603804678 -0.4720204175 1.037659831e-38
-0.170465529 -0.1017209217 0.05845227093 1.037659831e-38
-0.1777406484 -0.07463627309 -0.2749109864 1.037659831e-38
0.008850820363 0.157657817 -0.3400920033 1.037659831e-38
-0.1589106172 0.1486417055 -0.465765655 1.037659831e-38
-0.1705273837 -0.1032280773 -0.07873016596 1.037659831e-38
-0.172397092 -0.0958314687 -0.3094256818 1.037659831e-38
0.04709683359 0.1623521 -0.3581020236 1.037659831e-38
-0.1258768439 0.1591955125 -0.4728746414 1.037659831e-38
-0.160060361 -0.1008176133 0.09433977306 1.037659831e-38
-0.1731165797 -0.07129313797 -0.2578338385 1.037659831e-38
0.2322539091 0.1456904262 -0.1587664932 1.111163541e-38
0.2329051197 0.1710480899 -0.01738322526 1.111163541e-38
0.2047292143 -0.01645542681 0.1955490112 1.111163541e-38
0.1834252626 -0.03269343451 -0.2389362603 1.111163541e-38
0.2374085337 0.1465984583 -0.2626612484 1.111163541e-38
0.159974128 0.1683039814 0.1872853041 1.111163541e-38
0.2152514458 0.0460534431 -0.012688783 1.111163541e-38
0.1025006622 -0.0884513557 -0.06341464072 1.111163541e-38
0.2270551771 0.1578868926 -0.309769243 1.111163541e-38
0.121072568 0.1787064373 0.2220038623 1.111163541e-38
0.1990709156 0.03534925729 -0.06748906523 1.111163541e-38
0.09271309525 -0.09671008587 0.01008595619 1.111163541e-38
0.2314373553 0.1401972175 -0.2304067612 1.111163541e-38
0.2027004063 0.1691118032 0.1542708576 1.111163541e-38
0.1891067028 0.01086565387 0.03512548283 1.111163541e-38
0.1014943942 -0.08322503418 -0.118972376 1.111163541e-38
0.2377414554 0.1415057182 -0.2017944157 1.111163541e-38
0.2401445955 0.1551691443 0.0938699767 1.111163541e-38
0.168762967 0.02046766877 0.09114710242 1.111163541e-38
0.1310799867 -0.06984751672 -0.1994442791 1.111163541e-38
0.2256230414 0.1399787217 -0.2618756294 1.111163541e-38
0.1656304449 0.1709944606 0.189314574 1.111163541e-38
0.2122604102 -0.004834266379 -0.007553165779 1.111163541e-38
0.1017555594 -0.09470711648 -0.06601632386 1.111163541e-38
0.2229168862 0.1344590485 -0.2333461791 1.111163541e-38
0.1985598356 0.1663081199 0.1532400697 1.111163541e-38
0.1896846741 0.004554987885 0.03430341184 1.111163541e-38
0.1018289179 -0.08491199464 -0.1225033402 1.111163541e-38
0.2114551216 0.1308807284 -0.2690013945 1.111163541e-38
0.1529761553 0.1709230691 0.1939625293 1.111163541e-38
0.2045535445 -0.00702041015 -0.01468781568 1.111163541e-38
0.1031962186 -0.09917706996 -0.05768886954 1.111163541e-38
-0.2147480845 -0.06677472591 -0.3337773085 1.184631237e-38
-0.149229601 0.1730900854 -0.4432707429 1.184631237e-38
-0.1940314621 -0.1619725078 -0.234475553 1.184631237e-38
-0.1919474602 -0.05910550803 -0.4149661958 1.184631237e-38
-0.1843267232 -0.1293297857 -0.3866635561 1.184631237e-38
-0.1758346111 0.1661634743 -0.2614626288 1.184631237e-38
-0.2058513016 -0.03879547119 -0.1145942956 1.184631237e-38
-0.2063037008 0.0787904039 -0.3767091334 1.184631237e-38
-0.1722521335 -0.1426478922 -0.4040235579 1.184631237e-38
-0.1844104826 0.1687198728 -0.1944473982 1.184631237e-38
-0.1956762075 -0.02985134907 -0.04555615038 1.184631237e-38
-0.2014054805 0.0929151997 -0.3162659407 1.184631237e-38
-0.1778499633 -0.1232081056 -0.3546721041 1.184631237e-38
-0.1679948717 0.1655445248 -0.2919286489 1.184631237e-38
-0.2066272199 -0.08878339082 -0.1662756205 1.184631237e-38
-0.2056072652 0.07576558739 -0.4073711038 1.184631237e-38
-0.1995423585 -0.1060903817 -0.3506098092 1.184631237e-38
-0.1615401804 0.1553517282 -0.3418475986 1.184631237e-38
-0.2109830379 -0.1234582961 -0.1907696724 1.184631237e-38
-0.2051688582 0.01659034006 -0.4135297239 1.184631237e-38
-0.1838763356 -0.1370738 -0.3883495331 1.184631237e-38
-0.1773521751 0.1685642749 -0.2606832385 1.184631237e-38
-0.2052081823 -0.04427040368 -0.1093899906 1.184631237e-38
-0.1998240501 0.07804679126 -0.366720736 1.184631237e-38
-0.1788134426 -0.1221382245 -0.3704568744 1.184631237e-38
-0.1662620306 0.160858199 -0.2957788706 1.184631237e-38
-0.2054627985 -0.07477933913 -0.1607417017 1.184631237e-38
-0.2012416571 0.07314320654 -0.4088109732 1.184631237e-38
-0.1657419354 -0.1335560381 -0.3924227953 1.184631237e-38
-0.1712576896 0.1647822857 -0.2527229488 1.184631237e-38
-0.1979649365 -0.04126775637 -0.09742660075 1.184631237e-38
-0.1949835122 0.07964720577 -0.355012089 1.184631237e-38
-0.06982982159 0.1751925498 -0.1101651117 1.258099074e-38
0.08884811401 0.1424270868 -0.2440823317 1.258099074e-38
-0.1998031735 -0.09905891865 -0.2157291174 1.258099074e-38
-0.1772882789 0.006156316493 -0.07306291163 1.258099074e-38
-0.06375190616 0.1256486028 -0.2789417505 1.258099074e-38
0.04858373478 0.1522065252 -0.04769809917 1.258099074e-38
-0.2076289952 -0.1255225986 -0.036716979 1.258099074e-38
-0.1553552151 -0.01422456652 -0.2466908246 1.258099074e-38
-0.04323335364 0.00879190769 -0.3533939421 1.258099074e-38
0.01665810682 0.1590626389 0.01689735055 1.258099074e-38
-0.2074581832 -0.1395679414 0.03170640022 1.258099074e-38
-0.1483309269 -0.04170928523 -0.292403549 1.258099074e-38
-0.08795998245 0.1534168273 -0.2201776803 1.258099074e-38
0.07290043682 0.1537859142 -0.09615852684 1.258099074e-38
-0.1999707818 -0.139208883 -0.07613170147 1.258099074e-38
-0.1504754275 -0.007791273762 -0.2111985981 1.258099074e-38
-0.08737124503 0.1584462225 -0.1897472441 1.258099074e-38
0.08888725936 0.145743385 -0.1566970646 1.258099074e-38
-0.2014792711 -0.1286947131 -0.1575880349 1.258099074e-38
-0.1535848528 0.002693203278 -0.1524092257 1.258099074e-38
-0.09437568486 0.04579304531 -0.3119870126 1.258099074e-38
0.05224535987 0.1566133052 -0.05386661366 1.258099074e-38
-0.2042068094 -0.1468729526 -0.03394617513 1.258099074e-38
-0.156373322 -0.02045007423 -0.2433262616 1.258099074e-38
-0.09682025015 0.1210315153 -0.2458598018 1.258099074e-38
0.07154617459 0.1503394395 -0.09682133049 1.258099074e-38
-0.1974954158 -0.1374450028 -0.07905916125 1.258099074e-38
-0.1447910368 -0.01100418065 -0.2068034559 1.258099074e-38
-0.08990364522 -0.02369489335 -0.3342087567 1.258099074e-38
0.0489978604 0.1530438811 -0.04213342816 1.258099074e-38
-0.1989025921 -0.1504269391 -0.02433208562 1.258099074e-38
-0.1576204449 -0.02166309021 -0.2494251728 1.258099074e-38
0.211533919 0.1554367095 -0.1939443797 1.331530897e-38
0.2082770169 0.1457846314 -0.03636477143 1.331530897e-38
-0.01524635684 -0.09628410637 0.01854759641 1.331530897e-38
0.1854729056 -0.05782893673 -0.2173153609 1.331530897e-38
0.2305924445 0.1631870121 -0.01581615955 1.331530897e-38
0.2349092066 0.1545881629 0.1334321797 1.331530897e-38
0.1068665311 -0.05233030021 0.03467711061 1.331530897e-38
0.1456081718 -0.09265432507 -0.3929374516 1.331530897e-38
0.2174877375 0.1742168516 0.03349848092 1.331530897e-38
0.2344142199 0.1614316702 0.18185848 1.331530897e-38
0.1586445272 -0.07794775069 0.03741114214 1.331530897e-38
0.1082018763 -0.08202364296 -0.4186271429 1.331530897e-38
0.2290166318 0.1829186231 -0.05416120216 1.331530897e-38
0.2364765853 0.1477128714 0.09445561469 1.331530897e-38
0.08423995227 -0.06927872449 0.03463536501 1.331530897e-38
0.1652584523 -0.1024970934 -0.360167563 1.331530897e-38
0.225765869 0.1671938747 -0.1108447686 1.331530897e-38
0.2356570214 0.1373774707 0.04364067689 1.331530897e-38
0.04715829715 -0.0634983331 0.02756485902 1.331530897e-38
0.180102855 -0.08170032501 -0.290314883 1.331530897e-38
0.2219883949 0.1770607233 -0.01286304742 1.331530897e-38
0.2334154099 0.1499310285 0.1287566423 1.331530897e-38
0.1099609658 -0.06361746043 0.03545348346 1.331530897e-38
0.1450175196 -0.1008838266 -0.3963499069 1.331530897e-38
0.2171399444 0.1803627312 -0.05177936703 1.331530897e-38
0.2318681329 0.1402896196 0.09604869038 1.331530897e-38
0.07602235675 -0.05315659195 0.03324791417 1.331530897e-38
0.1699180603 -0.1047686711 -0.3648436964 1.331530897e-38
0.2008289993 0.1764378548 0.004398181569 1.331530897e-38
0.2192918062 0.1461482495 0.1411518753 1.331530897e-38
0.1142822951 -0.06081419811 0.03524790332 1.331530897e-38
0.1391828507 -0.09947407246 -0.4010528326 1.331530897e-38
-0.2369957864 0.1974329352 0.3361055255 1.404926846e-38
