# .PCD v0.7 - Point Cloud Data file format
VERSION 0.7
FIELDS x y z rgb
SIZE 4 4 4 4
TYPE F F F F
COUNT 1 1 1 1
WIDTH 843
HEIGHT 1
VIEWPOINT 0 0 0 1 0 0 0
POINTS 843
DATA ascii
-0.02544214576 0.2100416124 -0.4119028747 6.55152294e-39
-0.19141002 -0.118652761 -0.06227870658 6.55152294e-39
-0.1894940287 -0.1847208589 -0.2468822002 6.55152294e-39
-0.2004410475 -0.09837652743 0.2453135401 6.55152294e-39
-0.1270028204 0.1774731129 -0.2807759643 6.55152294e-39
-0.1836264729 -0.1663899124 -0.03493103385 6.55152294e-39
-0.1747274995 -0.1356042773 -0.3199443817 6.55152294e-39
-0.1942341328 -0.2095005959 0.1426502466 6.55152294e-39
-0.2327128351 -0.1400187016 -0.2654715478 6.55152294e-39
-0.2310014963 -0.09721453488 0.1123497188 6.55152294e-39
-0.2274613082 0.1680652201 -0.3910194933 6.55152294e-39
-0.241944626 -0.1705965996 -0.1334062368 6.55152294e-39
-0.2134974003 -0.08639329672 -0.4197097719 6.55152294e-39
-0.1769560277 -0.1700532585 0.437993288 5.820783626e-39
0.2214004397 0.161074549 0.1527321935 5.820783626e-39
0.04179224372 -0.1802790761 0.3374418914 5.820783626e-39
0.03888345882 0.1684061885 0.4623033106 5.820783626e-39
-0.1761555374 -0.1133923382 0.4699069858 5.820783626e-39
-0.1948363185 0.1791794002 0.2155497521 5.820783626e-39
-0.0962343514 -0.1311753243 0.2377416193 5.820783626e-39
0.1809922606 0.1841909289 0.3707767427 5.820783626e-39
-0.2374303043 -0.1589455009 0.3194559216 5.820783626e-39
0.1067312211 0.1856087446 0.1417315304 5.820783626e-39
-0.0278573595 -0.1341233253 0.3698797226 5.820783626e-39
0.07579610497 0.1555699259 0.4150289893 5.820783626e-39
-0.2220897228 -0.1364447922 0.3911936879 5.820783626e-39
-0.0459786877 0.1638988107 0.1142908633 5.820783626e-39
-0.08170896769 -0.1730879396 0.1725217551 5.820783626e-39
0.1280474216 0.1873622388 0.3739628494 5.820783626e-39
-0.2344323397 -0.1641900986 0.3164670765 5.820783626e-39
0.005408554804 0.1742330939 0.1381237209 5.820783626e-39
0.002007079311 -0.1785917431 0.2369661927 5.820783626e-39
0.00721980771 0.1960346848 0.3051589131 5.820783626e-39
-0.149982214 -0.08683969826 0.2783722579 5.820783626e-39
-0.1271766126 0.2001561373 0.2458603382 5.820783626e-39
0.1131397933 -0.1975207627 0.1597200036 5.820783626e-39
0.04228887707 -0.2136013359 0.2223462462 5.820783626e-39
-0.107918106 -0.008430276066 0.2414471209 5.820783626e-39
-0.07996894419 0.003023406491 0.3320562243 5.820783626e-39
0.1592215747 -0.1808760017 0.3056806624 5.820783626e-39
-0.1720070988 -0.08426842839 0.417858541 5.820783626e-39
-0.1730339974 -0.2079088539 0.13291803 5.820783626e-39
0.01226393506 -0.21854873 0.1536133438 5.820783626e-39
-0.1220229045 -0.2066836059 0.4103622735 5.820783626e-39
-0.2446741164 0.1801061779 0.4267109036 5.820783626e-39
0.1722047329 -0.009095217101 0.2920063138 5.090401643e-39
0.154674843 -0.1638299972 0.3812985122 5.090401643e-39
-0.1364563853 0.07349503785 0.468085587 5.090401643e-39
-0.05691315606 -0.1296923012 0.4314129949 5.090401643e-39
0.2087129951 0.1322862655 0.4427989721 5.090401643e-39
0.1694482863 -0.1130409166 0.4423679709 5.090401643e-39
0.1198692173 0.2048507929 0.4423419535 5.090401643e-39
0.1932160258 -0.1030699611 0.4451499283 5.090401643e-39
0.207556501 -0.03040036 0.1840275973 5.090401643e-39
0.2445798516 -0.1133707613 0.3065483868 5.090401643e-39
-0.07683564723 0.1657553017 0.4229333401 5.090401643e-39
0.1237038597 -0.05467034131 0.435523659 5.090401643e-39
0.2319960445 0.086629197 0.3630947769 5.090401643e-39
0.1926054955 -0.07180758566 0.3206992149 5.090401643e-39
0.02745186165 0.1938528866 0.3819981515 5.090401643e-39
-0.01316811051 -0.129340142 0.3574997187 5.090401643e-39
0.219803378 0.04749412462 0.2662654519 5.090401643e-39
0.1945179403 -0.1356071979 0.2044434547 5.090401643e-39
-0.1001500115 0.1924729049 0.3362152278 5.090401643e-39
-0.1159064397 -0.1544137001 0.3316275179 5.090401643e-39
0.162953496 0.122940369 0.3697552979 5.090401643e-39
0.09099396318 -0.2144008279 0.3119419515 5.090401643e-39
0.08479572088 0.1104170457 0.2712280154 5.090401643e-39
-0.05308284611 -0.199264124 0.3404269218 5.090401643e-39
0.1085873172 0.08781813085 0.3051035404 5.090401643e-39
-0.07883860916 -0.09095550328 0.3519901335 5.090401643e-39
0.1564786285 -0.02515478805 0.3111946583 5.090401643e-39
0.1180972755 -0.1817570627 0.4692367911 5.090401643e-39
-0.2294146717 -0.1228211597 0.4331995249 5.090401643e-39
-0.01774442196 -0.1235147491 0.4666026533 5.090401643e-39
0.2343661785 -0.1581880897 0.1882897317 5.090401643e-39
0.006870787591 -0.1009127572 0.4627063274 5.090401643e-39
0.0008506996091 -0.1521155983 0.3311865628 4.359662329e-39
0.2178618759 0.1283389181 0.3107725978 4.359662329e-39
0.08677196503 0.1748246402 0.4646723568 4.359662329e-39
0.2234663963 -0.1021816507 0.255785495 4.359662329e-39
0.1329886466 -0.143979758 0.1603953838 4.359662329e-39
0.1892781705 0.1805305928 0.4261932671 4.359662329e-39
-0.1225057393 0.1735726446 0.4864198565 4.359662329e-39
0.2597338259 0.1375725418 0.1018010601 4.359662329e-39
-0.08427140862 -0.1505116969 0.4445714355 4.359662329e-39
0.2743992209 0.1785646975 0.2516376078 4.359662329e-39
0.02159142494 0.1675824374 0.462708652 4.359662329e-39
0.2439195961 0.07966250181 0.1988265216 4.359662329e-39
-0.004783001728 -0.136706233 0.2289190143 4.359662329e-39
0.2163431942 0.181424588 0.3487969935 4.359662329e-39
-0.0462131612 0.1544948518 0.4609121084 4.359662329e-39
0.2184506655 0.08471101522 0.1138447374 4.359662329e-39
-0.03290689364 -0.1745021343 0.3172909319 4.359662329e-39
0.2089288831 0.1838958263 0.2676200271 4.359662329e-39
0.0742828846 0.2015020549 0.3878023922 4.359662329e-39
0.1823809892 -0.127197668 0.2025477737 4.359662329e-39
0.05427870899 -0.1708749682 0.2011436075 4.359662329e-39
0.1407798827 0.1727915108 0.3471727669 4.359662329e-39
0.0584093146 0.1615996957 0.3026433289 4.359662329e-39
0.1093479693 -0.2166978419 0.2652752697 4.359662329e-39
-0.0578394942 -0.1456793547 0.2927753627 4.359662329e-39
0.1153630763 -0.08244778961 0.27167207 4.359662329e-39
0.02120417543 -0.1978702545 0.2283566445 4.359662329e-39
0.1320880353 -0.1052775756 0.4187080562 4.359662329e-39
-0.2039740533 -0.09347762167 0.3945652843 4.359662329e-39
0.2542371452 -0.1363731176 0.09517738223 4.359662329e-39
-0.1611103117 -0.2071722299 0.270725131 4.359662329e-39
0.2447582036 -0.06647177786 0.2879050672 4.359662329e-39
-0.253775835 0.1641477048 0.1907268465 3.628921614e-39
-0.2317507118 -0.02726269141 -0.03929620609 3.628921614e-39
-0.2228373438 -0.1566660255 -0.09740606695 3.628921614e-39
-0.2285838425 0.1149460524 -0.1848039478 3.628921614e-39
-0.24922885 0.05307934061 0.3978622854 3.628921614e-39
-0.2506398261 -0.1277944893 0.2311496735 3.628921614e-39
-0.278091222 -0.06939180195 0.123433359 3.628921614e-39
-0.2362055928 0.09837896377 -0.4216870666 3.628921614e-39
-0.2651981115 0.1735670567 0.1176254228 3.628921614e-39
-0.2551836371 0.1581712514 -0.04577193782 3.628921614e-39
-0.2203569561 -0.1140887067 -0.01722398587 3.628921614e-39
-0.2370149493 0.1190160215 -0.2888563871 3.628921614e-39
-0.2350456119 0.14621149 0.2490030527 3.628921614e-39
-0.2101327479 0.03212206438 0.1007455289 3.628921614e-39
-0.1973319799 -0.1369178444 0.1047566608 3.628921614e-39
-0.2024465054 0.09372341633 -0.347150892 3.628921614e-39
-0.241619885 0.1397640556 0.1896732897 3.628921614e-39
-0.2190900743 0.1630535275 0.008138879202 3.628921614e-39
-0.1805346757 -0.1321318001 -0.06268332899 3.628921614e-39
-0.191207543 0.1572157294 -0.2540032566 3.628921614e-39
-0.1670150012 0.0230643563 0.2929374576 3.628921614e-39
-0.1970928758 -0.0645268783 0.1609488726 3.628921614e-39
-0.1818680167 -0.1863569021 0.07201784104 3.628921614e-39
-0.1593100727 -0.1358003914 -0.2022225708 3.628921614e-39
-0.1980752647 -0.1102347896 0.2419091612 3.628921614e-39
-0.2096732855 -0.01389150321 -0.1000133902 3.628921614e-39
-0.2437510788 0.1097622961 0.320135951 3.628921614e-39
-0.1772086769 -0.0981047526 -0.06056213006 3.628921614e-39
-0.2266976535 -0.008113396354 0.04517799616 3.628921614e-39
-0.2490698546 0.1332405955 -0.3230505884 3.628921614e-39
-0.2119027227 0.1946182996 0.07215730101 3.628921614e-39
-0.1784857064 0.2464217544 -0.10625799 3.628921614e-39
-0.08065446466 0.1494425833 0.4490192533 2.898180898e-39
0.2003278881 0.135435164 0.410948962 2.898180898e-39
0.221810624 0.06613431126 0.1064097583 2.898180898e-39
0.2225490808 -0.1281644553 0.4268161952 2.898180898e-39
0.1333758533 0.1621371806 0.4817562103 2.898180898e-39
0.1891870499 0.1705757678 0.4962129593 2.898180898e-39
0.2547792494 0.1493756771 -0.09516054392 2.898180898e-39
0.2265575826 -0.03138873354 0.2098411322 2.898180898e-39
-0.1694252491 0.1818537116 0.484259069 2.898180898e-39
0.2670298219 0.1586081237 0.371715486 2.898180898e-39
0.2094566524 0.1066151932 0.04444533214 2.898180898e-39
0.2386004925 -0.07733948529 0.3154432774 2.898180898e-39
0.006585095078 0.1616123766 0.4727316797 2.898180898e-39
0.2041286081 0.1401542723 0.4654421806 2.898180898e-39
0.2015822977 0.1114973649 -0.01600760594 2.898180898e-39
0.1915189922 -0.05241429433 0.2161006778 2.898180898e-39
-0.05963712558 0.1818840057 0.4766471088 2.898180898e-39
0.2167845368 0.1278770119 0.4393262267 2.898180898e-39
0.1899237484 0.1282035708 0.0910390839 2.898180898e-39
0.1688234508 -0.02731835097 0.2722183168 2.898180898e-39
0.0784971565 0.2086072564 0.4655208886 2.898180898e-39
0.1487501413 0.1988831908 0.4191173613 2.898180898e-39
0.1694003642 -0.03903397545 0.1376021802 2.898180898e-39
0.1540445834 0.02754320763 0.2492715269 2.898180898e-39
0.08088730276 -0.05650468916 0.3230397701 2.898180898e-39
0.09614790976 -0.1680499613 0.3550758362 2.898180898e-39
-0.06039499864 -0.0453289561 0.4202135205 2.898180898e-39
0.02892135456 -0.02122759819 0.3238932788 2.898180898e-39
0.2313205004 -0.165719375 -0.02580189146 2.898180898e-39
0.2190715075 -0.158135891 0.4407490194 2.898180898e-39
-0.236224249 0.03808000684 0.4802375436 2.898180898e-39
0.2191010416 -0.008056487888 0.428593576 2.898180898e-39
-0.009938580915 0.1462726146 -0.266028136 2.167082852e-39
0.1607276946 0.1669835597 0.3502200842 2.167082852e-39
0.1344359815 0.1977734566 -0.3676184118 2.167082852e-39
-0.2266670018 0.1613175869 0.242485702 2.167082852e-39
0.0626796931 0.2111242414 -0.06628293544 2.167082852e-39
0.1700661629 0.1833447665 0.1048725918 2.167082852e-39
-0.0182673689 0.1714475304 -0.4534786344 2.167082852e-39
-0.2045211494 0.1787074804 -0.007842845283 2.167082852e-39
-0.1067905277 0.1959353238 -0.2795921564 2.167082852e-39
0.07204288244 0.165578872 0.3504334092 2.167082852e-39
0.1455131024 0.1869285852 -0.4106312096 2.167082852e-39
-0.233199805 0.1459629089 0.1746054441 2.167082852e-39
-0.01486710366 0.1942205876 -0.08606731892 2.167082852e-39
0.09755464643 0.152046755 0.1828167289 2.167082852e-39
0.08189903945 0.1884784698 -0.4385793507 2.167082852e-39
-0.1561229825 0.1984871328 0.08168206364 2.167082852e-39
-0.06367632002 0.1995370835 -0.198910892 2.167082852e-39
0.06240284443 0.1895250827 0.2662396431 2.167082852e-39
0.1453191191 0.2100524008 -0.2761882544 2.167082852e-39
-0.05071711913 0.1972474605 0.1332729161 2.167082852e-39
0.01387079433 0.2101575434 0.01098333206 2.167082852e-39
0.06046167016 0.227793768 0.1536753923 2.167082852e-39
0.110937275 0.09261486679 -0.04939225689 2.167082852e-39
0.09690718353 0.09168636054 0.05788715556 2.167082852e-39
-0.2032706141 0.04640826955 -0.01954577491 2.167082852e-39
-0.1645033956 0.05793417245 0.27097857 2.167082852e-39
-0.2645715773 0.133455053 -0.06395530701 2.167082852e-39
-0.1132827103 -0.09322015941 0.08749705553 2.167082852e-39
-0.2128693312 -0.1027629152 -0.2701891065 2.167082852e-39
-0.2413288206 0.09089907259 0.2614888549 2.167082852e-39
-0.2290592641 0.2262937725 -0.1969398558 2.167082852e-39
-0.1672479063 0.2122799605 0.3800624311 2.167082852e-39
-0.2274833471 -0.07571661472 0.1151140109 1.435982003e-39
-0.2117248774 0.02421894111 0.4364695847 1.435982003e-39
-0.2084953189 -0.1699272692 -0.02297776937 1.435982003e-39
-0.2022761554 -0.1413331926 0.2733823061 1.435982003e-39
-0.2417604178 -0.1984993368 0.004862374626 1.435982003e-39
-0.2360354811 -0.144901365 0.4413009584 1.435982003e-39
-0.2564362884 -0.1132924631 -0.3729871213 1.435982003e-39
-0.2604555488 -0.1007188484 0.4165198207 1.435982003e-39
-0.2709418833 0.05226430669 0.2467873096 1.435982003e-39
-0.268088907 0.1019868478 0.4685539007 1.435982003e-39
-0.2089202553 -0.1217039451 -0.1879205555 1.435982003e-39
-0.2378571182 -0.1416818798 0.3490155935 1.435982003e-39
-0.2220549583 -0.109036006 0.155367732 1.435982003e-39
-0.2406970114 -0.01993330196 0.4004724324 1.435982003e-39
-0.182933718 -0.144298777 -0.2577757239 1.435982003e-39
-0.2062313259 -0.09807123244 0.3432717323 1.435982003e-39
-0.2103931159 -0.05496644601 0.1874299496 1.435982003e-39
-0.2114373893 0.07115747035 0.4246068299 1.435982003e-39
-0.1495750546 -0.1902149171 -0.04165070504 1.435982003e-39
-0.1652682722 -0.1613984853 0.2239294797 1.435982003e-39
-0.1796455681 -0.1681077331 0.09185160697 1.435982003e-39
-0.176830247 -0.09484003484 0.3589531481 1.435982003e-39
-0.1807906479 -0.2056689709 -0.1692993343 1.435982003e-39
-0.149361819 -0.1989580244 0.1871106178 1.435982003e-39
-0.223362267 -0.1257782727 0.1742273271 1.435982003e-39
-0.1846779436 -0.1562974006 0.2783008218 1.435982003e-39
-0.2430329621 -0.08072953671 -0.0562884137 1.435982003e-39
-0.1618057787 -0.2636533678 0.4158222675 1.435982003e-39
-0.2410707325 -0.1572514176 0.02839461155 1.435982003e-39
-0.2528854609 -0.05667183176 0.3206351101 1.435982003e-39
-0.2688515484 0.0796970129 0.1882511079 1.435982003e-39
-0.20548217 -0.1194400042 0.4583066106 1.435982003e-39
0.209531635 -0.04118978605 0.3856447935 7.045238224e-40
-0.1929689497 0.1806094646 0.3223468959 7.045238224e-40
0.2042559087 0.1460072696 0.3781069815 7.045238224e-40
0.1732833236 0.1539543867 0.05308854952 7.045238224e-40
0.2278514355 -0.04552828148 0.0380095765 7.045238224e-40
-0.1645946205 0.1937616467 0.04593908787 7.045238224e-40
-0.06117298454 0.1928245127 0.4298336506 7.045238224e-40
-0.04406229407 0.1951074749 0.1810136288 7.045238224e-40
0.2248942554 -0.02251540311 0.4270883799 7.045238224e-40
-0.1935608983 0.1948497146 0.4113347828 7.045238224e-40
0.07981669158 0.1920047402 0.3773921728 7.045238224e-40
0.0242519211 0.1757843345 0.09832583368 7.045238224e-40
0.2351180017 -0.06964811683 0.2565482855 7.045238224e-40
-0.1410975903 0.1860760152 0.2339078635 7.045238224e-40
0.03152567148 0.1714435816 0.3610261381 7.045238224e-40
-0.02676108107 0.1943962872 0.1253224611 7.045238224e-40
0.2375290692 -0.09433505684 0.3158558905 7.045238224e-40
-0.1389586627 0.2263643295 0.2953263819 7.045238224e-40
0.1309010983 0.1906267554 0.271564424 7.045238224e-40
0.09593450278 0.1767392606 0.07574927062 7.045238224e-40
0.1729332358 -0.1054348052 0.1194622517 7.045238224e-40
-0.07361697406 0.2023995221 0.1100061461 7.045238224e-40
-0.05362577364 0.001500076381 0.006170209497 7.045238224e-40
0.08769529313 0.1105531007 0.2016420215 7.045238224e-40
0.1635966897 -0.1316340119 0.1467607617 7.045238224e-40
-0.01955178939 -0.003878536634 0.3543043435 7.045238224e-40
0.1243187487 -0.03022878245 0.01579467766 7.045238224e-40
-0.1836891621 0.08215676248 0.02975598536 7.045238224e-40
-0.1620992422 -0.07423547655 0.1909593344 7.045238224e-40
-0.1774508953 0.116444625 0.3820890486 7.045238224e-40
0.06018022075 -0.08277763426 0.4517026842 7.045238224e-40
-0.1971191764 0.2507112622 0.1453692168 7.045238224e-40
0.1625610739 -0.1123992726 -0.2923743129 6.490113838e-41
0.179663524 0.1301892847 0.2628365755 6.490113838e-41
0.1805568337 0.1746401489 0.4504932761 6.490113838e-41
0.2411531359 -0.01013058051 0.0183585491 6.490113838e-41
0.2202596366 -0.1040134802 0.04345282912 6.490113838e-41
0.2448073179 0.1418549865 0.06463085115 6.490113838e-41
0.2679578364 0.1717375219 0.3555587232 6.490113838e-41
0.233681336 -0.006401123479 -0.2600302994 6.490113838e-41
0.2242937088 -0.1367082745 -0.3572508395 6.490113838e-41
0.2416761965 0.1495838761 0.3135969341 6.490113838e-41
0.1902547032 0.1835280955 0.4039340615 6.490113838e-41
0.2339543253 0.002041959204 -0.140596956 6.490113838e-41
0.2005361021 -0.1041374058 -0.2229184508 6.490113838e-41
0.2208887339 0.1379092932 0.1756622642 6.490113838e-41
0.145755887 0.1826411039 0.3414218724 6.490113838e-41
0.2009376436 -0.12786448 -0.2417784929 6.490113838e-41
0.1978129894 -0.1243837252 -0.3032135367 6.490113838e-41
0.1882293373 0.1310480088 0.2439391911 6.490113838e-41
0.06262963265 0.1949603409 0.3773136735 6.490113838e-41
0.1805235744 -0.1098566204 -0.07747989893 6.490113838e-41
0.1416374892 -0.06843519956 -0.1829766631 6.490113838e-41
0.191351518 0.1353653669 0.1071283147 6.490113838e-41
0.1628933251 0.116488643 0.3118231893 6.490113838e-41
0.14266029 -0.2262194455 0.03075270541 6.490113838e-41
0.1182646155 -0.04335979745 0.03384713829 6.490113838e-41
0.1083803475 -0.02396656573 0.223083213 6.490113838e-41
0.2184347361 -0.226744771 0.1205191463 6.490113838e-41
0.2279934436 -0.08971557766 0.152205497 6.490113838e-41
0.1554351151 -0.07972086966 0.1114713624 6.490113838e-41
0.2484089136 -0.1102564111 -0.3191799819 6.490113838e-41
0.2216361612 -0.2011506706 -0.07967726141 6.490113838e-41
0.2406758815 -0.08665199578 0.2267096639 6.490113838e-41
-0.2012378126 -0.1464494765 0.2567430139 8.028094954e-40
-0.07656541467 -0.126866892 -0.292639941 8.028094954e-40
0.2242684215 0.1265507787 -0.2850708663 8.028094954e-40
0.2313877046 0.01085244771 0.391651541 8.028094954e-40
-0.1891971976 -0.192807436 -0.004272278398 8.028094954e-40
0.06440658122 -0.1469441503 0.05824625865 8.028094954e-40
-0.06575221568 0.1846683919 -0.4480311573 8.028094954e-40
0.247114256 0.1328449845 0.09503746033 8.028094954e-40
-0.1903324425 -0.1133327633 0.3774408996 8.028094954e-40
0.1739398986 0.1417661011 -0.1640443057 8.028094954e-40
0.141095534 0.1675328165 -0.3461940587 8.028094954e-40
0.2485321462 0.1243079379 0.3132478893 8.028094954e-40
-0.1384928524 -0.1168220192 0.1950305849 8.028094954e-40
0.04389664158 -0.09264542907 -0.1470427811 8.028094954e-40
0.05766918138 0.1742104143 -0.4017372131 8.028094954e-40
0.1949072033 0.1031656712 0.1894126087 8.028094954e-40
-0.08184716105 -0.1525909305 0.282284528 8.028094954e-40
0.01761666127 -0.1407939196 -0.2319430262 8.028094954e-40
0.1281901449 0.1855701804 -0.2543993294 8.028094954e-40
0.1503319293 -0.1265099645 0.3809676766 8.028094954e-40
-0.02172488905 -0.159452185 0.0876750201 8.028094954e-40
0.01102615148 -0.1649292707 -0.07796600461 8.028094954e-40
-0.1744100302 -0.127330035 -0.2789114714 8.028094954e-40
0.006546947639 -0.2312349677 0.3755227029 8.028094954e-40
-0.01578275487 -0.1602335274 0.1179397032 8.028094954e-40
0.2294926047 -0.03955169395 0.2322966158 8.028094954e-40
-0.2369154692 -0.07671358436 -0.05205783248 8.028094954e-40
-0.1558950245 -0.228547737 0.03875135258 8.028094954e-40
-0.1482507139 -0.1569506675 -0.06049957126 8.028094954e-40
0.1506404877 -0.02915094234 0.2845535874 8.028094954e-40
-0.03257045895 -0.1976204067 0.2522503138 8.028094954e-40
0.2269367874 -0.1104249582 -0.151148513 8.028094954e-40
0.2092163712 -0.03415578604 -0.301835537 1.540360521e-39
0.0444756113 0.1742065549 -0.4151767492 1.540360521e-39
0.2201012224 -0.1572546065 -0.1672423184 1.540360521e-39
-0.02608631179 0.1995166242 -0.3904076815 1.540360521e-39
0.2082059681 -0.1453217119 -0.2467740923 1.540360521e-39
0.1902711242 0.177665785 -0.3005996943 1.540360521e-39
0.239497304 0.1261043698 0.1758452058 1.540360521e-39
-0.2230383009 0.1952376515 -0.4362385869 1.540360521e-39
0.2228256315 -0.05982706696 -0.4482907355 1.540360521e-39
-0.0003746226139 0.1763293296 -0.4491401315 1.540360521e-39
0.2433077544 0.01652173884 -0.07535679638 1.540360521e-39
-0.1182293296 0.1836416274 -0.333389163 1.540360521e-39
0.1949782968 -0.1285086423 -0.3280430138 1.540360521e-39
0.07203827053 0.1806737781 -0.2885395885 1.540360521e-39
0.187078476 -0.02694105916 0.07799683511 1.540360521e-39
-0.1671467572 0.1956457645 -0.3623633981 1.540360521e-39
0.1756065637 -0.1714410037 -0.3672059476 1.540360521e-39
0.07342451066 0.2088867873 -0.3540523946 1.540360521e-39
0.1324613988 -0.1248080358 -0.1266271919 1.540360521e-39
-0.1571736336 0.1957074404 -0.2607433498 1.540360521e-39
0.1548684835 -0.1382142156 -0.2205760181 1.540360521e-39
0.08113849163 0.2094950676 -0.2644531131 1.540360521e-39
-0.02623031475 -0.2236656547 -0.129407689 1.540360521e-39
-0.1439905018 0.1770018935 -0.1673389524 1.540360521e-39
0.1027861685 -0.1246554628 -0.2156361639 1.540360521e-39
-0.04089260474 0.215663746 -0.2372104228 1.540360521e-39
0.02567452565 -0.2203722298 -0.2251779437 1.540360521e-39
-0.06366825104 -0.02736583911 -0.2059744447 1.540360521e-39
0.06973789632 -0.1991119236 -7.645785809e-05 1.540360521e-39
-0.249182865 0.1637701243 -0.4340245426 1.540360521e-39
0.09466469288 -0.2004969269 -0.4490429461 1.540360521e-39
-0.1402696073 -0.0955670476 -0.2601059675 1.540360521e-39
-0.2071840763 -0.08766049147 0.4213538468 2.277910146e-39
0.01582511328 -0.1559168845 0.4063852727 2.277910146e-39
-0.197142154 -0.1727513373 -0.09519025683 2.277910146e-39
-0.1720159054 -0.1654600501 0.2432322353 2.277910146e-39
-0.2001976967 0.05391373113 0.2245568633 2.277910146e-39
-0.1310060918 -0.1677455157 0.3684533834 2.277910146e-39
-0.2542479038 -0.03358835354 -0.3666811585 2.277910146e-39
-0.2433730066 0.04197099805 0.05293266103 2.277910146e-39
-0.1404922903 0.07741716504 0.4474071562 2.277910146e-39
0.06239930168 -0.1402817816 0.4112965167 2.277910146e-39
-0.2135623991 -0.1089041457 -0.2226374 2.277910146e-39
-0.1929301172 -0.08879258484 0.1451496184 2.277910146e-39
-0.2096215487 0.1464247108 0.3503224552 2.277910146e-39
-0.01752842218 -0.1207592338 0.3424316645 2.277910146e-39
-0.2153913528 -0.106353879 -0.285025984 2.277910146e-39
-0.2052952498 -0.1101472378 0.05263611674 2.277910146e-39
-0.2005321532 0.1146701202 0.3769413233 2.277910146e-39
0.0182564687 -0.1464223564 0.364831686 2.277910146e-39
-0.177118212 -0.161533922 -0.130667612 2.277910146e-39
-0.1589698493 -0.1649041623 0.1782450229 2.277910146e-39
-0.1664339155 0.09428372234 0.2700490952 2.277910146e-39
-0.06177213416 -0.1864893436 0.336715281 2.277910146e-39
-0.2061353177 -0.1358849853 -0.06770098209 2.277910146e-39
-0.1371447295 -0.2166782916 0.1086390242 2.277910146e-39
-0.1959248036 0.01832642034 0.2604779005 2.277910146e-39
-0.1512404829 -0.1847982705 0.2805660665 2.277910146e-39
-0.2551050484 -0.01776638255 0.1176720262 2.277910146e-39
-0.2455756813 -0.122559689 0.1949023455 2.277910146e-39
-0.2458232343 -0.0182172507 -0.1565787643 2.277910146e-39
-0.2141323835 -0.1547830105 0.1104947776 2.277910146e-39
-0.2851632535 -0.1049131453 0.3552235663 2.277910146e-39
-0.2273361236 -0.2178088427 0.4117192924 2.277910146e-39
0.09274134785 -0.1300124228 -0.1159161478 3.015101038e-39
-0.09077309817 -0.1518284976 -0.2909781933 3.015101038e-39
0.04456144199 -0.1983185261 -0.07161246985 3.015101038e-39
0.001985688927 -0.1287064999 -0.4474063814 3.015101038e-39
0.2098986506 -0.1476597041 -0.08355228603 3.015101038e-39
0.2666355073 -0.08969929814 -0.07749240845 3.015101038e-39
-0.2267751098 -0.1140443534 -0.2526091337 3.015101038e-39
-0.1986322552 -0.1536309719 -0.4389974773 3.015101038e-39
0.006090364419 -0.1357339919 -0.3024451435 3.015101038e-39
-0.1398066133 -0.1309504956 -0.3799921572 3.015101038e-39
-0.119408302 -0.1072786674 -0.2015155554 3.015101038e-39
-0.1390257627 -0.08258823305 -0.4306384325 3.015101038e-39
0.2076017261 -0.1110146865 -0.2217047662 3.015101038e-39
0.06692674011 -0.07227429003 -0.1728882045 3.015101038e-39
-0.1718928963 -0.1704739183 -0.2173818052 3.015101038e-39
-0.1537467092 -0.159547627 -0.3871124983 3.015101038e-39
0.1124773994 -0.1289386153 -0.2682642937 3.015101038e-39
-0.04198369011 -0.1734635532 -0.2242463082 3.015101038e-39
-0.02900323272 -0.1801639497 -0.112494871 3.015101038e-39
0.004721710924 -0.1267073601 -0.3634734452 3.015101038e-39
0.1764881015 -0.1371785551 -0.2369739413 3.015101038e-39
0.03460564837 -0.1423065215 -0.1951842606 3.015101038e-39
-0.02898352779 -0.2009797394 -0.06002552062 3.015101038e-39
0.09787347168 -0.1380265206 -0.2793978155 3.015101038e-39
0.04403466359 -0.09161485732 -0.3035886884 3.015101038e-39
-0.05747169629 -0.1373751909 -0.314996779 3.015101038e-39
0.1910465956 -0.1983261555 -0.0190900173 3.015101038e-39
0.04051874578 -0.2632322013 -0.1581124812 3.015101038e-39
-0.2311029732 -0.2148593515 -0.3710176945 3.015101038e-39
-0.2117601484 -0.1501980722 -0.4525022805 3.015101038e-39
-0.01558610518 -0.1146250889 -0.2177342623 3.015101038e-39
-0.1594556719 -0.05888831243 -0.3438509107 3.015101038e-39
0.1100346893 -0.08090487123 0.4707624912 3.75229193e-39
0.2200737149 0.111167565 0.2550831139 3.75229193e-39
0.1147498414 0.08231631666 0.4706398845 3.75229193e-39
0.2174632847 -0.08018215001 0.4418613017 3.75229193e-39
-0.06818995625 -0.1233931035 0.4836472869 3.75229193e-39
0.2379743457 0.1894762814 0.4560409188 3.75229193e-39
-0.2228241563 0.1862581968 0.4858173132 3.75229193e-39
0.2319665551 0.05705777556 0.3252060711 3.75229193e-39
0.2178526372 -0.08502473682 0.477327764 3.75229193e-39
0.2656134069 0.1538799405 0.1754814088 3.75229193e-39
-0.005224061199 0.1270786971 0.4630095661 3.75229193e-39
0.230291903 -0.1226825938 0.3928804696 3.75229193e-39
0.03778384253 -0.1067718193 0.4723265767 3.75229193e-39
0.2272440642 0.163250044 0.2656260133 3.75229193e-39
-0.1341655552 0.1588178128 0.4349856675 3.75229193e-39
0.1977938861 -0.04119333625 0.2903031111 3.75229193e-39
0.1012829319 -0.1282311231 0.4684626162 3.75229193e-39
0.2101378888 0.1542255878 0.2059946954 3.75229193e-39
0.04709690064 0.1680639088 0.3381249309 3.75229193e-39
0.1629970968 -0.1110909358 0.3160760403 3.75229193e-39
-0.114038378 -0.1523709595 0.4116366208 3.75229193e-39
0.1926899701 0.1825448871 0.3074460924 3.75229193e-39
0.1341447383 0.1146882474 0.3489767909 3.75229193e-39
0.128813237 -0.1282000542 0.2890208662 3.75229193e-39
-0.1429038197 -0.1003651917 0.3439986408 3.75229193e-39
0.1417804956 0.02693945542 0.3017316461 3.75229193e-39
-0.02197969519 -0.1902994961 0.3998482227 3.75229193e-39
0.1267650276 0.1020290628 0.482655555 3.75229193e-39
-0.08594808728 0.00784254726 0.4834756255 3.75229193e-39
0.2288233936 -0.06626801193 0.4727809727 3.75229193e-39
0.07915002108 -0.09898588061 0.4869769812 3.75229193e-39
0.1312667429 -0.04007741809 0.4487753212 3.75229193e-39
0.1793869883 0.1655750424 -0.03749158233 4.48912409e-39
0.1056097075 0.1958972067 0.3895744979 4.48912409e-39
0.2086738646 0.07398550957 -0.2210454941 4.48912409e-39
0.256311208 -0.08733168989 -0.03999119252 4.48912409e-39
0.1984167397 0.2207932621 -0.1559936553 4.48912409e-39
0.2155332863 0.1937433183 0.1332536638 4.48912409e-39
0.2062038332 0.156903252 -0.4159801602 4.48912409e-39
0.06165884808 0.2113412023 0.3354039192 4.48912409e-39
-0.0005111693754 0.1803086996 -0.03340824321 4.48912409e-39
0.07893059403 0.1805823892 0.4431049228 4.48912409e-39
0.1862100512 0.1914090961 -0.2766505778 4.48912409e-39
0.06550085545 0.1671670675 0.1296753436 4.48912409e-39
0.09129776061 0.1794276237 -0.1016799957 4.48912409e-39
0.1704589576 0.1778350621 0.2660091817 4.48912409e-39
0.1984685361 0.1059115306 -0.3316307962 4.48912409e-39
0.1246057749 0.1266278028 0.2724262476 4.48912409e-39
0.03293187171 0.2108855098 -0.08035108447 4.48912409e-39
0.1318576187 0.190887481 0.3150259852 4.48912409e-39
0.1052196026 0.1978341043 -0.2199774981 4.48912409e-39
0.1545201689 -0.009871803224 -0.03174726292 4.48912409e-39
0.08308843523 0.2094448656 -0.1496990025 4.48912409e-39
0.1159362644 0.1979629099 0.1559737027 4.48912409e-39
0.1816987395 0.05744387209 -0.2057349235 4.48912409e-39
0.1112620607 -0.1573507339 -0.01865246519 4.48912409e-39
-0.06197086349 -0.01672356389 -0.165599063 4.48912409e-39
0.1830928326 -0.1108291596 -0.004811506718 4.48912409e-39
-0.1923554689 -0.1750599593 -0.1878865361 4.48912409e-39
-0.2362333983 -0.1168468967 -0.03780353069 4.48912409e-39
-0.2015804052 -0.02493558824 -0.1777969748 4.48912409e-39
0.1530915201 -0.1568767428 0.1369519383 4.48912409e-39
-0.1658895165 0.1974190474 -0.1192534864 4.48912409e-39
-0.1902147382 0.2300524265 0.03436939046 4.48912409e-39
0.08036855608 0.1589903086 -0.4841195643 5.225597518e-39
0.1527521163 -0.1617316902 -0.3582832217 5.225597518e-39
0.1848054677 0.09760150313 -0.4704740942 5.225597518e-39
-0.1395659447 -0.1797279567 -0.3908169568 5.225597518e-39
-0.1146672145 0.189911887 -0.4902224243 5.225597518e-39
0.1113612503 -0.1466820538 -0.4419851899 5.225597518e-39
0.2342262566 -0.03331187367 -0.4124309719 5.225597518e-39
-0.2699376941 0.01641665399 -0.4342898428 5.225597518e-39
0.1613251418 0.1804523617 -0.4860317707 5.225597518e-39
0.2435967028 -0.1521029174 -0.330822736 5.225597518e-39
0.211728543 0.02569485269 -0.4644924402 5.225597518e-39
-0.2381532639 -0.1250027567 -0.3723481297 5.225597518e-39
-0.006147277541 0.1771933138 -0.4874914289 5.225597518e-39
0.1488066018 -0.1531960219 -0.2583267987 5.225597518e-39
0.1942136884 0.01504041068 -0.3358288109 5.225597518e-39
-0.2309413105 -0.03517493233 -0.3764654696 5.225597518e-39
0.08574274927 0.1622566879 -0.4745278955 5.225597518e-39
0.1509456784 -0.1442774534 -0.222787708 5.225597518e-39
0.1573820561 0.1233064905 -0.3671910763 5.225597518e-39
-0.145370394 -0.1839955747 -0.3211492002 5.225597518e-39
-0.04142883047 0.1478828192 -0.464109093 5.225597518e-39
0.01982975006 -0.1938285679 -0.226449281 5.225597518e-39
0.1115481481 0.02934938855 -0.302508682 5.225597518e-39
-0.02441652492 -0.1962660998 -0.3288325667 5.225597518e-39
0.01072535478 0.03458362818 -0.3638059795 5.225597518e-39
-0.06479597092 -0.1677503288 -0.3277423382 5.225597518e-39
-0.1225926876 -0.00205634255 -0.4467782974 5.225597518e-39
0.06096562743 -0.1492354572 -0.4180743992 5.225597518e-39
0.1483203173 -0.09830274433 -0.4678982794 5.225597518e-39
-0.1024204046 -0.0216500219 -0.454914093 5.225597518e-39
0.01164613944 -0.05912509188 -0.4763431847 5.225597518e-39
0.2301596552 -0.2410824001 -0.4415909648 5.225597518e-39
0.2153742164 -0.1326010823 0.1238684133 5.962428276e-39
0.06397458911 0.1839315891 -0.3629571795 5.962428276e-39
0.2156682611 0.1272169799 0.01595849358 5.962428276e-39
0.120246999 0.1778473407 0.220342651 5.962428276e-39
-0.005593375769 -0.1934946626 -0.01852039248 5.962428276e-39
-0.01849788986 0.1973209232 -0.259344846 5.962428276e-39
0.2558037639 0.1774660051 -0.248631686 5.962428276e-39
0.17012842 0.2000983655 0.06461893022 5.962428276e-39
0.2141336799 -0.09476728737 0.2402892262 5.962428276e-39
0.2193695605 0.1997174919 -0.3205549419 5.962428276e-39
0.2283420116 0.1712253541 -0.09327654541 5.962428276e-39
0.1303647906 0.1584405899 0.1612433493 5.962428276e-39
0.05375505611 -0.08313076198 0.1747926921 5.962428276e-39
0.08616250008 0.1791814417 -0.2456064671 5.962428276e-39
0.1935124844 0.1547511518 -0.1889685392 5.962428276e-39
0.1150393039 0.1843800843 0.1057741866 5.962428276e-39
0.08640392125 -0.1425816566 0.194892481 5.962428276e-39
0.1229372919 0.1981735229 -0.2715464532 5.962428276e-39
0.1579439491 0.1423380822 -0.05346646532 5.962428276e-39
0.02531496435 0.1790234596 0.0441628173 5.962428276e-39
-0.0632942915 -0.1606633365 0.1284181923 5.962428276e-39
0.06391773373 0.1962227672 -0.1472459435 5.962428276e-39
0.1544924825 0.04047451541 -0.2839893997 5.962428276e-39
-0.1387675107 -0.01053652633 -0.2559162974 5.962428276e-39
-0.04887425527 -0.1264296025 0.2075521499 5.962428276e-39
-0.09263090044 -0.08643525839 0.1403484941 5.962428276e-39
-0.06099810824 -0.1862795055 -0.1321615875 5.962428276e-39
-0.1089241505 0.01073301304 -0.378050983 5.962428276e-39
0.2443961948 -0.1137362272 -0.02770860493 5.962428276e-39
-0.1988842338 -0.1800643504 -0.1839624047 5.962428276e-39
0.1683585942 -0.1852688491 0.03153350577 5.962428276e-39
0.1633103341 -0.0734461844 -0.06046264991 5.962428276e-39
0.04804958403 -0.03328922763 0.4685477018 6.698542971e-39
0.1893072426 -0.0704665333 0.4119522572 6.698542971e-39
0.1696824729 0.1813830137 0.4457176626 6.698542971e-39
0.2100377977 -0.1166620478 0.4618382156 6.698542971e-39
0.2563063502 0.1342428476 0.4637818635 6.698542971e-39
0.2627666891 0.06188948452 0.4197342694 6.698542971e-39
-0.02522478811 0.1817894578 0.4776334167 6.698542971e-39
0.2200030237 -0.1757934988 0.4017451704 6.698542971e-39
0.2227207124 -0.05002502352 0.4562796056 6.698542971e-39
0.2539387345 -0.1011030003 0.3881342411 6.698542971e-39
0.1506493688 0.1639508754 0.4653357267 6.698542971e-39
0.2297660857 -0.1389995366 0.3969633877 6.698542971e-39
0.2396070361 0.09809942544 0.4728895426 6.698542971e-39
0.2615734339 -0.03751765564 0.318746835 6.698542971e-39
0.04756598547 0.1651601493 0.4399197996 6.698542971e-39
0.1862002611 -0.1742504388 0.3388411701 6.698542971e-39
0.1813186407 0.01727494039 0.4473358989 6.698542971e-39
0.2149706632 -0.09291844815 0.2998084426 6.698542971e-39
0.1490118355 0.162976265 0.3681437075 6.698542971e-39
0.101707004 -0.1722208411 0.2896376848 6.698542971e-39
0.1754235178 0.1024230197 0.437366277 6.698542971e-39
0.1899417192 -0.02589268237 0.285915345 6.698542971e-39
0.07419384271 0.09003253281 0.3172252476 6.698542971e-39
0.02897081897 -0.1423011422 0.3379710019 6.698542971e-39
0.1396663338 -0.01309878752 0.3689205945 6.698542971e-39
0.2029843926 -0.09984526038 0.3610088229 6.698542971e-39
0.007574368734 -0.07175023854 0.4228393734 6.698542971e-39
0.1242676973 -0.02983955853 0.426340133 6.698542971e-39
-0.06529350579 -0.1295724064 0.4388561249 6.698542971e-39
0.1547850966 -0.1814742833 0.4518492818 6.698542971e-39
0.1191103086 -0.08402915299 0.4741986692 6.698542971e-39
0.2467708141 -0.1022195965 0.4571428597 6.698542971e-39
0.2122544944 -0.09014412016 0.116711393 7.434656265e-39
0.1498207003 0.1638428271 -0.2177124321 7.434656265e-39
0.1980003268 0.1680484861 -0.4367100596 7.434656265e-39
0.14605923 0.1600373238 0.2204301059 7.434656265e-39
0.2164718062 -0.130179733 -0.1382292807 7.434656265e-39
0.2366342098 0.1515961587 -0.06113668904 7.434656265e-39
0.2553857267 0.1260793656 -0.2461461425 7.434656265e-39
0.01073556114 0.1912952065 -0.05634111166 7.434656265e-39
0.2244933844 -0.1140399352 0.3342564404 7.434656265e-39
0.02604538575 0.1800604016 -0.267260462 7.434656265e-39
0.2179375291 0.1775602251 -0.3727908134 7.434656265e-39
0.05922345072 0.1832571477 0.0884629637 7.434656265e-39
0.2421598285 -0.09966140985 0.1584633291 7.434656265e-39
0.1572027653 0.1686075926 -0.130827561 7.434656265e-39
0.2001169473 0.1220264435 -0.3009668887 7.434656265e-39
0.03415922076 0.1819157898 0.02508270554 7.434656265e-39
0.2288112044 -0.1114697456 0.2339701504 7.434656265e-39
0.1221674532 0.1982058883 -0.1472299397 7.434656265e-39
0.1558299065 0.15399459 -0.3490691483 7.434656265e-39
0.1636666358 0.193698287 0.1507837474 7.434656265e-39
0.180047214 -0.1358651966 0.02518216707 7.434656265e-39
0.1542758495 0.1697137654 -0.05611007288 7.434656265e-39
0.2206036299 0.04442745447 -0.2046069205 7.434656265e-39
0.1986827999 0.0846650824 0.04405480996 7.434656265e-39
0.1789139807 -0.1227714792 0.1594701707 7.434656265e-39
0.04995969683 0.1101172268 0.06598335505 7.434656265e-39
0.2332385182 -0.1535002291 -0.01261266507 7.434656265e-39
0.2169248313 -0.008982451633 -0.0876763463 7.434656265e-39
0.07009553164 -0.189401716 0.00908363238 7.434656265e-39
-0.2206540257 -0.02042395808 0.01316724624 7.434656265e-39
0.177807793 -0.1854617298 0.2978667319 7.434656265e-39
-0.1686282009 0.005490343086 -0.1464983225 7.434656265e-39
0.1884743422 0.1910629869 -0.07083521783 8.170410826e-39
-0.008319560438 0.1709148735 -0.3183352053 8.170410826e-39
0.2198785841 0.1586293578 -0.2596479952 8.170410826e-39
0.01886852272 0.1379014701 0.172968775 8.170410826e-39
-0.124185957 0.1757162809 -0.08451809734 8.170410826e-39
-0.2191497236 0.1739109308 -0.2694043219 8.170410826e-39
0.2335849851 0.1129671708 -0.4477882385 8.170410826e-39
-0.108483091 0.1805685312 0.3889821172 8.170410826e-39
0.2351988852 0.1670471579 -0.02843406424 8.170410826e-39
0.2034470439 0.1839926094 -0.1847333014 8.170410826e-39
0.2496982068 0.1741566956 -0.3159838021 8.170410826e-39
-0.01430461742 0.1775314361 0.2325580418 8.170410826e-39
0.03291948885 0.1905454844 -0.007701416034 8.170410826e-39
-0.06439498812 0.1481235176 -0.2322300524 8.170410826e-39
0.1924076378 0.1560396254 -0.4198288918 8.170410826e-39
-0.09034967422 0.1807907075 0.3034297526 8.170410826e-39
0.1317347139 0.1811555624 0.006056339014 8.170410826e-39
0.04421634227 0.1790430099 -0.2122427076 8.170410826e-39
0.1200019196 0.1714448333 -0.2909185886 8.170410826e-39
-0.1134321466 0.203526929 0.08648785204 8.170410826e-39
-0.05578701943 0.1648664773 0.04685476422 8.170410826e-39
-0.09066281468 0.1982205957 -0.2071377486 8.170410826e-39
0.07449812442 0.08641266823 -0.281911701 8.170410826e-39
-0.1639397442 0.03895175457 -0.04124794528 8.170410826e-39
-0.0318409279 -0.1166592911 -0.1193911135 8.170410826e-39
0.01470624469 0.1087451205 -0.05915891007 8.170410826e-39
-0.2047413886 -0.04283527285 -0.3593564928 8.170410826e-39
-0.2679401338 -0.0759331435 -0.2715049386 8.170410826e-39
0.1662752777 -0.02493010089 -0.3670658469 8.170410826e-39
-0.1415861696 0.002487874124 0.3548857868 8.170410826e-39
0.09934525192 -0.05211613327 -0.1750979573 8.170410826e-39
-0.2368747443 -0.1289304346 -0.2320969105 8.170410826e-39
-0.2384738326 -0.1123315617 0.1470296085 8.906165387e-39
-0.1792356521 -0.1257584542 -0.2785071135 8.906165387e-39
-0.05609438941 -0.1806406975 0.08480932564 8.906165387e-39
-0.1312129349 0.1737128794 -0.477717638 8.906165387e-39
-0.2205934674 -0.1718350798 -0.1875769794 8.906165387e-39
-0.03003753908 -0.1758361757 -0.1122432798 8.906165387e-39
-0.2541339397 -0.157023713 0.3549729884 8.906165387e-39
-0.256111145 0.1960981935 -0.2607091069 8.906165387e-39
-0.2551660836 -0.001583641977 0.2500512898 8.906165387e-39
-0.2993353009 0.09408853948 -0.1819470525 8.906165387e-39
-0.1334289461 -0.1350511312 0.2362772822 8.906165387e-39
-0.2034143507 0.1765472293 -0.3878986537 8.906165387e-39
-0.2557197213 0.1220052764 0.008102959022 8.906165387e-39
-0.1015995219 -0.1351162195 -0.1826236546 8.906165387e-39
-0.184267208 -0.1640771478 0.256578058 8.906165387e-39
-0.1786929816 0.1873527765 -0.2958542407 8.906165387e-39
-0.2557900548 0.07693184167 0.09308053553 8.906165387e-39
-0.1729350388 -0.1405277997 -0.2461932898 8.906165387e-39
-0.09544043988 -0.1756428182 0.05216114596 8.906165387e-39
-0.09375950694 0.186099112 -0.3724977672 8.906165387e-39
-0.1932746321 0.07596368343 -0.08275485039 8.906165387e-39
-0.03479315713 -0.1645496041 -0.136205256 8.906165387e-39
-0.05331163108 -0.2098094821 0.03631765395 8.906165387e-39
-0.1133159772 -0.241989255 -0.1263708025 8.906165387e-39
-0.1842318624 -0.1438969672 -0.08888186514 8.906165387e-39
-0.1691789031 -0.03560312465 -0.279525429 8.906165387e-39
-0.219186753 -0.17187877 0.01523991395 8.906165387e-39
-0.1265356839 -0.1555171311 -0.01402474474 8.906165387e-39
-0.2394144684 -0.1808901727 0.4117292762 8.906165387e-39
-0.247077167 0.1880524158 -0.1218426749 8.906165387e-39
-0.2469497919 -0.0684710145 0.07315526903 8.906165387e-39
-0.244062379 -0.07386600226 -0.4529762864 8.906165387e-39
0.2153698355 0.1724007726 0.2810305357 9.641561216e-39
-0.06243486702 0.1876142621 0.3372748196 9.641561216e-39
0.2278052717 0.1238377914 0.01424427796 9.641561216e-39
-0.02156065032 0.07998730242 0.4740150273 9.641561216e-39
0.2235263735 0.18692635 0.1411811113 9.641561216e-39
0.1729442477 0.1767092794 0.4311715364 9.641561216e-39
0.2526817918 0.1785127074 -0.1412265897 9.641561216e-39
-0.2142285109 0.01199886389 0.4636721909 9.641561216e-39
0.1520052999 0.1858956814 0.3313184083 9.641561216e-39
-0.05464842543 0.192288965 0.2021923214 9.641561216e-39
0.2109074593 0.1690973192 -0.02255051397 9.641561216e-39
-0.1229587942 0.05806662142 0.4518584609 9.641561216e-39
0.2088205069 0.2057647705 0.2318371087 9.641561216e-39
-0.001156135928 0.1825715154 0.3528281748 9.641561216e-39
0.1902698278 0.1808726192 -0.1009505242 9.641561216e-39
-0.1696992964 0.03292614594 0.4575001597 9.641561216e-39
0.1454334557 0.2121305466 0.2625948191 9.641561216e-39
-0.08414271474 0.1910724789 0.2698762715 9.641561216e-39
0.182860747 0.1720205396 0.01981930062 9.641561216e-39
-0.01376901008 0.1357843578 0.4730654955 9.641561216e-39
0.1728870571 0.1831239164 0.1569343954 9.641561216e-39
0.1046835706 0.2098169029 0.2893094718 9.641561216e-39
0.187666744 0.08567647636 0.01674285531 9.641561216e-39
0.04414271936 0.1275038421 0.416139096 9.641561216e-39
0.1058722734 -0.01825853065 0.1102337167 9.641561216e-39
0.04903173819 -0.02502774261 0.2976753116 9.641561216e-39
0.008136018179 -0.1359602958 0.05770372599 9.641561216e-39
0.205308944 0.05470206216 0.4673488736 9.641561216e-39
0.1438935101 -0.0538719818 -0.03310997039 9.641561216e-39
-0.2401034981 -0.1435979307 0.4204878807 9.641561216e-39
0.0778106153 -0.07454000413 0.1500537694 9.641561216e-39
-0.1544111222 -0.01866964437 0.2603558898 9.641561216e-39
-0.1699622124 0.02514717169 -0.4452166855 1.037659831e-38
0.02577409334 0.1728538126 0.3011487424 1.037659831e-38
0.1586252153 0.1931717545 0.000310337171 1.037659831e-38
0.199976936 0.1813966185 0.2833418846 1.037659831e-38
-0.222111851 0.0968689099 0.05606916174 1.037659831e-38
-0.1695666611 0.1823916584 0.1551643759 1.037659831e-38
0.1048342064 0.1942441016 -0.2511881888 1.037659831e-38
0.2267891616 0.1735469401 0.4617703855 1.037659831e-38
-0.1208643839 0.1875140369 -0.4336792529 1.037659831e-38
0.1671654582 0.191862613 0.2121993154 1.037659831e-38
0.1045218781 0.1867010742 -0.1141361147 1.037659831e-38
0.179846853 0.1746146977 0.3373551965 1.037659831e-38
-0.1835619807 0.1685717702 -0.09073247015 1.037659831e-38
-0.02201881073 0.1752364337 0.1797807366 1.037659831e-38
0.1641425192 0.1837824732 -0.1873594373 1.037659831e-38
0.1770569235 0.1857474148 0.4172504842 1.037659831e-38
-0.1753676385 0.181390807 -0.2542986572 1.037659831e-38
0.03825824708 0.1816868037 0.2065006644 1.037659831e-38
0.06658238918 0.1991866082 -0.01048108563 1.037659831e-38
0.02433320321 0.2135278136 0.337847352 1.037659831e-38
-0.1651312113 0.1411785036 -0.008294921368 1.037659831e-38
-0.01241591759 0.2133508772 0.1478547305 1.037659831e-38
-0.1504188925 0.1115115583 0.1021847054 1.037659831e-38
-0.13340424 0.1815940291 0.3731625378 1.037659831e-38
-0.169303596 -0.04156519473 -0.07220252603 1.037659831e-38
0.02705987357 0.05509674177 0.1914471388 1.037659831e-38
-0.1928553432 0.1384795904 -0.04190655798 1.037659831e-38
-0.245949015 0.1982078105 0.349527508 1.037659831e-38
-0.1371374279 0.170740813 -0.3638451397 1.037659831e-38
-0.001552630798 -0.05814757943 0.4531362355 1.037659831e-38
-0.2354089916 0.03149736673 -0.4634295106 1.037659831e-38
-0.237473309 0.0153741939 0.2290650159 1.037659831e-38
0.1189135537 -0.06691580266 -0.4403434098 1.111163541e-38
-0.07212343067 -0.1336251348 -0.3776895404 1.111163541e-38
0.09536049515 0.156024754 -0.4336329699 1.111163541e-38
-0.2247443646 -0.01662276313 -0.4218121469 1.111163541e-38
0.2192075402 -0.09415496886 -0.4623006582 1.111163541e-38
-0.02499757335 -0.1320554018 -0.3873677552 1.111163541e-38
0.1989891529 0.1172415316 -0.4786666632 1.111163541e-38
-0.2428149879 0.1660553366 -0.4680486321 1.111163541e-38
0.06719361246 -0.07463575155 -0.4513508081 1.111163541e-38
-0.2126487195 -0.08872165531 -0.4687426984 1.111163541e-38
0.1255609095 0.1718076766 -0.4501711726 1.111163541e-38
-0.2242441028 0.1177298501 -0.4868599176 1.111163541e-38
0.225438863 -0.1737418324 -0.3890115321 1.111163541e-38
-0.06540305167 -0.1400926113 -0.3160043955 1.111163541e-38
0.1780644357 0.1307966411 -0.4396109581 1.111163541e-38
-0.1608265489 0.1531588584 -0.4595984817 1.111163541e-38
0.1067792177 -0.1577905267 -0.4160662591 1.111163541e-38
-0.1199809387 -0.152093634 -0.3414906859 1.111163541e-38
0.07724692672 0.1780851632 -0.3583462834 1.111163541e-38
-0.1224397719 0.1677915305 -0.4540353119 1.111163541e-38
0.1464665234 -0.1069085747 -0.3674733937 1.111163541e-38
0.05092766508 -0.1686119586 -0.2673007548 1.111163541e-38
0.136574626 0.1188943386 -0.3306263089 1.111163541e-38
-0.03213401884 0.1612697989 -0.3933238387 1.111163541e-38
0.07303348929 -0.0673238039 -0.3710793257 1.111163541e-38
-0.1433927268 -0.1890624017 -0.2741857469 1.111163541e-38
0.161652118 -0.166136995 -0.4334768653 1.111163541e-38
-0.03566977382 -0.1315315366 -0.467885226 1.111163541e-38
0.04877009243 -0.01683520898 -0.4607197046 1.111163541e-38
-0.1537116021 0.01691478118 -0.4864631891 1.111163541e-38
-0.06615107507 -0.130041942 -0.4702132046 1.111163541e-38
-0.1710053831 -0.1640260667 -0.4590427876 1.111163541e-38
0.01589942165 0.1741561145 -0.1989471614 1.184631237e-38
-0.2079476714 0.1804427505 -0.3192676008 1.184631237e-38
-0.2212793827 0.2017003149 0.07820964605 1.184631237e-38
0.04809742421 0.166620627 0.3861502111 1.184631237e-38
-0.02028338984 0.1917811185 0.01252202783 1.184631237e-38
-0.2613434792 0.1739240289 -0.03663608059 1.184631237e-38
-0.2543833852 0.1888126284 0.305388391 1.184631237e-38
0.06650291383 0.2026106715 0.1114091724 1.184631237e-38
-0.02591035888 0.1815649867 -0.4297802448 1.184631237e-38
-0.2742078304 0.1792552322 -0.4134724438 1.184631237e-38
-0.2016877681 0.178706184 0.1550243497 1.184631237e-38
0.04057251662 0.1685126126 0.2360046357 1.184631237e-38
0.05019761994 0.2079753131 -0.1787705421 1.184631237e-38
-0.2169957608 0.168787837 -0.1196292713 1.184631237e-38
-0.1699050665 0.201198265 0.2291768491 1.184631237e-38
0.05742362142 0.1925919801 0.173608005 1.184631237e-38
0.1006087959 0.1910065413 -0.3312645853 1.184631237e-38
-0.1907076538 0.1865025014 -0.1814391464 1.184631237e-38
-0.1614523381 0.2028790712 0.09045251459 1.184631237e-38
-0.04772878438 0.2100589126 0.3965586722 1.184631237e-38
0.0003052800894 0.2022290677 -0.1078925729 1.184631237e-38
-0.1840415895 0.2068940103 -0.08280064911 1.184631237e-38
-0.1532526761 0.1899271011 0.07971872389 1.184631237e-38
-0.151744172 0.2310477346 0.2210512012 1.184631237e-38
-0.1932626814 0.08769402653 0.1064474136 1.184631237e-38
-0.1811787486 0.1068524122 -0.01102576405 1.184631237e-38
-0.1712519079 0.03204274923 0.06968647242 1.184631237e-38
-0.2380741984 0.2053272426 -0.01752279513 1.184631237e-38
-0.243263036 0.2050496489 0.2667611539 1.184631237e-38
-0.1558032334 0.04214887694 -0.3105617464 1.184631237e-38
-0.1161678359 0.1180611253 -0.4614470899 1.184631237e-38
-0.1868823916 0.2820290625 -0.2452224046 1.184631237e-38
-0.04890625179 0.1867420375 -0.07713778317 1.258099074e-38
0.1967594475 -0.0001880973577 0.4482207596 1.258099074e-38
-0.1663098484 0.1631910056 0.3848887682 1.258099074e-38
0.1844513714 0.1711279899 0.4596479535 1.258099074e-38
-0.05897308886 0.2216378003 0.1642684042 1.258099074e-38
0.1371943057 0.1825169623 0.2722783685 1.258099074e-38
0.03113085404 0.1995602101 0.2680226564 1.258099074e-38
-0.0782815516 0.1784133017 0.4345856905 1.258099074e-38
-0.09226701409 0.2046363354 -0.2124856114 1.258099074e-38
0.2713665962 -0.01920517534 0.4354961514 1.258099074e-38
-0.156010285 0.195691824 0.2565580904 1.258099074e-38
0.02382964268 0.1647925973 0.4087856114 1.258099074e-38
-0.03762929887 0.194165498 0.009883342311 1.258099074e-38
0.2304762602 0.1232600957 0.2712412775 1.258099074e-38
-0.0472439602 0.1995655596 0.2384762466 1.258099074e-38
-0.007897607982 0.1912800372 0.3960503042 1.258099074e-38
-0.05202756822 0.2048396319 -0.07718842477 1.258099074e-38
0.2069331408 -0.01705393195 0.3744284809 1.258099074e-38
-0.1100572273 0.2183265537 0.3312411308 1.258099074e-38
0.1348526776 0.1899542361 0.407061398 1.258099074e-38
-0.05887564644 0.1895944029 0.09852429479 1.258099074e-38
0.1740301847 0.0748655647 0.2945962846 1.258099074e-38
-0.05720993504 0.1858669966 0.3511326909 1.258099074e-38
0.04943974689 0.1453899294 0.3794034123 1.258099074e-38
-0.1844283044 -0.03755917773 0.2872053385 1.258099074e-38
0.1302002668 -0.0764965415 0.3486345708 1.258099074e-38
-0.1922009736 0.1808644533 0.1647757441 1.258099074e-38
-0.04329388216 -0.195656687 0.4182441533 1.258099074e-38
-0.1975171119 0.2524958253 0.3639479578 1.258099074e-38
-0.08360958099 0.0422084704 0.4605601132 1.258099074e-38
