# .PCD v0.7 - Point Cloud Data file format
VERSION 0.7
FIELDS x y z rgb
SIZE 4 4 4 4
TYPE F F F F
COUNT 1 1 1 1
WIDTH 835
HEIGHT 1
VIEWPOINT 0 0 0 1 0 0 0
POINTS 835
DATA ascii
0.1912587732 -0.1489572972 -0.1542433351 8.012284103e-39
0.3228610158 -0.161760062 0.08160098642 8.012284103e-39
0.1668536812 -0.1945513934 -0.03763382509 8.012284103e-39
0.39461568 -0.2058417499 -0.07386288047 8.012284103e-39
0.3171499372 -0.1335932165 0.0617775023 8.012284103e-39
0.2962800562 -0.1588943601 0.1968616098 8.012284103e-39
0.1036463007 -0.1654680073 0.008498497307 8.012284103e-39
0.3634781241 -0.1870075613 -0.191957891 8.012284103e-39
0.2431110293 -0.132977277 -0.07728971541 8.012284103e-39
0.2822324336 -0.1438846141 0.2169748247 8.012284103e-39
-0.003197599435 -0.1404519379 0.005000776611 8.012284103e-39
0.3344368637 -0.2135680616 -0.2124847174 8.012284103e-39
0.2078028321 -0.1329247952 -0.1135965809 8.012284103e-39
0.3272866309 -0.173808068 0.04106082022 8.012284103e-39
0.1941173524 -0.1794422865 0.003044260666 8.012284103e-39
0.4023369849 -0.145294711 -0.02531404048 8.012284103e-39
0.3149915636 -0.09878512472 0.05475201085 8.012284103e-39
0.3481112123 -0.1579181403 0.04271597415 8.012284103e-39
0.3413042426 -0.1979219019 0.2036825418 8.012284103e-39
0.4318510294 -0.1580621749 0.00299949781 8.012284103e-39
0.2747534513 -0.08541733772 0.04235197976 8.012284103e-39
-0.3826951385 0.2314668298 0.1763462424 7.281903522e-39
-0.3401309252 -0.0885097906 -0.1179418415 7.281903522e-39
-0.323314935 0.1672182381 0.02872390486 7.281903522e-39
-0.2689614594 0.08378818631 -0.1317517757 7.281903522e-39
-0.2952108085 0.2491093874 0.05494226888 7.281903522e-39
-0.3052978218 0.3121775687 0.02756519243 7.281903522e-39
-0.2257581055 0.07516218722 0.2095439881 7.281903522e-39
-0.3136815131 0.2865538001 -0.2034222186 7.281903522e-39
-0.3102355003 0.2248622179 0.02686718851 7.281903522e-39
-0.2927722037 0.2365876585 0.0495855473 7.281903522e-39
-0.2247135788 0.03863195702 0.1791320294 7.281903522e-39
-0.3233284652 0.2922731936 -0.1995984465 7.281903522e-39
-0.3351095021 0.2966581881 0.1453858912 7.281903522e-39
-0.3260006905 0.3183346689 -0.07079883665 7.281903522e-39
-0.2798252106 0.2336513996 0.1680427492 7.281903522e-39
-0.2855426669 0.1817051023 -0.1433526725 7.281903522e-39
-0.3297047913 0.2335040718 0.04735827819 7.281903522e-39
-0.3068320453 0.212148115 0.02080369741 7.281903522e-39
-0.2503595352 0.1087112576 0.1677039117 7.281903522e-39
-0.3121444285 0.2487752289 -0.1648537219 7.281903522e-39
-0.2529299557 0.1831355542 -0.04377449304 7.281903522e-39
-0.2581235468 0.1496241987 0.07538540661 7.281903522e-39
-0.2021870315 -0.008185748011 0.1581482738 7.281903522e-39
-0.2693766057 0.3176403642 -0.1637312919 7.281903522e-39
-0.3500314355 0.2608880997 0.1340884268 7.281903522e-39
-0.3254213333 0.229084596 -0.09497660398 7.281903522e-39
-0.3350207806 0.1930057704 0.1219017729 7.281903522e-39
-0.2858862281 0.168285802 -0.1389700174 7.281903522e-39
-0.3777591884 0.1880322993 0.1021413058 7.281903522e-39
-0.3265489042 -0.118265152 -0.03093887679 7.281903522e-39
-0.319840312 0.1195111349 0.1070388034 7.281903522e-39
-0.2217354029 0.06367158145 -0.1118467972 7.281903522e-39
0.3036141396 -0.1078319401 -0.19334957 6.55152294e-39
-0.1928938627 -0.2717191577 -0.1880639642 6.55152294e-39
-0.1172985584 -0.06492233276 -0.1205201074 6.55152294e-39
0.1563866287 -0.1165774316 -0.2174100727 6.55152294e-39
0.2851079404 -0.1270067394 -0.1118268296 6.55152294e-39
-0.2747941613 -0.1033945605 -0.2498589903 6.55152294e-39
0.05376498774 -0.142943278 0.1149391532 6.55152294e-39
-0.1670327932 -0.03536791354 -0.1570068598 6.55152294e-39
0.2995455861 -0.1242778972 -0.06784696877 6.55152294e-39
-0.2888588309 -0.058013089 -0.2322117537 6.55152294e-39
0.09674631059 -0.1285805851 0.09151553363 6.55152294e-39
-0.1910766065 -0.03445929289 -0.1481221914 6.55152294e-39
0.2802880406 -0.1139606535 -0.183665812 6.55152294e-39
-0.2204057872 -0.3241560757 -0.2414586693 6.55152294e-39
-0.09682144225 -0.08922985196 -0.03335021064 6.55152294e-39
0.009538667277 -0.06051859632 -0.1867770404 6.55152294e-39
0.299969703 -0.1176764145 -0.07622978091 6.55152294e-39
-0.2836241424 -0.1606031209 -0.2329042107 6.55152294e-39
0.02930228971 -0.1089035124 0.02660783194 6.55152294e-39
-0.1458251923 -0.04437012225 -0.1447546035 6.55152294e-39
0.3073798418 -0.1146524325 -0.02623048611 6.55152294e-39
-0.2888640463 -0.01154873054 -0.21193102 6.55152294e-39
0.173575744 -0.1118456498 -0.07391753048 6.55152294e-39
-0.2016949654 -0.03365630656 -0.1415623277 6.55152294e-39
0.2873212695 -0.1118351519 -0.1495791674 6.55152294e-39
-0.2264752984 -0.3009887338 -0.2136143595 6.55152294e-39
-0.1025028154 -0.05937378854 -0.03150105849 6.55152294e-39
-0.003455334809 -0.07178834081 -0.1476975232 6.55152294e-39
0.356079787 -0.1035060957 -0.1547119915 6.55152294e-39
-0.2292176783 -0.2615409493 -0.2069366276 6.55152294e-39
0.03020667471 -0.04356882721 -0.1199618131 6.55152294e-39
-0.01704175211 -0.03746109828 -0.221532613 6.55152294e-39
0.2039463818 -0.1655135304 -0.01491468772 5.820783626e-39
0.3334495127 -0.1139702946 -0.07129857689 5.820783626e-39
0.3123062551 -0.2450011373 0.1561156362 5.820783626e-39
0.3847325146 -0.1674176604 0.04036290199 5.820783626e-39
-0.1126926914 -0.1217820868 0.01091795973 5.820783626e-39
0.2422168553 -0.1181490645 -0.2567741573 5.820783626e-39
0.09639549255 -0.1538437307 0.1783321947 5.820783626e-39
0.3485710025 -0.1465001702 -0.1261252165 5.820783626e-39
-0.09706617892 -0.1174993441 -0.01252556685 5.820783626e-39
0.1951069385 -0.1030774564 -0.2492900938 5.820783626e-39
0.09297771752 -0.1131017804 0.1413023621 5.820783626e-39
0.3385156095 -0.1316826344 -0.1297740191 5.820783626e-39
0.1417067349 -0.1668642163 0.008796226233 5.820783626e-39
0.30552876 -0.1125411838 -0.1874186993 5.820783626e-39
0.1903228909 -0.1713857204 0.2238102853 5.820783626e-39
0.3511543274 -0.1334318817 -0.001009292551 5.820783626e-39
0.01883202232 -0.1442017406 -0.01466270536 5.820783626e-39
0.2278100699 -0.09834694117 -0.2415882349 5.820783626e-39
0.1440562606 -0.109429501 0.1396021396 5.820783626e-39
0.3403392136 -0.1162585467 -0.06138846651 5.820783626e-39
-0.0797829479 -0.1137890965 -0.0156353116 5.820783626e-39
0.1222908646 -0.09036929905 -0.2328805625 5.820783626e-39
0.1080926433 -0.06731629372 0.1054567769 5.820783626e-39
0.2687098682 -0.09993482381 -0.07624356449 5.820783626e-39
0.1667582691 -0.1706903726 -0.02505729906 5.820783626e-39
0.2946161628 -0.09164153785 -0.1486667246 5.820783626e-39
0.2939215302 -0.1121836603 0.1287575662 5.820783626e-39
0.3502424657 -0.110955812 0.04496232048 5.820783626e-39
0.2294374406 -0.148135975 -0.102302514 5.820783626e-39
0.270246774 -0.1017367765 -0.1407283843 5.820783626e-39
0.2962877452 -0.1117232144 0.08799341321 5.820783626e-39
0.3525181115 -0.1240648478 0.07967931777 5.820783626e-39
-0.2854442298 -0.02574795857 0.1407269686 5.090401643e-39
-0.3232348561 -0.2479662895 0.1727366298 5.090401643e-39
-0.3667809963 -0.02521713264 0.1713836193 5.090401643e-39
-0.3180748224 -0.297701627 0.09622893482 5.090401643e-39
-0.2848233283 0.2323392183 0.0525977388 5.090401643e-39
-0.2610959411 0.02986957133 -0.1335717142 5.090401643e-39
-0.3102218211 0.4214134216 0.2098942995 5.090401643e-39
-0.298529923 0.09808608145 0.2340491712 5.090401643e-39
-0.2819245458 0.243217051 0.02905949578 5.090401643e-39
-0.2461486608 -0.02827900089 -0.1544143856 5.090401643e-39
-0.315123409 0.4067905843 0.1825105995 5.090401643e-39
-0.3051597774 0.04445173219 0.2227469087 5.090401643e-39
-0.2326382101 0.1901539266 0.154677406 5.090401643e-39
-0.3119861782 -0.1161974147 0.07797194272 5.090401643e-39
-0.2821322978 0.1852173358 0.209372744 5.090401643e-39
-0.2830763757 -0.2964699864 0.2086937279 5.090401643e-39
-0.245645225 0.2017032951 0.08546589315 5.090401643e-39
-0.2685804963 -0.002511667321 -0.1031896174 5.090401643e-39
-0.3139020503 0.3268202543 0.1875555664 5.090401643e-39
-0.3008565009 -0.03116954491 0.2010318488 5.090401643e-39
-0.274446249 0.2643576264 -0.008507344872 5.090401643e-39
-0.2268040776 -0.06974026561 -0.1597072631 5.090401643e-39
-0.2713409364 0.3670078516 0.1587236077 5.090401643e-39
-0.2828531861 0.01050320361 0.1951638311 5.090401643e-39
-0.2532307804 0.1388010234 0.1447787732 5.090401643e-39
-0.3085912466 -0.1253703833 0.08358236402 5.090401643e-39
-0.3270052671 0.03081289306 0.1548148096 5.090401643e-39
-0.2856656015 -0.2793168128 0.1663362682 5.090401643e-39
-0.2475009859 -0.04768868163 0.1253335178 5.090401643e-39
-0.3235608637 -0.191621393 0.09240714461 5.090401643e-39
-0.3033191264 -0.03242190555 0.1646038443 5.090401643e-39
-0.3351407647 -0.287121594 0.1318321228 5.090401643e-39
-0.4069904983 0.203474164 -0.02196687274 4.359662329e-39
-0.1907613724 -0.007969039492 0.2125265002 4.359662329e-39
-0.3640929759 0.08206021786 0.1422732174 4.359662329e-39
-0.1450567394 -0.1029537097 0.01265414339 4.359662329e-39
-0.3270027041 0.4467808008 0.1631382704 4.359662329e-39
-0.2604022622 0.08340195566 0.2417559624 4.359662329e-39
-0.3306462467 0.1445274651 -0.1368709505 4.359662329e-39
-0.2737958431 -0.158141911 0.1635413468 4.359662329e-39
-0.3318190873 0.4224745929 0.1601587385 4.359662329e-39
-0.2400526106 0.07023523003 0.2507321239 4.359662329e-39
-0.338137418 0.1193746477 -0.1453182995 4.359662329e-39
-0.2795941532 -0.163248837 0.1971085668 4.359662329e-39
-0.3700199425 0.372338146 -0.05456750095 4.359662329e-39
-0.2965973914 0.03630545363 0.2068715543 4.359662329e-39
-0.3660796285 0.1366438866 0.06293681264 4.359662329e-39
-0.2223322242 -0.1819264442 0.09552389383 4.359662329e-39
-0.3714266419 0.3921289146 0.06777019054 4.359662329e-39
-0.26084584 0.06991574913 0.2309169173 4.359662329e-39
-0.3645876646 0.1551708579 -0.06144576892 4.359662329e-39
-0.2471137494 -0.1690293252 0.1626411825 4.359662329e-39
-0.3011427522 0.3662140071 0.1209827736 4.359662329e-39
-0.2025319934 0.05456377193 0.2418615222 4.359662329e-39
-0.3336426616 0.002740823431 -0.1289107054 4.359662329e-39
-0.212695241 -0.1856029034 0.215171814 4.359662329e-39
-0.3805150092 0.2856772542 -0.06107392535 4.359662329e-39
-0.2610378265 0.02623592876 0.194693327 4.359662329e-39
-0.3980643153 0.08390907943 0.09243647754 4.359662329e-39
-0.1721147001 -0.1415046006 0.07792170346 4.359662329e-39
-0.4247719049 0.1047979444 -0.05032767728 4.359662329e-39
-0.2142311931 0.0008028222364 0.1991711706 4.359662329e-39
-0.4039074183 0.07786924392 0.09421403706 4.359662329e-39
-0.1478225589 -0.1121622324 0.159455061 4.359662329e-39
-0.1750065982 -0.1155889928 0.1859298646 3.628921614e-39
-0.3760380745 0.01394537557 0.1883029491 3.628921614e-39
-0.1909938157 -0.1432903856 0.205643788 3.628921614e-39
-0.2073568851 -0.03048889339 0.1813499182 3.628921614e-39
-0.2887748182 0.01679095067 0.1611894518 3.628921614e-39
-0.2921666801 0.429258734 0.05518005416 3.628921614e-39
-0.2796149254 -0.3658412993 0.2168721408 3.628921614e-39
-0.3150689006 0.233555764 0.1407371014 3.628921614e-39
-0.2970248163 0.02767667174 0.1318430156 3.628921614e-39
-0.3147605062 0.4200599492 0.01381373405 3.628921614e-39
-0.255015552 -0.3533945382 0.2052731067 3.628921614e-39
-0.338339299 0.1996456236 0.07613933831 3.628921614e-39
-0.2586435974 -0.06931919605 0.2363233417 3.628921614e-39
-0.3615937233 0.3111667335 0.2369666398 3.628921614e-39
-0.2241194844 -0.1818441153 0.2048176974 3.628921614e-39
-0.2758457363 0.07129620016 0.1867001653 3.628921614e-39
-0.2978941798 0.007419629022 0.1696150005 3.628921614e-39
-0.3325451016 0.4071585536 0.07533521205 3.628921614e-39
-0.2031851411 -0.280742079 0.1682746261 3.628921614e-39
-0.3255542815 0.1388636529 0.1051592305 3.628921614e-39
-0.2914227545 0.04362052307 0.096236974 3.628921614e-39
-0.2855094969 0.4110178947 -0.03472164273 3.628921614e-39
-0.1927903742 -0.3210287094 0.1968526393 3.628921614e-39
-0.3233499527 0.143664211 0.0245211143 3.628921614e-39
-0.1988320053 -0.06732350588 0.1950872988 3.628921614e-39
-0.3693237901 0.2826525569 0.2284344435 3.628921614e-39
-0.1089098752 -0.1288233995 0.1505773216 3.628921614e-39
-0.2572175562 0.02182011306 0.1721200496 3.628921614e-39
-0.2051824331 -0.08092489094 0.1918121725 3.628921614e-39
-0.3902809322 0.116992414 0.1829728633 3.628921614e-39
-0.09328921139 -0.1202682406 0.177847594 3.628921614e-39
-0.2826051712 0.01543825399 0.1614376009 3.628921614e-39
-0.1741217524 -0.09450500458 -0.08394980431 2.898180898e-39
-0.2811783254 0.2511737645 0.01790434308 2.898180898e-39
-0.07743608207 -0.04940596595 -0.03884734958 2.898180898e-39
-0.2215813398 0.1700152159 0.1387747079 2.898180898e-39
-0.2681134045 0.1234501973 0.08514685184 2.898180898e-39
-0.343645066 0.4682144225 -0.06547956914 2.898180898e-39
-0.3274068832 0.4187580347 -0.196045056 2.898180898e-39
-0.3120409548 0.4783991873 0.05849348009 2.898180898e-39
-0.2801462412 0.137070179 0.1098018587 2.898180898e-39
-0.3696116805 0.4443493485 -0.08989330381 2.898180898e-39
-0.3342131972 0.3635953367 -0.2113869637 2.898180898e-39
-0.3187350035 0.42424196 0.03881389648 2.898180898e-39
-0.2919925451 0.05575168505 -0.006615587045 2.898180898e-39
-0.3117483556 0.3839764297 0.06089910865 2.898180898e-39
-0.2951277494 0.21779567 -0.07582659274 2.898180898e-39
-0.2967419326 0.3263822794 0.1349343359 2.898180898e-39
-0.3041720986 0.1349563301 0.07353740931 2.898180898e-39
-0.3694860935 0.4146675169 -0.06441115588 2.898180898e-39
-0.3392983675 0.2494590729 -0.1723559797 2.898180898e-39
-0.3150884509 0.3324099183 0.07040247321 2.898180898e-39
-0.2682126164 0.1511282623 0.1294135898 2.898180898e-39
-0.367729485 0.4318287373 -0.110963352 2.898180898e-39
-0.3170541823 0.23952277 -0.2051356137 2.898180898e-39
-0.2810986936 0.403960675 0.03152539954 2.898180898e-39
-0.2675673068 -0.003996529616 -0.006248921622 2.898180898e-39
-0.3005912006 0.3580360115 0.0589639768 2.898180898e-39
-0.2486187369 0.01641948521 -0.03362083063 2.898180898e-39
-0.2519942224 0.157125473 0.1366807073 2.898180898e-39
-0.2401308715 -0.0963004306 -0.09119024873 2.898180898e-39
-0.2872188091 0.1965717375 0.005068914499 2.898180898e-39
-0.1054439321 -0.09891487658 -0.06545132399 2.898180898e-39
-0.16743128 0.04243162647 0.1117091477 2.898180898e-39
-0.05653290451 -0.122567676 -0.1420890838 2.167082852e-39
0.3061030209 -0.3186692595 0.106880188 2.167082852e-39
0.274096489 -0.2039825022 0.1226633415 2.167082852e-39
0.02578093484 -0.1666887105 0.03528144583 2.167082852e-39
-0.1927323341 -0.08458551764 0.1536051333 2.167082852e-39
0.1666033417 -0.1323785186 0.1653181314 2.167082852e-39
0.07206752151 -0.1442167908 -0.1842016876 2.167082852e-39
0.2956561446 -0.391716212 0.2141376287 2.167082852e-39
-0.1659624875 -0.09784434736 0.1246556789 2.167082852e-39
0.184883818 -0.08442211151 0.1259249598 2.167082852e-39
0.03688933328 -0.1393719614 -0.1748132855 2.167082852e-39
0.3008408844 -0.3899990022 0.2080792934 2.167082852e-39
-0.2093314976 -0.05819754675 -0.102165021 2.167082852e-39
0.2184937298 -0.3859965801 0.1927355081 2.167082852e-39
0.1553279757 -0.1912278086 -0.05397080258 2.167082852e-39
0.2616257966 -0.2006555051 0.2011309862 2.167082852e-39
-0.204860121 -0.07041161507 0.09933990985 2.167082852e-39
0.2237588018 -0.1282294542 0.1140480042 2.167082852e-39
0.08429834992 -0.1348146498 -0.1349895149 2.167082852e-39
0.2788173556 -0.2873719037 0.190568313 2.167082852e-39
-0.1180017591 -0.09748581052 0.1065317243 2.167082852e-39
0.1795130372 -0.08823042363 0.1004740372 2.167082852e-39
-0.04663493857 -0.121211037 -0.09843827039 2.167082852e-39
0.3023977876 -0.3632383645 0.1839047074 2.167082852e-39
-0.1834690869 -0.07646724582 -0.1134464666 2.167082852e-39
0.2687761486 -0.3405533135 0.1395769417 2.167082852e-39
0.1588807553 -0.1545290947 8.746981621e-06 2.167082852e-39
0.1812711507 -0.1341196895 0.1220010743 2.167082852e-39
-0.2567457855 -0.07271316648 -0.09526412934 2.167082852e-39
0.2952099442 -0.2713743448 0.05831771716 2.167082852e-39
0.1853658855 -0.1912322342 0.008396413177 2.167082852e-39
0.1697332859 -0.1572363079 0.1223492548 2.167082852e-39
-0.1652481109 0.01722594537 0.1472686529 1.435982003e-39
-0.2493651062 0.04010787234 0.1745892465 1.435982003e-39
-0.3438985944 0.1332475394 0.1312186718 1.435982003e-39
-0.0006631164579 -0.1228821129 0.1636395454 1.435982003e-39
-0.2824499607 0.2518237531 0.2049783766 1.435982003e-39
-0.2292967886 -0.2719633579 0.2548888028 1.435982003e-39
-0.2798924148 0.1629758179 -0.03568333015 1.435982003e-39
-0.2707054615 -0.1268407851 0.2391052842 1.435982003e-39
-0.2659365833 0.2551665604 0.1072497889 1.435982003e-39
-0.2415516078 -0.291788727 0.2512311339 1.435982003e-39
-0.2850843966 0.147435084 -0.07837985456 1.435982003e-39
-0.2664370239 -0.1710956693 0.21891886 1.435982003e-39
-0.1907446831 0.0858258605 0.1774300486 1.435982003e-39
-0.2031503618 -0.09359342605 0.2471133769 1.435982003e-39
-0.3299632967 0.3115349114 0.1325117499 1.435982003e-39
-0.1759233922 -0.0788872838 0.2103854865 1.435982003e-39
-0.2589653134 0.1902535856 0.1030330583 1.435982003e-39
-0.2401939332 -0.2376208603 0.2382882982 1.435982003e-39
-0.3043572605 0.228828609 -0.05793528631 1.435982003e-39
-0.2491152287 -0.08768219501 0.1874224395 1.435982003e-39
-0.2414451241 0.2229821831 0.05216499418 1.435982003e-39
-0.2365034521 -0.3193146884 0.2373557389 1.435982003e-39
-0.2538451254 0.185336858 -0.04320114106 1.435982003e-39
-0.2464502007 -0.2392919213 0.1775179803 1.435982003e-39
-0.166312471 0.01222288143 0.1618696153 1.435982003e-39
-0.2371478826 -0.04547552764 0.1978226006 1.435982003e-39
-0.3710356653 0.2455348223 0.09394927323 1.435982003e-39
-0.1255936623 -0.06476016343 0.1932775974 1.435982003e-39
-0.1319322139 -0.004005572759 0.1611284763 1.435982003e-39
-0.2819523811 0.005034907255 0.1784964353 1.435982003e-39
-0.3281632066 0.1143236011 0.0864944905 1.435982003e-39
-0.1498206705 -0.09268388897 0.18701756 1.435982003e-39
0.05086988583 -0.1940405071 0.1732997298 7.045238224e-40
-0.2281406522 -0.1354080588 0.1600087583 7.045238224e-40
-0.1276666224 -0.2215595245 0.2134006619 7.045238224e-40
-0.1490124166 -0.3123678863 0.179417327 7.045238224e-40
0.1729094237 -0.1843476892 0.1451619714 7.045238224e-40
-0.2593052983 0.105018653 0.1617419273 7.045238224e-40
-0.01247235574 -0.1547629237 0.0500677973 7.045238224e-40
-0.2795538604 -0.2176876813 0.2284129113 7.045238224e-40
0.1674381793 -0.1781995147 0.05543783307 7.045238224e-40
-0.2753093839 0.1536501199 0.1287313104 7.045238224e-40
0.004011497833 -0.1511351615 0.01106687915 7.045238224e-40
-0.2834348679 -0.1769125611 0.2108186483 7.045238224e-40
0.1079107076 -0.201745376 0.2066334188 7.045238224e-40
-0.2358789742 -0.1547905207 0.1067745015 7.045238224e-40
-0.06718058884 -0.2256092578 0.2168914229 7.045238224e-40
-0.248666808 -0.3790019751 0.2033225447 7.045238224e-40
0.1746451557 -0.1768657565 0.08004877716 7.045238224e-40
-0.2550831437 0.07529261708 0.1029756814 7.045238224e-40
-0.03380608186 -0.1712719053 0.05498557165 7.045238224e-40
-0.2665825486 -0.2551037073 0.189800933 7.045238224e-40
0.1819978803 -0.1663804948 0.01405116823 7.045238224e-40
-0.2700735629 0.1912107021 0.1155792475 7.045238224e-40
0.03008845262 -0.1498148292 0.007272711489 7.045238224e-40
-0.275534302 -0.1827848256 0.1823266745 7.045238224e-40
0.06483724713 -0.1908654571 0.1567858607 7.045238224e-40
-0.2501899302 -0.1388081014 0.1327001601 7.045238224e-40
-0.09370011836 -0.1876923293 0.1771128327 7.045238224e-40
-0.2339183986 -0.3133154511 0.1689991951 7.045238224e-40
0.1125387251 -0.1978433579 0.1210437641 7.045238224e-40
-0.1868633479 -0.08432524651 0.1292513609 7.045238224e-40
-0.08973572403 -0.2200547755 0.1704791635 7.045238224e-40
-0.2145525962 -0.2694440186 0.1895448118 7.045238224e-40
-0.03139555082 -0.1435641795 0.1552067846 6.490113838e-41
-0.2457841188 -0.2041262686 0.1967072189 6.490113838e-41
-0.3882060051 -0.1918657273 0.1784145087 6.490113838e-41
-0.1723461449 -0.1419180185 0.216038391 6.490113838e-41
-0.2139317542 0.06455233693 -0.05953669176 6.490113838e-41
-0.1360729337 -0.1332950592 0.1154270992 6.490113838e-41
-0.2809127569 -0.0240364112 0.03698108718 6.490113838e-41
0.02131988294 -0.1426535696 0.2489382774 6.490113838e-41
-0.2115899473 0.04974122345 -0.08254493028 6.490113838e-41
-0.1165436581 -0.1274798363 0.07837549597 6.490113838e-41
-0.2833989263 -0.01543071587 0.02286168374 6.490113838e-41
0.0289691072 -0.143145293 0.236071527 6.490113838e-41
-0.1902437806 -0.08881112933 0.09140063077 6.490113838e-41
-0.2284558862 -0.1547216326 0.2308525592 6.490113838e-41
-0.3100908995 -0.08205799758 0.1088065207 6.490113838e-41
-0.1302938461 -0.1509065479 0.2483940721 6.490113838e-41
-0.1967899799 -0.006079986226 -0.0529413633 6.490113838e-41
-0.1395448297 -0.1334039867 0.1173776537 6.490113838e-41
-0.2825387716 -0.03802935407 0.04856378958 6.490113838e-41
-0.009724787436 -0.1463022828 0.2198591679 6.490113838e-41
-0.1994382441 0.01693486236 -0.1121052876 6.490113838e-41
-0.1153905466 -0.1319770515 0.04362197965 6.490113838e-41
-0.2794847488 -0.01028298866 0.007708381861 6.490113838e-41
0.01458374597 -0.1510567516 0.2148696184 6.490113838e-41
-0.1390615106 -0.1061600074 0.09598822892 6.490113838e-41
-0.2392479181 -0.1589931846 0.2214512974 6.490113838e-41
-0.2827533782 -0.08553811908 0.1019968912 6.490113838e-41
-0.1038076431 -0.1497320533 0.2035673559 6.490113838e-41
0.0357141234 -0.1194503978 0.1264646947 6.490113838e-41
-0.2922776341 -0.1896305978 0.1984772682 6.490113838e-41
-0.3272894919 -0.126570642 0.08214746416 6.490113838e-41
-0.04432175308 -0.1463633329 0.1751780957 6.490113838e-41
-0.2732389867 0.07633724064 0.1802438498 8.028094954e-40
-0.1835637391 -0.109677963 0.085015513 8.028094954e-40
-0.2858842015 -0.1299753636 0.2083544433 8.028094954e-40
-0.3131094277 -0.1269338429 0.1639858782 8.028094954e-40
-0.2842820883 0.3589200675 0.2201687992 8.028094954e-40
-0.2663626969 0.1390001774 0.1155475378 8.028094954e-40
0.06208696589 -0.1309042275 0.2089749277 8.028094954e-40
-0.232877925 -0.3321791291 0.2213330418 8.028094954e-40
-0.2960890234 0.4089539647 0.1875447631 8.028094954e-40
-0.2753292024 0.1828642935 0.125115186 8.028094954e-40
0.06008192524 -0.1145448834 0.1757990122 8.028094954e-40
-0.2044621706 -0.294052273 0.1922063977 8.028094954e-40
-0.2552182972 0.1464043558 0.2185399532 8.028094954e-40
-0.1921677291 0.0008970422205 0.04064561427 8.028094954e-40
-0.1548318714 -0.1254512817 0.1630531847 8.028094954e-40
-0.2855045497 -0.261465013 0.2272507399 8.028094954e-40
-0.3004894257 0.3737338185 0.1971537769 8.028094954e-40
-0.254840225 0.1557788849 0.1074721515 8.028094954e-40
-0.04873854667 -0.08109258115 0.1217595711 8.028094954e-40
-0.2160403281 -0.2493736297 0.172679916 8.028094954e-40
-0.2905018032 0.3964697719 0.1525954008 8.028094954e-40
-0.2617943883 0.2056154758 0.1210930571 8.028094954e-40
0.01814365946 -0.08786230534 0.1043301523 8.028094954e-40
-0.1608555913 -0.2834047377 0.1720702648 8.028094954e-40
-0.2906085849 0.1291152984 0.2156423926 8.028094954e-40
-0.1845393479 -0.002795666689 0.03835346177 8.028094954e-40
-0.2304537147 -0.09428934008 0.1727278084 8.028094954e-40
-0.2755602896 -0.1743168682 0.1645449102 8.028094954e-40
-0.3452992439 0.08985412866 0.2129631042 8.028094954e-40
-0.1737758517 -0.01434181631 0.06083717197 8.028094954e-40
-0.3104451299 -0.1243092418 0.1925663203 8.028094954e-40
-0.2632408142 -0.2518848479 0.1510047764 8.028094954e-40
0.08484669775 -0.0745812878 0.1545654684 1.540360521e-39
-0.04657449946 -0.1557206661 0.1991709173 1.540360521e-39
0.1950575113 -0.1443766952 -0.0139542399 1.540360521e-39
-0.1248635277 -0.02744520269 0.1655568779 1.540360521e-39
-0.10691607 -0.07349642366 0.2417966574 1.540360521e-39
-0.2138390243 -0.3632899225 0.2517004609 1.540360521e-39
0.2460333109 -0.1701045781 0.105265677 1.540360521e-39
-0.2828985155 -0.1336883456 0.1926982105 1.540360521e-39
-0.1162893549 -0.07495291531 0.2239669859 1.540360521e-39
-0.2311172038 -0.3754382432 0.2396449745 1.540360521e-39
0.2541723251 -0.1546544284 0.08697458357 1.540360521e-39
-0.2888337672 -0.1654426455 0.2035319507 1.540360521e-39
0.01069527306 -0.112567164 0.1900391281 1.540360521e-39
-0.1647875607 -0.2171178758 0.2156101018 1.540360521e-39
0.1647464484 -0.209607929 -0.04048310965 1.540360521e-39
-0.2354922742 -0.07986365259 0.1790839136 1.540360521e-39
-0.1087934524 -0.08421280235 0.2028297931 1.540360521e-39
-0.2233014405 -0.3294796646 0.2421124578 1.540360521e-39
0.2573100328 -0.1556122005 -0.04630748555 1.540360521e-39
-0.2637017369 -0.1460481882 0.1868446618 1.540360521e-39
-0.1245973408 -0.07994236052 0.2042280138 1.540360521e-39
-0.2312899083 -0.3916966319 0.2089331448 1.540360521e-39
0.2372315824 -0.1471236646 0.07166668028 1.540360521e-39
-0.2501373589 -0.2013638318 0.1991698593 1.540360521e-39
0.005310440902 -0.1090834513 0.1749064773 1.540360521e-39
-0.1362758577 -0.1928115785 0.2049205452 1.540360521e-39
0.2902036607 -0.1223500073 -0.1374410987 1.540360521e-39
-0.1644648165 -0.09633180499 0.1576730907 1.540360521e-39
-0.02622135729 -0.1077839136 0.1723627299 1.540360521e-39
-0.1399037987 -0.1237235367 0.1960244626 1.540360521e-39
0.3345593512 -0.1324931234 -0.1270830631 1.540360521e-39
-0.1273036152 -0.1278541982 0.1250684112 1.540360521e-39
-0.173847869 0.04868246615 -0.179731071 2.277910146e-39
-0.342264235 0.04979775101 -0.1454215199 2.277910146e-39
-0.1828654557 -0.3180360198 -0.1633785218 2.277910146e-39
-0.3694126308 -0.1666909903 -0.19134745 2.277910146e-39
-0.1797340065 -0.06330079585 -0.2492641509 2.277910146e-39
-0.2323251218 0.07777346671 -0.09233063459 2.277910146e-39
0.03829327598 -0.1727645844 -0.1818617284 2.277910146e-39
-0.2910076976 0.3980637193 -0.2099515945 2.277910146e-39
-0.1593153924 -0.08295099437 -0.2306172699 2.277910146e-39
-0.2172561586 0.02872068807 -0.1043679342 2.277910146e-39
0.07591992617 -0.1507026702 -0.1806171238 2.277910146e-39
-0.3134617209 0.3927080631 -0.182792604 2.277910146e-39
-0.1984638125 0.06186978146 -0.2098926902 2.277910146e-39
-0.2856618166 0.1283826232 -0.1500878036 2.277910146e-39
-0.08478631824 -0.1858447343 -0.1752873361 2.277910146e-39
-0.3119209111 0.05609575659 -0.1657779664 2.277910146e-39
-0.1638132334 -0.04368702695 -0.2159566134 2.277910146e-39
-0.2343976498 0.01770910248 -0.1071099937 2.277910146e-39
0.03480119258 -0.1499838382 -0.17331554 2.277910146e-39
-0.3159272075 0.277316153 -0.1510686427 2.277910146e-39
-0.1136282235 -0.09210395068 -0.2043318003 2.277910146e-39
-0.1962095052 -0.005437797401 -0.1013400629 2.277910146e-39
0.1221909747 -0.1347583532 -0.1786313206 2.277910146e-39
-0.2995922267 0.3231710494 -0.1255141199 2.277910146e-39
-0.193928197 0.03922491893 -0.1897935271 2.277910146e-39
-0.2993297279 0.09361441433 -0.1480674297 2.277910146e-39
-0.07157380879 -0.1124404669 -0.1717548072 2.277910146e-39
-0.3272354901 0.05333895236 -0.1406790167 2.277910146e-39
-0.1473183632 -0.03598784655 -0.191904977 2.277910146e-39
-0.3018273413 0.04913584143 -0.1405057162 2.277910146e-39
-0.005773114972 -0.1484687775 -0.1662374288 2.277910146e-39
-0.3604132533 -0.1232480407 -0.1407431364 2.277910146e-39
-0.2302834094 -0.04113238677 -0.16556032 3.015101038e-39
-0.4315828085 0.0593627058 -0.03926213086 3.015101038e-39
-0.2888495326 0.05780539662 0.1688448489 3.015101038e-39
-0.322452724 0.1108639166 -0.0162913166 3.015101038e-39
-0.2308795005 -0.4538531899 -0.2034965008 3.015101038e-39
-0.2947225869 0.218869254 -0.2510152161 3.015101038e-39
-0.2986128032 0.01324693859 -0.08560367674 3.015101038e-39
-0.3366329968 0.3824364841 0.2129262835 3.015101038e-39
-0.2282596231 -0.4536141455 -0.1991122961 3.015101038e-39
-0.2807375193 0.1429179907 -0.2361494899 3.015101038e-39
-0.2964068055 -0.05291558802 -0.09106619656 3.015101038e-39
-0.3413421214 0.3696618974 0.2128845453 3.015101038e-39
-0.1976510286 -0.1816414297 -0.1942298114 3.015101038e-39
-0.3384994566 0.2861295938 -0.1641882658 3.015101038e-39
-0.3305226564 0.09298096597 0.06494355202 3.015101038e-39
-0.3327024579 0.2803652883 0.02426441573 3.015101038e-39
-0.2003860921 -0.3658060133 -0.1731710881 3.015101038e-39
-0.3041706681 0.1548781246 -0.2171844244 3.015101038e-39
-0.3239759803 0.01129547879 -0.07249414921 3.015101038e-39
-0.3539489508 0.3385738134 0.1368144155 3.015101038e-39
-0.1991286874 -0.450206548 -0.1880052984 3.015101038e-39
-0.2643259168 0.0348430872 -0.2118136436 3.015101038e-39
-0.2538057566 -0.1441431195 -0.08262956142 3.015101038e-39
-0.3266296983 0.3130193949 0.1918977648 3.015101038e-39
-0.1734120995 -0.1110256538 -0.1673141569 3.015101038e-39
-0.341491878 0.2351083905 -0.1389357001 3.015101038e-39
-0.3398912847 0.1858829558 0.0596219562 3.015101038e-39
-0.341454953 0.2248411775 0.01926805079 3.015101038e-39
-0.1864177287 -0.08431723714 -0.174407959 3.015101038e-39
-0.4247624576 0.01856791601 -0.1360727102 3.015101038e-39
-0.3408450186 0.05013684183 0.03239703178 3.015101038e-39
-0.364125818 0.1600804031 0.06111883 3.015101038e-39
-0.2690055072 0.124427624 -0.1450254768 3.75229193e-39
-0.009523349814 -0.11911726 -0.04262205958 3.75229193e-39
-0.07006946206 0.1185798272 -0.1789903343 3.75229193e-39
-0.1630693376 -0.1400691569 -0.1820374876 3.75229193e-39
-0.3088260889 0.459505409 0.06058002636 3.75229193e-39
-0.2241587043 -0.1960268617 -0.006730007939 3.75229193e-39
-0.3379053771 0.2094285637 -0.07002921402 3.75229193e-39
0.1674846411 -0.2402234674 -0.2435935885 3.75229193e-39
-0.3224276304 0.4216906428 0.07378104329 3.75229193e-39
-0.1953540593 -0.1808747947 0.04315518215 3.75229193e-39
-0.3573918641 0.1443971097 -0.03769571707 3.75229193e-39
0.1672088653 -0.2332116663 -0.2163196206 3.75229193e-39
-0.3728663325 0.2617746592 -0.1190615892 3.75229193e-39
-0.155313924 -0.1501943618 -0.09883210063 3.75229193e-39
-0.2994817793 0.2436258346 -0.2095393836 3.75229193e-39
-0.1007317156 -0.1954516768 -0.2067126632 3.75229193e-39
-0.3659294546 0.3103532791 0.002620571759 3.75229193e-39
-0.1391552538 -0.1913897544 0.03391384706 3.75229193e-39
-0.3557882905 0.1172198951 -0.09226910025 3.75229193e-39
0.08462207019 -0.1738769859 -0.1843502074 3.75229193e-39
-0.3160312176 0.3704423904 0.0946509093 3.75229193e-39
-0.1539790034 -0.1835675091 0.0912995711 3.75229193e-39
-0.3172487617 0.1519009024 -0.01559999678 3.75229193e-39
0.2004671097 -0.211939916 -0.190166533 3.75229193e-39
-0.4020898342 0.1616602838 -0.1202690676 3.75229193e-39
-0.09824300557 -0.106669955 -0.05624777451 3.75229193e-39
-0.2949413657 0.07485801727 -0.1470759511 3.75229193e-39
-0.08391678333 -0.1234810427 -0.1617847681 3.75229193e-39
-0.3669334054 0.06252487749 -0.120359771 3.75229193e-39
0.03733275831 -0.1141548753 0.004686634056 3.75229193e-39
-0.1882044971 0.0799208805 -0.1160777882 3.75229193e-39
-0.07964970171 -0.1345731318 -0.1875827909 3.75229193e-39
-0.3656761646 -0.0783886984 -0.1920064837 4.48912409e-39
-0.3910682201 0.2641509175 0.007526777219 4.48912409e-39
-0.2225960046 -0.1160913557 -0.1444362551 4.48912409e-39
-0.3952754736 -0.09424942732 -0.1569382399 4.48912409e-39
-0.2092164457 -0.2368697971 -0.2389801294 4.48912409e-39
-0.2928878367 0.294516623 -0.2566789687 4.48912409e-39
-0.1967286468 -0.1159009039 0.1108473614 4.48912409e-39
-0.3588728309 0.3559375107 -0.02774800174 4.48912409e-39
-0.204998821 -0.2523181438 -0.2297459394 4.48912409e-39
-0.2947702408 0.2409587353 -0.232837379 4.48912409e-39
-0.1778447777 -0.1403041333 0.1177411079 4.48912409e-39
-0.3675332963 0.3397904634 -0.003563627368 4.48912409e-39
-0.2833904624 -0.118745409 -0.2446226478 4.48912409e-39
-0.3157308102 0.4153486192 -0.2060926557 4.48912409e-39
-0.2124451697 -0.02770464309 -0.03231253847 4.48912409e-39
-0.3301874697 0.1422205567 -0.08494516462 4.48912409e-39
-0.212197721 -0.2364152819 -0.2198950201 4.48912409e-39
-0.3122422993 0.291133225 -0.2079721093 4.48912409e-39
-0.2027714849 -0.1137000844 0.07271794975 4.48912409e-39
-0.3629408479 0.2500463128 -0.01088568754 4.48912409e-39
-0.1899132729 -0.234580487 -0.2183746696 4.48912409e-39
-0.2633461356 0.1970395893 -0.2201788723 4.48912409e-39
-0.1804998666 -0.1402320564 0.0955317691 4.48912409e-39
-0.3310658932 0.3063543439 0.04520481825 4.48912409e-39
-0.3009979725 -0.1112464592 -0.2101222575 4.48912409e-39
-0.329274714 0.3766210377 -0.1356151402 4.48912409e-39
-0.2175717205 -0.0595802851 -0.03769939393 4.48912409e-39
-0.3728245795 0.05060357228 -0.07855018973 4.48912409e-39
-0.3070782721 -0.1739520878 -0.2038559765 4.48912409e-39
-0.3509009778 0.267896235 -0.0277529452 4.48912409e-39
-0.2188190669 -0.1078111976 -0.03347826004 4.48912409e-39
-0.3834579289 0.04079651088 -0.09436501563 4.48912409e-39
0.08994748443 -0.1330930442 -0.0961502865 5.225597518e-39
0.2838279307 -0.2049562782 -0.1135796309 5.225597518e-39
0.2778406143 -0.166403681 -0.0177424401 5.225597518e-39
-0.03065658547 -0.2407041192 0.0592837967 5.225597518e-39
-0.2318772972 -0.1906312406 0.006083838176 5.225597518e-39
0.3105178773 -0.378947705 -0.2392321378 5.225597518e-39
0.1302411556 -0.1235468388 0.009248611517 5.225597518e-39
0.1679706126 -0.1571697891 -0.2139489651 5.225597518e-39
-0.2352523059 -0.1574960053 -0.001935956418 5.225597518e-39
0.32760185 -0.3813219368 -0.2350816429 5.225597518e-39
0.1035180837 -0.1053833291 -0.001704959432 5.225597518e-39
0.195822224 -0.1462363452 -0.2040319294 5.225597518e-39
-0.02986180782 -0.2505561113 -0.03239082173 5.225597518e-39
0.332747221 -0.1756294072 -0.1962655485 5.225597518e-39
0.2321032286 -0.132969141 -0.01697062142 5.225597518e-39
0.06800180674 -0.1494332701 -0.1562339514 5.225597518e-39
-0.1992934942 -0.2104241997 -0.02122876607 5.225597518e-39
0.3573626876 -0.2808037996 -0.2212650925 5.225597518e-39
0.1534834057 -0.09070587903 -0.009100118652 5.225597518e-39
0.1855643094 -0.1095950454 -0.1829634011 5.225597518e-39
-0.2398573607 -0.1428777426 -0.00517111877 5.225597518e-39
0.3127940893 -0.4104289114 -0.2221414149 5.225597518e-39
0.04669690132 -0.07963513583 -0.02512159571 5.225597518e-39
0.237721622 -0.1359249353 -0.1977777481 5.225597518e-39
0.05303863063 -0.1515101194 -0.08597985655 5.225597518e-39
0.3077515364 -0.1738563925 -0.1698994935 5.225597518e-39
0.2248544842 -0.1052901894 -0.02835917473 5.225597518e-39
0.08606503904 -0.1108676493 -0.05957297981 5.225597518e-39
0.048520796 -0.1314445883 -0.1015900895 5.225597518e-39
0.3257534504 -0.1640385091 -0.1492269039 5.225597518e-39
0.2008964568 -0.1028056145 -0.04414078593 5.225597518e-39
0.1288728863 -0.1625808477 -0.06702655554 5.225597518e-39
0.3131548166 -0.05164352804 -0.1515057385 5.962428276e-39
-0.1883239895 -0.1854595989 0.1231768653 5.962428276e-39
0.143805638 -0.1542684436 0.21909374 5.962428276e-39
0.05582597479 -0.1231841519 0.0650851354 5.962428276e-39
0.2416703254 -0.1255168021 0.1243175864 5.962428276e-39
-0.2446552664 -0.02130953968 -0.02823438123 5.962428276e-39
-0.02753945626 -0.1384390295 -0.04412692413 5.962428276e-39
-0.2339661419 -0.05750411004 0.2014921159 5.962428276e-39
0.2614187598 -0.1201677397 0.1332590282 5.962428276e-39
-0.2302624285 -0.08834347129 -0.07534752041 5.962428276e-39
0.007466780953 -0.1171776056 -0.08595223725 5.962428276e-39
-0.251816988 -0.05107456073 0.2276483178 5.962428276e-39
0.2570331991 -0.1251060367 -0.04701092467 5.962428276e-39
-0.2544944882 0.06857057661 0.1273498833 5.962428276e-39
-0.03018932976 -0.1664179116 0.1655305028 5.962428276e-39
-0.12187583 -0.09571302682 0.07772853971 5.962428276e-39
0.2762234509 -0.1189727783 0.09136840701 5.962428276e-39
-0.2393524051 -0.07469208539 -0.02246246301 5.962428276e-39
0.01446452457 -0.0975478515 -0.01932433993 5.962428276e-39
-0.2373162508 -0.07679225504 0.1937982887 5.962428276e-39
0.2722396851 -0.1202077419 0.1422492713 5.962428276e-39
-0.2181182355 -0.1232341602 -0.09703662246 5.962428276e-39
0.0661759004 -0.06729386002 -0.09967007488 5.962428276e-39
-0.2221904546 -0.05763742328 0.2304076403 5.962428276e-39
0.2842540741 -0.1098435894 -0.0846105665 5.962428276e-39
-0.2378722876 0.0377099365 0.1368007362 5.962428276e-39
0.003962428775 -0.1304998547 0.1736019552 5.962428276e-39
-0.07822383195 -0.1056303456 0.07066828758 5.962428276e-39
0.3268634081 -0.09965840727 -0.07625455409 5.962428276e-39
-0.2029101402 -0.1553189754 0.0944788605 5.962428276e-39
0.04399044439 -0.1121919528 0.1748158485 5.962428276e-39
-0.09714765102 -0.1252100766 0.1490014046 5.962428276e-39
0.3367741406 -0.181721732 -0.009289988317 6.698542971e-39
-0.1190641895 0.1241981313 0.1306721866 6.698542971e-39
-0.0474466607 -0.1275697947 0.2048993558 6.698542971e-39
0.07543177903 -0.01066325419 0.1840018779 6.698542971e-39
-0.2327223867 -0.1304729283 0.246907562 6.698542971e-39
-0.2903310955 0.3541762531 0.1824652553 6.698542971e-39
0.2116660923 -0.1856228411 0.2387998253 6.698542971e-39
-0.2134489119 -0.01074953657 0.1450295299 6.698542971e-39
-0.2253993601 -0.1184641868 0.2210815251 6.698542971e-39
-0.3246513009 0.3511174619 0.1715013385 6.698542971e-39
0.2527808249 -0.178545177 0.22369726 6.698542971e-39
-0.2210782915 -0.0223495923 0.1108151898 6.698542971e-39
0.1640239209 -0.1329917759 0.1204799637 6.698542971e-39
-0.2301070094 0.1639418006 0.2135748118 6.698542971e-39
0.09275264293 -0.1844216883 0.2137599587 6.698542971e-39
-0.03690969571 -0.06301640719 0.1576755345 6.698542971e-39
-0.1694586575 -0.1227693036 0.1948093921 6.698542971e-39
-0.3443988562 0.2878486812 0.1906459183 6.698542971e-39
0.2358825654 -0.1614664048 0.1891764402 6.698542971e-39
-0.1735330224 -0.03081443347 0.135741055 6.698542971e-39
-0.2058075517 -0.1000156179 0.1918141842 6.698542971e-39
-0.3263414204 0.3521828353 0.151395753 6.698542971e-39
0.2909825742 -0.1663676351 0.1899304092 6.698542971e-39
-0.1840855032 0.009620093741 0.06982028484 6.698542971e-39
0.2138261944 -0.1594740897 0.03846908733 6.698542971e-39
-0.2456880659 0.07934193313 0.1964092255 6.698542971e-39
0.1391831636 -0.1340672225 0.1314369142 6.698542971e-39
-0.03391374275 -0.0791625604 0.1500218362 6.698542971e-39
0.3009552956 -0.1277041882 -0.05423426256 6.698542971e-39
-0.2383637726 0.1326818615 0.1692777723 6.698542971e-39
0.1785609722 -0.1217733398 0.150904119 6.698542971e-39
-0.0327879712 -0.09765013307 0.147504583 6.698542971e-39
-0.3993008137 -0.06292130053 -0.03249318898 7.434656265e-39
-0.3691732883 -0.08388528973 0.09043574333 7.434656265e-39
-0.2709468901 -0.17965509 0.1319675446 7.434656265e-39
-0.3232846558 -0.1527693719 0.07650145143 7.434656265e-39
-0.2603840232 0.3635104001 0.06672437489 7.434656265e-39
-0.2761376798 -0.1032030284 -0.1633425504 7.434656265e-39
-0.2822232246 -0.1402508467 0.01830162667 7.434656265e-39
-0.304281801 0.2348384857 0.1953602582 7.434656265e-39
-0.2657570541 0.3338160515 0.09697321057 7.434656265e-39
-0.2783539891 -0.1463204473 -0.1638906449 7.434656265e-39
-0.2836579084 -0.1248687059 -0.0228510797 7.434656265e-39
-0.3127382696 0.1709902585 0.1632211357 7.434656265e-39
-0.2965764701 0.2870032489 -0.111414291 7.434656265e-39
-0.3053372204 0.01738215238 -0.002023053356 7.434656265e-39
-0.2717784047 -0.1295865327 0.08435973525 7.434656265e-39
-0.2682097256 0.2299725413 0.1089258865 7.434656265e-39
-0.2744456232 0.3289959431 0.05926882848 7.434656265e-39
-0.2811364532 -0.09382159263 -0.1317488104 7.434656265e-39
-0.2799100876 -0.124844797 -0.002081629587 7.434656265e-39
-0.2867438197 0.195037365 0.1363345683 7.434656265e-39
-0.2676327229 0.2883388996 0.1394869536 7.434656265e-39
-0.2609356046 -0.1997582167 -0.1823065132 7.434656265e-39
-0.2875970602 -0.1000189036 -0.04571661353 7.434656265e-39
-0.2618826628 0.06200060621 0.07635689527 7.434656265e-39
-0.3392481208 0.1787861884 -0.1073235795 7.434656265e-39
-0.3186341226 -0.006052643526 0.04635766894 7.434656265e-39
-0.2846407592 -0.1382728219 0.07481515408 7.434656265e-39
-0.279853791 0.1448199004 0.06232157722 7.434656265e-39
-0.3787991107 0.0356306918 0.02099210024 7.434656265e-39
-0.3403708935 -0.09205183387 0.008868826553 7.434656265e-39
-0.2884476483 -0.1646865457 0.07953193784 7.434656265e-39
-0.2146744281 -0.1307152212 -0.02023517527 7.434656265e-39
-0.187332198 -0.02071147785 -0.1468421072 8.170410826e-39
-0.327213645 0.0776514709 -0.2141965032 8.170410826e-39
-0.1725327671 -0.01865565404 -0.03017455526 8.170410826e-39
-0.1480666846 -0.08678211272 -0.1626827866 8.170410826e-39
0.01522524748 -0.1789629012 -0.2046786547 8.170410826e-39
-0.3253009915 0.3911302686 -0.1201854497 8.170410826e-39
-0.3031885922 0.035649959 0.07385504246 8.170410826e-39
-0.2788090408 0.1418685764 -0.149372071 8.170410826e-39
0.05388682336 -0.1573342234 -0.213650912 8.170410826e-39
-0.3416365385 0.3847179711 -0.07287331671 8.170410826e-39
-0.235016942 0.007421141025 0.06545808911 8.170410826e-39
-0.3030538857 0.159281835 -0.1095510274 8.170410826e-39
-0.173617214 -0.07714437693 -0.1556745023 8.170410826e-39
-0.3226038814 0.2188943177 -0.2327447832 8.170410826e-39
-0.2586675584 0.006829300895 0.02692352608 8.170410826e-39
-0.2403315306 -0.09639433026 -0.2059540451 8.170410826e-39
0.01568875648 -0.1376801431 -0.2025654465 8.170410826e-39
-0.3473236263 0.3498932719 -0.1015645638 8.170410826e-39
-0.2651926279 0.03426108882 0.08907859772 8.170410826e-39
-0.3286579549 0.07744080573 -0.1156314313 8.170410826e-39
0.09482078254 -0.1353904158 -0.2146137655 8.170410826e-39
-0.3317700326 0.3780600727 -0.02435708977 8.170410826e-39
-0.1438467354 -0.07566130161 0.03679906577 8.170410826e-39
-0.3045107126 0.1664242148 -0.0907837078 8.170410826e-39
-0.1750677377 -0.03902069852 -0.1369720846 8.170410826e-39
-0.3347233236 0.2072815597 -0.2290415019 8.170410826e-39
-0.2241937369 0.00671493588 0.03988244385 8.170410826e-39
-0.274626255 -0.052723445 -0.07509456575 8.170410826e-39
-0.151308611 -0.001991865458 -0.1655463874 8.170410826e-39
-0.3611608744 0.1389508098 -0.1870115995 8.170410826e-39
-0.1976909786 -0.01740526408 0.05061850324 8.170410826e-39
-0.2737964094 0.01261224411 -0.1251612157 8.170410826e-39
0.2072836012 -0.2179829627 0.03118560649 8.906165387e-39
0.0377253592 -0.069552131 0.2259426564 8.906165387e-39
0.299613148 -0.1290625185 0.2139772922 8.906165387e-39
0.1849793345 -0.0926906541 0.1966108531 8.906165387e-39
-0.1980407983 -0.1000127345 0.08116172254 8.906165387e-39
-0.1673527956 -0.08094089478 0.2362269759 8.906165387e-39
0.3159683645 -0.1699465811 0.1031758785 8.906165387e-39
0.2445940524 -0.1204509139 0.2583398223 8.906165387e-39
-0.2147465646 -0.07691454142 0.0817162022 8.906165387e-39
-0.1899414957 -0.0742007941 0.2271866947 8.906165387e-39
0.3416111171 -0.1597842425 0.08047802746 8.906165387e-39
0.265109688 -0.1260074377 0.2370753139 8.906165387e-39
-0.07524348795 -0.1485968381 3.831088543e-05 8.906165387e-39
-0.04541571438 -0.1235233545 0.2497535646 8.906165387e-39
0.3565317988 -0.1691021323 0.20569098 8.906165387e-39
0.1226500869 -0.09198834002 0.2457868904 8.906165387e-39
-0.1800490767 -0.08532371372 0.05607161671 8.906165387e-39
-0.1414810717 -0.08580310643 0.2070529461 8.906165387e-39
0.3739849329 -0.1583168507 0.1179299578 8.906165387e-39
0.1924005151 -0.09707369655 0.2306603491 8.906165387e-39
-0.2115615159 -0.05664077774 0.1044392586 8.906165387e-39
-0.2037245184 -0.05947038531 0.2169801146 8.906165387e-39
0.3693545461 -0.1385135651 0.06803759933 8.906165387e-39
0.2328083366 -0.133741647 0.2224442065 8.906165387e-39
-0.04654039443 -0.1704275459 -0.004434005357 8.906165387e-39
-0.04168592393 -0.1246211156 0.2103236169 8.906165387e-39
0.3611528873 -0.1494578719 0.1930813193 8.906165387e-39
0.114542298 -0.04320532456 0.201886639 8.906165387e-39
0.05758302659 -0.2687546611 0.0600444451 8.906165387e-39
-0.02639494091 -0.08623600751 0.2045727223 8.906165387e-39
0.4136254191 -0.1491003335 0.1725593954 8.906165387e-39
0.1484714299 -0.03045355901 0.2051296234 8.906165387e-39
0.1081192493 -0.1711619198 -0.2029278427 9.641561216e-39
0.1844944954 -0.2052062601 -0.2237052768 9.641561216e-39
0.2109719068 -0.2258953452 -0.192470625 9.641561216e-39
0.1135340929 -0.03095705807 -0.2184655964 9.641561216e-39
-0.2264616042 -0.1176812351 -0.2198916376 9.641561216e-39
0.3012544513 -0.4541043937 -0.2361399531 9.641561216e-39
0.2700483799 -0.1717781276 0.01645690575 9.641561216e-39
0.2330292612 -0.1101745665 -0.253469795 9.641561216e-39
-0.2316399813 -0.1018053293 -0.2062928081 9.641561216e-39
0.3118042052 -0.44846645 -0.2258263081 9.641561216e-39
0.2986686528 -0.1627752334 0.04232168943 9.641561216e-39
0.235436663 -0.1087367162 -0.2450272143 9.641561216e-39
-0.04714345932 -0.1888599098 -0.2616504729 9.641561216e-39
0.2412121743 -0.2679952383 -0.2478864342 9.641561216e-39
0.2722369134 -0.1970347762 -0.09640952945 9.641561216e-39
0.1167895943 -0.0949646607 -0.2119344771 9.641561216e-39
-0.1875439882 -0.09333521873 -0.2014783025 9.641561216e-39
0.3046201169 -0.4051869512 -0.2071711719 9.641561216e-39
0.3323900104 -0.1473339945 -0.01462392602 9.641561216e-39
0.1764945984 -0.09153874218 -0.2034398764 9.641561216e-39
-0.2167325467 -0.06465240568 -0.2057386339 9.641561216e-39
0.3179588318 -0.4378620684 -0.2150847167 9.641561216e-39
0.3283173442 -0.1428836137 0.05532287806 9.641561216e-39
0.2686113715 -0.1097635105 -0.2335532308 9.641561216e-39
-0.01159387268 -0.1977453381 -0.2236220092 9.641561216e-39
0.2334380746 -0.2224987447 -0.2162482291 9.641561216e-39
0.2702170908 -0.182363227 -0.0791278407 9.641561216e-39
0.0489580594 -0.07700848579 -0.1707122922 9.641561216e-39
0.01191078406 -0.1763911247 -0.2139360458 9.641561216e-39
0.2330547869 -0.2002728879 -0.1937479079 9.641561216e-39
0.345909059 -0.1893921793 -0.09337623417 9.641561216e-39
0.1291798204 -0.06105738133 -0.1955387145 9.641561216e-39
-0.1914423704 0.02198606171 -0.03591768071 1.037659831e-38
-0.3675882518 -0.2131525874 -0.2073155493 1.037659831e-38
-0.2563746572 -0.2011125386 -0.2267009765 1.037659831e-38
-0.09235908836 0.03493613005 -0.190560177 1.037659831e-38
-0.2473276109 0.2029487193 -0.224274233 1.037659831e-38
-0.2777651548 -0.02447328717 0.1640246212 1.037659831e-38
-0.2983626425 -0.08073675632 0.003939354792 1.037659831e-38
-0.3081270158 0.1153863594 -0.09271717072 1.037659831e-38
-0.2389826626 0.1476283371 -0.2054376304 1.037659831e-38
-0.275944382 -0.08567265421 0.1924059242 1.037659831e-38
-0.2996062338 -0.07422082871 0.0333369486 1.037659831e-38
-0.326274544 0.07276663929 -0.08472319692 1.037659831e-38
-0.2159524113 0.1969014257 -0.1103074178 1.037659831e-38
-0.2663277984 -0.002736263676 -0.01459106058 1.037659831e-38
-0.2974146307 -0.106643334 -0.1597663164 1.037659831e-38
-0.3336291015 0.05200244486 -0.2383205444 1.037659831e-38
-0.1997685581 0.08508446813 -0.1568025351 1.037659831e-38
-0.2800447941 -0.08399341255 0.1372170299 1.037659831e-38
-0.293381542 -0.07320927829 -0.003573342925 1.037659831e-38
-0.3263514638 0.05459516868 -0.1441101283 1.037659831e-38
-0.2067690343 0.1184934601 -0.1791985333 1.037659831e-38
-0.2573505342 -0.1326777637 0.2113820612 1.037659831e-38
-0.2962958217 -0.06115378067 0.04879500717 1.037659831e-38
-0.3166544437 0.02263907716 -0.09235155582 1.037659831e-38
-0.1876765639 0.1025794894 -0.04674397781 1.037659831e-38
-0.2696561813 -0.07120279223 -0.03685110435 1.037659831e-38
-0.257191062 -0.0872393325 -0.1572037041 1.037659831e-38
-0.2473872751 0.04404352233 -0.2207801938 1.037659831e-38
-0.1267306954 -0.04973130301 -0.09425351024 1.037659831e-38
-0.3254903853 -0.1262653917 -0.07079578191 1.037659831e-38
-0.2738763392 -0.1382552385 -0.1716676056 1.037659831e-38
-0.1815570295 0.03147696331 -0.193002075 1.037659831e-38
0.4188236296 -0.1140188426 -0.01495845802 1.111163541e-38
0.1981247365 -0.1364845335 0.1939719915 1.111163541e-38
0.2961135507 -0.1897574067 0.1693609655 1.111163541e-38
0.3658779263 -0.2485745698 -0.1342615187 1.111163541e-38
0.3077167571 -0.1679239273 -0.1912879944 1.111163541e-38
-0.09643545002 -0.1350483149 0.1154829934 1.111163541e-38
0.2278555781 -0.1868533641 -0.06194174662 1.111163541e-38
-0.09886839241 -0.1336410344 -0.01440105867 1.111163541e-38
0.3080300689 -0.1600499749 -0.209652409 1.111163541e-38
-0.112669304 -0.1248587444 0.1371321976 1.111163541e-38
0.2743829489 -0.1880713701 -0.08064582199 1.111163541e-38
-0.09362839907 -0.117727764 0.01659919508 1.111163541e-38
0.3687765002 -0.1668678671 -0.05487087369 1.111163541e-38
0.1841621101 -0.1756822914 0.1837907284 1.111163541e-38
