# .PCD v0.7 - Point Cloud Data file format
VERSION 0.7
FIELDS x y z rgb
SIZE 4 4 4 4
TYPE F F F F
COUNT 1 1 1 1
WIDTH 830
HEIGHT 1
VIEWPOINT 0 0 0 1 0 0 0
POINTS 830
DATA ascii
-0.2552330792 -0.1584877819 -0.175104171 1.540360521e-39
0.05539626256 -0.1428310722 0.05027326196 1.540360521e-39
-0.3379182518 0.1357673556 -0.1612033844 1.540360521e-39
-0.04951005057 -0.01721494459 -0.03511355445 1.540360521e-39
-0.1694059521 -0.04349418357 -0.1655185968 1.540360521e-39
-0.3695385456 -0.2820560336 0.1575391442 2.277910146e-39
0.005222973414 -0.2607057989 0.1093989387 2.277910146e-39
-0.4419214427 -0.2664293647 -0.0538854748 2.277910146e-39
-0.1765338629 -0.2756276429 0.08759495616 2.277910146e-39
-0.2928084135 -0.2562074363 0.1229019016 2.277910146e-39
-0.1031832173 -0.2461775094 0.1045300588 2.277910146e-39
-0.4361115098 -0.1251852363 -0.1522596776 2.277910146e-39
-0.2642796934 -0.1561989039 0.01419282239 2.277910146e-39
-0.3838859499 -0.237051934 0.1009315625 2.277910146e-39
0.152902022 -0.2036025524 0.1376877129 2.277910146e-39
-0.4072904587 -0.1413268596 -0.08479493111 2.277910146e-39
-0.1733613461 -0.1302226335 0.06779527664 2.277910146e-39
-0.3030273914 -0.1634331495 0.04647149146 2.277910146e-39
0.04332894459 -0.1438687444 0.1075028107 2.277910146e-39
-0.4295637608 -0.1044449359 -0.09206559509 2.277910146e-39
-0.198515296 -0.1208158955 0.05894136429 2.277910146e-39
-0.3176732063 -0.1123738885 0.04228766263 2.277910146e-39
0.01217883173 -0.1190762967 0.1190904826 2.277910146e-39
-0.4416466355 -0.08495853096 -0.07704038173 2.277910146e-39
-0.2984329164 -0.112138167 0.06693083793 2.277910146e-39
-0.4030193686 -0.1330289245 0.0567766577 2.277910146e-39
-0.1629644483 -0.11035759 0.2397602797 2.277910146e-39
-0.3635457456 -0.1002232805 -0.02484207973 2.277910146e-39
-0.3081019223 -0.1417082846 0.1484201699 2.277910146e-39
-0.3110847771 -0.1118251458 0.1151687801 2.277910146e-39
-0.2029212117 -0.1129303798 0.2040236294 2.277910146e-39
-0.4500971138 -0.1185794845 0.03598139808 2.277910146e-39
-0.3837224245 -0.1017697603 0.1595707387 2.277910146e-39
-0.3786667287 -0.1166311875 0.01971103065 2.277910146e-39
-0.09966482222 -0.1445738822 0.0526416488 2.277910146e-39
-0.4230418205 -0.115920417 0.04403987154 2.277910146e-39
-0.2463764846 -0.1481161714 0.1826810688 2.277910146e-39
0.03633075953 -0.2890114784 0.05583037063 3.015101038e-39
0.1265116781 -0.3132495582 0.07274565101 3.015101038e-39
-0.2737507224 -0.2648206651 -0.1698710173 3.015101038e-39
0.0273834765 -0.2349283993 -0.1429693252 3.015101038e-39
0.05829564855 -0.2804785669 0.09904355556 3.015101038e-39
0.218243733 -0.2858855128 0.07065619528 3.015101038e-39
-0.3826102316 -0.1866880953 -0.1711752862 3.015101038e-39
-0.1559215337 -0.1899629831 -0.1140790731 3.015101038e-39
-0.2462327927 -0.2186272293 -0.1513728201 3.015101038e-39
-0.08754758537 -0.1860164255 -0.04870193079 3.015101038e-39
-0.2903922498 -0.1864333749 -0.1588528603 3.015101038e-39
-0.09707958996 -0.1215410009 -0.1746672988 3.015101038e-39
-0.1883233935 -0.1429508626 -0.03717395663 3.015101038e-39
0.0005513801589 -0.1377184987 -0.04729001224 3.015101038e-39
-0.3297735155 -0.1371130198 -0.1457005739 3.015101038e-39
-0.1322001666 -0.1212003678 -0.1544549465 3.015101038e-39
-0.2013821006 -0.118004173 -0.01783296652 3.015101038e-39
-0.04261726514 -0.1368324459 -0.04031285644 3.015101038e-39
-0.3684490621 -0.09391172975 -0.1336991787 3.015101038e-39
-0.1840030551 -0.1098908857 -0.1440859586 3.015101038e-39
-0.2232710421 -0.1126530766 -0.05619692057 3.015101038e-39
-0.1019817069 -0.1198602766 -0.05724133924 3.015101038e-39
-0.304915905 -0.09285914898 -0.04767883196 3.015101038e-39
-0.04681286588 -0.1941266507 -0.1389626712 3.015101038e-39
-0.1899373531 -0.1028535441 0.05985168368 3.015101038e-39
0.0794640258 -0.1702567488 -0.1309502721 3.015101038e-39
-0.4054143131 -0.1082853153 0.01736190729 3.015101038e-39
-0.09923728555 -0.1236458495 0.01258075889 3.015101038e-39
-0.3035885096 -0.1258830726 0.01199563406 3.015101038e-39
-0.1732066423 -0.118370533 -0.105412446 3.015101038e-39
-0.3479859829 -0.1120150909 -0.0406185165 3.015101038e-39
7.130205631e-05 -0.1058479622 0.01217768528 3.015101038e-39
0.0808441937 -0.1928794086 0.1599728018 3.75229193e-39
0.1414103508 -0.2353491038 -0.03257723153 3.75229193e-39
-0.2612031996 -0.3202871084 0.1091440469 3.75229193e-39
0.2559229136 -0.247980997 0.2115515769 3.75229193e-39
0.2136583179 -0.2860756516 0.171749562 3.75229193e-39
-0.312320441 -0.2906139493 0.005069555249 3.75229193e-39
-0.0666288957 -0.04605587944 0.1043448597 3.75229193e-39
0.4735176563 -0.1706234664 0.06867108494 3.75229193e-39
-0.001940851449 -0.1600721776 0.2012265325 3.75229193e-39
0.2794745564 -0.2252669334 -0.04729845747 3.75229193e-39
-0.03963038698 0.02309115045 0.1748664826 3.75229193e-39
0.4352627397 -0.08844928443 0.1745818853 3.75229193e-39
0.2696446776 -0.02593805268 0.1553284377 3.75229193e-39
-0.3754594326 -0.1403807849 0.03793014959 3.75229193e-39
-0.0339115411 0.03011835366 0.1766130179 3.75229193e-39
0.4422368407 -0.08964444697 0.1400237083 3.75229193e-39
0.2400766909 -0.01776878908 0.15893659 3.75229193e-39
-0.3609011471 -0.1108722314 -0.03061239235 3.75229193e-39
-0.09608187526 -0.001113373321 0.1692522317 3.75229193e-39
0.2784735858 -0.08177781105 0.03524273634 3.75229193e-39
-0.1691632122 -0.05954386666 0.1950446963 3.75229193e-39
-0.3034750223 -0.1075336039 -0.03205939382 3.75229193e-39
-0.2807577848 0.0107415989 0.196267277 3.75229193e-39
-0.1586711705 -0.09738147259 -0.0103052631 3.75229193e-39
-0.06264044344 -0.08975914866 0.08314624429 3.75229193e-39
-0.4143921733 -0.09492707253 0.09461027384 3.75229193e-39
-0.1771694124 0.01485121902 0.07862207294 3.75229193e-39
-0.07579424977 -0.03138426319 0.01291684527 3.75229193e-39
-0.2725957632 0.09984852374 0.1151624992 3.75229193e-39
-0.2248450369 -0.1025511473 0.1433386058 3.75229193e-39
-0.1517108232 -0.05563131347 0.05812088028 3.75229193e-39
-0.1807745099 -0.1092627794 -0.0006548314122 3.75229193e-39
-0.2588925362 -0.2506482005 -0.07204298675 4.48912409e-39
-0.0008402800304 -0.292237401 -0.1363344491 4.48912409e-39
-0.2501939833 -0.2841835618 0.08737765253 4.48912409e-39
0.3675069511 -0.3074849248 -0.1035356745 4.48912409e-39
-0.3190824687 -0.2649555206 -0.1143523082 4.48912409e-39
-0.195752278 -0.3057967126 -0.1647026688 4.48912409e-39
-0.4508545995 -0.06526347995 0.0393525362 4.48912409e-39
0.04993475974 -0.2013038248 0.006779671181 4.48912409e-39
-0.4347237945 -0.09422440082 -0.1891724169 4.48912409e-39
-0.1173221767 -0.2226333171 -0.001817149925 4.48912409e-39
-0.3014194071 -0.02115342021 0.09248407185 4.48912409e-39
0.3426027298 -0.1376947016 -0.0774641484 4.48912409e-39
-0.2742675245 -0.08731011301 -0.1898258775 4.48912409e-39
-0.09703043848 -0.1349390447 -0.08859810978 4.48912409e-39
-0.3574931026 0.07761901617 0.06081185117 4.48912409e-39
0.3042009473 -0.1263230294 -0.07854794711 4.48912409e-39
-0.2705831528 -0.0606790185 -0.1684884876 4.48912409e-39
-0.1159662977 -0.1752757579 -0.08998027444 4.48912409e-39
-0.3911401033 0.05576337129 0.02222462557 4.48912409e-39
0.1185178012 -0.09682206064 -0.066288203 4.48912409e-39
-0.3899467885 -0.08117768914 -0.1823563129 4.48912409e-39
-0.1445402354 -0.1747236997 -0.0811162442 4.48912409e-39
-0.2510551512 0.01971735805 -0.04964494333 4.48912409e-39
0.16351071 -0.0839189589 -0.1626446843 4.48912409e-39
-0.3423375487 -0.1381120384 -0.1355612129 4.48912409e-39
-0.1919026971 -0.1330259144 -0.09492948651 4.48912409e-39
-0.4117759168 0.04469249025 -0.05007376522 4.48912409e-39
-0.07851406187 -0.0907022208 -0.1797427833 4.48912409e-39
-0.3957938552 -0.09153052419 -0.1007847786 4.48912409e-39
-0.05833002925 -0.1099943742 0.05577481538 4.48912409e-39
-0.2152189314 0.04459001124 -0.01080497727 4.48912409e-39
-0.2416830063 -0.09474293888 0.01134148054 4.48912409e-39
-0.2530466914 -0.2828359008 -0.1477505267 5.225597518e-39
0.2658931315 -0.2946284115 -0.144707188 5.225597518e-39
0.09393056482 -0.2332446724 -0.145007357 5.225597518e-39
0.2004880607 -0.2690517902 -0.04595272988 5.225597518e-39
-0.1914871037 -0.2696847618 -0.1709684432 5.225597518e-39
0.1998817027 -0.233067885 -0.1714114249 5.225597518e-39
0.2223695517 -0.195145607 -0.04581722245 5.225597518e-39
0.4173092842 -0.2030156851 0.0264807269 5.225597518e-39
0.1000877544 -0.1956123412 -0.1875752509 5.225597518e-39
0.3933362365 -0.2793935835 -0.1566632241 5.225597518e-39
0.1392374337 -0.1463048458 -0.06322268397 5.225597518e-39
0.3731423616 -0.1447511315 0.02605460957 5.225597518e-39
-0.0223477222 -0.08370435238 -0.1877966523 5.225597518e-39
0.2801219523 -0.1490216106 -0.1976678222 5.225597518e-39
0.1576505899 -0.1064032763 -0.04094924778 5.225597518e-39
0.3898569047 -0.1391882896 0.07246654481 5.225597518e-39
-0.01727287844 -0.06775227189 -0.187734738 5.225597518e-39
0.3022802472 -0.1486787498 -0.1976203024 5.225597518e-39
0.1646720767 -0.1034321263 -0.01896121353 5.225597518e-39
0.3592419028 -0.1211449355 0.05188592151 5.225597518e-39
-0.05222775042 -0.08847495168 -0.1948114783 5.225597518e-39
0.3121195138 -0.121275045 -0.1995145977 5.225597518e-39
-0.09050504118 -0.08792851865 -0.08693917841 5.225597518e-39
0.2277032286 -0.1411841214 0.01316450443 5.225597518e-39
-0.1711008251 -0.1148026511 -0.1892948896 5.225597518e-39
0.1296600252 -0.03239603341 -0.1494981349 5.225597518e-39
-0.1134909913 -0.07588914037 -0.04683189467 5.225597518e-39
0.3393723369 -0.1308428645 -0.01856888458 5.225597518e-39
-0.09165620059 -0.1271143705 -0.1295610666 5.225597518e-39
0.2495004237 -0.1483111531 -0.1092751548 5.225597518e-39
-0.1510711014 -0.1092740223 -0.1415733099 5.225597518e-39
0.3238995969 -0.1352050155 -0.12570858 5.225597518e-39
0.2863090336 -0.2849930823 -0.01976185292 5.962428276e-39
0.1606415957 -0.2717887759 -0.1492124647 5.962428276e-39
0.3489490449 -0.2526319623 0.04502609372 5.962428276e-39
-0.01697795838 -0.3434271216 0.1329917163 5.962428276e-39
0.2000446469 -0.1992791891 -0.1740319133 5.962428276e-39
0.03724914789 -0.1873764843 -0.168501541 5.962428276e-39
0.4654078186 -0.1297332495 0.04296544567 5.962428276e-39
0.2966256142 -0.1789819449 0.1327115893 5.962428276e-39
0.4523441494 -0.1672539413 -0.007982617244 5.962428276e-39
0.3473848104 -0.1649989933 -0.1986748278 5.962428276e-39
0.3434723318 0.003518343437 0.08080297709 5.962428276e-39
0.1356545389 -0.09470623732 0.1433784217 5.962428276e-39
0.3304998875 -0.005170202348 -0.04758243635 5.962428276e-39
0.2204308063 -0.09510914981 -0.1988292485 5.962428276e-39
0.3665304184 -0.004220639355 0.08455573767 5.962428276e-39
0.1926905364 -0.06684203446 0.1453083903 5.962428276e-39
0.3466656506 -0.01221350953 -0.04303191602 5.962428276e-39
0.239943251 -0.0713827014 -0.1777408719 5.962428276e-39
0.390149653 -0.02720527165 0.07260271162 5.962428276e-39
0.1975286305 -0.06705415249 0.1046811715 5.962428276e-39
0.3926551342 -0.144653514 -0.02658065967 5.962428276e-39
0.2893011272 -0.1427914798 -0.1088026017 5.962428276e-39
0.143687427 -0.05885408446 -0.02877715416 5.962428276e-39
-0.122122623 -0.1399937868 -0.0139441127 5.962428276e-39
0.290926367 -0.1393945962 -0.05442323908 5.962428276e-39
0.03285199031 -0.1552294642 -0.0519063361 5.962428276e-39
0.1189826354 -0.08685217053 -0.01862392202 5.962428276e-39
0.1086560711 -0.07872936875 0.02989184484 5.962428276e-39
0.4488036335 -0.03823263571 -0.06108904257 5.962428276e-39
0.3503274322 -0.1233413815 -0.07380980998 5.962428276e-39
0.1691915095 0.00683744764 -0.02453845926 5.962428276e-39
0.05298766494 -0.1164311096 -0.04623827711 5.962428276e-39
0.3269331753 -0.2559241951 0.1308180541 6.698542971e-39
0.03836110234 -0.2733493745 0.07627222687 6.698542971e-39
0.2630289495 -0.2217573971 0.1786796898 6.698542971e-39
0.2586711645 -0.3189608753 0.09363581985 6.698542971e-39
0.356300652 -0.2146595865 0.1090767905 6.698542971e-39
0.08928177506 -0.2439935058 0.1214759648 6.698542971e-39
0.4004321098 -0.1185997427 0.184954986 6.698542971e-39
-0.2867123783 -0.227629289 -0.03880405053 6.698542971e-39
0.4672000408 -0.1866499484 0.1302713752 6.698542971e-39
0.1004101858 -0.1925387084 0.104907304 6.698542971e-39
0.3519349098 -0.07657045126 0.1818246692 6.698542971e-39
0.08695127815 -0.04512377456 0.1609847248 6.698542971e-39
0.4005658329 -0.1500656456 0.1717681885 6.698542971e-39
0.2776602507 -0.05596475303 0.1742069721 6.698542971e-39
0.3759333789 -0.04660357907 0.1806419492 6.698542971e-39
-0.07303114235 -0.06394897401 -0.05554460734 6.698542971e-39
0.4173018038 -0.1264994144 0.1625926197 6.698542971e-39
0.2650873065 -0.0936724022 0.1927102804 6.698542971e-39
0.3784505427 -0.05007941648 0.1292533278 6.698542971e-39
-0.2889043689 -0.1056834757 -0.1498025358 6.698542971e-39
0.4497717321 -0.1176999062 0.1407977343 6.698542971e-39
0.0954984352 -0.0972102806 0.03614659235 6.698542971e-39
0.2254415452 -0.05719733238 0.1310306937 6.698542971e-39
-0.04569067806 -0.1216854304 -0.145454973 6.698542971e-39
0.3574694395 -0.1151042283 0.1337680072 6.698542971e-39
0.1415437609 -0.1255521625 0.03749581799 6.698542971e-39
0.177002728 -0.1461839974 0.0419074595 6.698542971e-39
-0.1469334662 -0.1167600378 -0.08560702205 6.698542971e-39
0.4171930552 -0.0487601459 0.07378331572 6.698542971e-39
-0.0397968106 -0.1271773875 -0.06389959157 6.698542971e-39
0.1378999203 -0.104184702 0.02749631926 6.698542971e-39
0.08429288864 -0.1308025122 -0.01379812136 6.698542971e-39
0.3990659714 -0.2237644196 -0.04967721552 7.434656265e-39
-0.2059476227 -0.2058052719 -0.1436241418 7.434656265e-39
0.211607784 -0.2179649323 -0.0004236548848 7.434656265e-39
0.08894455433 -0.2561689913 0.01518481504 7.434656265e-39
0.3506605327 -0.2012997717 -0.0703420192 7.434656265e-39
0.010711696 -0.1094229519 -0.1147883683 7.434656265e-39
0.3600372672 -0.1535574198 0.1220627725 7.434656265e-39
-0.1165258065 -0.1533323973 -0.0231213253 7.434656265e-39
0.4683553576 -0.1650589406 0.1357266307 7.434656265e-39
-0.3579263985 -0.217480734 -0.1399266571 7.434656265e-39
0.2130813301 -0.1285792589 0.1584696621 7.434656265e-39
0.06001771241 -0.1152252108 -0.01530906931 7.434656265e-39
0.317712307 -0.1570179909 0.02543643489 7.434656265e-39
-0.1894983351 -0.1283501238 -0.1072310433 7.434656265e-39
0.2295053154 -0.09548421204 0.1673526019 7.434656265e-39
0.01238902286 -0.1221058816 -0.01122393273 7.434656265e-39
0.3302597106 -0.1292090118 0.07150997221 7.434656265e-39
-0.2198430598 -0.1426570714 -0.1075824127 7.434656265e-39
0.2636882067 -0.08187609166 0.143906042 7.434656265e-39
-0.06805021316 -0.1136591434 -0.01649896055 7.434656265e-39
0.3786845505 -0.14424254 0.1089616045 7.434656265e-39
-0.2994727492 -0.02033264749 -0.09332581609 7.434656265e-39
0.02119996771 -0.1250084192 0.03875600919 7.434656265e-39
0.1673116684 -0.1265776902 -0.1014856845 7.434656265e-39
0.2151949257 -0.1146648824 0.002824254334 7.434656265e-39
-0.05679102615 -0.03716235608 -0.09189613909 7.434656265e-39
0.21990484 -0.114839904 0.01354669593 7.434656265e-39
0.1280772686 -0.1203503758 -0.1470321268 7.434656265e-39
0.3779434264 -0.1151086539 -0.02918839455 7.434656265e-39
-0.4321691394 -0.05146985501 -0.1070140973 7.434656265e-39
0.0562062189 -0.08975116163 0.06192407012 7.434656265e-39
0.1263415366 -0.1232741401 0.134755671 7.434656265e-39
-0.0919950977 -0.2085883468 -0.1915461868 8.170410826e-39
-0.2290881574 -0.04588309675 -0.1137121096 8.170410826e-39
0.2697015703 -0.1940743625 -0.1678106785 8.170410826e-39
-0.3154053986 -0.3295613229 0.05899839103 8.170410826e-39
-0.1177319586 -0.2542472184 -0.1575554758 8.170410826e-39
-0.1988287419 -0.1981530041 -0.1257616729 8.170410826e-39
0.3953757584 -0.1672207415 -0.1803833842 8.170410826e-39
-0.4164216518 -0.1262312382 0.1934269965 8.170410826e-39
0.1321583688 -0.1864799857 -0.175521642 8.170410826e-39
-0.2666476369 -0.112873666 -0.1309221685 8.170410826e-39
0.2900910378 -0.0623386465 -0.1726702601 8.170410826e-39
-0.2736968696 -0.08079722524 0.107788384 8.170410826e-39
0.08009532839 -0.02699131332 -0.1721964628 8.170410826e-39
-0.07825576514 -0.005448432639 -0.1495289207 8.170410826e-39
0.3248802125 -0.05879306048 -0.1511142552 8.170410826e-39
-0.2828995883 -0.04171562195 0.1516646445 8.170410826e-39
0.0920137912 -0.01188873406 -0.1783158034 8.170410826e-39
-0.1575056016 -0.04962313175 -0.1801519543 8.170410826e-39
0.3534500599 -0.0700352788 -0.1264661402 8.170410826e-39
-0.3610719442 -0.00476865191 0.1327617168 8.170410826e-39
0.0480828844 -0.1203503758 -0.190878436 8.170410826e-39
-0.2563471496 -0.06756771356 -0.242198199 8.170410826e-39
-0.01342136133 -0.0378081426 -0.1648696959 8.170410826e-39
-0.3321592212 0.000101249665 -0.1548256427 8.170410826e-39
-0.09529744834 -0.1306357533 -0.1525015384 8.170410826e-39
-0.1249612942 -0.09698083252 -0.1444894671 8.170410826e-39
-0.1759919524 0.000121217221 -0.1446960419 8.170410826e-39
-0.3010213077 0.1301781833 -0.1425699145 8.170410826e-39
0.05278589576 -0.09884594381 -0.05178651586 8.170410826e-39
-0.2543452084 -0.08817173541 -0.08459792286 8.170410826e-39
0.1907101423 -0.02528698929 -0.04269008711 8.170410826e-39
-0.185934335 0.1340266466 -0.08948525786 8.170410826e-39
-0.04143619165 -0.3072202802 -0.1095336676 8.906165387e-39
-0.3181425631 -0.2481723279 -0.1867206097 8.906165387e-39
-0.1638527513 -0.3172045648 0.08017107099 8.906165387e-39
-0.3582651019 -0.2058112174 -0.1808651239 8.906165387e-39
0.006994379219 -0.2897319496 -0.1736825407 8.906165387e-39
-0.1835459769 -0.2676022649 -0.1627520919 8.906165387e-39
-0.3528098464 -0.2287955284 0.1738913804 8.906165387e-39
-0.4322781563 -0.1381636411 0.139008671 8.906165387e-39
-0.2432563454 -0.1740915328 -0.0458646901 8.906165387e-39
-0.4299637675 -0.2078275084 -0.1703275144 8.906165387e-39
-0.179884851 -0.1626463383 0.1887612492 8.906165387e-39
-0.3173873425 -0.05776418373 0.05925172567 8.906165387e-39
-0.06249485537 -0.1415678859 -0.1196574792 8.906165387e-39
-0.309102267 -0.06890913099 -0.2057662606 8.906165387e-39
-0.2152749747 -0.1394387037 0.1824204624 8.906165387e-39
-0.3359726369 -0.02675479837 0.1259394437 8.906165387e-39
-0.1002110988 -0.1276224703 -0.1245748177 8.906165387e-39
-0.3257492483 -0.02597788535 -0.2082250863 8.906165387e-39
-0.2459328324 -0.1224127412 0.1555957198 8.906165387e-39
-0.4044927657 -0.05545930564 0.1272891909 8.906165387e-39
-0.2152089626 -0.1536247432 -0.08581709117 8.906165387e-39
-0.3845857382 -0.02883375064 -0.2299190164 8.906165387e-39
-0.09173630923 -0.09968076646 0.05128306523 8.906165387e-39
-0.3446459472 -0.1675464809 -0.06077857688 8.906165387e-39
-0.1165323779 -0.1293394268 -0.1353515387 8.906165387e-39
-0.2722322047 -0.04372016713 -0.219092235 8.906165387e-39
-0.2224751562 -0.12240953 -0.007789823227 8.906165387e-39
-0.4269880354 -0.1077067181 -0.04836238176 8.906165387e-39
-0.2216034681 -0.1586478353 0.06245402247 8.906165387e-39
-0.4708057046 -0.01813470013 -0.09296921641 8.906165387e-39
-0.03778527305 -0.1146042719 0.01090538502 8.906165387e-39
-0.3455252647 -0.1339575201 -0.1433479786 8.906165387e-39
0.128131777 -0.2234316319 0.1563778967 9.641561216e-39
-0.0349548161 -0.2420665175 0.103389807 9.641561216e-39
0.3097676635 -0.155889675 0.190288648 9.641561216e-39
0.4124810696 -0.2071300596 0.09490460157 9.641561216e-39
0.1410192847 -0.2080295831 0.1161409244 9.641561216e-39
-0.285197258 -0.2904459536 0.07278753817 9.641561216e-39
0.4348295331 -0.1222945079 0.1157716215 9.641561216e-39
0.4782128334 -0.1375897825 -0.03937070817 9.641561216e-39
0.2271004617 -0.1984084845 0.1681241691 9.641561216e-39
0.2111262977 -0.1384681165 -0.07654073834 9.641561216e-39
0.2901104391 -0.06894148886 0.1783750653 9.641561216e-39
0.379671216 -0.004154898226 0.05151765794 9.641561216e-39
0.02722365409 -0.08028500527 0.1890774965 9.641561216e-39
-0.2642432749 -0.09823670983 0.1034849137 9.641561216e-39
0.3070906401 -0.04717351124 0.1767758131 9.641561216e-39
0.3964131176 -0.02322577313 0.01616395265 9.641561216e-39
0.03650295734 -0.04686790705 0.1844555289 9.641561216e-39
-0.1207365766 -0.1076951995 0.03542266786 9.641561216e-39
0.330853641 -0.05192547292 0.1529134363 9.641561216e-39
0.395668745 -0.03884780779 -0.003713560989 9.641561216e-39
0.0733961761 -0.09137152135 0.1935226619 9.641561216e-39
-0.1192760244 -0.1384411901 0.018322533 9.641561216e-39
0.1345039159 -0.02789144404 0.09942643344 9.641561216e-39
0.2051111162 0.00981538184 0.08677360415 9.641561216e-39
-0.135192737 -0.1205317006 0.131597504 9.641561216e-39
-0.3921774924 -0.1074372828 0.1916409135 9.641561216e-39
0.1238770783 -0.02711942233 0.03166664019 9.641561216e-39
0.2490622848 0.00980247464 0.008768050931 9.641561216e-39
0.08817408979 -0.005867825821 0.04825382307 9.641561216e-39
-0.03918232396 -0.1454001218 0.1668299884 9.641561216e-39
-0.05772264674 -0.02292214148 0.06620574743 9.641561216e-39
0.1880819947 -0.001892904867 0.0368158631 9.641561216e-39
-0.3112542927 -0.05790331215 -0.09648828208 1.037659831e-38
-0.1548283845 -0.118378818 0.1203140095 1.037659831e-38
-0.214500457 -0.2690949142 0.0314241536 1.037659831e-38
0.2523736656 -0.1862424016 0.1426873207 1.037659831e-38
-0.3744182885 0.01445511635 0.01492501423 1.037659831e-38
-0.1961029768 0.1349112839 0.05382128805 1.037659831e-38
-0.2807418406 0.09175883234 -0.1440268904 1.037659831e-38
0.376426518 -0.1912400424 0.1423820406 1.037659831e-38
-0.4199303091 0.1200320348 -0.1554916203 1.037659831e-38
0.004470727406 -0.1112212688 0.05138915777 1.037659831e-38
-0.02315928787 0.1520937979 -0.05625034869 1.037659831e-38
0.2759979963 -0.005504850764 0.1222806945 1.037659831e-38
-0.1812538356 0.1616392732 -0.1018394306 1.037659831e-38
0.08449933678 0.1158166975 0.01924714074 1.037659831e-38
0.001660924754 0.1264129132 -0.06037506089 1.037659831e-38
0.2971172929 -0.01712525822 0.132841453 1.037659831e-38
-0.2059012502 0.112784043 -0.1052009612 1.037659831e-38
0.006665919907 -0.004038580228 0.03968237713 1.037659831e-38
-0.01021092571 0.07945593446 -0.05539327487 1.037659831e-38
0.2723451555 -0.07304936647 0.1449851096 1.037659831e-38
-0.3933454752 0.1012175456 -0.04212917387 1.037659831e-38
-0.0896474272 -0.1235418394 0.1309999079 1.037659831e-38
-0.2336016744 0.009969738312 0.1002659053 1.037659831e-38
0.05118121579 -0.02495485917 0.09463363141 1.037659831e-38
-0.2846366167 0.01768549159 -0.04354385287 1.037659831e-38
-0.1666618735 -0.05436895043 0.09305535257 1.037659831e-38
-0.1512198746 0.05537394807 -0.04246451333 1.037659831e-38
0.1982971877 -0.01590193808 0.06367123872 1.037659831e-38
-0.3343696296 0.1205514371 -0.116967313 1.037659831e-38
0.07594548166 -0.03531038016 0.147896111 1.037659831e-38
-0.2624992728 -0.02404068597 -0.06594305485 1.037659831e-38
0.0819202885 -0.006311601028 0.04898579791 1.037659831e-38
0.2171451747 -0.2055207193 -0.2016461045 1.111163541e-38
-0.2323438823 -0.2338186651 -0.1479723454 1.111163541e-38
0.1970540881 -0.2218438238 -0.1550418139 1.111163541e-38
-0.2812426686 -0.1473205239 -0.1843485683 1.111163541e-38
0.1312227696 -0.2833890617 -0.1489960402 1.111163541e-38
-0.06300587952 -0.181413278 -0.1303846091 1.111163541e-38
0.4352538586 -0.1483865082 -0.1624162048 1.111163541e-38
-0.4180360138 0.04066769779 -0.1725839376 1.111163541e-38
-0.07926966995 -0.119310312 -0.1908740103 1.111163541e-38
-0.2981446385 -0.2377579659 -0.1544629037 1.111163541e-38
0.2907888293 -0.1657679081 -0.1627274603 1.111163541e-38
-0.3259842396 0.02633417025 -0.1704422683 1.111163541e-38
0.1793293953 -0.06141023338 -0.2051350474 1.111163541e-38
-0.1123110652 -0.05351209268 -0.1957183331 1.111163541e-38
0.3345060349 -0.1170609146 -0.1249953881 1.111163541e-38
-0.3635200858 0.02673446201 -0.1703711301 1.111163541e-38
0.1522804201 -0.04964737222 -0.1971957237 1.111163541e-38
-0.1751330495 -0.07970461249 -0.1880285293 1.111163541e-38
0.347209096 -0.1058370396 -0.08787364513 1.111163541e-38
-0.4304414392 0.01431284659 -0.1552365422 1.111163541e-38
-0.02454489656 -0.08184722811 -0.2233293802 1.111163541e-38
-0.2633601725 -0.1164446101 -0.2150510699 1.111163541e-38
0.06868309528 -0.09366216511 -0.1290833354 1.111163541e-38
-0.3085630536 -0.0285586156 -0.1753357053 1.111163541e-38
0.06291871518 -0.0856801644 -0.2274786234 1.111163541e-38
-0.1486361325 -0.09531565011 -0.1919701844 1.111163541e-38
0.1032291129 -0.1216442883 -0.07839740068 1.111163541e-38
-0.3642742336 -0.0987232551 -0.1709597856 1.111163541e-38
-0.03451559693 -0.1635031104 -0.1392802447 1.111163541e-38
-0.3446183205 -0.09681984037 -0.1874738187 1.111163541e-38
0.04402839392 -0.0852176398 -0.1183035374 1.111163541e-38
-0.2211874127 -0.1385163367 -0.160703063 1.111163541e-38
-0.326628983 0.06733587384 0.08031814545 1.184631237e-38
-0.1733730882 0.238110438 0.001607252751 1.184631237e-38
-0.4574962556 -0.1133857593 -0.04778684676 1.184631237e-38
-0.1933887303 0.3585016131 -0.02259019762 1.184631237e-38
-0.3142151833 0.1454452425 0.07388667017 1.184631237e-38
-0.243228808 0.2569863796 -0.002848287812 1.184631237e-38
-0.430826515 -0.01579922065 0.1517072171 1.184631237e-38
-0.3170771301 0.1855045706 -0.1428553611 1.184631237e-38
-0.4177339971 0.07466182858 0.1380216479 1.184631237e-38
-0.3578358889 0.2191513926 0.01673205942 1.184631237e-38
-0.4714520276 -0.06666014344 -0.0002149194479 1.184631237e-38
-0.1080766246 0.1341019124 -0.1588412821 1.184631237e-38
-0.3115663826 0.1604943871 0.09858450294 1.184631237e-38
-0.2402238548 0.1657041311 0.025016414 1.184631237e-38
-0.4798680246 -0.0230803024 0.04509175196 1.184631237e-38
-0.1687930971 0.05790755898 -0.1713213325 1.184631237e-38
-0.339497149 0.08945278823 0.09450318664 1.184631237e-38
-0.3257906735 0.1336701363 -0.003875245573 1.184631237e-38
-0.4568240643 -0.01573245041 0.09441374987 1.184631237e-38
-0.28479895 0.03283165023 -0.1721790731 1.184631237e-38
-0.4305512309 0.07979846746 0.00690366514 1.184631237e-38
-0.3906341195 0.05759184808 -0.01681037247 1.184631237e-38
-0.4146899581 0.1222627163 -0.132583037 1.184631237e-38
-0.1275646538 0.1076268777 -0.1423769146 1.184631237e-38
-0.2981322408 0.05344199762 0.103149429 1.184631237e-38
-0.2218951136 0.08413953334 0.07857365906 1.184631237e-38
-0.4594227672 0.12580432 -0.07917375863 1.184631237e-38
-0.327196151 0.1570986956 -0.04281811044 1.184631237e-38
-0.3469926417 0.09406476468 0.1611613929 1.184631237e-38
-0.3425934911 0.1519848853 0.02362778224 1.184631237e-38
-0.320969522 0.02688713372 -0.1454204917 1.184631237e-38
-0.1846636981 0.1031130403 -0.05388615653 1.184631237e-38
-0.1738615334 -0.2831005454 0.1193959638 1.258099074e-38
0.2952231765 -0.2519182265 0.1218769252 1.258099074e-38
-0.2808006108 -0.0636241287 0.1786607951 1.258099074e-38
0.21946688 -0.1563471556 0.2005776763 1.258099074e-38
-0.05462968349 -0.1266447008 0.1433483213 1.258099074e-38
0.0275584925 -0.2909929752 0.1571456492 1.258099074e-38
-0.3159689903 0.1957533658 0.1770099849 1.258099074e-38
-0.3138517439 -0.0703721717 0.1792059243 1.258099074e-38
-0.1831347793 0.08353680372 0.06261685491 1.258099074e-38
0.3863781393 -0.195538193 0.1487155259 1.258099074e-38
0.01756479964 0.1386602819 0.1049048007 1.258099074e-38
0.0594923757 -0.02354095317 0.1721260399 1.258099074e-38
0.2622137964 0.02854135446 0.09831537306 1.258099074e-38
0.2679374218 -0.1817895472 0.1822502017 1.258099074e-38
-0.06242617592 0.1313619018 0.09935512394 1.258099074e-38
-0.05055946112 -0.02293055877 0.182486102 1.258099074e-38
0.2255887538 0.02383232303 0.09344858676 1.258099074e-38
0.2823034525 -0.1544294953 0.1724278927 1.258099074e-38
-0.1168119311 0.0423591584 0.07732085884 1.258099074e-38
-0.2732395232 -0.009882724844 0.1757181287 1.258099074e-38
-0.172411114 -0.06256908178 0.1599895209 1.258099074e-38
0.2490827739 -0.1288900226 0.1752451509 1.258099074e-38
-0.2442578226 0.01712558977 0.2003913671 1.258099074e-38
-0.1352295876 0.05146242678 0.1602086276 1.258099074e-38
0.08725829422 -0.07838950306 0.1592484415 1.258099074e-38
0.09398228675 -0.1290197074 0.1578489393 1.258099074e-38
-0.30351457 0.10743808 0.1006283984 1.258099074e-38
-0.3616783917 0.0778002739 0.15358226 1.258099074e-38
-0.06789086759 0.01215829421 0.1155897677 1.258099074e-38
0.1254596561 -0.1351533532 0.1116973162 1.258099074e-38
-0.3722557724 -0.06761901826 0.06072219461 1.258099074e-38
-0.1257932633 -0.106122233 0.147730872 1.258099074e-38
-0.1346171051 -0.3592370152 -0.040640302 1.331530897e-38
0.2681803405 -0.147547096 0.1266026497 1.331530897e-38
0.1445124894 -0.2976806164 0.1218932793 1.331530897e-38
0.3264433742 -0.2713908553 -0.1086027846 1.331530897e-38
0.1199892312 -0.2760066986 -0.01763754711 1.331530897e-38
0.01248339564 -0.2080673426 0.183604449 1.331530897e-38
-0.1186318472 -0.2139925808 0.08872529119 1.331530897e-38
0.4511124194 -0.1518321335 -0.009587001987 1.331530897e-38
-0.09981172532 -0.2223913372 -0.2025808096 1.331530897e-38
0.3639268279 -0.1840173304 0.1826084405 1.331530897e-38
0.08425924182 -0.1604871601 0.07065748423 1.331530897e-38
0.3610308468 -0.1520032138 -0.1730037332 1.331530897e-38
0.1504263431 -0.09793163836 -0.192790404 1.331530897e-38
0.2240648121 -0.09965242445 0.2062181532 1.331530897e-38
0.03332742304 -0.1294185221 0.06982845068 1.331530897e-38
0.3839307725 -0.1293987036 -0.1327512413 1.331530897e-38
0.1125425249 -0.08486764133 -0.192196846 1.331530897e-38
0.2356766909 -0.08539735526 0.1946593374 1.331530897e-38
-0.05457828566 -0.1117423549 0.06334906816 1.331530897e-38
0.2941420972 -0.1195801273 -0.05150965601 1.331530897e-38
-0.04805768654 -0.08862686902 -0.2069343925 1.331530897e-38
0.1043579057 -0.1065302938 0.171739608 1.331530897e-38
-0.1550853848 -0.06023872271 0.1844013631 1.331530897e-38
0.1144894734 -0.08076910675 -0.03258389607 1.331530897e-38
0.1742050648 -0.08097197115 -0.1209273636 1.331530897e-38
0.1761247218 -0.1405930668 -0.05204272643 1.331530897e-38
-0.2726703882 -0.04765504226 0.04544932023 1.331530897e-38
0.2380054891 -0.1228077188 -0.002703377046 1.331530897e-38
-0.1407114863 -0.1122099981 -0.05811445788 1.331530897e-38
0.3134753704 -0.1561313421 0.06970431656 1.331530897e-38
-0.02626515925 -0.09228167683 -0.1059491336 1.331530897e-38
0.1546294987 -0.1161279306 -0.02861083113 1.331530897e-38
-0.1241737828 -0.2076473087 -0.1454773843 1.404926846e-38
-0.235226512 -0.3084571958 -0.1618281603 1.404926846e-38
0.155693531 -0.2516311705 -0.1366752535 1.404926846e-38
-0.3310192823 -0.2272618264 -0.1387597173 1.404926846e-38
0.09981927276 -0.1813307554 -0.1614340395 1.404926846e-38
-0.1498442739 -0.2922462821 -0.1564133912 1.404926846e-38
0.3039614558 -0.1460666507 -0.1080298796 1.404926846e-38
-0.4403302372 -0.02616934292 -0.1693748981 1.404926846e-38
-0.2004841417 -0.01442308351 -0.1813893616 1.404926846e-38
-0.3423591852 -0.1335482001 -0.1448601782 1.404926846e-38
0.187133804 -0.1237160563 -0.1520837247 1.404926846e-38
-0.3469315767 -0.04446734861 -0.1952847093 1.404926846e-38
-0.002686166205 -0.000494406966 -0.1901104897 1.404926846e-38
-0.1793202162 -0.02586224675 -0.1901411116 1.404926846e-38
0.185957402 -0.1128263101 -0.1261641383 1.404926846e-38
-0.3844373822 -0.04834258184 -0.1867411286 1.404926846e-38
-0.04065679386 -0.000342896441 -0.1888186038 1.404926846e-38
-0.231445685 -0.02673919499 -0.2024822086 1.404926846e-38
0.1810185015 -0.103888981 -0.0948208794 1.404926846e-38
-0.404795289 -0.05499868467 -0.17745094 1.404926846e-38
-0.1836071461 -0.0285410583 -0.1849963963 1.404926846e-38
-0.3584433496 -0.05209926516 -0.213187784 1.404926846e-38
-0.06451805681 -0.06695270538 -0.1845762283 1.404926846e-38
-0.2497937381 -0.09802294523 -0.1768581569 1.404926846e-38
-0.06539487839 -0.06457153708 -0.1733749509 1.404926846e-38
-0.2615424693 0.02802167647 -0.1927330196 1.404926846e-38
-0.1392205656 -0.07689579576 -0.1231874675 1.404926846e-38
-0.2842254639 -0.05421035737 -0.1899251044 1.404926846e-38
-0.09092896432 0.04948887601 -0.08021555096 1.404926846e-38
-0.4494953454 0.06120529026 -0.1476490349 1.404926846e-38
-0.1512947232 -0.04089043289 -0.1523207426 1.404926846e-38
-0.2399865091 0.03815526888 -0.1860628426 1.404926846e-38
0.4015351832 -0.1828511506 -0.02511348017 1.478322936e-38
-0.2114893645 -0.2326170057 -0.08915171772 1.478322936e-38
0.3536196947 -0.2648202777 -0.1732395738 1.478322936e-38
0.2823840678 -0.2192100883 -0.1182448864 1.478322936e-38
0.3294848502 -0.15276438 -0.04531113431 1.478322936e-38
0.06523873657 -0.1922060996 -0.1332657188 1.478322936e-38
0.4795215726 -0.1698678136 -0.1545596421 1.478322936e-38
0.3365738094 -0.1820627302 -0.1470070034 1.478322936e-38
0.464004904 -0.1026003361 0.001189849689 1.478322936e-38
-0.2752193213 -0.2121594697 -0.116644308 1.478322936e-38
0.3572515547 -0.1455481797 -0.1915103495 1.478322936e-38
0.2019965947 -0.1168853566 -0.1813535839 1.478322936e-38
0.3413151503 -0.02416777797 -0.07605133951 1.478322936e-38
-0.06415016949 -0.07519512624 -0.184133172 1.478322936e-38
0.3758608997 -0.0972379297 -0.1805097908 1.478322936e-38
0.2324988097 -0.08081042767 -0.1783818156 1.478322936e-38
0.3523101509 0.02117900364 -0.07378797978 1.478322936e-38
-0.1308579594 -0.06966662407 -0.1774302423 1.478322936e-38
0.3873139918 -0.072449103 -0.1608101279 1.478322936e-38
0.1847039312 -0.0369553566 -0.1759175807 1.478322936e-38
0.3348590732 -0.01354725473 -0.05752577633 1.478322936e-38
-0.2650490403 -0.05928970873 -0.149298951 1.478322936e-38
0.02935520373 -0.09523399919 -0.1764520109 1.478322936e-38
-0.07325826585 -0.02296917699 -0.09206942469 1.478322936e-38
0.03733947873 -0.06217648461 -0.1197789982 1.478322936e-38
-0.04030521214 -0.1045647413 -0.1152368113 1.478322936e-38
-0.1922108531 -0.07227988541 -0.04581379145 1.478322936e-38
-0.1164167225 0.003716779407 -0.08360464126 1.478322936e-38
0.2850615978 -0.02175075188 -0.05078177899 1.478322936e-38
-0.3293720484 -0.03574036807 -0.09449509531 1.478322936e-38
-0.01618802734 -0.02512114123 -0.03440706059 1.478322936e-38
-0.1853410006 -0.06135483831 -0.05459837988 1.478322936e-38
-0.07152751088 -0.3371639848 0.08504240215 1.551683013e-38
-0.2963857353 -0.07156860083 0.1677111834 1.551683013e-38
-0.3332021832 -0.2608498633 -0.1708341837 1.551683013e-38
-0.4059360325 -0.02340617776 -0.1204269901 1.551683013e-38
-0.01603090577 -0.3057209253 0.1403033733 1.551683013e-38
-0.3058830202 -0.1349496096 0.1982048303 1.551683013e-38
-0.2068502903 0.07072592527 0.1313280761 1.551683013e-38
-0.4633298516 0.008713695221 -0.008343126625 1.551683013e-38
-0.1523301154 -0.2318278551 -0.1405256391 1.551683013e-38
-0.457883209 0.003489733441 0.08068700135 1.551683013e-38
-0.2472501844 -0.1601259708 -0.1190850586 1.551683013e-38
-0.4573525786 -0.01632558741 -0.1646848917 1.551683013e-38
-0.001530184178 -0.1442425102 0.04562751949 1.551683013e-38
-0.3840222955 0.04203918204 0.1785675734 1.551683013e-38
-0.2377318144 -0.0919650048 -0.08227176964 1.551683013e-38
-0.4622400999 0.00334368879 -0.1320976317 1.551683013e-38
-0.02992317639 -0.1089198217 0.02167530358 1.551683013e-38
-0.3994761407 0.0474922061 0.1541932076 1.551683013e-38
-0.2509667873 -0.05949962139 0.007990580983 1.551683013e-38
-0.4539201558 0.006955287885 -0.06828891486 1.551683013e-38
-0.2746370435 -0.1213383228 -0.01544054784 1.551683013e-38
-0.4326681197 0.06080757082 0.1268628091 1.551683013e-38
-0.3479720056 -0.002969174413 -0.05886397511 1.551683013e-38
-0.353331089 -0.1062489375 -0.1233179718 1.551683013e-38
-0.2282275707 -0.08442085236 0.09066805243 1.551683013e-38
-0.3493118882 0.0923423171 -0.07447654754 1.551683013e-38
-0.1867160052 0.07693705708 0.1162641868 1.551683013e-38
-0.42350173 -0.08236264437 0.01196359191 1.551683013e-38
-0.2597339749 -0.003502161009 0.06147132441 1.551683013e-38
-0.3974760473 0.1414774954 0.006704077125 1.551683013e-38
-0.3295547068 0.09996752441 -0.1216987967 1.551683013e-38
-0.3958310187 0.08183411509 -0.07866784185 1.551683013e-38
-0.3215389848 -0.2012188882 -0.1742514074 1.625043089e-38
-0.4149802923 -0.08174074441 -0.129779622 1.625043089e-38
-0.3801528811 -0.2786484361 -0.131198436 1.625043089e-38
-0.385393858 0.01004922111 0.04727766663 1.625043089e-38
-0.3069204092 -0.008132322691 -0.1191338599 1.625043089e-38
-0.3076213002 0.1421903819 -0.1704901904 1.625043089e-38
-0.3952694535 -0.1364375949 -0.0325904265 1.625043089e-38
-0.4412221014 0.008883462287 0.1303341538 1.625043089e-38
-0.4141290188 -0.1177831292 -0.2196106762 1.625043089e-38
-0.4452601373 0.09787585586 -0.1339869201 1.625043089e-38
-0.430644691 -0.1228255332 -0.1352674216 1.625043089e-38
-0.4495777786 0.1099677309 0.08280518651 1.625043089e-38
-0.2845614552 -0.09642609209 -0.2033155262 1.625043089e-38
-0.3427841365 0.1609409899 -0.08294012398 1.625043089e-38
-0.447119385 -0.1096647233 -0.108315371 1.625043089e-38
-0.4568308294 0.06149540469 0.09585478157 1.625043089e-38
-0.2869211733 -0.09358210862 -0.1895084381 1.625043089e-38
-0.3710184991 0.1159575284 -0.05661444739 1.625043089e-38
-0.4380736947 -0.09401570261 -0.09097762406 1.625043089e-38
-0.4618034065 0.01221335307 0.08252639323 1.625043089e-38
-0.3824851811 -0.1005991921 -0.2187023163 1.625043089e-38
-0.4132893085 0.1005438641 -0.05346914381 1.625043089e-38
-0.3241947889 -0.04276081547 -0.1553621739 1.625043089e-38
-0.4424768388 0.08488573879 0.008756197989 1.625043089e-38
-0.3275325 -0.08585262299 -0.1984396875 1.625043089e-38
-0.2889268994 0.1051629931 -0.1549028307 1.625043089e-38
-0.3508890569 0.0765715763 -0.1897876114 1.625043089e-38
-0.4730969667 0.07606898993 -0.0577448085 1.625043089e-38
-0.3218500018 -0.1411634684 -0.05806248635 1.625043089e-38
-0.4499283433 0.0737369135 -0.05074274912 1.625043089e-38
-0.2333106697 0.1199006364 -0.06850137562 1.625043089e-38
-0.379698962 0.103552632 -0.03862110153 1.625043089e-38
0.08472597599 -0.2957499623 -0.1713455915 1.698367293e-38
0.06689098477 -0.1372486055 -0.09435596317 1.698367293e-38
0.3077563345 -0.325830251 -0.1081398651 1.698367293e-38
-0.2975165248 -0.008602412418 -0.2093683928 1.698367293e-38
-0.04171761498 -0.2391602993 -0.1735913903 1.698367293e-38
0.08077067882 -0.1729508191 -0.1845879555 1.698367293e-38
0.122383073 -0.2059167773 0.1097547337 1.698367293e-38
-0.4281058013 0.04490689188 -0.1218182519 1.698367293e-38
0.3119832575 -0.233613193 -0.1806925535 1.698367293e-38
-0.1675921977 -0.1016904116 -0.1452178508 1.698367293e-38
0.2804839015 -0.154214263 -0.05320191011 1.698367293e-38
-0.306501627 0.07390058041 -0.1702565253 1.698367293e-38
0.100256592 -0.09180083126 -0.1816595495 1.698367293e-38
0.02961687185 0.1146616191 -0.1367622465 1.698367293e-38
0.2762279212 -0.1418135315 0.009757521562 1.698367293e-38
-0.3551300764 0.0154491663 -0.1587242931 1.698367293e-38
0.1308876574 -0.07531782985 -0.1846878827 1.698367293e-38
-0.01669984683 0.03715952113 -0.1436543763 1.698367293e-38
0.1786610037 -0.1233160943 0.07248894125 1.698367293e-38
-0.4095957279 -0.002105471445 -0.1308685988 1.698367293e-38
0.1429912448 -0.07644604892 -0.1685343832 1.698367293e-38
-0.1355594993 -0.1158876568 -0.187195003 1.698367293e-38
0.05457822606 -0.1012550592 -0.1003688723 1.698367293e-38
-0.2124128342 -0.09827407449 -0.133973062 1.698367293e-38
-0.003580316436 -0.127091229 -0.1292805523 1.698367293e-38
-0.002032530494 -0.09343720227 -0.1767300963 1.698367293e-38
-0.2081246823 -0.1069870442 0.009669747204 1.698367293e-38
-0.1339669675 -0.09986057878 -0.1536193043 1.698367293e-38
0.08428886533 -0.1484293789 -0.01290528383 1.698367293e-38
-0.07775652409 -0.08817388862 0.0002265423536 1.698367293e-38
0.1622342765 -0.09254720807 0.006729575805 1.698367293e-38
-0.2113663107 -0.04414065555 -0.05841613933 1.698367293e-38
0.1831576228 -0.286993444 0.155092597 1.771655483e-38
0.3080933094 -0.2093115598 -0.1004861891 1.771655483e-38
0.4010307789 -0.304489851 0.1118270755 1.771655483e-38
0.3585604727 -0.281330198 -0.1318869442 1.771655483e-38
-0.1856529564 -0.2790575325 0.1408999413 1.771655483e-38
0.149648428 -0.2216624171 -0.1203926206 1.771655483e-38
0.416691035 -0.1982550025 -0.03275382146 1.771655483e-38
0.452359885 -0.1543245763 -0.1362946779 1.771655483e-38
0.2859739065 -0.2630883753 0.1901439726 1.771655483e-38
0.3211628795 -0.1965492666 -0.168382138 1.771655483e-38
0.3345574439 -0.1362634301 -0.02634410374 1.771655483e-38
0.3669947982 -0.159547776 -0.1833223552 1.771655483e-38
0.12678653 -0.1659677774 0.1686934978 1.771655483e-38
0.2031534761 -0.1464051008 -0.133930698 1.771655483e-38
0.3577807546 -0.1139418557 -0.0416485481 1.771655483e-38
0.3763457835 -0.1219516546 -0.1774260551 1.771655483e-38
0.1461390406 -0.1187467724 0.1728596836 1.771655483e-38
0.2188781351 -0.1363215148 -0.1383323073 1.771655483e-38
0.3811561763 -0.1137144342 -0.04062809423 1.771655483e-38
0.4063820839 -0.09796871245 -0.08581956476 1.771655483e-38
0.05140128359 -0.1179835275 0.1299971491 1.771655483e-38
0.2067186683 -0.1427540928 -0.1850155443 1.771655483e-38
0.1958231926 -0.08257386088 0.00860645622 1.771655483e-38
0.2327953428 -0.1000173464 0.1239273697 1.771655483e-38
-0.1818705052 -0.08213423193 0.1079974622 1.771655483e-38
-0.1039959341 -0.1406329274 -0.06977844238 1.771655483e-38
0.2095175236 -0.06126791611 0.005188891664 1.771655483e-38
0.4131066203 -0.1315720081 0.07463939488 1.771655483e-38
0.04395597428 -0.1318444163 0.09785782546 1.771655483e-38
0.04843491688 -0.1412080675 -0.06513780355 1.771655483e-38
0.1064393222 -0.0841037333 0.06459379196 1.771655483e-38
0.1753764451 -0.1316457838 -0.005630023777 1.771655483e-38
-0.4032356739 -0.08702143282 0.05300128087 1.844943813e-38
-0.4394522905 -0.1857865453 -0.1101787537 1.844943813e-38
-0.4305274487 -0.3319579959 -0.06329524517 1.844943813e-38
-0.3268707693 -0.08312857151 0.08562524617 1.844943813e-38
-0.3464927077 -0.1482250392 0.06634609401 1.844943813e-38
-0.365413636 -0.1743043661 -0.05997169763 1.844943813e-38
-0.4037878215 -0.2394341379 0.05980283767 1.844943813e-38
-0.3453864455 -0.2529381216 -0.1831617206 1.844943813e-38
-0.4561663866 0.1534356773 0.132605508 1.844943813e-38
-0.5026496649 -0.141403839 -0.09051827341 1.844943813e-38
-0.4764591455 -0.1082216278 0.01428639516 1.844943813e-38
-0.2472480536 0.03486921638 -0.1391278505 1.844943813e-38
-0.4077084363 0.1384650171 0.01055238675 1.844943813e-38
-0.3931498528 -0.08202791214 -0.1944380105 1.844943813e-38
-0.4881306887 -0.0860100463 0.03952609375 1.844943813e-38
-0.2685069442 -0.008555136621 -0.1512030214 1.844943813e-38
-0.3633627295 0.1177812815 -0.01657348312 1.844943813e-38
-0.4064047635 -0.0633194074 -0.1851711422 1.844943813e-38
-0.4655431211 -0.07542196661 0.07143282145 1.844943813e-38
-0.3484038115 -0.1235448122 -0.1951129586 1.844943813e-38
-0.4060745537 0.1301483214 0.02879014425 1.844943813e-38
-0.4629185796 -0.06162671 -0.182486251 1.844943813e-38
-0.4303504229 -0.05504412204 0.05863748118 1.844943813e-38
-0.3193142712 0.007825467736 -0.08898996562 1.844943813e-38
-0.3484272063 0.06933126599 0.006252728868 1.844943813e-38
-0.3732738495 -0.05993337184 -0.1974392086 1.844943813e-38
-0.2944767475 0.0398238562 0.1346324682 1.844943813e-38
-0.3331618607 -0.02053011023 -0.09750520438 1.844943813e-38
-0.392123431 0.06074343994 -0.02715529315 1.844943813e-38
-0.4277838171 -0.1284752935 -0.06960371882 1.844943813e-38
-0.3920736909 -0.08886771649 -0.04127584025 1.844943813e-38
-0.1583015025 -0.03891163692 -0.05051177368 1.844943813e-38
-0.2124705166 -0.3075360358 0.1688645631 1.91819627e-38
0.2210142463 -0.1770936847 0.06040940806 1.91819627e-38
0.1403456479 -0.2959965169 0.1854470223 1.91819627e-38
0.2408975959 -0.2713898122 0.1718055159 1.91819627e-38
-0.2440155149 -0.2343597859 0.148696363 1.91819627e-38
0.03216861188 -0.04392623529 -0.05921966583 1.91819627e-38
0.3837945461 -0.1678466201 0.1800488532 1.91819627e-38
0.4535703063 -0.1751341075 0.01801923104 1.91819627e-38
0.07928936183 -0.1708918065 0.1787687689 1.91819627e-38
0.4364951253 -0.135914892 0.08372629434 1.91819627e-38
0.2169330269 -0.09955576062 0.1956334561 1.91819627e-38
0.4195532203 -0.02164085582 0.0977813378 1.91819627e-38
-0.203495279 -0.1091772988 0.1936630458 1.91819627e-38
0.2836204469 -0.09316682816 0.07823651284 1.91819627e-38
0.2384833694 -0.09604153037 0.1866438538 1.91819627e-38
0.4381688535 -0.03563084081 0.08018308878 1.91819627e-38
-0.1515473127 -0.06001471356 0.1862570047 1.91819627e-38
0.2904261053 -0.09280864894 0.06633551419 1.91819627e-38
0.2676723003 -0.1009294316 0.1611911356 1.91819627e-38
0.4139332175 -0.06504090875 0.02440350875 1.91819627e-38
-0.1677394211 -0.02589826658 0.1352065802 1.91819627e-38
0.2389004081 -0.0929928422 0.04890725762 1.91819627e-38
-0.00980697386 -0.06623105705 0.1014357805 1.91819627e-38
0.22913903 -0.06590503454 0.03051976487 1.91819627e-38
-0.3372156918 -0.07497795671 0.1124466881 1.91819627e-38
-0.1052779183 -0.07415471971 -0.05577338859 1.91819627e-38
0.06364696473 -0.01624310203 -0.02518983744 1.91819627e-38
0.4102142453 -0.06180723384 -0.001686571399 1.91819627e-38
0.2336871773 -0.09778941423 0.0866670236 1.91819627e-38
0.2258327901 -0.049286291 -0.1111423597 1.91819627e-38
-0.0490866974 -0.02344577946 0.0589966327 1.91819627e-38
0.1758834571 -0.03457075357 -0.06130415946 1.91819627e-38
0.04870539531 -0.2875194252 -0.06907103211 1.991448586e-38
0.342966646 -0.1774330139 0.07097150385 1.991448586e-38
0.08459895849 -0.3173464835 0.02596283145 1.991448586e-38
0.3631322086 -0.3482351601 0.09489749372 1.991448586e-38
-0.1853052974 -0.3270273507 -0.1280983388 1.991448586e-38
0.2991220653 -0.2386607826 0.02677601017 1.991448586e-38
-0.18557702 -0.1708267182 0.02378244698 1.991448586e-38
0.4353566468 -0.1381034851 0.1648112983 1.991448586e-38
0.3662249744 -0.2129513472 -0.03368751332 1.991448586e-38
0.4084914327 -0.1531468183 0.07532583177 1.991448586e-38
0.09501707554 -0.1341051161 0.02665522136 1.991448586e-38
0.3781060874 -0.1160504594 0.1776330918 1.991448586e-38
0.2252711803 -0.1479010433 0.01081088558 1.991448586e-38
0.2609593868 -0.1350160092 0.144992277 1.991448586e-38
0.008933232166 -0.1107749715 0.007481278852 1.991448586e-38
0.3755101264 -0.08440610021 0.1850613058 1.991448586e-38
0.2543116212 -0.1233087257 0.0158897154 1.991448586e-38
0.265275389 -0.09412232041 0.1397536695 1.991448586e-38
-0.073420614 -0.1115528643 0.01682990976 1.991448586e-38
0.3227557242 -0.0750022456 0.1706899554 1.991448586e-38
0.3075051308 -0.1285762191 -0.03250973672 1.991448586e-38
0.2917341888 -0.0969171375 0.1446466297 1.991448586e-38
-0.01510003209 -0.09900052845 0.07515400648 1.991448586e-38
0.2065907419 -0.2004510462 0.1434405297 1.991448586e-38
0.03237735108 -0.1309577078 -0.08976350725 1.991448586e-38
0.1629367918 -0.1135594472 0.1268909127 1.991448586e-38
-0.2883823812 -0.131851092 0.0027079219 1.991448586e-38
0.4609867036 -0.04668707028 0.01405460201 1.991448586e-38
-0.07428792864 -0.1470309049 0.1429505795 1.991448586e-38
0.352276355 -0.1320200115 0.03193816915 1.991448586e-38
0.2599493563 -0.08460840583 -0.04895241931 1.991448586e-38
0.3975037038 -0.128415361 0.03014439158 1.991448586e-38
0.3557293713 -0.2501981854 -0.09325419366 2.06466517e-38
0.1330337226 -0.2424942106 -0.1962213963 2.06466517e-38
0.481477797 -0.2220780998 -0.1154378951 2.06466517e-38
-0.156241104 -0.2011713088 -0.150261417 2.06466517e-38
0.316557318 -0.2272553742 -0.1848140806 2.06466517e-38
0.08348274976 -0.2617394924 -0.1577222347 2.06466517e-38
0.4571220279 -0.200299859 0.1041867062 2.06466517e-38
0.1819275618 -0.09219315648 -0.1782918423 2.06466517e-38
0.4442840517 -0.1825782508 -0.1525504589 2.06466517e-38
0.2990994453 -0.0889024213 -0.1468716115 2.06466517e-38
0.4854883552 -0.1371424794 -0.01586204395 2.06466517e-38
0.08614486456 0.0899451077 -0.1474398375 2.06466517e-38
0.4091080427 -0.09617598355 -0.1783347428 2.06466517e-38
0.2654685974 0.02951537073 -0.1590846181 2.06466517e-38
0.4854350984 -0.08930012584 0.02890261449 2.06466517e-38
0.09700289369 0.06747859716 -0.1468525827 2.06466517e-38
0.4188418686 -0.06410743296 -0.1664196104 2.06466517e-38
0.2721382082 -0.02436874248 -0.1614707112 2.06466517e-38
0.4859189689 -0.06391179562 0.03117519431 2.06466517e-38
0.0404673256 -0.03130450472 -0.1507230699 2.06466517e-38
0.4261596501 -0.1140429154 -0.2023088932 2.06466517e-38
0.2800426483 -0.04380010441 -0.1326488107 2.06466517e-38
0.4640108049 -0.0536624305 -0.09632442892 2.06466517e-38
-0.07760838419 -0.01332216151 -0.1380868107 2.06466517e-38
0.2652754486 -0.05758569762 -0.09030974656 2.06466517e-38
