# .PCD v0.7 - Point Cloud Data file format
VERSION 0.7
FIELDS x y z rgb
SIZE 4 4 4 4
TYPE F F F F
COUNT 1 1 1 1
WIDTH 825
HEIGHT 1
VIEWPOINT 0 0 0 1 0 0 0
POINTS 825
DATA ascii
-0.0618352294 -0.2644298673 0.1317328215 2.898180898e-39
-0.01525493804 -0.3198711872 0.04992955178 2.898180898e-39
0.06137242168 -0.2463404387 0.05669264495 2.898180898e-39
-0.03287871182 -0.3851052821 -0.1780901551 2.167082852e-39
0.005788412411 0.2504941523 -0.002189213643 2.167082852e-39
-0.1039156169 -0.3428435624 -0.06249159575 2.167082852e-39
-0.02690168098 0.5030220747 -0.001496622805 2.167082852e-39
0.04543148726 -0.3273351789 -0.1409539729 2.167082852e-39
0.003503370564 0.07616469264 -0.01113118976 2.167082852e-39
-0.08110880852 -0.340526551 -0.147146523 2.167082852e-39
-0.01874584891 0.4769138098 -0.008852813393 2.167082852e-39
-0.01882442459 -0.3730759025 -0.1666227877 2.167082852e-39
0.003458883846 0.4273374677 0.004743079655 2.167082852e-39
-0.1355794966 -0.2975122631 -0.08723115176 2.167082852e-39
-0.02406105027 0.4982609749 0.009885262698 2.167082852e-39
0.03609491885 -0.3433960378 -0.1794696748 2.167082852e-39
0.008009247482 0.2188278586 -0.008405330591 2.167082852e-39
-0.1049908176 -0.3002426922 -0.08415389806 2.167082852e-39
-0.0233151149 0.4976329505 -0.0002296641469 2.167082852e-39
0.04107172415 -0.3236783743 -0.1670154929 2.167082852e-39
-0.001371909049 0.2171163559 -0.003547193715 2.167082852e-39
-0.1075057387 -0.2939646542 -0.06951339543 2.167082852e-39
-0.02699781023 0.4900118411 -0.008381879888 2.167082852e-39
0.03862724826 -0.2567517757 -0.1374071091 2.167082852e-39
-0.002417400479 0.1624891162 -0.006303676404 2.167082852e-39
-0.09272562712 -0.3097723126 -0.09772247821 2.167082852e-39
-0.005522132386 0.328007251 -0.01957612671 2.167082852e-39
-0.005344495643 -0.31164819 -0.1625172645 2.167082852e-39
-0.0006359246909 0.1032638773 -0.007428720128 2.167082852e-39
-0.07075401396 -0.302095443 -0.05235237256 2.167082852e-39
0.005863967352 0.2480055094 -0.01337258983 2.167082852e-39
0.003843233688 -0.2667188644 -0.114089936 2.167082852e-39
-0.006012183614 0.00799778942 -0.01815071702 2.167082852e-39
-0.1008380353 -0.2769711316 0.01687254384 2.167082852e-39
-0.003628708422 0.229044497 -0.01962648891 2.167082852e-39
-0.172708109 -0.4586652815 0.01625249535 1.435982003e-39
-0.1107543185 -0.4599472582 0.121723868 1.435982003e-39
-0.1772004813 -0.4273485541 -0.01553189289 1.435982003e-39
-0.05089869723 -0.4892267883 0.0643761009 1.435982003e-39
-0.09552548081 -0.4872190356 -0.1394053102 1.435982003e-39
-0.05314627662 -0.4588599503 0.1543537527 1.435982003e-39
-0.1349202096 -0.4225097895 -0.1070805565 1.435982003e-39
-0.08655548841 -0.4802176356 0.04649017006 1.435982003e-39
-0.1377223879 -0.430284977 -0.05305586755 1.435982003e-39
-0.09633377939 -0.456328392 0.1747936606 1.435982003e-39
-0.1539470553 -0.3856197298 -0.04169155285 1.435982003e-39
-0.08231345564 -0.4758737981 0.1117455512 1.435982003e-39
-0.1334911138 -0.4724892974 -0.1025093421 1.435982003e-39
-0.07572061568 -0.4659225941 0.160213232 1.435982003e-39
-0.1444592476 -0.3976446092 -0.039160043 1.435982003e-39
-0.06067032367 -0.4778520465 0.07936954498 1.435982003e-39
-0.1053395942 -0.4711359441 -0.1175645068 1.435982003e-39
-0.06481909007 -0.4596808553 0.1641334295 1.435982003e-39
-0.1509540081 -0.4214668274 -0.06797835231 1.435982003e-39
-0.06225740165 -0.4959047139 0.04033285379 1.435982003e-39
-0.1226890609 -0.4586772621 -0.03268058971 1.435982003e-39
-0.05348835886 -0.428537339 0.1727214605 1.435982003e-39
-0.1314168572 -0.4391741157 -0.1508546621 1.435982003e-39
-0.1007110029 -0.447850287 0.04963552952 1.435982003e-39
-0.1385674924 -0.4143628478 0.06776028126 1.435982003e-39
-0.07540243119 -0.4356077909 0.1276799887 1.435982003e-39
-0.1280412972 -0.4203846157 -0.03774533421 1.435982003e-39
-0.05407492444 -0.3847233355 0.03915376961 1.435982003e-39
-0.09259490669 -0.4174377024 -0.004813477397 1.435982003e-39
-0.04913842678 -0.4186051488 0.1096543446 1.435982003e-39
-0.1080740392 -0.3563548326 0.0397856161 1.435982003e-39
-0.02777371556 -0.4277561009 0.06866771728 1.435982003e-39
0.06257230043 -0.3044956923 0.1734545976 7.045238224e-40
-0.03548313305 -0.2982786 0.01684411801 7.045238224e-40
0.1405212432 -0.3096356988 0.03676797077 7.045238224e-40
-0.0968767032 -0.3855613768 0.1267452389 7.045238224e-40
0.1670429409 -0.3067389131 0.07342308015 7.045238224e-40
0.01647564396 -0.2726718187 0.002484376077 7.045238224e-40
0.07493243366 -0.3063894808 0.1341216266 7.045238224e-40
-0.1453558952 -0.3389265835 0.09510599822 7.045238224e-40
0.006732302718 -0.3180722296 0.1755759716 7.045238224e-40
-0.02353345603 -0.2035340965 -0.007370442618 7.045238224e-40
0.1559608728 -0.2895351052 0.09403556585 7.045238224e-40
-0.08221063018 -0.2982041836 0.1826264113 7.045238224e-40
0.08837877959 -0.2958193123 0.1665837169 7.045238224e-40
0.00733944634 -0.2981301546 0.003855224233 7.045238224e-40
0.1476924866 -0.2774430513 0.04725927487 7.045238224e-40
-0.09330747277 -0.3259223402 0.1319105923 7.045238224e-40
0.1355361491 -0.3212248981 0.09698873758 7.045238224e-40
0.01040212158 -0.2559535205 0.004915376659 7.045238224e-40
0.1523698717 -0.2646622658 0.0210608393 7.045238224e-40
-0.08854327351 -0.3541753292 0.170827806 7.045238224e-40
0.1546294838 -0.3150013387 0.09984715283 7.045238224e-40
0.007930292748 -0.186668247 0.01126832515 7.045238224e-40
0.09131127596 -0.2622522116 0.05505334213 7.045238224e-40
-0.1213253736 -0.3374210596 0.1320739686 7.045238224e-40
0.06439291686 -0.2904164195 0.1530618966 7.045238224e-40
-0.05437783152 -0.2790934145 0.03114270419 7.045238224e-40
0.09886978567 -0.2573629022 0.02783042379 7.045238224e-40
-0.1105546951 -0.3207968175 0.04861435667 7.045238224e-40
0.0789854899 -0.3058535159 0.1539610028 7.045238224e-40
-0.07657285035 -0.2183253616 0.04274750128 7.045238224e-40
0.08593657613 -0.2743450105 0.02445268445 7.045238224e-40
-0.05784421414 -0.1965647489 0.01569215208 7.045238224e-40
0.1576595306 -0.3843852878 0.09748760611 6.490113838e-41
0.1965331882 -0.3698236048 -0.02299706452 6.490113838e-41
0.02246770635 -0.3884604573 0.1783662289 6.490113838e-41
0.1277194023 -0.3875814676 -0.1067237034 6.490113838e-41
0.09334293753 -0.3670373857 0.1631376147 6.490113838e-41
0.1843111217 -0.3566695452 0.04873838276 6.490113838e-41
0.06058103591 -0.40718925 0.1418724656 6.490113838e-41
0.1397334337 -0.4406252801 -0.1400238276 6.490113838e-41
0.1305481941 -0.2894379199 0.0006188377156 6.490113838e-41
0.1654990762 -0.3858537078 -0.04301868752 6.490113838e-41
-0.01517228596 -0.3745763302 0.1864195466 6.490113838e-41
0.1389856786 -0.4459488988 -0.112576358 6.490113838e-41
0.1169769019 -0.34460181 0.1147119626 6.490113838e-41
0.1687823534 -0.3911615014 -0.0122226309 6.490113838e-41
-0.004046075512 -0.3593321741 0.1803145409 6.490113838e-41
0.09828193486 -0.4018117189 -0.1085596085 6.490113838e-41
0.09661004692 -0.3272456229 0.1264244616 6.490113838e-41
0.1498272121 -0.363058269 0.008457957767 6.490113838e-41
-0.03741601482 -0.3378913999 0.1628269553 6.490113838e-41
0.1237301826 -0.4049162865 -0.1095272675 6.490113838e-41
0.1170608848 -0.2798509896 0.08629903942 6.490113838e-41
0.1438256055 -0.3331153393 0.02850571088 6.490113838e-41
-0.02130649425 -0.3450777531 0.1712425649 6.490113838e-41
0.1718896031 -0.3441481292 -0.1221001074 6.490113838e-41
0.1130028814 -0.3126605451 0.09888357669 6.490113838e-41
0.1852991283 -0.3107263446 -0.01904285699 6.490113838e-41
0.0001721680164 -0.3381582201 0.1624886841 6.490113838e-41
0.08407148719 -0.3192687929 -0.1178928614 6.490113838e-41
0.09793110937 -0.2922721803 0.1007988229 6.490113838e-41
0.1322965175 -0.2871992886 -0.008080053143 6.490113838e-41
0.02836579457 -0.3150570095 0.1017354056 6.490113838e-41
0.05275840312 -0.2718951702 -0.07687725127 6.490113838e-41
-0.2055938691 -0.4199362993 0.08904170245 8.028094954e-40
0.1473028362 -0.3983193338 -0.1290538162 8.028094954e-40
-0.08200252801 -0.388785094 -0.1300247759 8.028094954e-40
0.150073126 -0.4555471241 0.08101382852 8.028094954e-40
-0.09589827061 -0.3425399363 0.1070719957 8.028094954e-40
0.01530561317 -0.4222541749 -0.184455052 8.028094954e-40
-0.1667624712 -0.4420734048 -0.01824882254 8.028094954e-40
0.1415880471 -0.4376628995 -0.02069813199 8.028094954e-40
-0.1535749882 -0.4006715417 0.1459482908 8.028094954e-40
0.1192096919 -0.4497658312 -0.1382756531 8.028094954e-40
-0.1729948223 -0.4136864543 -0.05686561763 8.028094954e-40
0.1606805623 -0.4359675646 0.08505471796 8.028094954e-40
-0.1270248741 -0.3260159492 0.1077768281 8.028094954e-40
0.09507232904 -0.452085793 -0.1550039351 8.028094954e-40
-0.1167180911 -0.4038795531 -0.07787193358 8.028094954e-40
0.1323555857 -0.4486718476 0.0725890547 8.028094954e-40
-0.1055818498 -0.3252268136 0.1162030473 8.028094954e-40
0.04339041561 -0.4248112738 -0.1587002724 8.028094954e-40
-0.1024641395 -0.4101786911 -0.08951448649 8.028094954e-40
0.1344435215 -0.4487451017 0.06998707354 8.028094954e-40
-0.09062757343 -0.282220453 0.126791507 8.028094954e-40
0.05190473422 -0.3970471919 -0.1582930386 8.028094954e-40
-0.1583420187 -0.4278741181 -0.05091881379 8.028094954e-40
0.1457458436 -0.4155430794 0.001144598704 8.028094954e-40
-0.1561413258 -0.3305669427 0.1164105982 8.028094954e-40
0.1135507822 -0.3585290909 -0.1497052163 8.028094954e-40
-0.1188086569 -0.3997478187 -0.0730208829 8.028094954e-40
0.1476907879 -0.3501085341 -0.0207075607 8.028094954e-40
-0.1354988664 -0.3246816695 0.09450109303 8.028094954e-40
0.07293912768 -0.3304699957 -0.1331591159 8.028094954e-40
-0.09410846978 -0.2507353127 -0.03439437598 8.028094954e-40
0.1409801841 -0.3037753701 0.009288648143 8.028094954e-40
0.1717916131 -0.345688194 -0.1198108122 1.540360521e-39
-0.03981912509 -0.3913046718 -0.1912306696 1.540360521e-39
0.1529490203 -0.4520366192 -0.09064521641 1.540360521e-39
-0.0463654846 -0.4062897563 -0.1567952186 1.540360521e-39
0.04943971708 -0.3918773234 -0.1762117147 1.540360521e-39
0.03673127666 -0.4143260419 -0.2000103444 1.540360521e-39
0.1736984849 -0.4705041349 0.03098753095 1.540360521e-39
-0.1021474376 -0.429338634 -0.1297891438 1.540360521e-39
0.1358145475 -0.3558417261 -0.12554048 1.540360521e-39
-0.03215953708 -0.4151300192 -0.1612199843 1.540360521e-39
0.1974158734 -0.3978333473 -0.006864693016 1.540360521e-39
-0.09950461984 -0.4273830354 -0.1841893941 1.540360521e-39
0.1056245118 -0.3644476533 -0.1233702973 1.540360521e-39
0.005218018778 -0.4239486754 -0.1962682009 1.540360521e-39
0.1739841402 -0.4127048254 -0.03743994236 1.540360521e-39
-0.07084272057 -0.395285368 -0.1559035182 1.540360521e-39
0.06952121109 -0.3633872271 -0.1613245457 1.540360521e-39
0.0139297545 -0.4070901275 -0.1891018003 1.540360521e-39
0.1682511717 -0.3943199515 -0.03820606321 1.540360521e-39
-0.06022816524 -0.3983409107 -0.1677901894 1.540360521e-39
0.07546097785 -0.3559850454 -0.1640614569 1.540360521e-39
0.007392480504 -0.378531456 -0.179514572 1.540360521e-39
0.1736231446 -0.3885256052 -0.02919843607 1.540360521e-39
-0.1279443353 -0.362723887 -0.1029132158 1.540360521e-39
0.1244422942 -0.2778214514 -0.09732787311 1.540360521e-39
-0.0282007996 -0.3509863019 -0.1975546032 1.540360521e-39
0.1511700004 -0.3491325378 -0.06158944964 1.540360521e-39
-0.1575994045 -0.358238101 -0.07139357179 1.540360521e-39
0.0878373906 -0.2571385503 -0.0834473893 1.540360521e-39
-0.03544236347 -0.2857000232 -0.1650270969 1.540360521e-39
0.1046251878 -0.329992801 -0.02761195414 1.540360521e-39
-0.1037693471 -0.3379912674 -0.03576064482 1.540360521e-39
-0.1760583073 -0.3940639794 0.1197571307 2.277910146e-39
-0.0004882216163 -0.4121051431 0.1670693755 2.277910146e-39
-0.1545467526 -0.3199782968 -0.06258697063 2.277910146e-39
-0.02388015762 -0.4417639375 0.138821587 2.277910146e-39
-0.123498261 -0.2998133898 0.07894772291 2.277910146e-39
-0.0877994895 -0.3852520883 0.1781738847 2.277910146e-39
-0.167945534 -0.3684072793 -0.08339712769 2.277910146e-39
-0.08914189786 -0.4856629968 0.07713792473 2.277910146e-39
-0.1675170362 -0.4179945588 0.08584266901 2.277910146e-39
0.02902596816 -0.4360813797 0.1825221479 2.277910146e-39
-0.1714365929 -0.3319783211 -0.0647861585 2.277910146e-39
-0.1096820682 -0.4463864863 0.1167014092 2.277910146e-39
-0.1439228207 -0.3456434011 0.06601754576 2.277910146e-39
-0.008073691279 -0.4233168066 0.1721797138 2.277910146e-39
-0.1530165076 -0.3304839134 -0.06520268321 2.277910146e-39
-0.05115465075 -0.4388567507 0.1094385535 2.277910146e-39
-0.1417062879 -0.3324787617 0.07663250715 2.277910146e-39
-0.04993372038 -0.4077073038 0.1654388011 2.277910146e-39
-0.1614573002 -0.3188286126 -0.05965483189 2.277910146e-39
-0.05485316738 -0.4534124732 0.07827274501 2.277910146e-39
-0.1306674182 -0.3040197492 0.1034815833 2.277910146e-39
-0.08707477897 -0.38324368 0.1852049381 2.277910146e-39
-0.1587489396 -0.29805547 -0.01319734659 2.277910146e-39
-0.11483787 -0.4584292471 0.0509592928 2.277910146e-39
-0.1449702233 -0.3031823039 0.08626470715 2.277910146e-39
0.006609999109 -0.3915189505 0.1631305963 2.277910146e-39
-0.1109989658 -0.3177393973 -0.0500045903 2.277910146e-39
-0.09988922626 -0.3659091294 0.1059314534 2.277910146e-39
-0.1138852984 -0.2645188272 0.07980754226 2.277910146e-39
-0.04528541118 -0.3805189431 0.1549484283 2.277910146e-39
-0.09904449433 -0.2781458795 -0.04127168283 2.277910146e-39
-0.016066093 -0.3159122765 0.1362396479 2.277910146e-39
0.09852339327 -0.4673506618 -0.09775872529 3.015101038e-39
0.1088584214 -0.4604542851 0.06631876528 3.015101038e-39
0.01593842916 -0.4628352523 -0.1039103046 3.015101038e-39
0.07274976373 -0.4626601636 -0.1456234753 3.015101038e-39
0.154875204 -0.4821396768 -0.02237826958 3.015101038e-39
0.1488246322 -0.4752815366 0.1121877506 3.015101038e-39
-0.09875954688 -0.4813945293 -0.1139357761 3.015101038e-39
-0.09333158284 -0.4455910027 -0.1599659175 3.015101038e-39
0.03253541142 -0.4789419472 -0.1041551307 3.015101038e-39
0.006274535786 -0.4668811262 0.09558507055 3.015101038e-39
-0.09292448312 -0.4802948833 -0.1249146238 3.015101038e-39
-0.03295831755 -0.4558029771 -0.1850288212 3.015101038e-39
0.09752573818 -0.4789147079 -0.05899048597 3.015101038e-39
0.1159572676 -0.4734177887 0.08363499492 3.015101038e-39
-0.03105586208 -0.4507929683 -0.1146530584 3.015101038e-39
0.00789039582 -0.4531891048 -0.1653227508 3.015101038e-39
0.1227622107 -0.4786071181 -0.02180355974 3.015101038e-39
0.1027047336 -0.4715636373 0.1078450903 3.015101038e-39
-0.03976029158 -0.4482371211 -0.1066241637 3.015101038e-39
0.009939827025 -0.4602163136 -0.1717877239 3.015101038e-39
0.1226819903 -0.4709626734 -0.04672433808 3.015101038e-39
0.1271166205 -0.4758408964 0.06974363327 3.015101038e-39
-0.0680840835 -0.4662676752 -0.1023221463 3.015101038e-39
-0.05303968862 -0.4165404737 -0.1461364925 3.015101038e-39
0.03147077188 -0.4753894508 -0.09753980488 3.015101038e-39
0.06736078113 -0.4666351676 0.04427240044 3.015101038e-39
-0.1297215372 -0.4430985451 -0.06951343268 3.015101038e-39
-0.01843613014 -0.3948410451 -0.1312861443 3.015101038e-39
-0.01839400455 -0.4657466412 -0.05230771378 3.015101038e-39
0.02592683583 -0.4575835466 0.06003199518 3.015101038e-39
-0.1728121936 -0.4022571743 0.01670366153 3.015101038e-39
0.00442582462 -0.3851248324 -0.07953236252 3.015101038e-39
-0.08272857219 -0.343249172 0.1406439245 3.75229193e-39
0.1930630952 -0.372173965 0.03868168965 3.75229193e-39
-0.1731225401 -0.3354502916 0.05629189685 3.75229193e-39
0.07629683614 -0.3676651418 0.1624304354 3.75229193e-39
0.02041247115 -0.2925237715 0.1709792465 3.75229193e-39
0.159878999 -0.356184423 0.09239161015 3.75229193e-39
-0.1370124817 -0.3839035928 -0.01189479791 3.75229193e-39
0.1296156347 -0.380178988 0.1184146255 3.75229193e-39
-0.09045150131 -0.2395328581 0.1288247854 3.75229193e-39
0.1717863232 -0.3778842092 0.01789009385 3.75229193e-39
-0.1819346845 -0.3035513461 0.05645212531 3.75229193e-39
0.1200495884 -0.3527299762 0.1696103066 3.75229193e-39
-0.03635374457 -0.2687264681 0.1212996468 3.75229193e-39
0.1969013512 -0.3849713802 0.04837288707 3.75229193e-39
-0.1695196182 -0.3302943408 0.03696744144 3.75229193e-39
0.08583378047 -0.3335565925 0.1545923203 3.75229193e-39
0.01385103259 -0.260601759 0.135103792 3.75229193e-39
0.1588543355 -0.3641084433 0.06618662179 3.75229193e-39
-0.1711123586 -0.2892827392 0.03056088276 3.75229193e-39
0.1129001454 -0.3392759562 0.1442812234 3.75229193e-39
0.04776220396 -0.2487909943 0.144986257 3.75229193e-39
0.1356267184 -0.3176489472 0.08132724464 3.75229193e-39
-0.1319244504 -0.3179956675 0.02009252459 3.75229193e-39
0.125232026 -0.350467205 0.1113727391 3.75229193e-39
-0.04064173624 -0.2228675336 0.1322953105 3.75229193e-39
0.156484291 -0.2920754552 0.01814595424 3.75229193e-39
-0.1072897911 -0.3344219625 0.04974618554 3.75229193e-39
0.04195443913 -0.3103901744 0.1055705696 3.75229193e-39
-0.05875791237 -0.2628872395 0.112987414 3.75229193e-39
0.08831293881 -0.2466561198 0.01668898761 3.75229193e-39
-0.06227689236 -0.2633128762 0.07454556227 3.75229193e-39
0.01581291854 -0.2050830573 0.08248306811 3.75229193e-39
-0.1603452712 -0.3988952041 -0.02639572136 4.48912409e-39
-0.03985419497 -0.3765783012 -0.18898049 4.48912409e-39
-0.1270097345 -0.293895036 0.0006585902302 4.48912409e-39
0.03999441117 -0.4026388824 -0.1718259454 4.48912409e-39
-0.1246740445 -0.3224342763 -0.1245020851 4.48912409e-39
-0.1264226586 -0.3861476481 -0.1758672148 4.48912409e-39
-0.1462990195 -0.3534206152 0.07795932889 4.48912409e-39
0.0164909903 -0.3950068653 -0.1765129119 4.48912409e-39
-0.1650154591 -0.3446852565 0.0431095697 4.48912409e-39
-0.08225754648 -0.3824515343 -0.1307990253 4.48912409e-39
-0.1615262479 -0.3151076138 -0.0004283748276 4.48912409e-39
0.04641706496 -0.3947250843 -0.1847712994 4.48912409e-39
-0.1451126486 -0.3109337986 -0.0839074254 4.48912409e-39
-0.07673308998 -0.3852088749 -0.18175295 4.48912409e-39
-0.1276329905 -0.3141961694 -0.0208308138 4.48912409e-39
0.04882677272 -0.3976918459 -0.1744395494 4.48912409e-39
-0.1360145509 -0.2954871655 -0.0931263417 4.48912409e-39
-0.1035462767 -0.374374181 -0.1644591093 4.48912409e-39
-0.108331576 -0.2785701156 0.01174869761 4.48912409e-39
0.06176072732 -0.3649222851 -0.1662299633 4.48912409e-39
-0.1282360703 -0.282559216 -0.1032567248 4.48912409e-39
-0.08689908683 -0.3469298482 -0.1500482559 4.48912409e-39
-0.131871894 -0.2885845304 0.07378797233 4.48912409e-39
0.02185340971 -0.3411608338 -0.1483185291 4.48912409e-39
-0.1584924608 -0.3002904654 -0.06737760454 4.48912409e-39
-0.04036964104 -0.3074295223 -0.1613449603 4.48912409e-39
-0.07460274547 -0.3104099929 0.02645744383 4.48912409e-39
0.00994374603 -0.3620647788 -0.1502801925 4.48912409e-39
-0.1438514441 -0.2798834443 -0.06631234288 4.48912409e-39
-0.04710200056 -0.2911684513 -0.13648431 4.48912409e-39
-0.06069345027 -0.322152257 0.007972243242 4.48912409e-39
0.004134236369 -0.2622158229 -0.0786210075 4.48912409e-39
-0.05397622287 -0.3547088504 -0.1510561556 5.225597518e-39
0.1377367526 -0.4791056514 -0.07060631365 5.225597518e-39
-0.05769233406 -0.4650981724 -0.160620302 5.225597518e-39
0.02788987756 -0.4874298573 -0.1030659676 5.225597518e-39
-0.1111554429 -0.345769316 -0.1451811939 5.225597518e-39
0.05786000565 -0.4702920318 -0.1519277692 5.225597518e-39
0.03305344656 -0.4875764549 -0.1741261184 5.225597518e-39
0.08771509677 -0.4912467301 -0.06926877797 5.225597518e-39
0.05159385502 -0.3187452555 -0.1744029969 5.225597518e-39
0.1412678063 -0.4839218855 -0.06883659214 5.225597518e-39
-0.04479152337 -0.4739659727 -0.1892286837 5.225597518e-39
0.01853303052 -0.4875187278 -0.1739480346 5.225597518e-39
-0.004224766977 -0.292832613 -0.1476065516 5.225597518e-39
0.1296142191 -0.4851546586 -0.1077735424 5.225597518e-39
-0.02362134494 -0.4743377566 -0.1497217417 5.225597518e-39
0.03348052874 -0.4760921299 -0.1064737588 5.225597518e-39
-0.07004803419 -0.290792048 -0.1333159357 5.225597518e-39
0.08994009346 -0.475843519 -0.1067250967 5.225597518e-39
-0.06638453156 -0.4794020057 -0.1301503479 5.225597518e-39
0.01810099557 -0.4722613692 -0.08935080469 5.225597518e-39
-0.04032203555 -0.2760371864 -0.1317901313 5.225597518e-39
0.05598643422 -0.4588769972 -0.1327363104 5.225597518e-39
-0.06212548539 -0.4961560965 -0.1572017372 5.225597518e-39
0.05985732749 -0.4641258419 -0.1243406013 5.225597518e-39
0.0416033119 -0.2521991134 -0.1380556971 5.225597518e-39
0.09341805428 -0.4780847132 -0.06251370162 5.225597518e-39
-0.05160021409 -0.4382478297 -0.11065685 5.225597518e-39
0.09399785846 -0.4137730598 -0.1260243803 5.225597518e-39
0.03331078216 -0.245120883 -0.1285061091 5.225597518e-39
0.07243032008 -0.4636217952 -0.05949524045 5.225597518e-39
-0.04171744362 -0.3395605087 -0.09943863004 5.225597518e-39
0.06237313524 -0.457993567 -0.04236385971 5.225597518e-39
0.1869870126 -0.3783964515 -0.06699623168 5.962428276e-39
0.007786310278 -0.2829717994 -0.1870447397 5.962428276e-39
0.1454627365 -0.3418290317 -0.05659119412 5.962428276e-39
-0.1460223943 -0.4566288888 0.04051088914 5.962428276e-39
0.10596627 -0.3387975693 -0.1763852984 5.962428276e-39
-0.01612097397 -0.2595818341 -0.08008468151 5.962428276e-39
0.1321323514 -0.3260728419 -0.1161303148 5.962428276e-39
-0.1068193018 -0.4559459388 -0.0849520117 5.962428276e-39
0.1684473902 -0.3813578784 -0.07686852664 5.962428276e-39
0.002178948605 -0.3253727257 -0.1672625989 5.962428276e-39
0.1300630122 -0.2909953594 -0.1195418686 5.962428276e-39
-0.1426560283 -0.4505565464 0.01153830253 5.962428276e-39
0.1488391459 -0.3458562195 -0.1051937118 5.962428276e-39
0.01062238496 -0.3098921478 -0.1348559558 5.962428276e-39
0.1237722486 -0.2813041508 -0.09447117895 5.962428276e-39
-0.1466262192 -0.4432601929 0.02949886769 5.962428276e-39
0.1315723956 -0.3163380623 -0.1076393798 5.962428276e-39
-0.004392714705 -0.2534750998 -0.1177771166 5.962428276e-39
0.1144347042 -0.2895604074 -0.1105465144 5.962428276e-39
-0.1424923837 -0.4197351933 -0.00609518867 5.962428276e-39
0.1638138294 -0.3070574403 -0.0502653271 5.962428276e-39
0.003479749896 -0.2115999758 -0.07140066475 5.962428276e-39
0.08271194994 -0.2959098518 -0.1454515904 5.962428276e-39
-0.1238612831 -0.4031956792 -0.09618107229 5.962428276e-39
0.2079812586 -0.3267244995 -0.05096148327 5.962428276e-39
0.04369737208 -0.2353933752 -0.1216250807 5.962428276e-39
0.08604557067 -0.2789613605 -0.09453531355 5.962428276e-39
-0.1025811508 -0.3453206718 -0.06725738198 5.962428276e-39
0.1408870071 -0.2696726024 -0.05756957829 5.962428276e-39
0.01686521806 -0.2664726377 -0.1237418279 5.962428276e-39
0.08317857236 -0.28005898 -0.02968236431 5.962428276e-39
-0.0755809024 -0.2343852073 -0.04805970192 5.962428276e-39
0.1917003393 -0.4199544787 0.08911381662 6.698542971e-39
0.01803082041 -0.386825949 0.1664964408 6.698542971e-39
0.02940736525 -0.2828314006 0.1178151593 6.698542971e-39
0.1234583035 -0.4657865465 0.1561387181 6.698542971e-39
0.1574926525 -0.38024652 0.08637934923 6.698542971e-39
0.03299755976 -0.3772707582 0.1872631311 6.698542971e-39
0.1675666422 -0.3279772699 0.08217796683 6.698542971e-39
0.08763068914 -0.4719866216 0.1673671752 6.698542971e-39
0.1628154069 -0.3833016157 0.08259195834 6.698542971e-39
0.1024004221 -0.4295590818 0.1714822054 6.698542971e-39
0.1044938564 -0.2812008262 0.1847214997 6.698542971e-39
0.1223022491 -0.463737309 0.170975849 6.698542971e-39
0.1536849439 -0.3827673495 0.0974804163 6.698542971e-39
0.04735666513 -0.4174849689 0.1927117705 6.698542971e-39
0.05540893599 -0.2688190043 0.1247230992 6.698542971e-39
0.1128013432 -0.4629421532 0.1438492984 6.698542971e-39
0.1401335448 -0.3635814488 0.1215197295 6.698542971e-39
0.04018568993 -0.3857358992 0.1753547639 6.698542971e-39
0.07314283401 -0.2588635981 0.1127225757 6.698542971e-39
0.1132243052 -0.4620670378 0.1452190876 6.698542971e-39
0.1431078762 -0.3651140928 0.1357861459 6.698542971e-39
0.04754889011 -0.3591240644 0.1717450023 6.698542971e-39
0.1244278848 -0.2500100732 0.09901353717 6.698542971e-39
0.03306259215 -0.4331632853 0.1494764686 6.698542971e-39
0.1565159708 -0.3857692182 0.1097106561 6.698542971e-39
0.08794975281 -0.3000174165 0.1673096716 6.698542971e-39
0.08247867972 -0.2905993164 0.1017418653 6.698542971e-39
0.009059390053 -0.3127717674 0.1288306266 6.698542971e-39
0.08738861233 -0.3664334714 0.1285904646 6.698542971e-39
0.09612225741 -0.2349429429 0.1530350596 6.698542971e-39
0.07209999114 -0.2857561409 0.06654215604 6.698542971e-39
0.04672589898 -0.2467995286 0.08176083118 6.698542971e-39
0.2030147612 -0.3851355314 0.04896958917 7.434656265e-39
-0.02446846664 -0.3026811182 -0.08077359945 7.434656265e-39
0.1210345477 -0.2936724424 -0.1033040732 7.434656265e-39
0.02498068102 -0.3804314137 0.157733053 7.434656265e-39
0.1677672267 -0.3629608452 -0.07889950275 7.434656265e-39
-0.0007913017762 -0.2900410593 -0.07940547913 7.434656265e-39
0.1357488483 -0.3201266825 -0.02264097705 7.434656265e-39
-0.009682060219 -0.3712500036 0.0509067513 7.434656265e-39
0.1496343315 -0.422827363 0.1084520444 7.434656265e-39
-0.03708307818 -0.1554395854 -0.03734245151 7.434656265e-39
0.146200344 -0.2975930572 -0.06337400526 7.434656265e-39
0.02799112163 -0.4055097699 0.1423956305 7.434656265e-39
0.1761466414 -0.3956989944 0.01624442823 7.434656265e-39
-0.02275345847 -0.2778057456 -0.1077935994 7.434656265e-39
0.1236047447 -0.2640883923 -0.09356541932 7.434656265e-39
0.03242736682 -0.3585178554 0.1657681912 7.434656265e-39
0.1615636349 -0.3795947134 -0.02534367517 7.434656265e-39
-0.01678959653 -0.2609823644 -0.08289366961 7.434656265e-39
0.1108591631 -0.2649100125 -0.08610220253 7.434656265e-39
0.04690971971 -0.3512578607 0.1429471225 7.434656265e-39
0.1767531931 -0.3659124374 0.001227571978 7.434656265e-39
-0.01992612891 -0.2281264216 -0.0965359062 7.434656265e-39
0.132144928 -0.3166887462 0.001544966013 7.434656265e-39
0.06678710878 -0.3102819622 0.01621534117 7.434656265e-39
0.1633518189 -0.3619582057 0.08040355891 7.434656265e-39
-0.09068132192 -0.3097707629 -0.1053287238 7.434656265e-39
0.08392877877 -0.2516942918 -0.04895942286 7.434656265e-39
0.05090881884 -0.2720140219 -0.02238626778 7.434656265e-39
0.1194281206 -0.3541650474 0.08619791269 7.434656265e-39
-0.09877885133 -0.3007334769 -0.08882021159 7.434656265e-39
0.06230090559 -0.2740161419 0.007826540619 7.434656265e-39
0.0191269666 -0.2529709041 0.06342720985 7.434656265e-39
-0.05024228618 -0.3383648396 -0.1860520989 8.170410826e-39
-0.2114583254 -0.3106968701 -0.06463588774 8.170410826e-39
0.05879034474 -0.2988778651 -0.1238735691 8.170410826e-39
-0.0441689752 -0.293777287 0.1212205812 8.170410826e-39
-0.09756758064 -0.3494539857 -0.0755147934 8.170410826e-39
-0.05880334228 -0.2711890638 -0.01853290759 8.170410826e-39
0.1219760105 -0.3524368703 -0.1135198399 8.170410826e-39
-0.1484728605 -0.3266040087 0.07800178975 8.170410826e-39
-0.0117338188 -0.3099461794 -0.1623529643 8.170410826e-39
-0.08889331669 -0.297958672 0.01110349409 8.170410826e-39
0.07288940996 -0.2904645205 -0.1350241601 8.170410826e-39
-0.09745109826 -0.3093046844 0.1328883767 8.170410826e-39
-0.06293711811 -0.344399184 -0.151329264 8.170410826e-39
-0.1311801523 -0.3079001009 -0.02850840241 8.170410826e-39
0.05367171764 -0.3028369844 -0.1567092985 8.170410826e-39
-0.02857327089 -0.2702985108 0.1355285048 8.170410826e-39
-0.09619678557 -0.3275330067 -0.1197885573 8.170410826e-39
-0.1110915169 -0.2829873264 -0.02726996876 8.170410826e-39
0.06762949377 -0.2538760006 -0.1274424493 8.170410826e-39
-0.02740060538 -0.2582054138 0.1299618185 8.170410826e-39
-0.1057907417 -0.3056439459 -0.1378258914 8.170410826e-39
-0.07627701759 -0.2416718304 -0.06603598595 8.170410826e-39
0.100004904 -0.2642559409 -0.128706485 8.170410826e-39
-0.1013178229 -0.2569736242 0.08463014662 8.170410826e-39
-0.02235701866 -0.2888242006 -0.150543198 8.170410826e-39
-0.1518236995 -0.2600575984 -0.04258906841 8.170410826e-39
0.06369814277 -0.2449221015 -0.08360426873 8.170410826e-39
-0.0411265865 -0.2899698913 0.0604465194 8.170410826e-39
-0.04731081426 -0.2737472355 -0.1412411332 8.170410826e-39
-0.1249380037 -0.2279007286 -0.04932844639 8.170410826e-39
0.03072488494 -0.2014350146 -0.02818562649 8.170410826e-39
-0.0276679527 -0.267939955 0.02722080983 8.170410826e-39
-0.07023559511 -0.4562590122 -0.1794795543 8.906165387e-39
-0.137311697 -0.4040520787 -0.1858443618 8.906165387e-39
-0.1133718044 -0.4639397264 -0.07913205028 8.906165387e-39
-0.135074541 -0.4230521619 -0.1168369576 8.906165387e-39
0.007601260208 -0.4472810328 -0.1708821356 8.906165387e-39
-0.0638428703 -0.4264823794 -0.1648581475 8.906165387e-39
-0.08591873199 -0.4758409262 0.06553249806 8.906165387e-39
-0.1646505445 -0.4288717508 -0.05145788565 8.906165387e-39
-0.1269995421 -0.4579275846 -0.09930147976 8.906165387e-39
-0.1048422083 -0.4144032001 -0.1427422911 8.906165387e-39
-0.129924044 -0.4359511733 0.06925996393 8.906165387e-39
-0.1556285024 -0.417437613 -0.0655182898 8.906165387e-39
-0.04238373786 -0.4640159905 -0.1062896624 8.906165387e-39
-0.07614421844 -0.4140123129 -0.1765007824 8.906165387e-39
-0.1064506099 -0.4728638828 -0.01474253926 8.906165387e-39
-0.1226949692 -0.406768024 -0.0916801244 8.906165387e-39
-0.01211101934 -0.4458842576 -0.1619401276 8.906165387e-39
-0.07738433778 -0.4167658985 -0.1633918136 8.906165387e-39
-0.1076582074 -0.4568834305 0.03286736831 8.906165387e-39
-0.1172668561 -0.4051470757 -0.09611989558 8.906165387e-39
-0.02295579389 -0.4063721299 -0.2091866583 8.906165387e-39
-0.07112491876 -0.4100404978 -0.1731033921 8.906165387e-39
-0.09810180962 -0.4396277666 0.06257128716 8.906165387e-39
-0.1232842878 -0.3917577863 -0.08396188915 8.906165387e-39
-0.01952974685 -0.4554675221 -0.07301303744 8.906165387e-39
-0.1070114151 -0.4025533795 -0.1581180245 8.906165387e-39
-0.09950134903 -0.4103807211 0.06065909937 8.906165387e-39
-0.1210451797 -0.3590471447 -0.07732801139 8.906165387e-39
-0.07453554869 -0.4073125124 -0.06168884784 8.906165387e-39
-0.09362723678 -0.3848420978 -0.127342239 8.906165387e-39
-0.08829843998 -0.3726401329 0.02011058852 8.906165387e-39
-0.1097699553 -0.285588026 -0.09028130025 8.906165387e-39
0.1758304834 -0.3501795828 0.02453955077 9.641561216e-39
-0.01987049729 -0.3442079127 0.1448448598 9.641561216e-39
0.1436232775 -0.3588660955 0.1157396287 9.641561216e-39
0.1324067414 -0.4142001271 0.1522827893 9.641561216e-39
0.1146622151 -0.3048002422 -0.08801311255 9.641561216e-39
-0.02433256246 -0.3273521066 0.1548621505 9.641561216e-39
0.118117325 -0.3224269152 -0.01756381616 9.641561216e-39
-0.05834781006 -0.4151543081 0.1448562294 9.641561216e-39
0.1575836241 -0.3249379694 -0.02601997182 9.641561216e-39
-0.1176995188 -0.3589487374 0.1324670613 9.641561216e-39
0.1672767103 -0.3545289934 0.0324960649 9.641561216e-39
-0.004092387389 -0.4003973305 0.1571447402 9.641561216e-39
0.1264058799 -0.2753786147 -0.05449673533 9.641561216e-39
-0.09072393179 -0.3601404428 0.1603188962 9.641561216e-39
0.1412813663 -0.3492366076 0.046903532 9.641561216e-39
0.07776519656 -0.3711792529 0.1374512315 9.641561216e-39
0.123164244 -0.2718338966 -0.06528021395 9.641561216e-39
-0.071766451 -0.3411430418 0.1432735622 9.641561216e-39
0.1507301629 -0.334720552 0.04206069931 9.641561216e-39
0.09119153768 -0.3800049424 0.132045418 9.641561216e-39
0.1224370897 -0.1954580396 -0.06566291302 9.641561216e-39
-0.06205358356 -0.3116654754 0.1607080251 9.641561216e-39
0.1312207133 -0.3278201818 0.02135412581 9.641561216e-39
0.09321605414 -0.3832648695 0.1320312172 9.641561216e-39
0.1196460947 -0.2341830432 -0.05254504457 9.641561216e-39
-0.02514921129 -0.2496859878 0.1390060484 9.641561216e-39
0.05144941434 -0.3093702495 0.01072341856 9.641561216e-39
0.08818954229 -0.3493300676 0.1316703856 9.641561216e-39
0.08030287921 -0.2433682978 -0.09788510948 9.641561216e-39
-0.0351457037 -0.2556304336 0.1093599945 9.641561216e-39
0.02699208073 -0.2882691026 0.01067076344 9.641561216e-39
0.08391935378 -0.3247364163 0.07311497629 9.641561216e-39
-0.1259537637 -0.3686723709 -0.02642931603 1.037659831e-38
-0.09599012882 -0.3599058092 0.1579791009 1.037659831e-38
-0.03192755952 -0.3734816015 0.0547764264 1.037659831e-38
0.05517223105 -0.4451404512 0.1756728441 1.037659831e-38
-0.1620727628 -0.3265148401 -0.01444550697 1.037659831e-38
-0.08581797034 -0.3349930644 0.0953553468 1.037659831e-38
0.01110081095 -0.2706197202 -0.005819679704 1.037659831e-38
0.02682565153 -0.4814551771 0.1734570414 1.037659831e-38
-0.106060423 -0.2763724029 -0.09517465532 1.037659831e-38
-0.01953336224 -0.3395749331 0.1358330995 1.037659831e-38
-0.01737038977 -0.334250927 -0.01420974452 1.037659831e-38
0.01519363653 -0.4309231043 0.1939489692 1.037659831e-38
-0.1314283162 -0.3043295443 -0.0463309139 1.037659831e-38
-0.07257226855 -0.3626432121 0.1310422122 1.037659831e-38
-0.01901508681 -0.3446694314 -0.004865444265 1.037659831e-38
0.01920264028 -0.4397277534 0.1769452542 1.037659831e-38
-0.1528512985 -0.3023277521 -0.03293044493 1.037659831e-38
-0.06475277245 -0.3132974505 0.09479622543 1.037659831e-38
-0.01381198689 -0.2807022631 0.0209629871 1.037659831e-38
0.02883101441 -0.4423346221 0.1656726599 1.037659831e-38
-0.1568713635 -0.2612781525 -0.04226303846 1.037659831e-38
-0.07926345617 -0.2457803041 0.04630187899 1.037659831e-38
-0.006851464976 -0.2393988967 -0.01341264322 1.037659831e-38
0.03960083425 -0.3989626169 0.1656062603 1.037659831e-38
-0.1017518565 -0.2575380802 -0.07124293596 1.037659831e-38
-0.02992879599 -0.2683846354 0.1299705803 1.037659831e-38
-0.00936906226 -0.2606949806 -0.003326921491 1.037659831e-38
0.01589279994 -0.3262734413 0.1341792643 1.037659831e-38
-0.1128961742 -0.2453716248 -0.06298065931 1.037659831e-38
0.003112105886 -0.211184904 0.1060328484 1.037659831e-38
-0.02994545922 -0.2535043359 -0.000216268003 1.037659831e-38
0.03722595796 -0.2805757821 0.1373797506 1.037659831e-38
0.07872527093 -0.4146564603 -0.2039939314 1.111163541e-38
-0.08746492118 -0.4634105861 -0.1770328283 1.111163541e-38
0.08693285286 -0.4691238701 -0.1605457366 1.111163541e-38
-0.08762505651 -0.4027943313 -0.1288367063 1.111163541e-38
0.110459812 -0.3530199528 -0.1065714881 1.111163541e-38
-0.02798476629 -0.4686846137 -0.1730436832 1.111163541e-38
0.1222777739 -0.5041424036 -0.1057282835 1.111163541e-38
-0.122288987 -0.4181424081 -0.09496564418 1.111163541e-38
-0.01239830256 -0.3794074655 -0.1578458995 1.111163541e-38
-0.1044876203 -0.4960620105 -0.1259616762 1.111163541e-38
0.115742743 -0.4661550224 -0.144212991 1.111163541e-38
-0.1450247318 -0.4104671776 -0.1413338035 1.111163541e-38
0.06862416118 -0.3517833054 -0.1628951579 1.111163541e-38
-0.09059640765 -0.4799331725 -0.1593348235 1.111163541e-38
0.09910428524 -0.4666675031 -0.1373000443 1.111163541e-38
-0.1313683987 -0.4093864858 -0.1223159879 1.111163541e-38
0.1088282615 -0.3279464245 -0.1465079486 1.111163541e-38
-0.067233935 -0.4860556722 -0.1367515922 1.111163541e-38
0.09917929769 -0.4508549273 -0.1325961649 1.111163541e-38
-0.1374276876 -0.3979259431 -0.1082505509 1.111163541e-38
0.08136139065 -0.2782158256 -0.1637207568 1.111163541e-38
-0.07174472511 -0.4621861577 -0.1317726374 1.111163541e-38
0.1520404816 -0.4670715034 -0.1186817363 1.111163541e-38
-0.1656310707 -0.3938975632 -0.07934785634 1.111163541e-38
-0.0112669412 -0.2606399357 -0.1723061055 1.111163541e-38
-0.09228340536 -0.4679659605 -0.1570084989 1.111163541e-38
0.08726207167 -0.3910160065 -0.109879896 1.111163541e-38
-0.1363799423 -0.3915837407 -0.08375079185 1.111163541e-38
-0.006857350934 -0.2559160888 -0.1574859321 1.111163541e-38
-0.05814065784 -0.4380702674 -0.1678996682 1.111163541e-38
0.03029183112 -0.2852154374 -0.08583375067 1.111163541e-38
-0.05024135485 -0.375015527 -0.07672698796 1.111163541e-38
-0.09083784372 -0.3624427319 0.08856239915 1.184631237e-38
0.05534688383 0.4698286355 -0.002971370239 1.184631237e-38
-0.1087698415 -0.269349277 0.006806331687 1.184631237e-38
0.001538767247 0.4842763841 -0.01029977109 1.184631237e-38
-0.06358683854 -0.2894698977 0.08516220748 1.184631237e-38
0.02508937754 0.4743941724 0.0191751495 1.184631237e-38
-0.06005346403 -0.2206436247 0.0157870315 1.184631237e-38
0.02190255933 0.5008583069 -0.03332709894 1.184631237e-38
-0.0886356011 -0.2612125278 0.1112938523 1.184631237e-38
0.02115903795 0.4873096943 -0.01343668625 1.184631237e-38
-0.1345861256 -0.3111556768 0.002861666959 1.184631237e-38
-0.02407796867 0.478497088 -0.04022281989 1.184631237e-38
-0.06985770911 -0.3046580553 0.1032457799 1.184631237e-38
0.03479745612 0.4898110032 0.003006724874 1.184631237e-38
-0.108260937 -0.3258758783 0.009307692759 1.184631237e-38
-0.01662102714 0.4807634652 -0.004331144504 1.184631237e-38
-0.04970176518 -0.2868143618 0.09999905527 1.184631237e-38
0.028278796 0.4863109887 0.01133290585 1.184631237e-38
-0.1059693992 -0.2471264154 -0.005707222503 1.184631237e-38
-0.006433666218 0.4829910696 0.02227648161 1.184631237e-38
-0.05252790451 -0.2857531607 0.1174315512 1.184631237e-38
0.01572802663 0.4815876186 0.01275443751 1.184631237e-38
-0.04633234069 -0.3089853525 -0.001501352293 1.184631237e-38
0.04074954614 0.4650684297 -0.003604022088 1.184631237e-38
-0.09216629714 -0.2926968634 0.1191848367 1.184631237e-38
0.04716683179 0.4776203036 -0.005377931986 1.184631237e-38
-0.04305909202 -0.2650796175 0.01134530921 1.184631237e-38
0.03029960953 0.4564324319 0.01288951281 1.184631237e-38
-0.04625271633 -0.1952917725 0.07148500532 1.184631237e-38
0.03895935416 0.4521460533 0.002257883549 1.184631237e-38
-0.01815385558 -0.2659994662 0.005049468949 1.184631237e-38
0.02704039961 0.4391159713 -0.01213643886 1.184631237e-38
-0.09118247032 -0.3762504458 0.1354868561 1.258099074e-38
0.1081576869 -0.4102766514 0.1608320177 1.258099074e-38
-0.1024372801 -0.3285467625 0.09339670092 1.258099074e-38
-0.07439970225 -0.3636678159 0.1191274598 1.258099074e-38
0.01489961147 -0.3017121851 0.1408809572 1.258099074e-38
0.02534706332 -0.4344027638 0.1605373174 1.258099074e-38
-0.04851449281 -0.2069798261 0.01703627221 1.258099074e-38
-0.06288100034 -0.3649042547 0.1213273108 1.258099074e-38
-0.01058562007 -0.3665959835 0.1408571005 1.258099074e-38
0.1579907537 -0.3924727738 0.1152203456 1.258099074e-38
-0.1312099844 -0.294177562 0.0457842201 1.258099074e-38
-0.09914190322 -0.3801338971 0.1530710161 1.258099074e-38
0.01733156294 -0.3163257241 0.1253695339 1.258099074e-38
0.09509637952 -0.4669753611 0.1397666931 1.258099074e-38
-0.09712854773 -0.3003852963 0.06193928048 1.258099074e-38
-0.1143164188 -0.3619235754 0.140368849 1.258099074e-38
0.01395864226 -0.3016887009 0.1558671594 1.258099074e-38
0.07660176605 -0.4424071312 0.1391389072 1.258099074e-38
-0.0888659209 -0.2625653148 0.02759484947 1.258099074e-38
-0.1260765046 -0.3587482274 0.1332279295 1.258099074e-38
0.06030862406 -0.2716880143 0.1477972716 1.258099074e-38
0.09340045601 -0.4180202484 0.1454971582 1.258099074e-38
-0.08888766915 -0.2472938597 0.01966340281 1.258099074e-38
-0.1071094424 -0.3178238571 0.1090909392 1.258099074e-38
0.01038806792 -0.277027756 0.1066975519 1.258099074e-38
0.1303973496 -0.3654991388 0.1410440058 1.258099074e-38
-0.1257019788 -0.3101686835 0.04165794328 1.258099074e-38
-0.07598298043 -0.2854344547 0.1089444533 1.258099074e-38
0.02608415298 -0.227165103 0.08721586317 1.258099074e-38
0.09183304757 -0.3411756456 0.1373212785 1.258099074e-38
-0.04332017899 -0.2458077818 0.03436752781 1.258099074e-38
-0.01277220063 -0.2376026213 0.07446479797 1.258099074e-38
0.01497111004 -0.4767429233 0.1006423682 1.331530897e-38
0.1251468211 -0.398257494 0.1191329882 1.331530897e-38
0.02030007355 -0.5053470135 0.1420850903 1.331530897e-38
0.1729525179 -0.4646080434 -0.05071303993 1.331530897e-38
0.06678245962 -0.4771663547 0.1014936939 1.331530897e-38
0.003397757187 -0.3942010701 0.1836360544 1.331530897e-38
-0.1129240692 -0.4611694515 0.009134708904 1.331530897e-38
0.1127827242 -0.4846097529 0.07393966615 1.331530897e-38
0.04078756645 -0.4879155159 -0.1009879783 1.331530897e-38
0.08946491033 -0.4441297054 0.1413756758 1.331530897e-38
-0.1280061603 -0.4569773078 0.09963943064 1.331530897e-38
0.13404046 -0.4718560576 0.01232164539 1.331530897e-38
0.04471741617 -0.4927050173 -0.04286561534 1.331530897e-38
0.06206476688 -0.4329356849 0.1743904203 1.331530897e-38
0.005038598552 -0.485845834 0.1266722828 1.331530897e-38
0.1369091272 -0.4570218027 -0.01123724505 1.331530897e-38
0.07038702816 -0.4907188118 0.01642491482 1.331530897e-38
0.02641617879 -0.3925719261 0.1641932577 1.331530897e-38
-0.04589836672 -0.4617114663 0.1243534014 1.331530897e-38
0.1369374841 -0.4537574649 0.01439671591 1.331530897e-38
0.1104182154 -0.4716604054 -0.06054864824 1.331530897e-38
0.01255626883 -0.3726952374 0.1854640394 1.331530897e-38
-0.1534746438 -0.4102817774 0.08582833409 1.331530897e-38
0.1392713189 -0.4159018695 0.04417522624 1.331530897e-38
0.07907553762 -0.4548924267 -0.111955367 1.331530897e-38
0.09853347391 -0.335395515 0.1315976828 1.331530897e-38
-0.08287344128 -0.4186154008 0.1269469857 1.331530897e-38
0.1205057055 -0.3670564294 0.03911626339 1.331530897e-38
0.09412744641 -0.4023259282 -0.07311245799 1.331530897e-38
0.08903394639 -0.2602979839 0.0972244218 1.331530897e-38
-0.02369190566 -0.3555655777 0.09198510647 1.331530897e-38
0.07411694527 -0.342738986 0.01731551252 1.331530897e-38
0.03069290332 -0.3171262443 -0.1801954359 1.404926846e-38
-0.1363319904 -0.407869041 -0.1556418538 1.404926846e-38
0.09507493675 -0.3384875953 -0.154057011 1.404926846e-38
-0.1445954591 -0.4472768307 -0.05825634673 1.404926846e-38
0.06032495201 -0.3154977858 -0.1455370039 1.404926846e-38
-0.04960907623 -0.4339101017 -0.2188347578 1.404926846e-38
0.155532971 -0.3608863652 -0.06345777214 1.404926846e-38
-0.1473932713 -0.338057965 0.003767204238 1.404926846e-38
-0.04287956655 -0.2646128237 -0.1468374729 1.404926846e-38
-0.04966256395 -0.4412215054 -0.1685191691 1.404926846e-38
0.1521003544 -0.3639347255 -0.1212876812 1.404926846e-38
-0.1542000175 -0.3507119417 -0.06494419277 1.404926846e-38
0.04592293128 -0.2984748781 -0.1276655644 1.404926846e-38
-0.06314259022 -0.45386374 -0.1829136461 1.404926846e-38
0.1153315157 -0.3518526256 -0.1269821525 1.404926846e-38
-0.1415286958 -0.3631846905 -0.04608089104 1.404926846e-38
0.05356946215 -0.2941491306 -0.1288330853 1.404926846e-38
-0.03901362419 -0.4352974594 -0.1752277762 1.404926846e-38
0.1133177355 -0.3343107104 -0.1218961924 1.404926846e-38
-0.1363225132 -0.3624795377 -0.04697283357 1.404926846e-38
0.06419356912 -0.2746195197 -0.1314970255 1.404926846e-38
-0.03570785001 -0.4230731726 -0.1834478229 1.404926846e-38
0.1394867003 -0.3127782941 -0.09034771472 1.404926846e-38
-0.1060167179 -0.2825334668 -0.06233225763 1.404926846e-38
-0.0005626454367 -0.233115226 -0.119876653 1.404926846e-38
-0.1139754727 -0.3429977894 -0.1309832036 1.404926846e-38
0.09406048805 -0.2864841223 -0.07954785228 1.404926846e-38
-0.09494134039 -0.3621940315 -0.1105030924 1.404926846e-38
0.02280794084 -0.2256280631 -0.1113265455 1.404926846e-38
-0.1196237206 -0.310335815 -0.1407886744 1.404926846e-38
0.08015979826 -0.2462694347 -0.05553824827 1.404926846e-38
-0.03352562711 -0.2851037085 -0.08507028222 1.404926846e-38
0.1764927804 -0.3234905899 0.03820806369 1.478322936e-38
0.1064102724 -0.4354799688 -0.1667297333 1.478322936e-38
0.1925860196 -0.4044288397 -0.02876860462 1.478322936e-38
0.1362724453 -0.4391565919 -0.006002674345 1.478322936e-38
0.1393479407 -0.2676896155 -0.05384760723 1.478322936e-38
0.1187208965 -0.4703068733 -0.09334029257 1.478322936e-38
0.171082437 -0.3042102158 -0.01762136258 1.478322936e-38
0.07436238974 -0.4305107594 -0.1020402685 1.478322936e-38
0.1724985838 -0.3144960701 -0.0004009902186 1.478322936e-38
0.05047308281 -0.4435552955 -0.1757438332 1.478322936e-38
0.1627523452 -0.3562251925 -0.03124264441 1.478322936e-38
0.1686280817 -0.4394029677 -0.04862907901 1.478322936e-38
0.1635896713 -0.2607043087 -0.01096104179 1.478322936e-38
0.06758263707 -0.4707255661 -0.1543622911 1.478322936e-38
0.1742270142 -0.3630572855 -0.05604970828 1.478322936e-38
0.1502979547 -0.4470597208 -0.01761345938 1.478322936e-38
0.1423556805 -0.262296617 -0.01662397012 1.478322936e-38
0.06293722987 -0.4642833173 -0.126672864 1.478322936e-38
0.1530026942 -0.3653941751 -0.0359852463 1.478322936e-38
0.1151737943 -0.4342886209 -0.03539340943 1.478322936e-38
0.1714512408 -0.2316514254 -0.01416235324 1.478322936e-38
0.09543243051 -0.453502357 -0.09840403497 1.478322936e-38
0.1247824505 -0.3021416664 0.00891697593 1.478322936e-38
0.1323615015 -0.4059305191 -0.06173345819 1.478322936e-38
0.1728637069 -0.2648406625 0.001225560321 1.478322936e-38
0.07076688856 -0.4417149723 -0.1582229435 1.478322936e-38
0.08065931499 -0.3341353536 -0.01911830343 1.478322936e-38
0.1218543872 -0.3768313527 -0.06809099019 1.478322936e-38
0.1305689812 -0.2399700731 -0.0240300931 1.478322936e-38
0.04112761095 -0.3865244091 -0.1588042229 1.478322936e-38
0.07605814189 -0.2806018591 0.006020756438 1.478322936e-38
0.09042003751 -0.2793036401 -0.06610780954 1.478322936e-38
0.1268118024 -0.3545392156 0.04085656255 1.551683013e-38
-0.09902387112 -0.2583004534 0.04540061578 1.551683013e-38
-0.06039584056 -0.3004246056 -0.1068530381 1.551683013e-38
-0.0004017799802 0.3150292039 -0.005173383746 1.551683013e-38
0.1036990434 -0.2904794216 0.1349448711 1.551683013e-38
0.02020152658 -0.2768194079 0.06333577633 1.551683013e-38
0.00994992163 -0.2633426487 -0.03680750728 1.551683013e-38
0.02375492454 0.4804623723 0.02030210383 1.551683013e-38
0.08009519428 -0.2993946373 -0.04102369398 1.551683013e-38
0.01747315563 0.2039370686 0.010415636 1.551683013e-38
-0.06707587838 -0.3217454851 -0.1198412776 1.551683013e-38
0.008976739831 0.4515292943 -0.01175686531 1.551683013e-38
0.1213870794 -0.2829865813 0.01671162993 1.551683013e-38
-0.007484683767 -0.2181704044 0.04042849317 1.551683013e-38
-0.05907201394 -0.2803489268 -0.09384136647 1.551683013e-38
0.007939231582 0.4737564325 -0.008525500074 1.551683013e-38
0.08396491408 -0.2717732787 0.08144094795 1.551683013e-38
-0.005689768121 -0.2467600703 0.04732991382 1.551683013e-38
-0.05039216951 -0.2872869372 -0.09924352169 1.551683013e-38
0.01412708964 0.4146518409 -0.01506292913 1.551683013e-38
0.06870491058 -0.2337247878 0.06791719794 1.551683013e-38
0.001350133796 -0.2060229331 0.04702420905 1.551683013e-38
0.005910506472 -0.293372184 -0.02209708281 1.551683013e-38
0.006162059028 0.3437323272 -0.003151871962 1.551683013e-38
0.1144674122 -0.2592074573 -0.02496366762 1.551683013e-38
-0.07167734206 -0.2472913116 0.007789018564 1.551683013e-38
-0.009358818643 -0.2639886737 -0.0193072632 1.551683013e-38
0.006518197246 0.3324046433 -0.01185667422 1.551683013e-38
0.04415775463 -0.2467129976 -0.005354982801 1.551683013e-38
-0.06270286441 -0.2345057577 0.01161129773 1.551683013e-38
-0.05475036055 -0.2669323981 -0.0346618928 1.551683013e-38
-0.01934896223 -0.1488806903 0.01567215659 1.551683013e-38
-0.1886277199 -0.3608111441 -0.09460712224 1.625043089e-38
-0.1173079014 -0.2755770683 -0.02964465134 1.625043089e-38
-0.1487546712 -0.3940182328 -0.127687946 1.625043089e-38
-0.1984017789 -0.3595629632 0.07899072021 1.625043089e-38
-0.1034704298 -0.3381493092 -0.1537127197 1.625043089e-38
-0.06482864916 -0.2673623562 -0.1445304304 1.625043089e-38
-0.1524490714 -0.4118997455 -0.02759294026 1.625043089e-38
-0.138773486 -0.2983729541 0.1059462652 1.625043089e-38
-0.1808749139 -0.3126076162 -0.03551695496 1.625043089e-38
-0.06083397195 -0.2174719274 -0.03088162653 1.625043089e-38
-0.1565051824 -0.3991731107 -0.07513078302 1.625043089e-38
-0.1581620276 -0.3212764859 0.1137786955 1.625043089e-38
-0.1408987343 -0.3344854712 -0.1227359027 1.625043089e-38
-0.05236197636 -0.2407474816 -0.1309382021 1.625043089e-38
-0.1324896961 -0.3948084712 -0.09782683104 1.625043089e-38
-0.159061268 -0.3344978988 0.08486285061 1.625043089e-38
-0.104340829 -0.3253614008 -0.1452420801 1.625043089e-38
-0.07733505964 -0.2369784564 -0.1018050984 1.625043089e-38
-0.1356194764 -0.4007255435 -0.09356056154 1.625043089e-38
-0.1704639792 -0.2825199962 0.08354456723 1.625043089e-38
-0.08501690626 -0.2817564011 -0.1505801827 1.625043089e-38
-0.06566966325 -0.2299920022 -0.1419178993 1.625043089e-38
