# .PCD v0.7 - Point Cloud Data file format
VERSION 0.7
FIELDS x y z rgb
SIZE 4 4 4 4
TYPE F F F F
COUNT 1 1 1 1
WIDTH 825
HEIGHT 1
VIEWPOINT 0 0 0 1 0 0 0
POINTS 825
DATA ascii
-0.05196966231 -0.476146847 0.006698567886 8.028094954e-40
-0.1775857359 -0.4774401486 0.06339293718 8.028094954e-40
-0.1688293517 -0.3918791115 0.03737452254 8.028094954e-40
-0.01513791643 -0.2877251804 -0.003175650258 8.028094954e-40
0.003888319246 -0.4817822576 -0.06239237264 8.028094954e-40
-0.1064216122 -0.4667836428 0.09833940119 8.028094954e-40
-0.1608168036 -0.3965310752 0.0293201115 8.028094954e-40
-0.01071429998 -0.3030936718 -0.04464421049 8.028094954e-40
0.02592691779 -0.4754468799 -0.07764872164 8.028094954e-40
-0.07072424889 -0.4597010314 0.1165816784 8.028094954e-40
-0.1688285619 -0.3918789327 0.03737396374 8.028094954e-40
-0.01513760351 -0.2877253592 -0.003176887054 8.028094954e-40
0.003889183514 -0.4817820787 -0.06239297986 8.028094954e-40
-0.1064201891 -0.4667833745 0.09834032506 8.028094954e-40
-0.1688270122 -0.3918784559 0.03737283871 8.028094954e-40
-0.01513705216 -0.2877256572 -0.003179032821 8.028094954e-40
0.003890792839 -0.4817817211 -0.06239410862 8.028094954e-40
-0.1064174771 -0.4667828381 0.09834206849 8.028094954e-40
0.05878352746 -0.3764975071 0.2040462047 1.540360521e-39
-0.01488411054 -0.4500352144 -0.06574193388 1.540360521e-39
0.09819110483 -0.3846985996 0.2172460556 1.540360521e-39
-0.03075306863 -0.4456322789 0.2211417258 1.540360521e-39
-0.03732869774 -0.3829255402 0.2120684534 1.540360521e-39
-0.106906496 -0.4554685652 -0.07021122426 1.540360521e-39
0.1127528176 -0.4162144065 0.1417839974 1.540360521e-39
-0.06703807414 -0.4729906321 0.1054107323 1.540360521e-39
-0.09170094132 -0.3989378214 0.2114069313 1.540360521e-39
-0.1296744049 -0.4562448561 -0.05516019091 1.540360521e-39
0.1060968861 -0.4117160738 0.1315232664 1.540360521e-39
-0.09363989532 -0.4735493064 0.07780721039 1.540360521e-39
0.01200553495 -0.3238972127 0.1912762225 1.540360521e-39
-0.02982531115 -0.4570194781 -0.07218673825 1.540360521e-39
0.09250121564 -0.3624546826 0.1812237054 1.540360521e-39
-0.0283525642 -0.4465914965 0.1875264496 1.540360521e-39
-0.00900885649 -0.3487989604 0.1872465461 1.540360521e-39
-0.07423903048 -0.4587863982 -0.07278356701 1.540360521e-39
0.09878964722 -0.3941257894 0.1481481493 1.540360521e-39
-0.05123519152 -0.4681626558 0.1255535036 1.540360521e-39
-0.0323404409 -0.3651992679 0.1880444288 1.540360521e-39
-0.09356175363 -0.4591469467 -0.06920616329 1.540360521e-39
0.1011371389 -0.4061391354 0.13718988 1.540360521e-39
-0.06765475869 -0.4701153636 0.1045341715 1.540360521e-39
-0.009009713307 -0.3487994373 0.1872463524 1.540360521e-39
-0.07423990965 -0.4587863684 -0.072783418 1.540360521e-39
0.09878960252 -0.394126296 0.1481474936 1.540360521e-39
-0.05123587325 -0.4681628942 0.1255525202 1.540360521e-39
-0.009011307731 -0.3488004506 0.1872459054 1.540360521e-39
-0.07424142957 -0.458786279 -0.07278314978 1.540360521e-39
0.09878952801 -0.3941272497 0.1481464952 1.540360521e-39
-0.05123719573 -0.4681634009 0.1255507469 1.540360521e-39
-0.05056157336 -0.3433052897 -0.2222926319 2.277910146e-39
-0.1932292283 -0.3595177233 -0.07517901063 2.277910146e-39
0.01548366155 -0.3829479218 -0.144013837 2.277910146e-39
-0.1915156692 -0.4061591923 -0.1138070673 2.277910146e-39
0.06569901854 -0.3638266921 -0.1663731933 2.277910146e-39
-0.1599695683 -0.3422755897 -0.07862474024 2.277910146e-39
0.1457660794 -0.4024573267 -0.07576391846 2.277910146e-39
-0.09648894519 -0.3295615315 -0.05952091515 2.277910146e-39
0.08063922077 -0.3953824341 -0.1177124456 2.277910146e-39
-0.1202903241 -0.3446116447 -0.07372806221 2.277910146e-39
0.1720988005 -0.3972919881 -0.04346659407 2.277910146e-39
-0.04537673667 -0.322676152 -0.05154216662 2.277910146e-39
-0.03745435923 -0.3430020809 -0.1723423898 2.277910146e-39
-0.1668810695 -0.3548288941 -0.07574874163 2.277910146e-39
0.0358324945 -0.3839981258 -0.1245378256 2.277910146e-39
-0.1637526453 -0.3716123998 -0.1027353629 2.277910146e-39
0.02785347216 -0.3617299199 -0.1534879059 2.277910146e-39
-0.1618745327 -0.3419124484 -0.07901512086 2.277910146e-39
0.1029156074 -0.3974786401 -0.1031999215 2.277910146e-39
-0.130944863 -0.3421189189 -0.07392475009 2.277910146e-39
0.04849429056 -0.3708002865 -0.1425295174 2.277910146e-39
-0.1561205685 -0.3403242528 -0.07889471948 2.277910146e-39
0.1319301575 -0.4040845335 -0.09528340399 2.277910146e-39
-0.1038403139 -0.330309689 -0.06523217261 2.277910146e-39
0.02785445563 -0.3617301881 -0.1534872651 2.277910146e-39
-0.1618742943 -0.3419123888 -0.07901513577 2.277910146e-39
0.1029170379 -0.3974787593 -0.1031994149 2.277910146e-39
-0.1309437454 -0.3421183228 -0.07392428815 2.277910146e-39
0.02785625681 -0.361730814 -0.1534860134 2.277910146e-39
-0.1618739516 -0.341911912 -0.07901521027 2.277910146e-39
0.1029197127 -0.3974789083 -0.1031984538 2.277910146e-39
-0.1309416443 -0.3421174288 -0.07392343879 2.277910146e-39
-0.09308242053 -0.4101738036 -0.08715125173 3.015101038e-39
-0.2251725048 -0.3952760994 -0.0608009696 3.015101038e-39
-0.1350586414 -0.4137420654 0.1322794557 3.015101038e-39
-0.2439091653 -0.4408236444 0.0002835169435 3.015101038e-39
0.03750761971 -0.4514631331 -0.1254959106 3.015101038e-39
-0.183482796 -0.3929344416 -0.05597925559 3.015101038e-39
-0.0932250917 -0.4669285715 0.06385866553 3.015101038e-39
-0.1764911413 -0.4059132338 0.1067813635 3.015101038e-39
0.05322052911 -0.463383317 -0.1205863133 3.015101038e-39
-0.1608210653 -0.4090432823 -0.06766138971 3.015101038e-39
-0.07861348242 -0.4706566632 0.0450466536 3.015101038e-39
-0.1557204574 -0.404199779 0.1175737008 3.015101038e-39
-0.05851560459 -0.4455467165 -0.04823083058 3.015101038e-39
-0.2025886923 -0.3824813068 -0.03683754429 3.015101038e-39
-0.116549693 -0.4209775031 0.10406138 3.015101038e-39
-0.2155055106 -0.418599695 0.01280069444 3.015101038e-39
-0.001328616519 -0.4495190084 -0.09367354214 3.015101038e-39
-0.1824927032 -0.376373291 -0.03563929722 3.015101038e-39
-0.09755472094 -0.4514171481 0.08112476021 3.015101038e-39
-0.1814208478 -0.4017261565 0.07246664912 3.015101038e-39
0.02104154974 -0.4502973557 -0.112252906 3.015101038e-39
-0.1725029796 -0.38570714 -0.04373167083 3.015101038e-39
-0.09201685339 -0.4606357515 0.07043331116 3.015101038e-39
-0.1704339385 -0.4027433693 0.09014892578 3.015101038e-39
-0.001327633043 -0.4495187998 -0.09367423505 3.015101038e-39
-0.1824923307 -0.3763734698 -0.03563950956 3.015101038e-39
-0.09755437821 -0.4514175653 0.08112438768 3.015101038e-39
-0.181420356 -0.4017260671 0.07246735692 3.015101038e-39
-0.001325725694 -0.449518472 -0.09367546439 3.015101038e-39
-0.1824913621 -0.3763739169 -0.03563987836 3.015101038e-39
-0.09755368531 -0.4514182806 0.08112373948 3.015101038e-39
-0.1814193577 -0.4017259479 0.07246869057 3.015101038e-39
0.005854219198 -0.1416209191 -0.001602529082 3.75229193e-39
0.09759884328 -0.2068940103 -0.01062318962 3.75229193e-39
0.03908593208 0.4040057361 -0.03403552622 3.75229193e-39
0.006073020399 -0.2827931345 -0.1067831889 3.75229193e-39
0.007805777714 -0.09352837503 0.01589112356 3.75229193e-39
0.1196196154 -0.2907481194 0.02608462982 3.75229193e-39
-0.0003378875554 0.4434047341 -0.009427744895 3.75229193e-39
0.09124647081 -0.3736916184 -0.1609693617 3.75229193e-39
0.008435302414 -0.03663383797 0.02517217584 3.75229193e-39
0.107460849 -0.3106404543 0.0299553629 3.75229193e-39
0.008751668036 0.445170939 0.01026121993 3.75229193e-39
0.09576115012 -0.4142572582 -0.1723877788 3.75229193e-39
-0.01144844573 -0.1532919109 0.00906706322 3.75229193e-39
0.1010901034 -0.2249179929 0.005250211805 3.75229193e-39
0.03233826905 0.4137622416 -0.01552908402 3.75229193e-39
0.0224086605 -0.291918844 -0.1209016889 3.75229193e-39
-0.00747342268 -0.1118230149 0.01961738057 3.75229193e-39
0.1049455553 -0.2642569244 0.01854561642 3.75229193e-39
0.01774675399 0.4350339174 -0.009838963859 3.75229193e-39
0.0614932552 -0.335019201 -0.1347498596 3.75229193e-39
-0.006087272894 -0.08845951408 0.01729381457 3.75229193e-39
0.1071332172 -0.2816457748 0.0231489893 3.75229193e-39
0.004162019119 0.4400949776 -0.0068721883 3.75229193e-39
0.07672191411 -0.360085547 -0.1456258446 3.75229193e-39
-0.007473366801 -0.1118213981 0.01961723156 3.75229193e-39
0.1049455553 -0.2642576993 0.01854578033 3.75229193e-39
0.0177462548 0.4350340664 -0.009838829748 3.75229193e-39
0.06149378419 -0.3350200951 -0.1347502023 3.75229193e-39
-0.007473281119 -0.1118184254 0.01961693354 3.75229193e-39
0.1049456298 -0.2642590106 0.01854606345 3.75229193e-39
0.01774532348 0.4350343347 -0.009838397615 3.75229193e-39
0.06149492785 -0.3350217342 -0.1347507983 3.75229193e-39
-0.1782590449 -0.3377346396 -0.1115615219 4.48912409e-39
-0.02797077969 0.3573974967 0.01077033672 4.48912409e-39
-0.1690694094 -0.3979805708 0.0987650156 4.48912409e-39
-0.01803217642 0.2451379448 -0.005465885159 4.48912409e-39
-0.1213079691 -0.3755539656 -0.1793395281 4.48912409e-39
-0.009884795174 0.2750973701 0.01986407675 4.48912409e-39
-0.08204632252 -0.4446803629 0.1184172854 4.48912409e-39
-0.01281413343 0.4673220813 -0.002921170555 4.48912409e-39
-0.09141775221 -0.4027121067 -0.1893730462 4.48912409e-39
-0.00163465587 0.2403936237 0.01591810212 4.48912409e-39
-0.04995514825 -0.4382429123 0.1321262866 4.48912409e-39
0.01012676582 0.4769434333 0.0001228451729 4.48912409e-39
-0.167072162 -0.3143206537 -0.1128173992 4.48912409e-39
-0.02786988765 0.3289465606 0.02249245904 4.48912409e-39
-0.1431393027 -0.4211646616 0.07792825997 4.48912409e-39
-0.02994808368 0.2046701163 0.00383230648 4.48912409e-39
-0.1335370392 -0.3527446389 -0.1275809854 4.48912409e-39
-0.01489106007 0.3100429773 0.02322862297 4.48912409e-39
-0.09416955709 -0.4407570362 0.08550745249 4.48912409e-39
-0.01361196581 0.4235376716 -0.006630241405 4.48912409e-39
-0.121025227 -0.3721885085 -0.149937883 4.48912409e-39
-0.01022787485 0.3017926514 0.02030245587 4.48912409e-39
-0.07702174783 -0.444683224 0.09552641213 4.48912409e-39
-0.0131543735 0.4548061192 -0.003670497099 4.48912409e-39
-0.133536309 -0.3527454734 -0.1275815964 4.48912409e-39
-0.01489076205 0.3100427687 0.02322847396 4.48912409e-39
-0.09416861832 -0.4407571554 0.0855075866 4.48912409e-39
-0.01361214463 0.4235398769 -0.006630062591 4.48912409e-39
-0.1335349232 -0.3527471721 -0.1275827289 4.48912409e-39
-0.0148902256 0.3100421131 0.02322826535 4.48912409e-39
-0.09416694194 -0.4407576919 0.08550775051 4.48912409e-39
-0.01361244265 0.4235439003 -0.006629749667 4.48912409e-39
0.06794764102 -0.2263788879 0.1652576774 5.225597518e-39
0.1711646169 -0.4067405462 -0.07508024573 5.225597518e-39
0.1738409847 -0.4503033459 0.1157477126 5.225597518e-39
0.1078773737 -0.4258928895 0.04494798556 5.225597518e-39
-0.07093766332 -0.2878498733 0.2011281848 5.225597518e-39
0.1983352154 -0.4154188335 -0.1075223684 5.225597518e-39
0.06414236873 -0.4418857098 0.1252882928 5.225597518e-39
0.1326570511 -0.4608840942 -0.04937342927 5.225597518e-39
-0.1045091897 -0.303812325 0.1697178781 5.225597518e-39
0.1896663457 -0.4266563356 -0.112372987 5.225597518e-39
0.01186949108 -0.4311452806 0.1231163815 5.225597518e-39
0.1534288526 -0.4580945373 -0.06407117844 5.225597518e-39
0.02890402079 -0.2188516408 0.1704027206 5.225597518e-39
0.1527893841 -0.417373538 -0.07322072238 5.225597518e-39
0.1390327513 -0.4518241286 0.1177301854 5.225597518e-39
0.1094496623 -0.427528739 0.03797699139 5.225597518e-39
-0.05146183074 -0.2488967627 0.1724875271 5.225597518e-39
0.1628665775 -0.4239125252 -0.09152359515 5.225597518e-39
0.08994681388 -0.4388780296 0.1280080974 5.225597518e-39
0.1212140396 -0.4460197091 -0.01254291646 5.225597518e-39
-0.06409236044 -0.2645559907 0.1757614613 5.225597518e-39
0.1712146699 -0.4251231253 -0.09778914601 5.225597518e-39
0.06240465119 -0.4372973442 0.1276968867 5.225597518e-39
0.1277454644 -0.4569427669 -0.03869615123 5.225597518e-39
-0.05146243796 -0.2488970459 0.1724873632 5.225597518e-39
0.1628668457 -0.4239125252 -0.09152386338 5.225597518e-39
0.08994586021 -0.4388777316 0.1280083209 5.225597518e-39
0.1212143451 -0.4460202157 -0.01254412998 5.225597518e-39
-0.05146348104 -0.2488974333 0.1724869162 5.225597518e-39
0.1628673226 -0.4239126444 -0.09152434021 5.225597518e-39
0.08994406462 -0.4388773143 0.1280086488 5.225597518e-39
0.1212149486 -0.4460210204 -0.0125463726 5.225597518e-39
0.1400289088 -0.3332209587 0.08988087624 5.962428276e-39
-0.1287460625 -0.4220744967 0.1203625277 5.962428276e-39
0.08329369873 -0.276751399 -0.008731173351 5.962428276e-39
0.002097886754 -0.3788190782 0.1691924036 5.962428276e-39
0.1190199926 -0.3483468592 0.1508757621 5.962428276e-39
-0.1926577836 -0.4131727517 0.05196480453 5.962428276e-39
0.0312174391 -0.290432483 -0.1104536206 5.962428276e-39
-0.04277374595 -0.3922586739 0.1777839214 5.962428276e-39
0.1005578488 -0.3557760119 0.153121233 5.962428276e-39
-0.1977343261 -0.3966534138 0.02419985645 5.962428276e-39
0.01559668966 -0.2845125794 -0.1328042448 5.962428276e-39
-0.01552451123 -0.4003667533 0.1779776812 5.962428276e-39
0.1391378641 -0.3421962559 0.08751092851 5.962428276e-39
-0.1496738493 -0.4152163267 0.1067266241 5.962428276e-39
0.06809528917 -0.2505514324 -0.0223683957 5.962428276e-39
-0.02017298155 -0.3605794609 0.1630409956 5.962428276e-39
0.1305249035 -0.3505063355 0.1004853249 5.962428276e-39
-0.1753319353 -0.4039356709 0.07145360112 5.962428276e-39
0.04690983146 -0.2679419219 -0.06935720146 5.962428276e-39
-0.05439529195 -0.3837382495 0.1403936893 5.962428276e-39
0.1238416508 -0.3545107543 0.1285472363 5.962428276e-39
-0.1837897748 -0.4036450982 0.05672620609 5.962428276e-39
0.03644309565 -0.2798061967 -0.09252407402 5.962428276e-39
-0.05239960924 -0.3883462846 0.1543967873 5.962428276e-39
0.1305246353 -0.3505064249 0.1004863009 5.962428276e-39
-0.1753322482 -0.4039355516 0.07145303488 5.962428276e-39
0.04690932855 -0.2679424286 -0.06935790181 5.962428276e-39
-0.05439520255 -0.383738488 0.1403936148 5.962428276e-39
0.1305242032 -0.3505065143 0.1004879102 5.962428276e-39
-0.1753328294 -0.403935194 0.07145198435 5.962428276e-39
0.04690830782 -0.2679432631 -0.06935929507 5.962428276e-39
-0.05439505354 -0.3837391138 0.1403935403 5.962428276e-39
0.0474287644 -0.3272823095 0.09078363329 6.698542971e-39
0.0005214325502 0.3287095726 -0.008080537431 6.698542971e-39
-0.03898906708 -0.3446038365 0.1460751295 6.698542971e-39
-0.0183239039 -0.1963565052 -0.01081678551 6.698542971e-39
-0.04531376809 -0.2666299641 0.05180424452 6.698542971e-39
0.003305698745 0.4234502912 -0.0002690479159 6.698542971e-39
0.07734296471 -0.3575513363 0.1702986807 6.698542971e-39
-0.04260345176 -0.1099922508 -0.02198335901 6.698542971e-39
-0.06982725859 -0.2562952638 0.02304819971 6.698542971e-39
0.0005727111711 0.4454990029 0.0005233883276 6.698542971e-39
0.1119745001 -0.3683337569 0.165045619 6.698542971e-39
-0.03482500464 -0.02549717762 -0.02106153965 6.698542971e-39
0.01371070649 -0.2954522669 0.08857509494 6.698542971e-39
0.00594752701 0.3509839475 -0.00396878412 6.698542971e-39
-0.01172320079 -0.2918840349 0.1346050054 6.698542971e-39
-0.02056111395 -0.1743245572 -0.01041204855 6.698542971e-39
-0.0230139941 -0.2664226592 0.07276071608 6.698542971e-39
0.008433540352 0.3994107246 -0.005134328734 6.698542971e-39
0.04711536318 -0.3236581683 0.1472195089 6.698542971e-39
-0.03319467232 -0.1197298169 -0.01734208688 6.698542971e-39
-0.04155538976 -0.2544748783 0.05526243523 6.698542971e-39
0.007484806702 0.4162881672 -0.004275146872 6.698542971e-39
0.07127086818 -0.3396134675 0.1519087702 6.698542971e-39
-0.03801372275 -0.1017678529 -0.02046540752 6.698542971e-39
-0.0230146423 -0.2664217353 0.07276017964 6.698542971e-39
0.008433583193 0.3994114101 -0.005134425592 6.698542971e-39
0.04711639509 -0.3236587346 0.1472196579 6.698542971e-39
-0.03319495544 -0.1197290942 -0.01734217629 6.698542971e-39
-0.02301574312 -0.2664200366 0.07275920361 6.698542971e-39
0.008433640935 0.399412781 -0.005134477746 6.698542971e-39
0.04711830989 -0.3236597776 0.147219941 6.698542971e-39
-0.03319546953 -0.1197276115 -0.01734239236 6.698542971e-39
-0.2114611268 -0.3364933133 0.05796387419 7.434656265e-39
-0.1709805578 -0.3993775547 -0.09276940674 7.434656265e-39
-0.1938932389 -0.4361838102 0.0599482581 7.434656265e-39
-0.1723292917 -0.4349882901 0.05814514682 7.434656265e-39
-0.1349913031 -0.2782944441 0.1271301061 7.434656265e-39
-0.136761874 -0.4040402174 -0.1105369106 7.434656265e-39
-0.2050604522 -0.4423596859 -0.02524746768 7.434656265e-39
-0.03551154584 -0.4391304255 0.1295095831 7.434656265e-39
-0.1055671275 -0.2670108378 0.1332387328 7.434656265e-39
-0.1124668643 -0.4173725843 -0.1187070161 7.434656265e-39
-0.2033439875 -0.4295322895 -0.04624787718 7.434656265e-39
-0.007986197248 -0.411319226 0.1352804154 7.434656265e-39
-0.1652275175 -0.3182016909 0.07352264225 7.434656265e-39
-0.1487739235 -0.3971531391 -0.08120825142 7.434656265e-39
-0.1819142997 -0.4321273863 0.05126208067 7.434656265e-39
-0.1190229803 -0.4391101599 0.07687354833 7.434656265e-39
-0.1469632685 -0.2997197211 0.1136536151 7.434656265e-39
-0.1251627207 -0.4039104283 -0.08996188641 7.434656265e-39
-0.1842213571 -0.4338685572 -0.001931299805 7.434656265e-39
-0.05226048827 -0.4466909468 0.09785396606 7.434656265e-39
-0.1313120872 -0.2887361944 0.1186015978 7.434656265e-39
-0.1211762801 -0.4077349901 -0.0965955779 7.434656265e-39
-0.1902978122 -0.4377658665 -0.02317703329 7.434656265e-39
-0.03785954416 -0.436463356 0.1101408601 7.434656265e-39
-0.1469625831 -0.2997193635 0.1136537343 7.434656265e-39
-0.1251623333 -0.4039104283 -0.08996202052 7.434656265e-39
-0.1842216104 -0.4338686764 -0.001932402491 7.434656265e-39
-0.05225981772 -0.4466903806 0.09785435349 7.434656265e-39
-0.1469613314 -0.2997186482 0.1136539429 7.434656265e-39
-0.1251617223 -0.4039106667 -0.08996228129 7.434656265e-39
-0.1842220873 -0.4338688254 -0.001934436499 7.434656265e-39
-0.05225859955 -0.4466893673 0.09785511345 7.434656265e-39
0.03014637157 -0.3679152131 -0.212292552 8.170410826e-39
-0.1785671562 -0.3356418312 -0.03589467332 8.170410826e-39
-0.06736315042 -0.3235401809 -0.02713834867 8.170410826e-39
-0.07552215457 -0.4198450148 -0.1908972412 8.170410826e-39
0.05891213939 -0.4043649733 -0.2022012621 8.170410826e-39
-0.1547862738 -0.3725605905 -0.01003142353 8.170410826e-39
0.1005511358 -0.378456682 -0.08166642487 8.170410826e-39
-0.1072208509 -0.4465325475 -0.1570885181 8.170410826e-39
0.08474601805 -0.4202787578 -0.1910437196 8.170410826e-39
-0.1133921146 -0.3713679314 -0.003564387327 8.170410826e-39
0.1483647823 -0.3925266862 -0.09198184311 8.170410826e-39
-0.1297085732 -0.4459840953 -0.1283752918 8.170410826e-39
0.04976443946 -0.3489951491 -0.2029549628 8.170410826e-39
-0.1700073481 -0.3285914958 -0.02644695342 8.170410826e-39
-0.03903554752 -0.2844826579 -0.01853092946 8.170410826e-39
-0.07865314186 -0.4002178311 -0.1776233763 8.170410826e-39
0.0486356318 -0.3826825619 -0.1898995191 8.170410826e-39
-0.1395462006 -0.3566370606 -0.01643753983 8.170410826e-39
0.06081735715 -0.3427627385 -0.06320454925 8.170410826e-39
-0.0888697207 -0.4234297574 -0.1622918546 8.170410826e-39
0.05382122844 -0.3947055936 -0.1883027107 8.170410826e-39
-0.1342901289 -0.3635443151 -0.01379323471 8.170410826e-39
0.088866584 -0.3653979897 -0.07440026104 8.170410826e-39
-0.1010041013 -0.4359960556 -0.1539141089 8.170410826e-39
0.04863552749 -0.3826832473 -0.1898992509 8.170410826e-39
-0.1395457983 -0.3566375971 -0.01643746532 8.170410826e-39
0.06081842631 -0.3427637815 -0.06320508569 8.170410826e-39
-0.08887011558 -0.4234299958 -0.1622914821 8.170410826e-39
0.04863527417 -0.3826845884 -0.1898987442 8.170410826e-39
-0.1395448297 -0.3566384017 -0.01643739082 8.170410826e-39
0.06082044542 -0.3427658975 -0.06320612133 8.170410826e-39
-0.08887097239 -0.4234308302 -0.1622907668 8.170410826e-39
0.06262089312 -0.5079184771 0.09742712229 8.906165387e-39
0.1130826548 -0.3817349076 0.2087249309 8.906165387e-39
0.1818421185 -0.4216059744 0.145598188 8.906165387e-39
0.02139492147 -0.4507157207 0.2282302082 8.906165387e-39
-0.06838902831 -0.5036682487 0.06236215681 8.906165387e-39
0.06282557547 -0.4087997377 0.208059907 8.906165387e-39
0.2213172615 -0.4428009391 0.08140607923 8.906165387e-39
0.1195057333 -0.472040683 0.1321441978 8.906165387e-39
-0.09006858617 -0.4966842532 0.08086753637 8.906165387e-39
0.01456506364 -0.3907773495 0.1826216578 8.906165387e-39
0.2198581249 -0.4374426007 0.04877892882 8.906165387e-39
0.1421347409 -0.4907552898 0.1114095896 8.906165387e-39
0.0350625515 -0.492236346 0.1015753374 8.906165387e-39
0.1042689979 -0.405115515 0.1845642179 8.906165387e-39
0.17420353 -0.4065956175 0.126756236 8.906165387e-39
0.02912369557 -0.432931602 0.2141712904 8.906165387e-39
-0.01059187111 -0.490487963 0.08199559152 8.906165387e-39
0.08648273349 -0.4176275134 0.1776637286 8.906165387e-39
0.185420543 -0.4272744954 0.09496609867 8.906165387e-39
0.07805320621 -0.4494946301 0.1625382006 8.906165387e-39
-0.05030059442 -0.4918323755 0.07196979225 8.906165387e-39
0.07083670795 -0.4144990146 0.1842312962 8.906165387e-39
0.2000142336 -0.4345906973 0.08328449726 8.906165387e-39
0.1013638228 -0.4643773437 0.1407849193 8.906165387e-39
-0.01059289929 -0.4904879034 0.08199509233 8.906165387e-39
0.0864822343 -0.417627573 0.1776635498 8.906165387e-39
0.185421139 -0.4272748828 0.09496555477 8.906165387e-39
0.07805409282 -0.4494951963 0.1625371426 8.906165387e-39
-0.01059492491 -0.4904877245 0.0819940865 8.906165387e-39
0.08648146689 -0.417627573 0.1776631624 8.906165387e-39
0.1854221374 -0.4272753894 0.09496454149 8.906165387e-39
0.07805570215 -0.4494963288 0.1625353545 8.906165387e-39
-0.01186689176 -0.3917038739 -0.1966375113 9.641561216e-39
0.1218735576 -0.4668345451 -0.1578797996 9.641561216e-39
0.2053054124 -0.41530478 -0.09269350767 9.641561216e-39
0.00752294017 -0.434045732 -0.2054074556 9.641561216e-39
-0.09957680106 -0.4335435033 -0.2029791623 9.641561216e-39
0.1314348727 -0.4656322002 -0.02426934429 9.641561216e-39
0.228581652 -0.4612655938 0.00360633363 9.641561216e-39
0.06550337374 -0.4271169305 -0.1616463214 9.641561216e-39
-0.1257752478 -0.4484097362 -0.1911167353 9.641561216e-39
0.135853529 -0.4578003585 -0.02127503604 9.641561216e-39
0.222065866 -0.4574680328 0.03608015925 9.641561216e-39
0.08104041964 -0.4229170978 -0.112757422 9.641561216e-39
-0.03206132725 -0.4056160152 -0.1776709557 9.641561216e-39
0.09961076081 -0.4627163112 -0.04921236634 9.641561216e-39
0.2026215941 -0.4176472425 -0.07786183804 9.641561216e-39
0.0007836593431 -0.4090445936 -0.1746346503 9.641561216e-39
-0.0739191398 -0.4280378819 -0.1770133078 9.641561216e-39
0.117860049 -0.4621903598 -0.02193117142 9.641561216e-39
0.2054243535 -0.4406560361 -0.02692537196 9.641561216e-39
0.02900574915 -0.4173002839 -0.1631693542 9.641561216e-39
-0.0954374671 -0.4352985024 -0.1838864535 9.641561216e-39
0.1225365177 -0.4617239237 -0.02088328078 9.641561216e-39
0.2136771977 -0.4504998922 -0.007999175228 9.641561216e-39
0.05020997301 -0.419388026 -0.1591743976 9.641561216e-39
-0.07391993701 -0.4280381203 -0.1770134717 9.641561216e-39
0.1178602055 -0.46219033 -0.02193105221 9.641561216e-39
0.2054245323 -0.440656215 -0.02692455426 9.641561216e-39
0.02900661901 -0.4173002541 -0.1631691605 9.641561216e-39
-0.07392144948 -0.4280384779 -0.1770137846 9.641561216e-39
0.117860496 -0.4621902704 -0.0219309032 9.641561216e-39
0.2054249644 -0.4406566322 -0.02692291513 9.641561216e-39
0.02900830284 -0.4173001945 -0.1631688327 9.641561216e-39
-0.1181662753 -0.3021378815 -0.09308536351 1.037659831e-38
-0.2001137882 -0.2478504628 -0.01236275956 1.037659831e-38
-0.1689820439 -0.3844016194 -0.1378124058 1.037659831e-38
-0.03371742368 -0.3712960482 -0.1958007365 1.037659831e-38
0.05057806149 -0.2900438309 -0.1432892382 1.037659831e-38
-0.1913343072 -0.2631713152 0.08063178509 1.037659831e-38
-0.2027709484 -0.391659677 -0.05660195276 1.037659831e-38
-0.1367112696 -0.3092273772 -0.1440760493 1.037659831e-38
0.07750466466 -0.2678281665 -0.148589462 1.037659831e-38
-0.1790812165 -0.2703954577 0.1060346365 1.037659831e-38
-0.1914141774 -0.3877213001 -0.02449774742 1.037659831e-38
-0.1518357694 -0.2656587064 -0.1016584486 1.037659831e-38
-0.05894298106 -0.2808241844 -0.07729187608 1.037659831e-38
-0.1860395372 -0.2262290865 0.02976324968 1.037659831e-38
-0.1632785499 -0.3842665255 -0.1153790802 1.037659831e-38
-0.03893677518 -0.3429658413 -0.1410024315 1.037659831e-38
0.02191572636 -0.2727943659 -0.1169921756 1.037659831e-38
-0.1804717779 -0.237167567 0.05443937331 1.037659831e-38
-0.1756788045 -0.3698100746 -0.07718089968 1.037659831e-38
-0.1010686308 -0.3351206481 -0.1313255876 1.037659831e-38
0.04336028174 -0.2683768272 -0.1252924502 1.037659831e-38
-0.1787512153 -0.2478043735 0.06830191612 1.037659831e-38
-0.1839354932 -0.3762497902 -0.06418214738 1.037659831e-38
-0.1263512969 -0.3110404313 -0.1326966733 1.037659831e-38
0.02191657573 -0.2727941275 -0.1169923395 1.037659831e-38
-0.1804715842 -0.2371678948 0.05443996936 1.037659831e-38
-0.1756791472 -0.3698096871 -0.07718011737 1.037659831e-38
-0.1010691673 -0.3351199329 -0.1313256174 1.037659831e-38
0.0219183024 -0.2727935314 -0.1169925109 1.037659831e-38
-0.1804712713 -0.2371686548 0.05444106832 1.037659831e-38
-0.175679788 -0.3698090017 -0.0771786049 1.037659831e-38
-0.1010701582 -0.335118562 -0.1313257515 1.037659831e-38
0.1466349959 -0.3453138471 -0.1331258118 1.111163541e-38
0.08945227414 -0.1591289341 0.05454127118 1.111163541e-38
0.2201465368 -0.3666725159 0.089886114 1.111163541e-38
0.1229323074 -0.3673037887 0.00966609735 1.111163541e-38
0.1613968611 -0.4052076936 -0.1779586673 1.111163541e-38
0.02480763011 -0.1246675029 0.006206298713 1.111163541e-38
0.2021205723 -0.3609508574 0.02749030478 1.111163541e-38
0.03632069007 -0.422540009 0.06659742445 1.111163541e-38
0.1522738039 -0.4439550936 -0.168635875 1.111163541e-38
0.0130406227 -0.1008504033 -0.00237459247 1.111163541e-38
0.202070415 -0.3505609632 0.007867479697 1.111163541e-38
0.02567868121 -0.4369654953 0.07507330924 1.111163541e-38
0.136226669 -0.3344808519 -0.1432862431 1.111163541e-38
0.08121774346 -0.1532581002 0.04308151826 1.111163541e-38
0.1904339492 -0.3086700439 0.07479072362 1.111163541e-38
0.1212628037 -0.352280736 0.01914715767 1.111163541e-38
0.1354477257 -0.3751569688 -0.160932675 1.111163541e-38
0.03783527762 -0.1197075695 0.01828672923 1.111163541e-38
0.1837018132 -0.3313231468 0.0446222499 1.111163541e-38
0.06246300042 -0.3728106022 0.04949878901 1.111163541e-38
0.1428463161 -0.3999783099 -0.1664995402 1.111163541e-38
0.02225123346 -0.1098525226 0.008781438693 1.111163541e-38
0.1821207702 -0.3433917165 0.03099041246 1.111163541e-38
0.04178340733 -0.3932995498 0.0601099506 1.111163541e-38
0.1354477257 -0.3751579523 -0.1609328389 1.111163541e-38
0.03783455491 -0.1197070554 0.01828629151 1.111163541e-38
0.1837015152 -0.3313237727 0.04462176189 1.111163541e-38
0.06246171892 -0.3728111088 0.04949920624 1.111163541e-38
0.1354477853 -0.375159651 -0.1609332263 1.111163541e-38
0.03783326596 -0.1197059676 0.01828550175 1.111163541e-38
0.1837008297 -0.3313248158 0.04462079331 1.111163541e-38
0.06245931238 -0.3728121221 0.0494998917 1.111163541e-38
-0.2076185644 -0.479813993 -0.04622413591 1.184631237e-38
-0.07294994593 -0.262313962 -0.03790925071 1.184631237e-38
-0.1512525678 -0.3939538598 -0.09706553817 1.184631237e-38
-0.09814743698 -0.4470306337 -0.1629699767 1.184631237e-38
-0.1319798827 -0.4895195961 -0.1006511599 1.184631237e-38
-0.1272849441 -0.273504585 0.0160385929 1.184631237e-38
-0.2243882269 -0.4317568839 -0.008784514852 1.184631237e-38
-0.1318245828 -0.3591853976 -0.1271144152 1.184631237e-38
-0.07461404055 -0.4991725087 -0.1140238345 1.184631237e-38
-0.1408334523 -0.2782995105 0.04454125464 1.184631237e-38
-0.2210569978 -0.4422986805 0.009276600555 1.184631237e-38
-0.1434466392 -0.3307038844 -0.1196486801 1.184631237e-38
-0.1854840368 -0.4654276967 -0.04522619769 1.184631237e-38
-0.07479912043 -0.2475441992 -0.02431032807 1.184631237e-38
-0.1181103364 -0.3754630685 -0.06414254755 1.184631237e-38
-0.09150633961 -0.4383152723 -0.1490885466 1.184631237e-38
-0.1435851157 -0.4774292707 -0.04266996309 1.184631237e-38
-0.1026242077 -0.2723120153 -0.005591334309 1.184631237e-38
-0.1745738983 -0.4166168869 -0.0199497547 1.184631237e-38
-0.1094217896 -0.4021499157 -0.1378332078 1.184631237e-38
-0.1191483736 -0.4843684137 -0.07097321004 1.184631237e-38
-0.1168299988 -0.2771962881 0.008033430204 1.184631237e-38
-0.2119810432 -0.4207850099 -0.0111451298 1.184631237e-38
-0.120837979 -0.3755237162 -0.1245255619 1.184631237e-38
-0.1435841322 -0.4774294496 -0.04267072678 1.184631237e-38
-0.1026247665 -0.2723122239 -0.005590812769 1.184631237e-38
-0.1745753586 -0.4166173041 -0.01994921826 1.184631237e-38
-0.1094222292 -0.402148664 -0.1378322989 1.184631237e-38
-0.1435822546 -0.4774297178 -0.04267204553 1.184631237e-38
-0.1026258022 -0.2723125815 -0.005589829292 1.184631237e-38
-0.1745782346 -0.4166180491 -0.01994827949 1.184631237e-38
-0.1094229817 -0.4021463096 -0.1378305107 1.184631237e-38
-0.1167000383 -0.4202106595 -0.1697039753 1.258099074e-38
-0.05476356298 -0.2661803365 -0.023430923 1.258099074e-38
-0.2027540505 -0.3567666411 -0.02803589962 1.258099074e-38
-0.1515439898 -0.3567173481 -0.1012384668 1.258099074e-38
-0.0439093411 -0.4703625143 -0.2103994787 1.258099074e-38
-0.09176256508 -0.2760097086 0.02246821299 1.258099074e-38
-0.1767001152 -0.3638956547 -0.04662358016 1.258099074e-38
0.001584126265 -0.3105874062 -0.1028015241 1.258099074e-38
-0.02806966007 -0.4730799496 -0.2075046748 1.258099074e-38
-0.09051600844 -0.2803767323 0.04941082746 1.258099074e-38
-0.1536073685 -0.3701941669 -0.06364244968 1.258099074e-38
0.04500845075 -0.2967313826 -0.1132476553 1.258099074e-38
-0.08825019747 -0.4092295766 -0.1555961967 1.258099074e-38
-0.0667206645 -0.2533940673 -0.02252188139 1.258099074e-38
-0.1945294142 -0.3336323202 -0.01206053421 1.258099074e-38
-0.1227380261 -0.3194501102 -0.08727532625 1.258099074e-38
-0.05675463006 -0.4412655234 -0.1807112098 1.258099074e-38
-0.07830712199 -0.2590031624 -0.001060016104 1.258099074e-38
-0.18683891 -0.3489184976 -0.03102934174 1.258099074e-38
-0.05586082488 -0.308804512 -0.09464332461 1.258099074e-38
-0.04303259403 -0.4545393288 -0.1910761595 1.258099074e-38
-0.08342568576 -0.2656205297 0.01222580113 1.258099074e-38
-0.1761991382 -0.3552173078 -0.03658230603 1.258099074e-38
-0.02150364965 -0.3072338104 -0.09265116602 1.258099074e-38
-0.05675398931 -0.4412660003 -0.1807114482 1.258099074e-38
-0.07830736041 -0.2590034008 -0.001059494563 1.258099074e-38
-0.1868386269 -0.3489187062 -0.03102971986 1.258099074e-38
-0.05585986003 -0.3088046014 -0.09464333951 1.258099074e-38
-0.05675281584 -0.4412669539 -0.1807118505 1.258099074e-38
-0.0783078447 -0.2590036988 -0.00105855579 1.258099074e-38
-0.1868380904 -0.348919183 -0.03103039786 1.258099074e-38
-0.05585806072 -0.3088048398 -0.09464346617 1.258099074e-38
0.2040926814 -0.417615056 -0.1336442083 1.331530897e-38
0.1940417141 -0.2672465742 0.04001924396 1.331530897e-38
0.2652472854 -0.363830179 -0.04897863045 1.331530897e-38
0.1200310364 -0.3488180935 -0.1563575715 1.331530897e-38
-0.01110412739 -0.4485405385 -0.04695837572 1.331530897e-38
0.1749929786 -0.3084157109 0.09809634835 1.331530897e-38
0.2107193768 -0.3507164419 0.02842248976 1.331530897e-38
0.009882471524 -0.3791579008 -0.1868050247 1.331530897e-38
-0.05278871581 -0.4381783903 0.05806268007 1.331530897e-38
0.1498883665 -0.3253847957 0.1303571463 1.331530897e-38
0.1921369135 -0.3467577696 0.06141232327 1.331530897e-38
-0.03668300807 -0.3824630678 -0.181182608 1.331530897e-38
0.1388707012 -0.4065949619 -0.1430500895 1.331530897e-38
0.1729834676 -0.2534502745 0.0444493182 1.331530897e-38
0.2517080605 -0.3389655054 -0.04632105678 1.331530897e-38
0.07768457383 -0.3108118176 -0.1510431021 1.331530897e-38
0.03287566081 -0.4251362085 -0.1154800504 1.331530897e-38
0.170097068 -0.2804680467 0.06491805613 1.331530897e-38
0.2173085511 -0.3323084414 -0.006947914138 1.331530897e-38
0.02300837636 -0.344928205 -0.171209082 1.331530897e-38
-0.001423328184 -0.4380093217 -0.05961499363 1.331530897e-38
0.1637250632 -0.2918378711 0.08326879889 1.331530897e-38
0.2048038542 -0.3369061351 0.01791202649 1.331530897e-38
0.01003151294 -0.3571041524 -0.1769680083 1.331530897e-38
0.03287300095 -0.4251366556 -0.1154778451 1.331530897e-38
0.170096606 -0.2804683745 0.06491882354 1.331530897e-38
0.2173078358 -0.3323085606 -0.006947072223 1.331530897e-38
0.02300754935 -0.3449288607 -0.1712094098 1.331530897e-38
0.03286811337 -0.4251375496 -0.1154737324 1.331530897e-38
0.1700958461 -0.2804690897 0.0649202466 1.331530897e-38
0.2173065394 -0.3323085606 -0.006945479661 1.331530897e-38
0.02300608158 -0.3449301124 -0.1712101102 1.331530897e-38
-0.09494417161 -0.2481703758 0.06123822555 1.404926846e-38
0.0251241345 -0.3489293456 0.1885405332 1.404926846e-38
0.01352156233 0.4328661263 0.01087653916 1.404926846e-38
-0.1407125294 -0.2993482351 0.05974858254 1.404926846e-38
-0.004086814355 -0.2895712852 0.1498196274 1.404926846e-38
0.1033319235 -0.3743234575 0.2005961835 1.404926846e-38
-0.01093782112 0.4607828259 -0.00186331349 1.404926846e-38
-0.100162819 -0.3034281135 0.08780506998 1.404926846e-38
0.02315852232 -0.291092217 0.1647476703 1.404926846e-38
0.1100163013 -0.3950956464 0.1912842393 1.404926846e-38
-0.01718611084 0.4456705153 -0.01371360291 1.404926846e-38
-0.08259939402 -0.315169543 0.1083632261 1.404926846e-38
-0.06597283483 -0.2187891901 0.06873486191 1.404926846e-38
0.04158300161 -0.3507233262 0.1896383017 1.404926846e-38
0.003987589385 0.4461570084 0.01604870707 1.404926846e-38
-0.1197757795 -0.2669883072 0.06280710548 1.404926846e-38
-0.02036477625 -0.2417696565 0.109275274 1.404926846e-38
0.08041978627 -0.364507556 0.1903183013 1.404926846e-38
-0.005379252601 0.4680893719 0.01309492812 1.404926846e-38
-0.08701936901 -0.2816495895 0.07026324421 1.404926846e-38
-0.004311311524 -0.2614178956 0.1282898933 1.404926846e-38
0.09286865592 -0.371899873 0.191711843 1.404926846e-38
-0.01183271315 0.4684328437 0.005166037474 1.404926846e-38
-0.09051042795 -0.2938330173 0.07690307498 1.404926846e-38
-0.02036389709 -0.2417702526 0.1092758998 1.404926846e-38
0.08042037487 -0.3645077646 0.1903183907 1.404926846e-38
-0.005379550625 0.4680894613 0.01309465989 1.404926846e-38
-0.08701937646 -0.281649977 0.07026348263 1.404926846e-38
-0.02036221512 -0.2417713404 0.10927701 1.404926846e-38
0.08042176813 -0.3645081222 0.190318346 1.404926846e-38
-0.005380146671 0.4680897295 0.01309416816 1.404926846e-38
-0.08701938391 -0.281650871 0.07026389986 1.404926846e-38
-0.01181725319 -0.4211782813 -0.2346870899 1.478322936e-38
0.2207033336 -0.3250873089 -0.009790152311 1.478322936e-38
0.1534095854 -0.4022662044 -0.128079623 1.478322936e-38
0.08849626034 -0.3820854127 -0.1799307168 1.478322936e-38
-0.1544785798 -0.413970679 -0.1300778687 1.478322936e-38
0.1792916507 -0.4028759599 -0.05436655879 1.478322936e-38
0.02314959839 -0.377692908 -0.1761208922 1.478322936e-38
0.1496994197 -0.3382407427 -0.1249541938 1.478322936e-38
-0.1822472513 -0.4106131792 -0.09862774611 1.478322936e-38
0.1187939048 -0.4235136807 -0.08052030951 1.478322936e-38
-0.01616233774 -0.3768412769 -0.1848639101 1.478322936e-38
0.1417393237 -0.3285222054 -0.1223258898 1.478322936e-38
-0.04145193845 -0.4128909707 -0.1873267442 1.478322936e-38
0.1877635717 -0.3277416527 0.00178235583 1.478322936e-38
0.1308039278 -0.3734566569 -0.1009422764 1.478322936e-38
0.06502705067 -0.3183862567 -0.1634297371 1.478322936e-38
-0.09584393352 -0.4126729667 -0.1301499158 1.478322936e-38
0.1663769335 -0.3708046079 -0.02534850687 1.478322936e-38
0.05589878932 -0.3660436869 -0.1386416107 1.478322936e-38
0.1065604836 -0.3062605858 -0.1269415915 1.478322936e-38
-0.1293915361 -0.4035443962 -0.1120143607 1.478322936e-38
0.163385734 -0.3888945878 -0.04048786685 1.478322936e-38
0.02977965772 -0.3674999475 -0.1504846513 1.478322936e-38
0.1234538108 -0.3142747879 -0.1228529736 1.478322936e-38
-0.09584496915 -0.4126725495 -0.1301490664 1.478322936e-38
0.1663766801 -0.3708053529 -0.02534911782 1.478322936e-38
0.05589767545 -0.3660436571 -0.1386421323 1.478322936e-38
0.1065610871 -0.3062607944 -0.1269412041 1.478322936e-38
-0.0958468914 -0.412671715 -0.1301475316 1.478322936e-38
0.1663761884 -0.3708067238 -0.0253502354 1.478322936e-38
0.05589563027 -0.3660435677 -0.1386431754 1.478322936e-38
0.1065621823 -0.3062611222 -0.126940459 1.478322936e-38
0.0007385088829 0.1745152473 0.005855033174 1.551683013e-38
0.1560390145 -0.2977203429 -0.1372191906 1.551683013e-38
-0.06660816818 -0.158780396 0.01145390421 1.551683013e-38
0.03117937781 -0.1923585087 -0.03557164967 1.551683013e-38
-0.007910340093 0.01986730844 -0.01554230601 1.551683013e-38
0.1862192601 -0.2962025702 -0.08719748259 1.551683013e-38
0.007931296714 -0.1921041608 0.04644019902 1.551683013e-38
-0.01402885839 -0.2111211121 -0.09036913514 1.551683013e-38
-0.005053007975 0.0282422509 -0.01554381475 1.551683013e-38
0.1832675189 -0.274948895 -0.04555863142 1.551683013e-38
0.02031315118 -0.2059164345 0.04957439005 1.551683013e-38
-0.02959137596 -0.2185493112 -0.1071000993 1.551683013e-38
-0.02508951165 0.0001976639032 0.002898457693 1.551683013e-38
0.1667029262 -0.3031155467 -0.1335866302 1.551683013e-38
-0.05675546825 -0.1746584177 0.02079167403 1.551683013e-38
0.02562116273 -0.1608236879 -0.04040679708 1.551683013e-38
-0.01118226722 0.01077584922 -0.007879125886 1.551683013e-38
0.1837284714 -0.3054544926 -0.1136916503 1.551683013e-38
-0.008720475249 -0.1753763109 0.04029605538 1.551683013e-38
-0.006875145715 -0.176791206 -0.07259360701 1.551683013e-38
-0.008430602029 0.01439168025 -0.01217293926 1.551683013e-38
0.1857327372 -0.2998318672 -0.09695298225 1.551683013e-38
0.003363723401 -0.183439225 0.04620943964 1.551683013e-38
-0.01137713436 -0.1898112744 -0.08235639334 1.551683013e-38
-0.011181999 0.01077590883 -0.007879358716 1.551683013e-38
0.1837288141 -0.3054544032 -0.113691166 1.551683013e-38
-0.00871959608 -0.1753762513 0.04029655084 1.551683013e-38
-0.006875697058 -0.1767914891 -0.07259434462 1.551683013e-38
-0.01118145511 0.01077608764 -0.007879828103 1.551683013e-38
0.1837294847 -0.3054542243 -0.1136903092 1.551683013e-38
-0.008718031459 -0.1753764004 0.04029745236 1.551683013e-38
-0.006876784842 -0.1767923385 -0.07259567827 1.551683013e-38
0.04554047436 -0.3159372509 0.2030619085 1.625043089e-38
-0.1942672729 -0.2957750857 0.1062183604 1.625043089e-38
0.1065618694 -0.3605241179 0.1869279891 1.625043089e-38
-0.06744015962 -0.4074057341 0.183960408 1.625043089e-38
-0.09150208533 -0.3397395015 0.1842165142 1.625043089e-38
-0.2168638855 -0.305319339 0.0525655672 1.625043089e-38
0.1605266631 -0.4072665274 0.1288639456 1.625043089e-38
-0.1614827514 -0.4080837965 0.08479288965 1.625043089e-38
-0.09007503837 -0.3479848504 0.1290138662 1.625043089e-38
-0.2140060067 -0.3142999411 0.02139127254 1.625043089e-38
0.1724231243 -0.4107279181 0.1126701683 1.625043089e-38
-0.1652335823 -0.4004683495 0.05632808059 1.625043089e-38
0.03362616152 -0.2927894294 0.1748673171 1.625043089e-38
-0.1887190938 -0.2926894128 0.09374571592 1.625043089e-38
0.1065274104 -0.3637273908 0.1554222107 1.625043089e-38
-0.0722464323 -0.3918630183 0.1461449265 1.625043089e-38
-0.0269385837 -0.3265041411 0.1728313863 1.625043089e-38
-0.1969848126 -0.296328485 0.06537503004 1.625043089e-38
0.1317922026 -0.3872373998 0.1313811243 1.625043089e-38
-0.1202953905 -0.402731061 0.09796168655 1.625043089e-38
-0.07288198173 -0.3398286402 0.1640491784 1.625043089e-38
-0.203263998 -0.3020149469 0.05339220911 1.625043089e-38
0.1456795782 -0.3968718946 0.1226522103 1.625043089e-38
-0.1422756165 -0.4048588872 0.08277035505 1.625043089e-38
-0.02693996578 -0.3265048265 0.1728309989 1.625043089e-38
-0.1969850212 -0.296328634 0.06537448615 1.625043089e-38
0.1317927986 -0.3872374594 0.1313807964 1.625043089e-38
-0.1202961802 -0.4027310014 0.09796090424 1.625043089e-38
-0.02694248222 -0.3265060186 0.1728302389 1.625043089e-38
-0.1969853491 -0.296328932 0.06537345797 1.625043089e-38
0.1317939162 -0.3872377872 0.1313801408 1.625043089e-38
-0.1202976257 -0.402730912 0.09795936942 1.625043089e-38
-0.1480884403 -0.4089154303 0.1394427419 1.698367293e-38
-0.1796407402 -0.3831476569 0.09909214079 1.698367293e-38
-0.02459126338 -0.4679881632 0.1138284951 1.698367293e-38
-0.1775437742 -0.3718416989 -0.01163057704 1.698367293e-38
-0.1833934337 -0.4373221695 -0.00153842452 1.698367293e-38
-0.1464112699 -0.4360419512 0.1100075468 1.698367293e-38
0.04624387622 -0.4657747447 0.1409954727 1.698367293e-38
-0.1393259317 -0.3559118211 -0.1107088625 1.698367293e-38
-0.1782051325 -0.404828012 -0.01906801574 1.698367293e-38
-0.1217128783 -0.4544052184 0.1152914539 1.698367293e-38
0.05722128972 -0.4627588391 0.1562006325 1.698367293e-38
-0.1328623891 -0.3655768037 -0.1328293085 1.698367293e-38
-0.1300732493 -0.3932046592 0.07966608554 1.698367293e-38
-0.1587410569 -0.3779362738 0.09854625165 1.698367293e-38
-0.01236950886 -0.473630935 0.1014374271 1.698367293e-38
-0.1408771425 -0.3020450175 -0.03154353052 1.698367293e-38
-0.153277263 -0.4156083167 0.03366932273 1.698367293e-38
-0.1398112029 -0.4099625051 0.09812992066 1.698367293e-38
0.03225302696 -0.4668286741 0.105993554 1.698367293e-38
-0.1315097958 -0.3168539405 -0.08557102084 1.698367293e-38
-0.1586125642 -0.4220549464 0.01660481282 1.698367293e-38
-0.1351783276 -0.4228165746 0.1013153419 1.698367293e-38
0.04182878509 -0.4664212465 0.1210320964 1.698367293e-38
-0.1344576031 -0.3373214304 -0.1026122198 1.698367293e-38
-0.1532777846 -0.4156085551 0.03366896883 1.698367293e-38
-0.1398107708 -0.4099629521 0.09812989086 1.698367293e-38
0.03225357831 -0.4668286443 0.1059939563 1.698367293e-38
-0.1315099001 -0.3168548346 -0.08557195216 1.698367293e-38
-0.1532787234 -0.4156091213 0.03366837278 1.698367293e-38
-0.1398099214 -0.4099636972 0.09813003242 1.698367293e-38
0.03225453198 -0.4668284357 0.1059947684 1.698367293e-38
-0.1315101087 -0.3168565333 -0.08557362109 1.698367293e-38
0.140055269 -0.3831280768 -0.1922728717 1.771655483e-38
-0.1426693648 -0.4148527086 -0.1909308732 1.771655483e-38
-0.04704172537 -0.3784789443 -0.2186506987 1.771655483e-38
0.03016907535 -0.4458732605 -0.1766933203 1.771655483e-38
0.1634856015 -0.3359853625 -0.1448012143 1.771655483e-38
-0.1699462831 -0.4181096256 -0.1357278526 1.771655483e-38
0.03864042833 -0.3657642603 -0.1722165048 1.771655483e-38
-0.04042105004 -0.4417649209 -0.1637520939 1.771655483e-38
0.1497032195 -0.3206112087 -0.09584233165 1.771655483e-38
-0.1741285026 -0.4152738154 -0.106767565 1.771655483e-38
0.05563190952 -0.3769686222 -0.1548695564 1.771655483e-38
-0.06604202837 -0.4393734634 -0.1590052396 1.771655483e-38
0.1358841658 -0.3748126328 -0.1619512737 1.771655483e-38
-0.1327409595 -0.4185145199 -0.1598334312 1.771655483e-38
-0.06333149225 -0.3248317242 -0.1806296408 1.771655483e-38
0.0165836066 -0.4453144372 -0.1400485039 1.771655483e-38
0.1525232494 -0.351955086 -0.1442798525 1.771655483e-38
-0.1491586417 -0.4184263647 -0.1406167299 1.771655483e-38
0.006610207725 -0.3390236497 -0.1764135212 1.771655483e-38
-0.02082630806 -0.4413134754 -0.1364023536 1.771655483e-38
0.1518387645 -0.3404081464 -0.133705169 1.771655483e-38
-0.1535555422 -0.4193035662 -0.126900956 1.771655483e-38
0.02920774184 -0.354973048 -0.165939182 1.771655483e-38
-0.03521161899 -0.4397422671 -0.1413223296 1.771655483e-38
0.152523309 -0.3519547284 -0.1442794502 1.771655483e-38
-0.149158895 -0.4184263945 -0.1406166404 1.771655483e-38
0.006611280609 -0.339024514 -0.1764130145 1.771655483e-38
-0.02082693391 -0.4413133562 -0.1364023238 1.771655483e-38
0.1525234729 -0.3519541025 -0.1442786604 1.771655483e-38
-0.1491592824 -0.4184263945 -0.1406163871 1.771655483e-38
0.006613277365 -0.3390260935 -0.1764121652 1.771655483e-38
-0.02082821541 -0.4413131475 -0.1364022344 1.771655483e-38
0.2517316043 -0.3984449208 0.04425532371 1.844943813e-38
0.1452122331 -0.2645849586 0.09904551506 1.844943813e-38
0.2064787298 -0.4479628801 -0.01935923286 1.844943813e-38
0.1434601694 -0.4744603336 0.06757637113 1.844943813e-38
0.1820784807 -0.3978374302 0.1182766631 1.844943813e-38
0.1673624814 -0.3090166748 0.05049072579 1.844943813e-38
0.1685579717 -0.4237096012 -0.09905063361 1.844943813e-38
0.04074111208 -0.4504201412 0.1468234211 1.844943813e-38
0.140924871 -0.3891381621 0.1307942867 1.844943813e-38
0.1540026814 -0.3094305396 0.002053772099 1.844943813e-38
0.1532102674 -0.4158633053 -0.1162709892 1.844943813e-38
0.01658525877 -0.4460486472 0.1597203463 1.844943813e-38
0.1905545592 -0.3820594251 0.05331772938 1.844943813e-38
0.1443999857 -0.2733718455 0.09213513881 1.844943813e-38
0.1946880221 -0.4284270406 -0.04008854926 1.844943813e-38
0.0989151597 -0.4660796523 0.0640212968 1.844943813e-38
0.1639678627 -0.380821377 0.09105408192 1.844943813e-38
0.1465459615 -0.2866185308 0.08886432648 1.844943813e-38
0.1748510301 -0.4103938639 -0.07238380611 1.844943813e-38
0.0547086224 -0.4549520016 0.1029352248 1.844943813e-38
0.1622077078 -0.3831258416 0.1061555073 1.844943813e-38
0.1533298492 -0.2976185083 0.07126168907 1.844943813e-38
0.1700208634 -0.4068135619 -0.08363198489 1.844943813e-38
0.03802808747 -0.4509069622 0.1227383018 1.844943813e-38
0.1639677882 -0.3808214366 0.09105469286 1.844943813e-38
0.146546036 -0.2866190374 0.08886423707 1.844943813e-38
0.1748505384 -0.4103935063 -0.07238438725 1.844943813e-38
0.05470782146 -0.4549517632 0.1029359177 1.844943813e-38
0.163967669 -0.3808214366 0.09105589986 1.844943813e-38
0.1465461403 -0.286619693 0.08886406571 1.844943813e-38
0.1748496145 -0.4103929102 -0.07238546759 1.844943813e-38
0.05470636487 -0.4549513459 0.1029371992 1.844943813e-38
-0.04365463555 -0.349601537 0.01664142683 1.91819627e-38
-0.002953215269 0.01321168896 -0.001916834619 1.91819627e-38
0.05667575076 -0.3089230061 0.05904690549 1.91819627e-38
-0.007404407952 -0.0991640985 0.006000169087 1.91819627e-38
-0.1206150502 -0.3291871846 -0.02623132244 1.91819627e-38
0.005439615343 0.09552649409 -0.008388259448 1.91819627e-38
0.0932828635 -0.3409083784 0.1221184954 1.91819627e-38
-0.007830392569 0.02755120397 -0.006519413553 1.91819627e-38
-0.1263872236 -0.3003972769 -0.04639558494 1.91819627e-38
0.008642309345 0.1797283441 -0.008444242179 1.91819627e-38
0.1063835919 -0.3409555256 0.1389589906 1.91819627e-38
-0.007076137699 0.1178288907 -0.01092191786 1.91819627e-38
-0.0822969228 -0.3486618996 0.009829534218 1.91819627e-38
4.200637341e-05 0.04763355851 -0.005701839458 1.91819627e-38
0.07039461285 -0.2774952948 0.06898950785 1.91819627e-38
-0.004792772699 -0.07187943906 0.009183594026 1.91819627e-38
-0.1104870886 -0.3380855918 -0.012492029 1.91819627e-38
0.004333253019 0.1048690602 -0.00958991982 1.91819627e-38
0.0812554881 -0.311526984 0.09571600705 1.91819627e-38
-0.002342659514 -0.02444802225 0.01364040561 1.91819627e-38
-0.1207875013 -0.3282397389 -0.02081247233 1.91819627e-38
0.007117106579 0.1233912408 -0.01026832499 1.91819627e-38
0.08728221059 -0.3278048038 0.1090953425 1.91819627e-38
-0.007875972427 -0.0009823736036 0.0004594232596 1.91819627e-38
-0.1104874462 -0.3380853236 -0.01249250583 1.91819627e-38
0.004333320074 0.1048700884 -0.009589979425 1.91819627e-38
0.08125571907 -0.3115276396 0.09571649134 1.91819627e-38
-0.002342756372 -0.02444696426 0.01364015229 1.91819627e-38
-0.1104880199 -0.3380846381 -0.01249327324 1.91819627e-38
0.00433340203 0.104872033 -0.009590135887 1.91819627e-38
0.0812561065 -0.3115288317 0.09571743757 1.91819627e-38
-0.002342912834 -0.02444496937 0.013639668 1.91819627e-38
-0.02451526001 -0.2446938455 -0.04316395521 1.991448586e-38
-0.001646621502 -0.3028786778 0.006294956896 1.991448586e-38
0.0108689107 0.09994716942 0.008845068514 1.991448586e-38
-0.1109133586 -0.312693119 0.01221582573 1.991448586e-38
-0.02754058689 -0.2154218704 -0.05064809695 1.991448586e-38
0.006504235324 -0.2862428129 0.03002350405 1.991448586e-38
0.003734600963 0.3352321386 -0.001454218174 1.991448586e-38
