# .PCD v0.7 - Point Cloud Data file format
VERSION 0.7
FIELDS x y z rgb
SIZE 4 4 4 4
TYPE F F F F
COUNT 1 1 1 1
WIDTH 836
HEIGHT 1
VIEWPOINT 0 0 0 1 0 0 0
POINTS 836
DATA ascii
-0.2374268919 0.1343623698 -0.4512881339 1.037659831e-38
-0.3074446023 -0.1460058093 -0.108482182 1.037659831e-38
-0.2899658978 -0.06351302564 -0.2913728654 1.037659831e-38
0.1452816278 0.161175102 -0.3525991142 1.037659831e-38
-0.1061142907 0.1451419443 -0.4684126079 1.037659831e-38
-0.2721098065 -0.1363957673 0.1454987973 1.037659831e-38
-0.3215206861 -0.007519010454 -0.1503249109 1.037659831e-38
-0.07289429754 0.1403742135 -0.3357917666 1.037659831e-38
-0.2814793587 0.06229715794 -0.4494357705 1.037659831e-38
-0.2958194315 -0.09565941244 -0.2429338694 1.037659831e-38
-0.2970964909 0.008065652102 -0.3818763793 1.037659831e-38
0.07959468663 0.1082327291 -0.3482593 1.037659831e-38
-0.2027630508 0.1179076955 -0.4627237916 1.037659831e-38
-0.299726218 -0.09393163025 -0.1232809946 1.037659831e-38
-0.2908366323 -0.0344982557 -0.3117826283 1.037659831e-38
0.05253118277 0.1191111952 -0.3517991602 1.037659831e-38
-0.2356245667 0.127659753 -0.4593375921 1.037659831e-38
-0.2985489666 -0.1247562692 -0.1471525729 1.037659831e-38
-0.2864174843 -0.05626325309 -0.3064969182 1.037659831e-38
0.180398643 0.1315145195 -0.369340688 1.037659831e-38
-0.05871277675 0.1209413782 -0.4709977806 1.037659831e-38
-0.2517214417 -0.1208110973 0.1755198985 1.037659831e-38
-0.3146909475 -0.02770531736 -0.1228411868 1.037659831e-38
0.1388190687 0.1083646193 -0.2583529651 1.037659831e-38
-0.2879570127 0.06680370867 -0.3388442695 1.037659831e-38
-0.3410244584 -0.08971433342 -0.09467173368 1.037659831e-38
-0.3089438379 -0.005543588661 -0.2547813356 1.037659831e-38
0.3094769418 0.09778416902 -0.1235459 1.111163541e-38
0.2970563471 0.1475621313 0.04536922276 1.111163541e-38
0.2866640091 -0.004905919544 0.1669332385 1.111163541e-38
0.2221221179 -0.0496936217 -0.2463138103 1.111163541e-38
0.3049957156 0.09850992262 -0.2032847553 1.111163541e-38
0.2334433943 0.1504393667 0.2019298524 1.111163541e-38
0.2705380619 0.01794560812 0.03019463085 1.111163541e-38
0.06657328457 -0.02280112915 -0.1195069179 1.111163541e-38
0.299159199 0.08233420551 -0.2812100649 1.111163541e-38
0.1605810076 0.1274521351 0.2663657963 1.111163541e-38
0.277025789 1.458060797e-05 -0.07459209114 1.111163541e-38
0.0358273387 -0.01979552954 0.02886654623 1.111163541e-38
0.2979872525 0.09004349262 -0.1447752118 1.111163541e-38
0.2546466887 0.1297239363 0.09687728435 1.111163541e-38
0.2209941596 0.04935014993 0.09874358773 1.111163541e-38
0.1531748176 -0.01806302182 -0.2422165275 1.111163541e-38
0.3033055365 0.06890043616 -0.212853387 1.111163541e-38
0.1859968603 0.08259698004 0.225136444 1.111163541e-38
0.2453519404 0.03226723522 0.01342493854 1.111163541e-38
0.07112621516 0.01924360916 -0.1070925072 1.111163541e-38
0.3098790944 0.07315954566 -0.198054105 1.111163541e-38
0.2142305523 0.1004193127 0.2055725604 1.111163541e-38
0.2520165145 0.03412945569 0.0251996126 1.111163541e-38
0.07592111081 0.003262795508 -0.1325359046 1.111163541e-38
0.2866311073 0.06407976151 -0.3196263015 1.111163541e-38
0.09219703823 0.1249860525 0.2946605682 1.111163541e-38
0.2209121585 0.002069501905 -0.1293970197 1.111163541e-38
0.0560082458 -0.03419040889 0.07633319497 1.111163541e-38
0.3301641047 0.04656576738 -0.1913271844 1.111163541e-38
0.04267603904 0.08767102659 0.1639457643 1.111163541e-38
0.3046045601 0.02501894534 -0.01729723439 1.111163541e-38
0.1309318095 -0.01403969899 -0.03535144031 1.111163541e-38
-0.2311460078 -0.03193193302 -0.2298939377 1.184631237e-38
-0.2052035332 0.143414706 -0.3879360557 1.184631237e-38
-0.2607460916 -0.1859269291 -0.2359661162 1.184631237e-38
-0.2052873075 -0.04979335517 -0.3919119537 1.184631237e-38
-0.3105311096 -0.1524181068 -0.3888972998 1.184631237e-38
-0.2261907756 0.1703694612 -0.3136524558 1.184631237e-38
-0.2955397367 -0.03583299369 -0.1813570559 1.184631237e-38
-0.2814688087 0.06403701752 -0.4201135635 1.184631237e-38
-0.2842347026 -0.1574087143 -0.4149685502 1.184631237e-38
-0.2485074252 0.157905519 -0.1634803712 1.184631237e-38
-0.2725020647 -0.01462123636 -0.001678673783 1.184631237e-38
-0.3012576401 0.09554143995 -0.3266728818 1.184631237e-38
-0.3011112511 -0.1166062057 -0.3578744233 1.184631237e-38
-0.2111997753 0.1242265701 -0.388573736 1.184631237e-38
-0.2683802247 -0.1337980479 -0.2132527232 1.184631237e-38
-0.259260565 -0.02333442494 -0.420740813 1.184631237e-38
-0.320746541 -0.1183972657 -0.4031887949 1.184631237e-38
-0.2378541082 0.1006044447 -0.2567775548 1.184631237e-38
-0.2742606401 -0.0274597276 -0.118438296 1.184631237e-38
-0.2819032371 0.06830785424 -0.4341081977 1.184631237e-38
-0.3262249231 -0.1273890138 -0.4024313092 1.184631237e-38
-0.2347939014 0.1197237745 -0.2946686149 1.184631237e-38
-0.2786963582 -0.03674473986 -0.1515350342 1.184631237e-38
-0.2845541239 0.06480846554 -0.4406650364 1.184631237e-38
-0.2698528469 -0.1473911554 -0.4495026469 1.184631237e-38
-0.2504495382 0.1255643517 -0.1434734613 1.184631237e-38
-0.2548217475 -0.01395079121 0.04716252163 1.184631237e-38
-0.3077346385 0.1150611266 -0.319291383 1.184631237e-38
-0.3236576915 -0.05591489375 -0.2587458491 1.184631237e-38
-0.213973552 0.06284489483 -0.07628269494 1.184631237e-38
-0.2537063062 -0.000998444506 -0.05403027683 1.184631237e-38
-0.2672066092 0.06062891707 -0.3503817916 1.184631237e-38
-0.1869407445 0.1085361987 -0.1580090225 1.258099074e-38
0.03117992729 0.1016091779 -0.2267941833 1.258099074e-38
-0.3273535967 -0.1758982688 -0.2633634508 1.258099074e-38
-0.226632908 0.1141824424 -0.1640432626 1.258099074e-38
-0.1986656189 -0.07424895465 -0.3346712887 1.258099074e-38
-0.01419216488 0.1256881207 -0.07559926808 1.258099074e-38
-0.2905031145 -0.138679266 -0.08779591322 1.258099074e-38
-0.2255175263 0.007956786081 -0.2573641241 1.258099074e-38
-0.04663353413 -0.05561249703 -0.3676027358 1.258099074e-38
-0.1125429422 0.1397703737 0.05217123404 1.258099074e-38
-0.2779671848 -0.09586589783 0.05370156094 1.258099074e-38
-0.1464005709 -0.06684200466 -0.2957195342 1.258099074e-38
-0.2127959579 0.08194816858 -0.2520133555 1.258099074e-38
0.02324521542 0.09971360117 -0.1736984402 1.258099074e-38
-0.3169604242 -0.09885833412 -0.2335874587 1.258099074e-38
-0.2295916378 0.0009090246167 -0.1610408127 1.258099074e-38
-0.1138379425 0.05510504916 -0.3074281812 1.258099074e-38
-0.07393151522 0.1108721942 -0.02554430068 1.258099074e-38
-0.2926522493 -0.06365580857 -0.09478443861 1.258099074e-38
-0.1506977081 -0.02853977494 -0.2496501058 1.258099074e-38
-0.1585246921 0.05964559689 -0.3104887009 1.258099074e-38
-0.03067124262 0.1192691103 -0.06650561839 1.258099074e-38
-0.297262758 -0.09452010691 -0.109178558 1.258099074e-38
-0.1997781098 -0.01594267786 -0.2499811947 1.258099074e-38
0.004572255537 -0.03569301963 -0.3938450217 1.258099074e-38
-0.1514230669 0.1317797303 0.07153695077 1.258099074e-38
-0.2696421146 -0.08427897096 0.09657262266 1.258099074e-38
-0.09818393737 -0.08352714777 -0.3152618706 1.258099074e-38
-0.08321013302 -0.0556672141 -0.3008627594 1.258099074e-38
-0.2946331799 0.01370280795 0.1074889302 1.258099074e-38
-0.306936115 -0.02282026783 -0.07277718186 1.258099074e-38
-0.1002968401 -0.04676032811 -0.2265707105 1.258099074e-38
0.2660008371 0.04475720227 -0.2238224894 1.331530897e-38
0.3006554246 0.06795845926 -0.01114812959 1.331530897e-38
0.01932410151 -0.06311646104 0.00961619243 1.331530897e-38
0.2268879712 -0.0244731009 -0.2388702333 1.331530897e-38
0.303244561 0.1172642559 -0.1257857382 1.331530897e-38
0.3054379821 0.0772851631 0.1290009916 1.331530897e-38
0.1510609835 -0.1032498404 0.03219948336 1.331530897e-38
0.189367786 -0.1213465482 -0.3919919431 1.331530897e-38
0.2831392288 0.1341578513 0.02256218158 1.331530897e-38
0.3323046565 0.08679629117 0.2294850498 1.331530897e-38
0.2553582489 -0.135860011 0.04413560033 1.331530897e-38
0.1041395441 -0.09241366386 -0.4345491827 1.331530897e-38
0.2606971562 0.03010921367 -0.2180989832 1.331530897e-38
0.2936828136 0.04315100238 0.04136206955 1.331530897e-38
0.0820216313 -0.02635829337 0.01652642153 1.331530897e-38
0.216644913 -0.08945456147 -0.3012990952 1.331530897e-38
0.2854608595 0.06180972606 -0.1277480572 1.331530897e-38
0.3031846285 0.07904188335 0.1734817475 1.331530897e-38
0.1571414918 -0.02672822215 0.02287872322 1.331530897e-38
0.1634004116 -0.0911744684 -0.3926414549 1.331530897e-38
0.2956709564 0.0755379945 -0.1488505006 1.331530897e-38
0.3001665473 0.0763490051 0.1443413943 1.331530897e-38
0.1330540627 -0.04180241004 0.02568151988 1.331530897e-38
0.1751438379 -0.1050007567 -0.38442716 1.331530897e-38
0.1928036064 0.09523569047 0.07563235611 1.331530897e-38
0.3206120729 0.0917436555 0.2633902133 1.331530897e-38
0.2657882273 -0.1210025698 0.04815951735 1.331530897e-38
0.0608227998 -0.07855575532 -0.435846895 1.331530897e-38
0.2100823373 0.02629674971 -0.1215064973 1.331530897e-38
0.3499340415 0.04475003481 0.2078905106 1.331530897e-38
0.2301696688 -0.02176076733 0.02718586475 1.331530897e-38
0.1551416367 -0.0361892134 -0.3991010785 1.331530897e-38
-0.2886300683 0.2311102897 0.3398641348 1.404926846e-38
-0.09129448235 0.1463107169 0.2892294526 1.404926846e-38
-0.2963660657 0.123150833 0.2801252306 1.404926846e-38
-0.2282615304 -0.0445237644 -0.06352636963 1.404926846e-38
-0.1713007092 0.1623787433 0.4360346198 1.404926846e-38
0.101775378 0.1461148113 0.357624352 1.404926846e-38
-0.2968419194 0.1243008152 0.1453891397 1.404926846e-38
-0.130176127 0.1510674804 0.1419670135 1.404926846e-38
-0.01132915169 0.1590374112 0.4580513835 1.404926846e-38
0.2153025568 0.1561444551 0.4110141993 1.404926846e-38
-0.2314928174 0.116700761 -0.07722806185 1.404926846e-38
0.05451142788 0.1700497419 0.1900480241 1.404926846e-38
-0.2457983941 0.1842143685 0.3988197744 1.404926846e-38
-0.03232165053 0.1175109521 0.3204824328 1.404926846e-38
-0.3027496934 0.1018295884 0.2598114312 1.404926846e-38
-0.1859794408 -0.008206481114 -0.005347111728 1.404926846e-38
-0.1543882638 0.1226523519 0.4311767817 1.404926846e-38
0.08643687516 0.1104872897 0.3751134276 1.404926846e-38
-0.299533397 0.09995842725 0.08086271584 1.404926846e-38
-0.07681840658 0.1019069552 0.1609988064 1.404926846e-38
-0.1762641668 0.1373014003 0.4267609119 1.404926846e-38
0.069624722 0.1142304465 0.3641040325 1.404926846e-38
-0.297450155 0.1111174375 0.1243530214 1.404926846e-38
-0.07627016306 0.1201261729 0.1510734111 1.404926846e-38
0.01939198188 0.14053078 0.4672701359 1.404926846e-38
0.2324939668 0.136282295 0.4284906685 1.404926846e-38
-0.1665920168 0.1143163517 -0.1528699398 1.404926846e-38
0.1096866876 0.1491202265 0.197258532 1.404926846e-38
0.007635817397 0.04473490268 0.4445020854 1.404926846e-38
0.1567113996 0.0553474538 0.3534791768 1.404926846e-38
-0.2398702651 0.08480195701 0.02587907203 1.404926846e-38
-0.04668786377 0.1129906699 0.1274262369 1.404926846e-38
-0.02054536529 -0.08389534056 -0.2220888883 1.478322936e-38
0.3092679679 0.04394273087 -0.3969706297 1.478322936e-38
0.2181508094 -0.1049933285 -0.4296344519 1.478322936e-38
-0.1672902852 0.1081192568 -0.4697793126 1.478322936e-38
-0.1951977015 -0.1314297467 -0.3703611195 1.478322936e-38
0.3003385067 -0.1094061509 -0.3453407586 1.478322936e-38
0.05863304064 -0.09937251359 -0.4123646319 1.478322936e-38
0.04779423773 0.1222808138 -0.4827754498 1.478322936e-38
-0.3075374961 -0.1034358814 -0.2396150082 1.478322936e-38
0.2710518837 -0.1427784562 -0.2446190119 1.478322936e-38
-0.04452807084 -0.1058779657 -0.3395218849 1.478322936e-38
0.1621315926 0.1120557711 -0.4820689559 1.478322936e-38
-0.09763301909 -0.06299708039 -0.3529904187 1.478322936e-38
0.3121320903 -0.01096902043 -0.4239201844 1.478322936e-38
0.1623524576 -0.0682848841 -0.43731004 1.478322936e-38
-0.0967881456 0.07680208981 -0.4872102439 1.478322936e-38
-0.2674417496 -0.07640234381 -0.3743494749 1.478322936e-38
0.2966227233 -0.08879449219 -0.3784634471 1.478322936e-38
-0.03602733091 -0.02931881696 -0.4392936826 1.478322936e-38
0.06503176689 0.08320626616 -0.485879302 1.478322936e-38
-0.2430024892 -0.08388246596 -0.3808191419 1.478322936e-38
0.3065435886 -0.08523262292 -0.3897472322 1.478322936e-38
0.01384790149 -0.04310610518 -0.4234254658 1.478322936e-38
0.04732771218 0.08994401246 -0.4863145351 1.478322936e-38
-0.3241036236 -0.1006851867 -0.275592953 1.478322936e-38
0.260558635 -0.1337285042 -0.3170401752 1.478322936e-38
-0.08970658481 -0.1133442149 -0.3687680662 1.478322936e-38
0.1984813213 0.1039619595 -0.4835147262 1.478322936e-38
-0.3115092516 -0.07931020856 -0.2670237124 1.478322936e-38
0.1771478206 -0.07192181796 -0.136928454 1.478322936e-38
-0.06037587672 -0.05721436813 -0.4034336507 1.478322936e-38
0.1414152235 -0.01340061706 -0.4734187126 1.478322936e-38
0.1345295757 0.1243127435 0.2071302533 1.551683013e-38
0.1999418288 0.1291261166 -0.3145810664 1.551683013e-38
-0.1353923529 0.06052108482 -0.04126921296 1.551683013e-38
0.1313750744 0.1021020338 0.0189673584 1.551683013e-38
0.04669246823 0.0960052833 0.01254034508 1.551683013e-38
0.2648883164 0.1157602519 -0.1637204438 1.551683013e-38
-0.01689376123 0.07486800104 0.2817222774 1.551683013e-38
0.17066513 0.09830908477 -0.1680987179 1.551683013e-38
0.002925909124 0.10561461 -0.08079741895 1.551683013e-38
0.3251956105 0.08976294845 0.004872050602 1.551683013e-38
0.143936336 0.08240311593 0.3601247668 1.551683013e-38
0.05672023818 0.1216547787 -0.2071817517 1.551683013e-38
0.1152067482 0.07894275337 0.1501433998 1.551683013e-38
0.203661114 0.1053274274 -0.2857964933 1.551683013e-38
-0.09617513418 0.0978757143 0.06849555671 1.551683013e-38
0.1368323565 0.08526343852 -0.05006675422 1.551683013e-38
0.05001641065 0.0528087765 -0.03165806085 1.551683013e-38
0.2230682969 0.05828794837 -0.1438939422 1.551683013e-38
0.006797946524 0.06857604533 0.3120828569 1.551683013e-38
0.1086175963 0.08150483668 -0.1853295416 1.551683013e-38
0.04663129523 0.05462276563 -0.005495669786 1.551683013e-38
0.2243491858 0.08595373482 -0.181299895 1.551683013e-38
-0.01317356341 0.08435019106 0.2945159972 1.551683013e-38
0.1361722648 0.0945160538 -0.1841424406 1.551683013e-38
-0.02092543244 0.09942511469 -0.1137778014 1.551683013e-38
0.2974000573 0.07899907976 0.04268693551 1.551683013e-38
0.1729045063 0.0936955139 0.3847437799 1.551683013e-38
-0.02724533342 0.1413483918 -0.2344031632 1.551683013e-38
0.08000400662 0.04312419891 -0.0333355628 1.551683013e-38
0.2955760062 0.04817621782 0.0203614682 1.551683013e-38
0.06269703805 0.05789350346 0.3284868598 1.551683013e-38
0.08094931394 0.04357955605 -0.1809413433 1.551683013e-38
0.1122715622 0.1290879548 0.3663319647 1.625043089e-38
-0.04185155407 0.1573161483 0.3820366263 1.625043089e-38
0.08778571337 -0.05152612925 0.4193879664 1.625043089e-38
0.1690367907 0.1435584128 0.3915158212 1.625043089e-38
-0.05368507653 -0.06828968227 0.4115434289 1.625043089e-38
-0.2027814686 0.1633612067 0.3426342905 1.625043089e-38
0.1864510626 -0.06557854265 0.4220423996 1.625043089e-38
0.03430330008 0.1357445568 0.323271364 1.625043089e-38
-0.149675101 -0.08311522752 0.386818856 1.625043089e-38
-0.2725931108 0.1544031948 0.2235634476 1.625043089e-38
0.263120681 -0.0755251348 0.3785240352 1.625043089e-38
-0.03432784975 0.1530500352 0.2157879919 1.625043089e-38
0.05253106356 0.08452884853 0.3945561647 1.625043089e-38
-0.117874369 0.1219129264 0.4030590653 1.625043089e-38
0.105099462 -0.05052854493 0.4438456297 1.625043089e-38
0.1173291653 0.1221748069 0.3834116459 1.625043089e-38
-0.05030608177 0.1045032144 0.3912498057 1.625043089e-38
-0.2246564776 0.1083648801 0.2833222747 1.625043089e-38
0.186793983 -0.05642028525 0.4392378926 1.625043089e-38
0.01034619287 0.08742834628 0.3283210099 1.625043089e-38
-0.03789922222 0.08042376488 0.3948040903 1.625043089e-38
-0.2151307762 0.1205852851 0.3276239634 1.625043089e-38
0.176941514 -0.06533944607 0.4348425865 1.625043089e-38
0.03018454462 0.09985613823 0.333076179 1.625043089e-38
-0.1888842583 -0.09541380405 0.3701755106 1.625043089e-38
-0.2722227871 0.1440150887 0.176017046 1.625043089e-38
0.2694188952 -0.1213418692 0.3977504671 1.625043089e-38
-0.05100955814 0.1051409468 0.1922062635 1.625043089e-38
-0.08505488187 -0.01986065507 0.3481894732 1.625043089e-38
-0.2205231935 0.08026369661 0.1061935425 1.625043089e-38
0.2336963117 -0.1126012579 0.363642782 1.625043089e-38
-0.01473325398 0.07637493312 0.218078509 1.625043089e-38
-0.2415917069 -0.1531764567 0.3130965531 1.698367293e-38
-0.3118559718 0.1493170112 0.3125038743 1.698367293e-38
-0.2017393261 -0.1302613318 0.3395794332 1.698367293e-38
-0.2909547985 0.06312066317 0.3218839765 1.698367293e-38
-0.2752025723 -0.1364714503 0.2758595347 1.698367293e-38
-0.3118473887 0.0854473263 0.4130267501 1.698367293e-38
-0.1214823946 -0.1013275757 0.3654349744 1.698367293e-38
-0.3111440241 0.05855223909 0.1587293595 1.698367293e-38
-0.274250567 -0.08808456361 0.1339591146 1.698367293e-38
-0.3070741296 -0.01651957817 0.4163914621 1.698367293e-38
-0.04786130413 -0.08721736819 0.3682603836 1.698367293e-38
-0.3259029686 0.04020593688 0.01066232286 1.698367293e-38
-0.2773824334 -0.1247127429 0.3308508396 1.698367293e-38
-0.3168571293 0.1101150736 0.3687220812 1.698367293e-38
-0.163300544 -0.1072936505 0.3655683994 1.698367293e-38
-0.2854194045 0.06661000103 0.2795243561 1.698367293e-38
-0.3101985157 -0.04249836877 0.2849627137 1.698367293e-38
-0.3348721266 0.07144835591 0.4124725461 1.698367293e-38
-0.1217350513 -0.0726654008 0.3993697464 1.698367293e-38
-0.3010492623 0.002246480435 0.09769184887 1.698367293e-38
-0.298628211 -0.07574956864 0.2974715829 1.698367293e-38
-0.3340586126 0.0880158022 0.4166769087 1.698367293e-38
-0.1230722293 -0.08046976477 0.3851647377 1.698367293e-38
-0.302888602 0.02005215921 0.1380606145 1.698367293e-38
-0.2865726352 -0.04479005933 0.135893032 1.698367293e-38
-0.3292455375 -0.05425804853 0.4466411173 1.698367293e-38
-0.04092448577 -0.07555200905 0.3919290602 1.698367293e-38
-0.2962110937 0.05218019709 -0.02647749521 1.698367293e-38
-0.3307156861 -0.03912536055 0.2655495703 1.698367293e-38
-0.3526602089 0.04903242365 0.3172667921 1.698367293e-38
-0.08522599936 -0.0206996724 0.4050973058 1.698367293e-38
-0.3041245043 -0.007765882183 0.006277262699 1.698367293e-38
-0.09124722332 0.1222937033 -0.4581857324 1.771655483e-38
-0.2308509499 -0.1407558322 -0.4033789933 1.771655483e-38
-0.2233281285 -0.07291948795 -0.385833621 1.771655483e-38
-0.00224269554 -0.02905552089 -0.4004262388 1.771655483e-38
0.1687061787 0.01645559445 -0.4843081534 1.771655483e-38
-0.1804735065 -0.04817532748 -0.4571813643 1.771655483e-38
-0.08215163648 0.01680163853 -0.4669679999 1.771655483e-38
-0.1426449567 -0.08573509008 -0.4618114531 1.771655483e-38
0.2649135292 0.06162003055 -0.4734137952 1.771655483e-38
-0.1352946907 0.06813905388 -0.4475546777 1.771655483e-38
0.07115936279 -0.001252784627 -0.4712061286 1.771655483e-38
-0.2282365113 -0.1578802764 -0.4407463968 1.771655483e-38
-0.0317919068 0.07832354307 -0.4797977507 1.771655483e-38
-0.2102043778 -0.09392748773 -0.4621803761 1.771655483e-38
-0.1973670125 0.007219852414 -0.4401724935 1.771655483e-38
-0.08210380375 -0.01967123337 -0.4608566761 1.771655483e-38
0.1722676307 0.01004358102 -0.4783598483 1.771655483e-38
-0.1877823919 0.009581339546 -0.476903826 1.771655483e-38
-0.02861410566 0.03782840818 -0.4781824052 1.771655483e-38
-0.188211143 -0.0641701743 -0.4759521782 1.771655483e-38
0.1455510706 0.01774194092 -0.4822122455 1.771655483e-38
-0.1900855303 -0.02935124375 -0.4709013999 1.771655483e-38
-0.05783170834 0.03708230704 -0.4721955359 1.771655483e-38
-0.1675362736 -0.06681025773 -0.4752478004 1.771655483e-38
0.2822146416 0.04143832251 -0.4722831547 1.771655483e-38
-0.1286682189 0.07269943506 -0.4718430042 1.771655483e-38
0.1035578549 -0.01034867298 -0.4734733701 1.771655483e-38
-0.2560589314 -0.1853401512 -0.4632519186 1.771655483e-38
0.2841543257 -0.01028920896 -0.4311932921 1.771655483e-38
0.00802463945 0.001773564145 -0.4633120596 1.771655483e-38
0.08680276573 0.03455645218 -0.4708759785 1.771655483e-38
-0.2089480311 -0.08036141098 -0.4646362662 1.771655483e-38
0.07432763278 0.1268715262 -0.196213752 1.844943813e-38
0.294372201 0.1118517369 0.3088283539 1.844943813e-38
0.216281116 -0.04347074404 0.06403978914 1.844943813e-38
0.2765212059 -0.08865291625 0.154736504 1.844943813e-38
0.1338389218 -0.05231759697 0.05768232048 1.844943813e-38
0.3279753923 0.09295479208 0.1846376806 1.844943813e-38
0.2419103384 0.07561594248 -0.1232563406 1.844943813e-38
0.2651277781 -0.1335472614 0.3114255369 1.844943813e-38
0.1979135424 -0.04530461505 0.1899235249 1.844943813e-38
0.3452041745 0.09497388452 0.06904877722 1.844943813e-38
0.275990963 0.087145634 -0.2390355468 1.844943813e-38
0.1963937879 -0.1422215104 0.3646835387 1.844943813e-38
0.06568082422 0.1075420082 -0.1419736445 1.844943813e-38
0.2929236293 0.066375494 0.2747317553 1.844943813e-38
0.1980109811 0.02914574556 0.005487290211 1.844943813e-38
0.2835943103 -0.05324668065 0.2550443113 1.844943813e-38
0.1054433361 0.05153755844 0.1412134469 1.844943813e-38
0.3098678589 0.0635496527 0.1687635332 1.844943813e-38
0.248382628 0.06812053919 -0.1675918102 1.844943813e-38
0.2564438283 -0.08976271003 0.3923894465 1.844943813e-38
0.1228070036 0.05840153992 0.1009201109 1.844943813e-38
0.3182765543 0.0678877309 0.1942673326 1.844943813e-38
0.2405430377 0.07952970266 -0.1381216943 1.844943813e-38
0.2549129128 -0.1031249315 0.3558831513 1.844943813e-38
0.1830943823 -0.03147444129 0.2520322502 1.844943813e-38
0.3339965045 0.06580264866 0.04145730287 1.844943813e-38
0.2749897838 0.09808082134 -0.2762197554 1.844943813e-38
0.1325931698 -0.1233921498 0.4116083682 1.844943813e-38
0.1228665709 -0.0927252695 0.1011415347 1.844943813e-38
0.3188980222 0.03203008324 0.01451017894 1.844943813e-38
0.2522530854 0.04685818404 -0.1788777709 1.844943813e-38
0.2261887342 -0.02786616609 0.3730264902 1.844943813e-38
0.2356551141 0.1277547628 0.184903115 1.91819627e-38
-0.005580680445 0.09959718585 -0.1039708629 1.91819627e-38
0.2114973664 -0.00778698083 0.0007284021704 1.91819627e-38
0.2796407342 0.09131070226 -0.0873844251 1.91819627e-38
0.1346532106 0.1417068094 0.04583258927 1.91819627e-38
-0.07278143615 0.1667848527 -0.2301900983 1.91819627e-38
0.2721062899 0.02515202574 0.1871711463 1.91819627e-38
0.1737390757 0.1400811225 -0.17626445 1.91819627e-38
0.1267660856 0.1418753266 -0.05112387612 1.91819627e-38
-0.1512651443 0.1525237262 -0.321556896 1.91819627e-38
0.31139642 0.03427095711 0.2979909778 1.91819627e-38
0.09383127838 0.1418419182 -0.2580882311 1.91819627e-38
0.165517047 0.1077564657 0.146954149 1.91819627e-38
-0.02264924347 0.1133779511 -0.1284849644 1.91819627e-38
0.2440117449 0.02683302201 0.07241562009 1.91819627e-38
0.2619864643 0.1036093235 -0.1044872776 1.91819627e-38
0.1271779835 0.1005850434 0.02486334927 1.91819627e-38
-0.1067544073 0.1072566286 -0.2502119541 1.91819627e-38
0.253900677 0.02531257458 0.2226716876 1.91819627e-38
0.123429805 0.1119939089 -0.1852778196 1.91819627e-38
0.1328920573 0.1120373905 0.05532290787 1.91819627e-38
-0.08726805449 0.125128448 -0.2316488028 1.91819627e-38
0.2598793209 0.02616017126 0.1938528717 1.91819627e-38
0.1531860828 0.122419782 -0.174694106 1.91819627e-38
0.1138644144 0.1356362253 -0.07216237485 1.91819627e-38
-0.1583347768 0.1360991895 -0.3583934307 1.91819627e-38
0.2791407406 0.02426398359 0.3459738791 1.91819627e-38
0.08463951945 0.135936588 -0.2942052186 1.91819627e-38
0.1154936701 0.1187887192 -0.04666783661 1.91819627e-38
-0.0627521649 0.1072372571 -0.2239954174 1.91819627e-38
0.3120497763 0.01937510446 0.1637982726 1.91819627e-38
0.04011457786 0.08616253734 -0.1535374522 1.91819627e-38
-0.3057409227 0.1569206268 -0.2210679799 1.991448586e-38
-0.151151672 0.1067696437 -0.3946711123 1.991448586e-38
-0.2382364869 0.162829563 -0.2079968899 1.991448586e-38
-0.2808986306 0.06131456792 -0.275213182 1.991448586e-38
-0.249915123 0.1269473881 -0.4048347175 1.991448586e-38
0.1106417552 0.1504474431 -0.3292374909 1.991448586e-38
-0.2127144188 0.1660533994 -0.06407406181 1.991448586e-38
-0.2826105058 -0.01380858012 -0.361971736 1.991448586e-38
-0.1057802439 0.1022254601 -0.3998790979 1.991448586e-38
0.1773047 0.1584221274 -0.2095755339 1.991448586e-38
-0.2199656069 0.1748045981 0.08414622396 1.991448586e-38
-0.2925676107 -0.05512519181 -0.4011825025 1.991448586e-38
-0.293515861 0.1485225558 -0.3070141673 1.991448586e-38
-0.04931842908 0.07699336857 -0.3779839277 1.991448586e-38
-0.1953507662 0.1387358606 -0.1644017547 1.991448586e-38
-0.286597997 0.03864760697 -0.3167440891 1.991448586e-38
-0.212912485 0.1039219946 -0.3726694584 1.991448586e-38
0.1143182963 0.1191842481 -0.270906955 1.991448586e-38
-0.1858298481 0.1267636269 0.003391044214 1.991448586e-38
-0.2910423279 -0.009197199717 -0.4051391184 1.991448586e-38
-0.2434233427 0.1074532345 -0.3872099221 1.991448586e-38
0.09197165817 0.1188765168 -0.3220283091 1.991448586e-38
-0.1993075013 0.1387559175 -0.03925195336 1.991448586e-38
-0.2868957818 -0.0009733435581 -0.3909088075 1.991448586e-38
-0.07921487838 0.08403945714 -0.4031605422 1.991448586e-38
0.1717034876 0.1275955141 -0.1389276832 1.991448586e-38
-0.2168678492 0.170934543 0.1254035234 1.991448586e-38
-0.2844654322 -0.08576148003 -0.4312444925 1.991448586e-38
-0.163694486 0.01097892784 -0.2700134814 1.991448586e-38
-0.01849717461 0.08701366931 -0.09962388128 1.991448586e-38
-0.1176569536 0.06323429197 0.01364212018 1.991448586e-38
-0.3110415041 -0.01845233701 -0.3913415074 1.991448586e-38
0.2745179236 0.04839029536 -0.02184354141 2.06466517e-38
0.2787149251 0.1316961199 0.355343312 2.06466517e-38
0.3048176467 -0.0888761133 0.2381358445 2.06466517e-38
0.1292534918 0.1329433918 0.2171566039 2.06466517e-38
0.1869284362 0.06513456255 -0.1485891491 2.06466517e-38
0.249850437 0.1337301731 0.2278899103 2.06466517e-38
0.2763316035 -0.103321515 0.1362448484 2.06466517e-38
0.2312836051 0.1405725926 0.3551534414 2.06466517e-38
-0.02597530559 0.1625499129 -0.2493052334 2.06466517e-38
0.2603392303 0.1214480475 0.1213914528 2.06466517e-38
0.2848566771 -0.1063091606 0.02344542183 2.06466517e-38
0.290564537 0.1550603956 0.4264628291 2.06466517e-38
0.2041585743 0.01924327947 -0.05881161615 2.06466517e-38
0.2368856668 0.09124884754 0.3245705962 2.06466517e-38
0.2893156707 -0.06480457634 0.2061970979 2.06466517e-38
0.123133041 0.1097261608 0.2743624747 2.06466517e-38
0.04405421019 0.02036763728 -0.1805986017 2.06466517e-38
0.2016583383 0.08810384572 0.1922525018 2.06466517e-38
0.2766094804 -0.07118528336 0.09241110831 2.06466517e-38
0.2253330797 0.1175181046 0.3755519688 2.06466517e-38
0.09812684357 0.02315302566 -0.1415937394 2.06466517e-38
0.2193803787 0.09330212325 0.2321808785 2.06466517e-38
0.2831932306 -0.07527771592 0.1234243587 2.06466517e-38
0.2274434865 0.1277618557 0.3622897565 2.06466517e-38
-0.1226271987 0.127906397 -0.2696338892 2.06466517e-38
0.2416374832 0.09237124026 0.06525918841 2.06466517e-38
0.2723273337 -0.09365398437 -0.01744446531 2.06466517e-38
0.2881768346 0.1309566796 0.4528791606 2.06466517e-38
0.06250794232 0.0445121713 -0.1750700474 2.06466517e-38
0.1603878736 0.0710536316 -0.04341657832 2.06466517e-38
0.2996308506 -0.07365392148 0.02978373133 2.06466517e-38
0.1834824532 0.109044902 0.3619693816 2.06466517e-38
0.04284767061 0.110691525 -0.03390665352 2.137881613e-38
0.07887813449 0.1282013953 0.06794791669 2.137881613e-38
0.008571106009 -0.1484016627 -0.02424155548 2.137881613e-38
-0.07209283113 0.1029150859 0.001211015391 2.137881613e-38
0.2528783977 0.1522277445 0.03861048073 2.137881613e-38
-0.03773759678 0.1658471227 0.2006455809 2.137881613e-38
-0.05875796825 -0.107005693 -0.1313418895 2.137881613e-38
-0.09535641968 0.1633370221 -0.1328639835 2.137881613e-38
0.3218674064 0.1172207221 0.1421049833 2.137881613e-38
-0.05298946425 0.1487340927 0.286221534 2.137881613e-38
-0.2177406698 -0.09160165489 0.0416008383 2.137881613e-38
-0.136972785 0.1521995664 -0.2232155353 2.137881613e-38
0.1474239081 0.1192519739 -0.0273819007 2.137881613e-38
0.04386702552 0.1050514206 0.09560137242 2.137881613e-38
0.02822394483 -0.04900802299 -0.01440967433 2.137881613e-38
-0.08198747039 0.1108643189 -0.06247876585 2.137881613e-38
0.267837733 0.07867607474 0.02662518807 2.137881613e-38
-0.04233016074 0.1119488701 0.1691721231 2.137881613e-38
-0.1049400494 -0.03571837768 -0.09015955031 2.137881613e-38
-0.1002940312 0.1056567803 -0.1732258946 2.137881613e-38
0.2556836307 0.09867914021 0.02470229194 2.137881613e-38
-0.0470815599 0.1242577657 0.1678449064 2.137881613e-38
-0.06432683766 -0.0556708388 -0.102007471 2.137881613e-38
-0.09449810535 0.119228825 -0.1581348181 2.137881613e-38
0.3147815168 0.08634343743 0.1701246351 2.137881613e-38
-0.05924683064 0.142002672 0.2985194325 2.137881613e-38
-0.2428296953 -0.07935556024 0.06451632082 2.137881613e-38
-0.144851163 0.1452520192 -0.2512029409 2.137881613e-38
0.2801157832 0.0604813695 0.01311533339 2.137881613e-38
0.0820595324 0.07652784139 0.1345162541 2.137881613e-38
-0.238630414 0.007328568958 0.0181026943 2.137881613e-38
-0.1036252528 0.07144893706 -0.1572300643 2.137881613e-38
0.2589909434 -0.05869997665 0.3967565596 2.211062324e-38
0.2157607973 -0.1481508464 0.2511399984 2.211062324e-38
0.2645234168 -0.1936527938 0.3761416972 2.211062324e-38
0.2147106677 -0.02306505851 0.3381939232 2.211062324e-38
0.2893970311 0.001031279215 0.456923008 2.211062324e-38
0.271155566 -0.09814943373 0.2606264651 2.211062324e-38
0.2864203751 -0.05998685956 0.3891688883 2.211062324e-38
0.2122386396 -0.1428932548 0.3963505924 2.211062324e-38
0.3115294576 0.06700602174 0.4392564595 2.211062324e-38
0.2740648687 -0.02510753088 0.2514576912 2.211062324e-38
0.2933690846 0.04741414636 0.3725628257 2.211062324e-38
0.09122881293 -0.1263015866 0.3032623529 2.211062324e-38
0.3010141551 -0.04532490671 0.4601814747 2.211062324e-38
0.2556506395 -0.1220733896 0.2762495279 2.211062324e-38
0.2767377794 -0.1209742501 0.4037106335 2.211062324e-38
0.2116137892 -0.04088487849 0.4101452529 2.211062324e-38
0.3022457063 0.003981256392 0.4649431705 2.211062324e-38
0.2806959152 -0.03425782919 0.2877189219 2.211062324e-38
0.2895954251 -0.01776034571 0.4117437899 2.211062324e-38
0.1973946989 -0.1020710617 0.4135143757 2.211062324e-38
0.2997212112 0.005617872346 0.4716392457 2.211062324e-38
0.2753492594 -0.08330530673 0.2843846679 2.211062324e-38
0.2851349413 -0.04154964164 0.4033567905 2.211062324e-38
0.1961619407 -0.1119271293 0.4110215306 2.211062324e-38
0.3114407957 0.07780654728 0.4544385076 2.211062324e-38
0.2936121225 0.001304685371 0.3219000101 2.211062324e-38
0.2907219231 0.05581939593 0.3914236426 2.211062324e-38
0.01076455601 -0.119658187 0.2805640101 2.211062324e-38
0.23287341 -0.01696806774 0.4153011143 2.211062324e-38
0.3694617152 -0.006271726917 0.1501648128 2.211062324e-38
0.3034988344 0.006969041191 0.3970579803 2.211062324e-38
0.214971602 -0.08668892086 0.350173384 2.211062324e-38
0.1282141358 0.1602689922 0.4272175431 2.284242894e-38
-0.007561129984 0.1492951661 0.4068558216 2.284242894e-38
-0.01653453521 -0.1454746425 0.3226066232 2.284242894e-38
0.1960036904 0.02085580677 0.1378121823 2.284242894e-38
0.2950734198 0.1571434736 0.4134164155 2.284242894e-38
0.1225950569 0.1476760805 0.4041360915 2.284242894e-38
-0.1621011198 -0.07725766301 0.4355801642 2.284242894e-38
-0.1105947047 -0.09776765108 0.3759428561 2.284242894e-38
0.2986965775 0.08080258965 0.2796940207 2.284242894e-38
0.2187372893 0.1460286528 0.3100772202 2.284242894e-38
-0.2356323302 0.07009470463 0.4296400845 2.284242894e-38
0.02998966537 -0.03812638298 0.3948272765 2.284242894e-38
0.2042630315 0.1281095296 0.421833843 2.284242894e-38
0.0542669706 0.1196175441 0.4416100979 2.284242894e-38
-0.07059195638 -0.1176575348 0.3880915046 2.284242894e-38
0.08867497742 -0.02859983593 0.1165629402 2.284242894e-38
0.289044857 0.09176358581 0.3446547389 2.284242894e-38
0.1577755958 0.1177212596 0.3554624617 2.284242894e-38
-0.1581051797 -0.02765707485 0.4633149803 2.284242894e-38
-0.07733324915 -0.006600125693 0.4111825824 2.284242894e-38
0.2927421629 0.1010811105 0.3805009127 2.284242894e-38
0.1312574893 0.1166569069 0.3887892962 2.284242894e-38
-0.1512926072 -0.0642939508 0.4546920657 2.284242894e-38
-0.09547504783 -0.02180341072 0.4109049141 2.284242894e-38
0.2892305255 0.05359780416 0.2590087056 2.284242894e-38
0.2305869162 0.1017975733 0.3078017533 2.284242894e-38
-0.2592495978 0.06929311901 0.4418011904 2.284242894e-38
0.0715868026 -0.03962161765 0.3678508699 2.284242894e-38
0.2986274064 -0.0009211932775 0.2683243454 2.284242894e-38
0.2183508873 0.01733811758 0.3367409706 2.284242894e-38
-0.1601607949 -0.02146418579 0.4587020874 2.284242894e-38
-0.05181658641 -0.0002941042185 0.3738301396 2.284242894e-38
-0.2937446237 0.1371976882 0.1629540473 2.348204041e-38
-0.2232225686 0.094491072 -0.1902014017 2.348204041e-38
-0.2790009975 -0.1101163551 0.05887958035 2.348204041e-38
-0.2557927072 0.03211143985 0.008860391565 2.348204041e-38
-0.3063789606 0.1604025811 -0.03575830907 2.348204041e-38
-0.1084462702 0.041139476 -0.3449996412 2.348204041e-38
-0.2859910131 -0.04579868913 0.1759656668 2.348204041e-38
-0.2001720667 -0.1189143732 -0.0384016633 2.348204041e-38
-0.2819715738 0.1476886719 -0.1216426268 2.348204041e-38
0.04241816327 -0.02114940248 -0.3970153332 2.348204041e-38
-0.3007373512 0.02879242972 0.2778421938 2.348204041e-38
-0.142715618 -0.08991458267 -0.09127372503 2.348204041e-38
-0.2942232192 0.1153236777 0.1119289622 2.348204041e-38
-0.2214604765 0.06889396906 -0.2676379681 2.348204041e-38
-0.2713382244 -0.09879482538 0.08816703409 2.348204041e-38
-0.2097737193 -0.01920735836 0.01422785129 2.348204041e-38
-0.3001006544 0.1023545489 -0.02865310572 2.348204041e-38
-0.07017210871 0.02946248837 -0.3427216113 2.348204041e-38
-0.279201895 -0.02807118744 0.2039995342 2.348204041e-38
-0.1570222974 -0.04147044569 -0.04185440764 2.348204041e-38
-0.3037265539 0.1233887821 -0.01748693362 2.348204041e-38
-0.1101149544 0.0467508249 -0.3367286325 2.348204041e-38
-0.2804979086 -0.04656349495 0.1832562089 2.348204041e-38
-0.1796297431 -0.04909273982 -0.03603630885 2.348204041e-38
-0.257573545 0.1151842922 -0.1345414966 2.348204041e-38
0.08135779947 -0.04298771173 -0.4199490547 2.348204041e-38
-0.2874804437 0.04926336184 0.3222981989 2.348204041e-38
-0.1153441295 -0.0412334092 -0.1330366582 2.348204041e-38
-0.2317914218 0.07113516331 -0.01039210334 2.348204041e-38
0.03769125417 0.007059359923 -0.3036248386 2.348204041e-38
-0.2834487855 0.001994361402 0.1931356192 2.348204041e-38
-0.1148151979 -0.0295857694 -0.05182679743 2.348204041e-38
0.3060641587 0.06447024643 -0.06219783053 2.347880341e-38
0.3433563411 0.07814688981 -0.1467839777 2.347880341e-38
0.3190455139 -0.1000295058 -0.01481103618 2.347880341e-38
0.2910063863 0.07864132524 0.1618754119 2.347880341e-38
0.3271701932 0.05894405022 0.04287558421 2.347880341e-38
0.3284645677 0.06542184204 -0.2758265436 2.347880341e-38
0.2798471451 -0.07219939679 -0.1239366457 2.347880341e-38
0.2485673726 0.1444981992 0.325486511 2.347880341e-38
0.3345988989 0.07076832652 0.1174959764 2.347880341e-38
0.3028500974 0.08888247609 -0.36793226 2.347880341e-38
0.2906645834 -0.08838181943 -0.1980904341 2.347880341e-38
0.1332789212 0.1528022438 0.4007780254 2.347880341e-38
0.2932032347 0.05187840387 -0.03356624022 2.347880341e-38
0.3325279951 0.04011423513 -0.1726292074 2.347880341e-38
0.3036574423 -0.05543434992 -0.06101735681 2.347880341e-38
0.2695278823 0.07492201775 0.2331436872 2.347880341e-38
0.3091098368 0.04209616035 0.06696785241 2.347880341e-38
0.3171134293 0.04282259196 -0.2821783721 2.347880341e-38
0.2837285101 -0.05747786537 -0.1435928494 2.347880341e-38
0.2208904624 0.08426746726 0.3503879011 2.347880341e-38
0.3218497932 0.04460389167 0.05018549412 2.347880341e-38
0.3303857148 0.0465824008 -0.2624305189 2.347880341e-38
0.2858754694 -0.04644746706 -0.1245602965 2.347880341e-38
0.2383113801 0.1051310673 0.3362722695 2.347880341e-38
0.3200603127 0.06302558631 0.1239897162 2.347880341e-38
0.2834641337 0.07302584499 -0.3994224668 2.347880341e-38
0.2660768926 -0.09313374013 -0.2439148128 2.347880341e-38
0.09548791498 0.131068334 0.4242947102 2.347880341e-38
0.2839127183 0.0380974263 0.1260436922 2.347880341e-38
0.2717196643 0.08098805696 -0.3235127032 2.347880341e-38
0.2712376416 -0.02767784894 -0.1600200683 2.347880341e-38
0.1743112653 0.03722814843 0.3176154494 2.347880341e-38
0.2185327709 0.1517201215 -0.2573126256 2.347520768e-38
-0.1417679638 0.1087053493 -0.2708705962 2.347520768e-38
-0.04077894986 0.1476683617 -0.3580700159 2.347520768e-38
0.05342058092 0.1257921755 -0.2591020167 2.347520768e-38
0.2036716193 0.1574744582 -0.1644328386 2.347520768e-38
-0.2031308413 0.142430529 -0.1793998778 2.347520768e-38
0.1289867908 -0.101738885 -0.3073796928 2.347520768e-38
0.002879142296 0.1610934585 -0.1331545711 2.347520768e-38
0.1845903844 0.1403808147 -0.03334642202 2.347520768e-38
-0.2413035482 0.1287457645 -0.03069006652 2.347520768e-38
0.2067877352 -0.09643033147 -0.350817889 2.347520768e-38
-0.0119503038 0.1582156569 -0.007794177625 2.347520768e-38
0.2411970794 0.1266856045 -0.2138841003 2.347520768e-38
-0.1809057146 0.1012597159 -0.2472471893 2.347520768e-38
-0.007712196559 -0.00462807389 -0.3556192517 2.347520768e-38
0.02921097912 0.1118480265 -0.2298911214 2.347520768e-38
0.192221269 0.1005981192 -0.1070407704 2.347520768e-38
-0.232952103 0.08283636719 -0.1351783425 2.347520768e-38
0.08878853917 -0.03562822193 -0.3535337448 2.347520768e-38
-0.00404682802 0.1175772846 -0.1035782099 2.347520768e-38
0.195953086 0.1155832335 -0.141620189 2.347520768e-38
-0.2180939615 0.09616965055 -0.1733596325 2.347520768e-38
0.08072712272 -0.05748752877 -0.3358803988 2.347520768e-38
0.007552823052 0.1285143495 -0.1339638531 2.347520768e-38
0.1675097048 0.1191485971 -0.01963062212 2.347520768e-38
-0.2579556704 0.1229569316 0.005310604814 2.347520768e-38
0.2241414487 -0.08890347928 -0.3876592815 2.347520768e-38
-0.02487178519 0.1566654593 0.02938744426 2.347520768e-38
0.1523060501 0.08885297924 -0.06217014417 2.347520768e-38
-0.1606905758 0.03509172425 -0.009669419378 2.347520768e-38
0.2245142311 -0.04075822234 -0.3209403455 2.347520768e-38
0.06018234417 0.09618523717 -0.02327074111 2.347520768e-38
-0.03900457174 -0.04417552426 -0.2248660028 2.347161195e-38
0.2234269977 0.1447597593 -0.3808964491 2.347161195e-38
-0.1927829087 -0.1750767976 -0.3183164597 2.347161195e-38
-0.1055040807 0.002601803979 -0.08646898717 2.347161195e-38
0.09663702548 -0.06828063726 -0.01130341273 2.347161195e-38
0.09985915571 0.1598950624 -0.4228764176 2.347161195e-38
0.04586502165 -0.1037701517 -0.2882387042 2.347161195e-38
-8.388608694e-05 0.04250680655 -0.3324651718 2.347161195e-38
0.1733862609 -0.06824861467 0.1450408101 2.347161195e-38
-0.05401493609 0.1605851054 -0.4261293113 2.347161195e-38
0.1495133787 -0.09195227176 -0.2208087146 2.347161195e-38
0.1588108093 0.01409093197 -0.3579149544 2.347161195e-38
-0.005155267194 -0.06680945307 -0.1435614377 2.347161195e-38
0.2054183781 0.1280654818 -0.4145333171 2.347161195e-38
-0.1221430525 -0.127013132 -0.3254367709 2.347161195e-38
-0.1283781081 0.06588210911 -0.1272868961 2.347161195e-38
0.07800197601 -0.01601723023 0.09655898809 2.347161195e-38
0.04171904176 0.1011845842 -0.404697001 2.347161195e-38
0.06830252707 -0.07011665404 -0.3005955815 2.347161195e-38
-0.03321872652 0.06820964813 -0.3517718315 2.347161195e-38
0.07168908417 -0.02572071925 0.05857006088 2.347161195e-38
0.07955867797 0.1161924675 -0.4105837345 2.347161195e-38
0.04898713529 -0.08028467 -0.2924259007 2.347161195e-38
-0.03839897737 0.07082812488 -0.3432164192 2.347161195e-38
0.1564703733 -0.04457770288 0.2035473138 2.347161195e-38
-0.0953496322 0.1261114925 -0.4304002225 2.347161195e-38
0.1490231007 -0.08780743927 -0.1883160025 2.347161195e-38
0.1778797805 -0.03340617567 -0.3678386509 2.347161195e-38
0.1111782491 -0.02801878378 0.192170471 2.347161195e-38
-0.04444442317 0.0392273739 -0.386512816 2.347161195e-38
0.1573154032 -0.03257580474 -0.3041173518 2.347161195e-38
-0.05597543344 0.0002991706133 -0.3765664697 2.347161195e-38
-0.2931888103 -0.04026760161 -0.1218750402 2.346801622e-38
-0.1138140783 0.1500503719 -0.3629801571 2.346801622e-38
-0.2771519423 0.008971838281 -0.353457123 2.346801622e-38
-0.2705954313 0.01026397664 -0.2037983984 2.346801622e-38
-0.2924441397 -0.01391669642 -0.01000752393 2.346801622e-38
0.03417827561 0.1343411058 -0.2855293155 2.346801622e-38
-0.2245911062 -0.1247357875 -0.262147367 2.346801622e-38
-0.1892174333 0.09384582192 -0.4278008342 2.346801622e-38
-0.2934360802 -0.007778711151 0.09731994569 2.346801622e-38
0.04793258384 0.119437255 -0.1672225744 2.346801622e-38
-0.1879141927 -0.1224973947 -0.1307175756 2.346801622e-38
-0.01213802397 0.126809448 -0.4120311439 2.346801622e-38
-0.3118879795 -0.05332156271 -0.0941504091 2.346801622e-38
-0.06408705562 0.1069110036 -0.3419429362 2.346801622e-38
-0.2517574728 -0.079458341 -0.3249097466 2.346801622e-38
-0.2836489081 0.03822406381 -0.2742196918 2.346801622e-38
-0.3067247868 -0.02444544621 0.01501060743 2.346801622e-38
0.04562242702 0.08625376225 -0.261328429 2.346801622e-38
-0.2072081417 -0.106542252 -0.2324760109 2.346801622e-38
-0.1616004109 0.07467520982 -0.4509719312 2.346801622e-38
-0.3048672676 -0.02157557383 -0.004677969497 2.346801622e-38
0.03544456139 0.09742368013 -0.2811349034 2.346801622e-38
-0.2171019465 -0.1096578389 -0.253995806 2.346801622e-38
-0.1854318231 0.08029697835 -0.4449391365 2.346801622e-38
-0.2902008891 -0.01639996283 0.1256016344 2.346801622e-38
0.01961012557 0.08827358484 -0.1337398738 2.346801622e-38
-0.1798885465 -0.1273435205 -0.0845779106 2.346801622e-38
0.02828585356 0.1225866526 -0.3956980109 2.346801622e-38
-0.3133813143 -0.06255514175 0.03332101181 2.346801622e-38
0.0326712653 0.06665895134 -0.1668755114 2.346801622e-38
-0.1924789697 -0.0879169479 -0.1698902547 2.346801622e-38
-0.06375098974 0.06092974171 -0.3966751099 2.346801622e-38
0.2925812006 0.1499307752 0.4001869559 2.346406175e-38
0.3298472464 0.1172296107 -0.1659854054 2.346406175e-38
0.1021787375 -0.06380782276 -0.1835876554 2.346406175e-38
0.299044311 -0.05698199943 0.03018135764 2.346406175e-38
0.3086847663 0.1270152181 0.2709394693 2.346406175e-38
0.2661960125 0.146146521 -0.3354538083 2.346406175e-38
0.06509363651 0.04344247654 0.05215540901 2.346406175e-38
0.258205533 -0.07199041545 -0.2827789783 2.346406175e-38
0.2861944735 0.1171433777 0.1491883844 2.346406175e-38
0.1622999907 0.1454868466 -0.4178414643 2.346406175e-38
0.08245443553 0.08408359438 0.2335357815 2.346406175e-38
0.2796858251 -0.1040500849 -0.1116512418 2.346406175e-38
0.3034556508 0.1133929119 0.3687334657 2.346406175e-38
0.2987293005 0.0773113668 -0.256742537 2.346406175e-38
0.08145999163 0.04595546424 -0.09388714284 2.346406175e-38
0.2678484321 -0.04435000196 -0.04503842816 2.346406175e-38
0.3136688769 0.08729443699 0.2356664687 2.346406175e-38
0.1972507834 0.1000279039 -0.3652151525 2.346406175e-38
0.07098469883 0.07229430974 0.1419340819 2.346406175e-38
0.2577277124 -0.01982404478 -0.2590529621 2.346406175e-38
0.3196655512 0.09565210342 0.269664526 2.346406175e-38
0.2247428 0.1058608368 -0.35495314 2.346406175e-38
0.073834382 0.0771920234 0.1004217491 2.346406175e-38
0.2600664198 -0.03841938451 -0.2543659508 2.346406175e-38
0.2565769255 0.1096435711 0.1113783121 2.346406175e-38
0.1283492744 0.1263489276 -0.4320275187 2.346406175e-38
0.05970272422 0.08301764727 0.2759114206 2.346406175e-38
0.2652757466 -0.1072677821 -0.06209795177 2.346406175e-38
0.248202458 0.05500959232 0.04496400058 2.346406175e-38
0.132275641 0.08702146262 -0.3053887486 2.346406175e-38
0.06874008477 0.1023897678 0.1686284244 2.346406175e-38
0.2342722565 -0.009944103658 -0.1967116743 2.346406175e-38
-0.08057262748 0.1635491997 -0.2030217052 2.346010729e-38
-0.2033151388 0.1351894736 -0.1409668177 2.346010729e-38
-0.3146540225 -0.1407519728 -0.1246141344 2.346010729e-38
-0.2806756496 -0.04776145518 -0.1152016595 2.346010729e-38
0.1183651537 0.1643948108 -0.2531417012 2.346010729e-38
-0.1151814535 0.1504455954 -0.2996872067 2.346010729e-38
-0.2782523334 -0.1210220978 -0.2245699614 2.346010729e-38
-0.2895956337 -0.06992007792 0.01482169516 2.346010729e-38
0.2162181437 0.1389555633 -0.2877244055 2.346010729e-38
-0.04072746262 0.129854694 -0.3553604186 2.346010729e-38
-0.2096897066 -0.128143698 -0.3219133019 2.346010729e-38
-0.2918904126 -0.05884654075 0.1730770171 2.346010729e-38
-0.02363413759 0.127862975 -0.2376962602 2.346010729e-38
-0.1931229383 0.1174192205 -0.1992881894 2.346010729e-38
-0.2917460799 -0.1235682815 -0.1454867274 2.346010729e-38
-0.2763845623 -0.06973996013 -0.07012605667 2.346010729e-38
0.1177458242 0.09069858491 -0.2876132131 2.346010729e-38
-0.09615981579 0.1071743518 -0.3178319335 2.346010729e-38
-0.2669078112 -0.08812590688 -0.2666503787 2.346010729e-38
-0.2814849317 -0.03994879127 0.04779457301 2.346010729e-38
0.09589412808 0.1126830876 -0.2742023766 2.346010729e-38
-0.113555789 0.1207099706 -0.3041481376 2.346010729e-38
-0.2748477757 -0.1064039692 -0.2353244275 2.346010729e-38
-0.2824316919 -0.04783052206 0.02955495194 2.346010729e-38
0.2116875947 0.1141967997 -0.3154882491 2.346010729e-38
-0.02771285363 0.1242474169 -0.3718558252 2.346010729e-38
-0.1318451911 -0.1080309227 -0.3172553182 2.346010729e-38
-0.2799784243 -0.05287806317 0.2287098318 2.346010729e-38
0.1405028552 0.04884419218 -0.2208122015 2.346010729e-38
-0.02501304075 0.08304782212 -0.3271684349 2.346010729e-38
-0.03071043268 -0.04199707136 -0.2590669096 2.346010729e-38
-0.2948973775 0.007854304276 0.09463120997 2.346010729e-38
-0.3056072295 0.1453751326 0.02641485073 2.345615283e-38
-0.3202375174 0.06898694485 -0.009945159778 2.345615283e-38
-0.313651979 0.002040726133 0.02065483294 2.345615283e-38
-0.1952431351 0.1545703709 0.05881111696 2.345615283e-38
-0.3137106895 0.1825957149 -0.08995651454 2.345615283e-38
-0.3084979355 0.04784937203 -0.1795603931 2.345615283e-38
-0.3150317371 -0.01131802145 0.1163620055 2.345615283e-38
-0.2283779532 0.1486008018 0.2027894109 2.345615283e-38
-0.3173222244 0.1606078297 -0.1660385132 2.345615283e-38
-0.3011649549 0.04062912241 -0.2845770419 2.345615283e-38
-0.3098117709 -0.0199252367 0.2119071931 2.345615283e-38
-0.2465097904 0.1526479721 0.3336888254 2.345615283e-38
-0.3063523769 0.1440252662 -0.0002582706511 2.345615283e-38
-0.3209054172 0.0598276183 -0.06811985373 2.345615283e-38
-0.3002222776 -0.001470490242 0.05813812092 2.345615283e-38
-0.2046981901 0.1212901846 0.1142341867 2.345615283e-38
-0.3393351436 0.1273815781 -0.1021137759 2.345615283e-38
-0.3053413928 0.02418941632 -0.1983120143 2.345615283e-38
-0.3037863672 0.0009428706835 0.1598139256 2.345615283e-38
-0.2004037499 0.1115965396 0.2269794345 2.345615283e-38
-0.340364337 0.147190541 -0.0871932134 2.345615283e-38
-0.3071221411 0.03865207732 -0.1797307581 2.345615283e-38
-0.3104673326 -0.001414402388 0.1269891709 2.345615283e-38
-0.2071339935 0.1277119517 0.2157128751 2.345615283e-38
-0.3137332797 0.1463702023 -0.2010317296 2.345615283e-38
-0.3012565672 0.03111406974 -0.3284332156 2.345615283e-38
-0.2847408354 -0.02748723701 0.251732111 2.345615283e-38
-0.2303391248 0.1456341445 0.3782372475 2.345615283e-38
-0.3329425454 0.1143229231 -0.1076609194 2.345615283e-38
-0.3098642826 -0.01627797633 -0.1952284276 2.345615283e-38
-0.3209694624 0.004339950625 0.1892649531 2.345615283e-38
-0.1349648088 0.07803353667 0.2014283538 2.345615283e-38
-0.02669150382 0.07456615567 0.002089668764 2.345219836e-38
-0.2078107744 -0.0188245289 -0.05173507333 2.345219836e-38
-0.07799625397 -0.119792521 -0.1507907957 2.345219836e-38
-0.1285587698 -0.1303882301 0.1898192167 2.345219836e-38
0.1067186743 -0.04806225374 -0.07214064896 2.345219836e-38
-0.2640858591 -0.1218265593 -0.181069389 2.345219836e-38
-0.1072569638 -0.1044727564 0.01498889457 2.345219836e-38
-0.2773365974 -0.1314752102 0.04881508276 2.345219836e-38
0.09465395659 -0.06255319715 -0.1627880633 2.345219836e-38
