# .PCD v0.7 - Point Cloud Data file format
VERSION 0.7
FIELDS x y z rgb
SIZE 4 4 4 4
TYPE F F F F
COUNT 1 1 1 1
WIDTH 829
HEIGHT 1
VIEWPOINT 0 0 0 1 0 0 0
POINTS 829
DATA ascii
0.01973753422 -0.01656443626 -0.3918301761 1.404926846e-38
-0.2257306725 -0.1024501547 -0.4892325103 1.404926846e-38
-0.1021294817 0.06248757616 -0.4446920753 1.404926846e-38
0.02253806405 -0.06487325579 -0.4345514774 1.404926846e-38
0.04024258628 0.05386363342 -0.4760138988 1.404926846e-38
-0.1739676297 -0.126468569 -0.464384079 1.404926846e-38
-0.1859603673 0.049094107 -0.4768862426 1.404926846e-38
-0.0425475128 -0.07186762989 -0.4891909063 1.404926846e-38
-0.05299907923 -0.07901737839 -0.4764961898 1.404926846e-38
-0.1622588336 -0.1111323982 -0.4611069262 1.404926846e-38
-0.1442336142 -0.003765933216 -0.3661586344 1.404926846e-38
-0.208892107 -0.009678235278 -0.4500606358 1.404926846e-38
-0.3451086283 0.06036862358 -0.3916744888 1.404926846e-38
-0.1413004845 -0.02193657868 -0.4643712342 1.404926846e-38
0.1896372437 0.1083813235 -0.245243147 1.478322936e-38
0.2774877548 0.1052942201 -0.4031384587 1.478322936e-38
0.3127526939 0.09496022016 -0.3552405536 1.478322936e-38
0.3100187182 0.08799726516 -0.1520259827 1.478322936e-38
-0.01832175814 0.1371931583 -0.4101630747 1.478322936e-38
0.148280248 0.1401589513 -0.05134500936 1.478322936e-38
0.2499549091 -0.08539111912 -0.3495404422 1.478322936e-38
0.1889240593 0.04271528497 -0.2802248001 1.478322936e-38
-0.245350346 0.1003363729 -0.05110135302 1.478322936e-38
-0.428707391 0.09680759907 -0.1988026053 1.478322936e-38
0.06838414073 -0.007771223783 -0.2516864538 1.478322936e-38
-0.002866915893 -0.008442998864 -0.1825202554 1.478322936e-38
-0.2996582687 -0.09655351192 -0.266056329 1.478322936e-38
-0.3792582452 0.0561154075 -0.1030218005 1.478322936e-38
0.1207386181 -0.0742778033 -0.418548286 1.478322936e-38
-0.05945391953 -0.04469776154 -0.2176954001 1.478322936e-38
-0.1936192811 -0.09546428919 -0.1708331704 1.478322936e-38
-0.2175209373 0.01240180153 -0.1237587407 1.478322936e-38
0.1018158197 -0.05747724697 -0.3387886286 1.478322936e-38
0.004283759743 -0.08398848772 -0.1590222269 1.478322936e-38
-0.1595777422 -0.1137763411 -0.3057246506 1.478322936e-38
-0.1967996955 -0.002396258526 0.01965685934 1.478322936e-38
0.08625670522 -0.07961479574 -0.3602548242 1.478322936e-38
-0.0340667814 -0.01996944658 -0.1454149336 1.478322936e-38
-0.08996582776 -0.1108473912 -0.2414016128 1.478322936e-38
-0.1588561386 -0.02823413536 -0.02577073127 1.478322936e-38
0.05364673957 -0.1356879026 -0.2947970331 1.478322936e-38
-0.3062655926 -0.05218163133 -0.144097805 1.478322936e-38
0.09486261755 -0.084384799 -0.2524135113 1.478322936e-38
-0.05783354118 -0.1256821007 -0.2871615887 1.478322936e-38
-0.2984653711 -0.1200444847 -0.1100789383 1.478322936e-38
-0.3011303842 -0.06772899628 -0.2498939335 1.478322936e-38
-0.0859150216 0.1069399863 -0.2746715546 1.551683013e-38
-0.2232074887 0.1172134355 0.4427327514 1.551683013e-38
-0.3040754497 0.09599740058 -0.0869223997 1.551683013e-38
-0.04544904456 0.1147988141 -0.1310791671 1.551683013e-38
-0.147628665 0.1342600286 -0.03523628786 1.551683013e-38
-0.1409902424 0.1291097403 0.2357739955 1.551683013e-38
-0.3731446266 0.1312085986 0.2502973676 1.551683013e-38
-0.2057628334 0.1278858036 0.1006912813 1.551683013e-38
-0.3684519827 -0.01247613225 -0.3408434689 1.551683013e-38
-0.3603692651 0.09539713711 0.4561145008 1.551683013e-38
-0.3216167986 0.1037349924 -0.03787903115 1.551683013e-38
-0.3275570273 0.01191462111 -0.04328256473 1.551683013e-38
-0.2127870321 -0.1021289974 -0.002775218571 1.551683013e-38
-0.2863278687 0.1026396081 0.3336175084 1.551683013e-38
-0.2692071199 0.09720161557 0.1089179292 1.551683013e-38
-0.2733720243 -0.01950359344 0.1252030581 1.551683013e-38
-0.08588773757 -0.09253603965 -0.1382827908 1.551683013e-38
-0.2344078571 0.09086933732 0.3944819868 1.551683013e-38
-0.2148726434 0.04960603267 0.002745625097 1.551683013e-38
-0.164145723 -0.01173604745 0.01548266318 1.551683013e-38
-0.1664294451 -0.1125579327 0.04646475986 1.551683013e-38
-0.2287542671 0.09898856282 0.2642487884 1.551683013e-38
-0.1316740215 0.01255553588 0.1705665737 1.551683013e-38
-0.1568817347 0.008705686778 0.08767721057 1.551683013e-38
-0.1565561742 -0.03912746534 -0.0708155334 1.551683013e-38
-0.2526838481 0.1123734862 0.2412035912 1.551683013e-38
-0.1999904662 -0.121160537 0.2025776654 1.551683013e-38
-0.2873367667 -0.009831462055 0.2447249889 1.551683013e-38
-0.3104044199 0.06964240223 -0.1854506135 1.551683013e-38
-0.3590166867 -0.01841739193 0.1878662109 1.551683013e-38
-0.319010973 -0.04946587235 -0.2216363251 1.551683013e-38
-0.3510851264 0.1528647095 0.3115667701 1.551683013e-38
-0.3370034099 0.09974047542 -0.1460265219 1.625043089e-38
-0.319650203 0.1060774103 0.02196092904 1.625043089e-38
-0.3176620305 0.09905888885 -0.4673486948 1.625043089e-38
-0.3539115787 0.07467129827 0.05031694472 1.625043089e-38
-0.3358257413 0.1554884166 -0.3020798862 1.625043089e-38
-0.2629957199 0.1390683055 -0.1343959868 1.625043089e-38
-0.3558163643 -0.04195636883 -0.3351051211 1.625043089e-38
-0.3551093042 0.1111693904 0.2745342255 1.625043089e-38
-0.3507435322 0.1221597716 -0.1315613538 1.625043089e-38
-0.3469026089 0.1219893321 0.04907035828 1.625043089e-38
-0.349960506 -0.07821204513 -0.3917762041 1.625043089e-38
-0.3290639222 0.0444727242 0.1499671787 1.625043089e-38
-0.3037000299 0.1257175803 -0.2481169254 1.625043089e-38
-0.289093405 0.0873754397 -0.09106040001 1.625043089e-38
-0.2717342377 -0.08463712037 -0.2941117883 1.625043089e-38
-0.2661211491 0.03854619712 0.2290006429 1.625043089e-38
-0.2560937405 0.1181803495 -0.1825264394 1.625043089e-38
-0.2457068264 0.1142229065 -0.03601935133 1.625043089e-38
-0.2581942081 -0.04854761064 -0.3632915318 1.625043089e-38
-0.2493359745 0.01690778695 0.1011982337 1.625043089e-38
-0.2596669793 0.1164256781 -0.3664966226 1.625043089e-38
-0.2394115925 0.1066455692 -0.1483456492 1.625043089e-38
-0.2463920563 0.02193278819 -0.3019813895 1.625043089e-38
-0.2590384483 -0.05027791485 0.1256836504 1.625043089e-38
-0.2670754194 0.09266254306 -0.393340677 1.625043089e-38
-0.2435883135 0.0418911092 -0.06662320346 1.625043089e-38
-0.3247783184 0.07800491154 -0.2949898839 1.625043089e-38
-0.3700277805 -0.05706825852 0.02994042262 1.625043089e-38
-0.3458441794 -0.09690444171 -0.1827246696 1.625043089e-38
-0.3550524116 0.02052063495 0.194174543 1.625043089e-38
-0.337996304 0.1281495988 -0.2274532169 1.625043089e-38
-0.3646639884 0.1164592505 -0.03859143704 1.625043089e-38
0.1786942482 0.1004873887 -0.4220120013 1.698367293e-38
-0.3020479381 0.09517858177 -0.3244282305 1.698367293e-38
0.1467141658 0.09395664185 -0.2089702785 1.698367293e-38
-0.2837792337 0.09311334044 0.04019334912 1.698367293e-38
-0.2623377442 0.1432473511 -0.4669425488 1.698367293e-38
-0.005867249798 0.08793409914 0.01763658598 1.698367293e-38
-0.0479914248 0.1013269499 0.006385806017 1.698367293e-38
-0.3666630983 -0.006716960575 -0.1544896215 1.698367293e-38
-0.01730501652 0.0447544381 -0.4525966048 1.698367293e-38
-0.3599551916 0.109689258 -0.36031124 1.698367293e-38
-0.04420019686 -0.07995902002 -0.2808975279 1.698367293e-38
-0.2932024896 0.05284214392 -0.1669568717 1.698367293e-38
-0.1376012117 0.03171554953 -0.4422656894 1.698367293e-38
-0.23234649 0.0318707712 -0.3682225943 1.698367293e-38
-0.04688726738 -0.07544769347 -0.1218086481 1.698367293e-38
-0.2740699947 0.05157445744 -0.116166085 1.698367293e-38
0.01175955869 -0.003765504807 -0.4444072545 1.698367293e-38
-0.1614728272 0.001211353927 -0.3136051595 1.698367293e-38
-0.03524008021 -0.1133765951 -0.2614298761 1.698367293e-38
-0.2560674548 0.1225990653 -0.1555678546 1.698367293e-38
-0.1020396352 -0.0160020832 -0.4161593318 1.698367293e-38
-0.1227567866 -0.005691540428 -0.2278083265 1.698367293e-38
-0.1002219394 -0.1214444563 -0.2203351557 1.698367293e-38
-0.09481034428 -0.08778774738 0.110663116 1.698367293e-38
0.004679586273 -0.01730133034 -0.3554582298 1.698367293e-38
-0.1025707722 -0.004765567835 -0.1221577674 1.698367293e-38
-0.2095801681 -0.1028741673 -0.2087226361 1.698367293e-38
-0.1275397539 -0.07260546088 -0.04544596002 1.698367293e-38
0.07930415869 -0.1152731106 -0.1775358617 1.698367293e-38
-0.307700634 -0.101786904 -0.09245770425 1.698367293e-38
0.05734466761 -0.08151260763 -0.4431053102 1.698367293e-38
-0.325994283 -0.002106700791 -0.3356067538 1.698367293e-38
0.2728559673 0.08885915577 0.2719148099 1.771655483e-38
0.307785362 0.0743778199 -0.3751412034 1.771655483e-38
0.3240613937 0.09414262325 0.3901294768 1.771655483e-38
0.3185345531 0.06909167767 -0.06369064748 1.771655483e-38
0.1994458884 0.07681240141 0.2821219862 1.771655483e-38
0.3056902289 0.06014032289 -0.2114375681 1.771655483e-38
0.1432703137 -0.07200174034 0.322766602 1.771655483e-38
0.1930845678 0.08291362971 -0.3085414171 1.771655483e-38
0.2793851197 0.05519973859 0.09908851236 1.771655483e-38
0.2252174467 0.0956556201 -0.3321066797 1.771655483e-38
-0.1586796641 -0.08278445154 0.2837676704 1.771655483e-38
-0.1005469784 -0.05924301594 -0.1843029708 1.771655483e-38
-0.146315828 -0.0644909665 0.1500423104 1.771655483e-38
0.05324403569 0.02941342443 -0.4041222632 1.771655483e-38
-0.05206694454 -0.1031997204 0.3976735473 1.771655483e-38
-0.1281356514 -0.08778455853 -0.3474223316 1.771655483e-38
-0.02287709899 -0.06671123207 0.05151350796 1.771655483e-38
0.05967326462 0.05136685446 -0.4352821112 1.771655483e-38
-0.03273205459 -0.08884050697 0.270011574 1.771655483e-38
-0.0535097979 -0.06989623606 -0.1537368745 1.771655483e-38
-0.01136607118 -0.1134888381 0.2235954553 1.771655483e-38
0.03326271847 -0.04182341322 -0.3453221917 1.771655483e-38
0.01650246233 -0.112295799 0.188838765 1.771655483e-38
-0.128074035 -0.1149168313 -0.2452426255 1.771655483e-38
-0.03331220895 -0.1215247437 0.3063291907 1.771655483e-38
0.02981816418 -0.1167888045 -0.3005465269 1.771655483e-38
-0.09105554968 -0.1021754071 0.3703813851 1.771655483e-38
-0.16440171 -0.1249278933 -0.3084615469 1.771655483e-38
-0.2553901374 -0.1235947013 0.1612665951 1.771655483e-38
-0.05407119542 -0.09390513599 -0.4691191018 1.771655483e-38
-0.1450805217 -0.1290195435 -0.08319281042 1.771655483e-38
0.1042441353 -0.02767797559 -0.4153150618 1.771655483e-38
-0.2357106358 0.1085617095 0.2837756872 1.844943813e-38
-0.1755126268 0.08549766243 -0.08895526826 1.844943813e-38
-0.2176683098 0.1260004044 -0.3025623858 1.844943813e-38
-0.3023946285 0.09163502604 -0.3963336647 1.844943813e-38
-0.08149345219 0.1217973381 0.1132798344 1.844943813e-38
-0.2150462568 0.109868601 -0.003495902522 1.844943813e-38
-0.3297692537 -0.01930869184 -0.4496517181 1.844943813e-38
-0.3519719839 0.01810850389 -0.1649273336 1.844943813e-38
-0.2830202579 0.123775728 0.3440847695 1.844943813e-38
-0.3057403862 0.06792987138 -0.1470747739 1.844943813e-38
-0.3531735241 -0.01817631908 -0.3548697233 1.844943813e-38
-0.2951251268 -0.07835932821 -0.1433771551 1.844943813e-38
-0.2487614155 0.06551844627 0.283937186 1.844943813e-38
-0.2592273057 0.08583785594 0.06469352543 1.844943813e-38
-0.2866123915 -0.03056456335 -0.4084548652 1.844943813e-38
-0.2552244961 -0.09699746221 -0.1606998742 1.844943813e-38
-0.1981879175 0.06871577352 0.3596174717 1.844943813e-38
-0.2524783611 0.05053834617 0.004649471492 1.844943813e-38
-0.2651823759 0.0914542228 -0.2973189652 1.844943813e-38
-0.2365462631 0.03327683732 -0.1160322949 1.844943813e-38
-0.1817285568 0.06742163748 0.1856845766 1.844943813e-38
-0.1842346787 -0.01999533363 0.06490288675 1.844943813e-38
-0.2591776252 0.0918719396 -0.2240894884 1.844943813e-38
-0.2238273621 -0.008461824618 -0.03645023331 1.844943813e-38
-0.1874676943 0.03629342094 0.2497866452 1.844943813e-38
-0.1923451871 -0.05691935867 0.06721109152 1.844943813e-38
-0.3097227812 0.09957759827 -0.01452258974 1.844943813e-38
-0.3491098583 -0.002945615677 -0.06740451604 1.844943813e-38
-0.3324443102 -0.09561926872 -0.2421543002 1.844943813e-38
-0.3509438634 -0.1209531575 -0.08857794851 1.844943813e-38
-0.3156614006 0.03765634447 0.1308906376 1.844943813e-38
-0.3611779213 -0.03316771984 -0.276876837 1.844943813e-38
0.1771406531 0.1075668857 0.4720395207 1.91819627e-38
-0.0378292501 0.08234101534 0.303874135 1.91819627e-38
0.3191903234 0.03602416068 0.4546399415 1.91819627e-38
-0.05729027838 0.07776832581 0.2176402509 1.91819627e-38
-0.2010789514 0.1372072846 0.4790000319 1.91819627e-38
0.1913859546 0.1076771468 0.2300293893 1.91819627e-38
0.2897537351 0.0171487052 0.2565965056 1.91819627e-38
-0.2450090647 0.11760851 0.322155416 1.91819627e-38
0.04171669856 0.08599791676 0.478258729 1.91819627e-38
-0.154466182 0.06394311041 0.4160986841 1.91819627e-38
0.03949731961 -0.08480132371 0.3644918501 1.91819627e-38
-0.1849659681 0.08022776246 0.1951642632 1.91819627e-38
-0.1505642533 0.02147007734 0.4799390137 1.91819627e-38
-0.05788958818 0.02187111042 0.3519165516 1.91819627e-38
0.06898716837 -0.09296241403 0.2372086793 1.91819627e-38
-0.1950778812 0.0250746794 0.26613608 1.91819627e-38
-0.01549976598 0.04385042563 0.4963641465 1.91819627e-38
-0.08665783703 -0.002597683808 0.3740308881 1.91819627e-38
0.08847887069 -0.08942412585 0.3395717442 1.91819627e-38
-0.09482392669 -0.007628963329 0.1760029644 1.91819627e-38
-0.1571678817 0.03844984248 0.4890143275 1.91819627e-38
-0.05877226964 -0.006847050972 0.2811590135 1.91819627e-38
0.01939536259 -0.1103096604 0.2871339917 1.91819627e-38
-0.01885762811 -0.02183839679 0.1587325931 1.91819627e-38
-0.09695932269 0.01624780148 0.4278426468 1.91819627e-38
-0.1214699 0.005333864596 0.3526992798 1.91819627e-38
-0.07651735842 -0.1090679839 0.2893773913 1.91819627e-38
-0.1862801164 -0.05996161699 0.05978282169 1.91819627e-38
-0.1005020067 -0.1336272955 0.2300314605 1.91819627e-38
-0.3479539454 -0.0009770538891 0.3566590548 1.91819627e-38
-0.1191635504 -0.144508794 0.4245108068 1.91819627e-38
-0.2794676721 -0.1613532454 0.1277824044 1.91819627e-38
0.2099647671 0.1180592328 0.01263630204 1.991448586e-38
0.2081028968 0.08246377856 0.25493747 1.991448586e-38
0.07318464667 0.1065767929 0.2279226333 1.991448586e-38
0.2511614859 0.1091676205 0.2322078198 1.991448586e-38
-0.08620837331 0.1293470562 -0.05754663795 1.991448586e-38
0.04941961914 0.1107281372 0.05742023885 1.991448586e-38
-0.1408901662 0.1088886335 0.04298871011 1.991448586e-38
0.2507076859 0.08494076878 0.3913127184 1.991448586e-38
0.01617943868 0.0505717285 -0.00175159995 1.991448586e-38
-0.0189370811 0.1310372949 0.2726847529 1.991448586e-38
-0.3063602746 -0.09792660922 0.1422906369 1.991448586e-38
-0.02820001729 -0.091211766 0.3555821776 1.991448586e-38
-0.1919492036 -0.001463956083 -0.1065004468 1.991448586e-38
-0.1217116639 0.04986486211 0.1682246923 1.991448586e-38
-0.2142934799 -0.09615848213 0.1073900536 1.991448586e-38
-0.0447357893 -0.01679165475 0.4231739044 1.991448586e-38
-0.06773203611 -0.006668133661 -0.09115831554 1.991448586e-38
0.008418204263 -0.009313120507 0.1975025982 1.991448586e-38
-0.16873689 -0.1069735363 0.2335477769 1.991448586e-38
-0.06998378038 -0.1148746014 0.3657723665 1.991448586e-38
-0.1272024661 -0.01499759406 -0.1817913949 1.991448586e-38
-0.07934961468 -0.009609961882 0.09082575142 1.991448586e-38
-0.2422724217 -0.1089656428 0.1879169196 1.991448586e-38
-0.003672836581 -0.1260368824 0.3163984716 1.991448586e-38
-0.03000129201 -0.01323196199 -0.2113177329 1.991448586e-38
-0.01095516328 -0.02685216814 0.156449914 1.991448586e-38
-0.2943030894 -0.1237120032 -0.04142661393 1.991448586e-38
-0.1268040836 -0.04422618449 0.2529775798 1.991448586e-38
-0.1495088637 -0.1058459207 0.07862316817 1.991448586e-38
-0.1542045027 -0.1100496277 0.2890819609 1.991448586e-38
0.0004246830649 -0.0906265825 -0.2371999472 1.991448586e-38
-0.3274962902 -0.1316242218 0.1304323375 1.991448586e-38
0.3404378891 0.07223906368 -0.3518190682 2.06466517e-38
0.00124615361 0.0931968987 -0.4623938203 2.06466517e-38
0.3361629844 0.1056004763 -0.1379310042 2.06466517e-38
0.01792709716 0.09304372221 -0.3069824874 2.06466517e-38
0.2469746172 0.1233656853 -0.4024764895 2.06466517e-38
0.1584988385 0.1082990691 -0.4626614451 2.06466517e-38
0.3331185281 0.1173613295 0.1856372356 2.06466517e-38
0.2420912385 0.1052346826 -0.1882804185 2.06466517e-38
0.09770384431 0.09334905446 -0.2409363687 2.06466517e-38
-0.2611275315 0.1129334196 -0.4617954195 2.06466517e-38
0.2024926543 0.009105058387 -0.1074751243 2.06466517e-38
-0.06611976027 0.003641674994 -0.2118709683 2.06466517e-38
-0.02182642184 0.05927468464 -0.4038278162 2.06466517e-38
-0.173385933 0.1232512668 -0.4063945711 2.06466517e-38
0.1940762401 -0.02426931448 0.06802678853 2.06466517e-38
0.001787079498 -0.004974253476 -0.178198278 2.06466517e-38
0.07470808178 0.005878164899 -0.3998480141 2.06466517e-38
-0.1661294699 0.06999930739 -0.3995238245 2.06466517e-38
0.2158190906 -0.02906943485 -0.1149487421 2.06466517e-38
-0.001464648987 0.009775755927 -0.1549118012 2.06466517e-38
-0.0316667296 0.01757228188 -0.3916988075 2.06466517e-38
-0.1246645302 0.007751000579 -0.3799780011 2.06466517e-38
0.1533584297 0.003038676456 -0.1413181871 2.06466517e-38
0.08301702887 -0.007853283547 -0.13894324 2.06466517e-38
-0.04989050329 -0.05988397822 -0.3571622074 2.06466517e-38
-0.1421049982 -0.08519729227 -0.3961156905 2.06466517e-38
0.01291998848 -0.0661360845 -0.3991914392 2.06466517e-38
0.06749298424 -0.05614448339 -0.4001759291 2.06466517e-38
0.2185792327 -0.1156882942 -0.2471340597 2.06466517e-38
-0.02206847817 -0.05948446319 -0.2420955002 2.06466517e-38
-0.03783468157 -0.02369046211 -0.3935650885 2.06466517e-38
-0.2616754174 0.08803432435 -0.4345457256 2.06466517e-38
-0.3200885653 0.1365984976 0.3824278414 2.137881613e-38
-0.3345118761 0.07806892693 0.2451169342 2.137881613e-38
-0.162288487 0.1135661677 -0.3727557957 2.137881613e-38
-0.2613223493 0.1055813208 -0.132578373 2.137881613e-38
-0.3790235221 0.1291627586 0.1548381895 2.137881613e-38
-0.3651037216 0.1181403399 0.1115472093 2.137881613e-38
-0.3630472422 0.1412764043 -0.1912560761 2.137881613e-38
-0.2012200654 0.1186003909 0.06237603724 2.137881613e-38
-0.358229965 0.03051174805 0.346049875 2.137881613e-38
-0.353305012 0.1128879488 0.337806493 2.137881613e-38
-0.2909266353 0.05300450325 -0.3327445388 2.137881613e-38
-0.2373288423 0.1462938786 -0.02118301578 2.137881613e-38
-0.316911459 -0.0781250298 0.1245727837 2.137881613e-38
-0.3143881857 0.1259213835 0.2272090614 2.137881613e-38
-0.2203395367 0.03203076869 -0.2404886931 2.137881613e-38
-0.2289243042 0.07126638293 0.006467572413 2.137881613e-38
-0.2708149254 -0.08548098058 0.1952037364 2.137881613e-38
-0.2571368515 0.1045732573 0.3119151294 2.137881613e-38
-0.1547953337 0.004482388496 -0.3259902596 2.137881613e-38
-0.1613552868 0.0432241112 -0.07171342522 2.137881613e-38
-0.2608138025 -0.09078004956 0.05380821973 2.137881613e-38
-0.2249827385 0.09762431681 0.1726340353 2.137881613e-38
-0.1335988045 -0.09235099703 -0.1589072645 2.137881613e-38
-0.2086002827 0.07326333225 -0.01608456112 2.137881613e-38
-0.2541270256 -0.09049034119 -0.08996118605 2.137881613e-38
-0.2216141373 0.02885119617 0.09763240069 2.137881613e-38
-0.3145979047 -0.1276305765 -0.135658294 2.137881613e-38
-0.3369942904 0.09674915671 0.003994767554 2.137881613e-38
-0.3152127266 0.1144951656 -0.1803148389 2.137881613e-38
-0.3531617522 0.1417410374 0.06151003018 2.137881613e-38
-0.3813223541 -0.07865843177 0.1140867323 2.137881613e-38
-0.3360555768 0.1334741265 0.2078962475 2.137881613e-38
0.02511864714 0.08235361427 0.1752134264 2.211062324e-38
-0.3131995797 0.07953941077 0.2483618855 2.211062324e-38
-0.03389889747 0.1192077845 -0.2426372766 2.211062324e-38
-0.3444959521 0.07389497757 -0.4345288575 2.211062324e-38
-0.02305421047 0.08982927352 -0.109967716 2.211062324e-38
-0.34969908 0.1157487854 -0.1910041422 2.211062324e-38
-0.03032438271 0.1425731033 -0.4986327291 2.211062324e-38
-0.3745705485 0.1230361089 -0.1610332727 2.211062324e-38
-0.2769749761 0.1075991169 0.1169368327 2.211062324e-38
-0.3354443312 0.07925726473 0.2949669659 2.211062324e-38
-0.2082390487 0.01094251405 -0.3783284426 2.211062324e-38
-0.3365819156 0.120483622 -0.2782506943 2.211062324e-38
-0.2483689934 0.04892307147 0.04586555064 2.211062324e-38
-0.2353151143 0.1271814406 0.1584654003 2.211062324e-38
-0.1207686961 -0.08035865426 -0.3670225143 2.211062324e-38
-0.2387981713 0.09619429708 -0.1794847697 2.211062324e-38
-0.1823606193 -0.001224472537 0.1473133415 2.211062324e-38
-0.22706002 0.03135258332 0.2809948027 2.211062324e-38
-0.199517712 -0.04360552505 -0.2391285002 2.211062324e-38
-0.1608815193 0.1167195737 -0.3571686149 2.211062324e-38
-0.1363504529 0.01288415678 -0.049509909 2.211062324e-38
-0.2412135899 0.1109107211 0.05336835235 2.211062324e-38
-0.1395023316 -0.09913400561 -0.193637982 2.211062324e-38
-0.1660137326 0.0691569075 -0.2885019183 2.211062324e-38
-0.140221104 -0.04561512545 -0.07114481181 2.211062324e-38
-0.2396937758 0.1240559593 -0.137824893 2.211062324e-38
-0.1609027088 -0.08480794728 -0.2118930221 2.211062324e-38
-0.3478353918 0.01177697536 -0.02220546082 2.211062324e-38
-0.1548479199 -0.1336124241 -0.2319792211 2.211062324e-38
-0.3656633496 0.1292406172 -0.1274924874 2.211062324e-38
-0.3646577299 -0.04142692685 0.08813422173 2.211062324e-38
-0.3689246774 0.1199635044 0.09482364357 2.211062324e-38
0.3180454969 0.1051276624 -0.1464086175 2.284242894e-38
0.3215559423 0.09159982204 0.1628850251 2.284242894e-38
0.3358086646 0.1039624661 0.2317395061 2.284242894e-38
0.336368531 0.08876898885 -0.3379972875 2.284242894e-38
0.3522062898 0.1485011131 0.005004680716 2.284242894e-38
0.3528061807 0.0840344727 0.04909850657 2.284242894e-38
0.1936199069 0.07500384748 0.4766829908 2.284242894e-38
0.2057756186 -0.08787298203 -0.3558625877 2.284242894e-38
0.001144691836 0.07671976835 -0.2846198976 2.284242894e-38
0.2722801268 0.04604809731 0.1935780346 2.284242894e-38
-0.03764377162 -0.02901346236 0.360107094 2.284242894e-38
-0.05720768496 -0.06474770606 -0.428560704 2.284242894e-38
-0.1959260255 0.01343806367 -0.2352120131 2.284242894e-38
0.03074336983 0.01330972463 0.1516660154 2.284242894e-38
-0.06806217879 -0.01327206288 0.4002835155 2.284242894e-38
0.09032015502 -0.1119998321 -0.4669938684 2.284242894e-38
-0.1225484908 0.0001945002005 -0.3348579109 2.284242894e-38
0.009846070781 0.0005568190827 0.1127111465 2.284242894e-38
0.1071641892 -0.06345772743 0.2283768803 2.284242894e-38
0.064505741 -0.07571920007 -0.3890698254 2.284242894e-38
-0.05529864877 -0.01075294893 -0.1396377534 2.284242894e-38
-0.0253964439 -0.03022309765 0.1334146559 2.284242894e-38
0.08678635955 -0.05428446457 0.2949739993 2.284242894e-38
0.00946688652 -0.13378793 -0.1883024722 2.284242894e-38
-0.1475791633 -0.0205799751 -0.155350104 2.284242894e-38
-0.05983801186 -0.01648147032 -0.2348731011 2.284242894e-38
-0.2004067153 -0.02642570622 0.2987018526 2.284242894e-38
-0.1377462596 -0.02140171081 -0.3982169926 2.284242894e-38
-0.1763675064 -0.04044418409 -0.02641531639 2.284242894e-38
0.1197332591 -0.03990620375 -0.346413523 2.284242894e-38
-0.004124051891 -0.008179744706 -0.3707199693 2.284242894e-38
-0.02423430234 -0.06674429029 -0.312659502 2.284242894e-38
0.307990104 0.0977191329 -0.4241409898 2.348204041e-38
0.2936557233 -0.1119038686 -0.4261637628 2.348204041e-38
0.270470053 0.112752676 -0.4320526421 2.348204041e-38
0.3097399175 0.07640030235 -0.424475342 2.348204041e-38
0.2503542304 0.128103748 -0.3711436689 2.348204041e-38
0.2717658281 -0.02713814005 -0.4464316964 2.348204041e-38
-0.1249358431 0.06416445971 -0.4321783781 2.348204041e-38
0.04126295075 -0.02145586908 -0.3554344475 2.348204041e-38
0.1743501425 0.008985694498 -0.2284673899 2.348204041e-38
0.08717787266 -0.08432356268 -0.4689900279 2.348204041e-38
-0.3118433654 -0.0476715602 -0.4835128486 2.348204041e-38
-0.06167902052 0.01225407142 -0.432056427 2.348204041e-38
0.07233944535 0.006621800363 -0.2882098556 2.348204041e-38
-0.08179897815 -0.1196905598 -0.4745018184 2.348204041e-38
-0.2764198482 0.008121296763 -0.4911000133 2.348204041e-38
0.01173254661 -0.02460471727 -0.4526823461 2.348204041e-38
0.07127329707 -0.05593291298 -0.3744055629 2.348204041e-38
0.02988888137 -0.1171513647 -0.4775378108 2.348204041e-38
-0.1705903113 -0.05198062956 -0.4855843186 2.348204041e-38
-0.01891403832 0.07728541642 -0.4446395934 2.348204041e-38
0.1207395792 0.02773964778 -0.3746254444 2.348204041e-38
-0.05978256837 -0.08602439612 -0.4842424095 2.348204041e-38
-0.05811773241 0.006199146155 -0.4843030572 2.348204041e-38
0.000588506402 0.03364151344 -0.4785805345 2.348204041e-38
0.08890258521 -0.008023760282 -0.4085207283 2.348204041e-38
-0.002014798112 -0.08011712879 -0.4911235273 2.348204041e-38
-0.09108468145 0.06020223349 -0.4718928337 2.348204041e-38
-0.1274329871 -0.01887430996 -0.4762499928 2.348204041e-38
-0.2209156603 -0.1215478107 -0.4239898324 2.348204041e-38
0.07358893752 -0.102558054 -0.4751415253 2.348204041e-38
-0.00739166094 -0.05974797159 -0.3567457795 2.348204041e-38
0.088252455 -0.05837106705 -0.4684569836 2.348204041e-38
-0.3586073518 0.1026611552 -0.1794079989 2.347880341e-38
-0.3463557363 0.0746094659 -0.3829556406 2.347880341e-38
-0.3159608543 -0.1165892556 -0.439732939 2.347880341e-38
-0.3404763043 -0.003109445097 -0.427087009 2.347880341e-38
-0.2496518344 0.1053151414 -0.3230868578 2.347880341e-38
-0.3336713016 0.1453101188 -0.3290096521 2.347880341e-38
-0.3368804753 -0.05706274509 -0.3673422635 2.347880341e-38
-0.3214305043 -0.0213792827 -0.2566346526 2.347880341e-38
-0.3632447422 0.03157071397 -0.0849801898 2.347880341e-38
-0.3988543749 0.07583732158 -0.4296799004 2.347880341e-38
-0.3162286878 -0.1124919057 -0.4195334017 2.347880341e-38
-0.2930668294 -0.1281666905 -0.2479872406 2.347880341e-38
-0.3190127909 0.02851936035 -0.1792698056 2.347880341e-38
-0.3354309201 0.04834620282 -0.3150553107 2.347880341e-38
-0.267239064 -0.08940476179 -0.4142916799 2.347880341e-38
-0.287019372 -0.1244990081 -0.2316100001 2.347880341e-38
-0.2717543244 -0.01274679136 -0.04599197209 2.347880341e-38
-0.28316921 0.03175183386 -0.3060854375 2.347880341e-38
-0.201776728 -0.1441210061 -0.4516044855 2.347880341e-38
-0.2573992908 -0.09145081788 -0.3597745299 2.347880341e-38
-0.260407418 -0.07166238129 -0.1459769607 2.347880341e-38
-0.2801844776 0.01263102796 -0.2313446552 2.347880341e-38
-0.1953507364 -0.1299568266 -0.3884647191 2.347880341e-38
-0.240128696 -0.02275355719 -0.3384542763 2.347880341e-38
-0.191011399 -0.127786532 -0.06648166478 2.347880341e-38
-0.1789264977 -0.01572690904 -0.2718429565 2.347880341e-38
-0.3633921444 -0.02203263529 -0.2746340334 2.347880341e-38
-0.3841476738 0.03592105955 -0.2782537043 2.347880341e-38
-0.2848795056 -0.07899006456 -0.3322749734 2.347880341e-38
-0.2253750116 -0.1266654879 -0.2396597266 2.347880341e-38
-0.34382236 -0.04992910475 -0.006545211654 2.347880341e-38
-0.337230444 0.01455855276 -0.4081612825 2.347880341e-38
-0.2883924842 -0.0109720882 -0.4222211838 2.347520768e-38
-0.3493883908 0.1142947376 -0.02884481661 2.347520768e-38
-0.3221282363 0.09015281498 -0.2093000859 2.347520768e-38
-0.351398617 0.08417500556 -0.3955409825 2.347520768e-38
-0.3213908672 -0.1003490463 -0.4553765655 2.347520768e-38
-0.3764858544 0.1332798451 -0.2276759744 2.347520768e-38
-0.3434142768 -0.0258058887 -0.3433364928 2.347520768e-38
-0.3246593475 0.1078367904 -0.2714328766 2.347520768e-38
-0.3176837265 -0.0517963469 -0.3656295538 2.347520768e-38
-0.3831299841 0.1338145584 -0.02621035278 2.347520768e-38
-0.332303077 -0.02472533844 -0.255782932 2.347520768e-38
-0.3352032602 0.02287007496 -0.4069837034 2.347520768e-38
-0.1903824508 -0.1017951518 -0.3654055893 2.347520768e-38
-0.2860838175 0.1131958514 -0.09632523358 2.347520768e-38
-0.2374655306 -0.0561190173 -0.2645201385 2.347520768e-38
-0.301219821 0.08205146343 -0.3938277066 2.347520768e-38
-0.2120711058 -0.1074613109 -0.3238776922 2.347520768e-38
-0.2417943478 0.09173336625 -0.02291250043 2.347520768e-38
-0.2499573082 -0.03660742566 -0.08520834893 2.347520768e-38
-0.273552388 -0.04722440243 -0.4047151208 2.347520768e-38
-0.04257154837 -0.1199242026 -0.3058201969 2.347520768e-38
-0.253975749 0.09914764762 -0.1761576086 2.347520768e-38
-0.252746582 -0.06401072443 -0.1332017481 2.347520768e-38
-0.2526690066 -0.1036041155 -0.4390376508 2.347520768e-38
-0.1300476938 -0.1020821184 -0.3567015529 2.347520768e-38
-0.2175274342 0.09647809714 -0.2992824316 2.347520768e-38
-0.2681533098 -0.1201870665 -0.4229102433 2.347520768e-38
-0.3286986351 -0.008300284855 -0.4431311488 2.347520768e-38
-0.2955134809 -0.08364292979 -0.2305966765 2.347520768e-38
-0.3162883818 0.118466258 -0.2614320219 2.347520768e-38
-0.284122318 -0.0345508866 -0.3161849082 2.347520768e-38
-0.3374609947 0.1023031026 -0.1760911196 2.347520768e-38
0.3259292245 0.1028486937 0.03008324653 2.347161195e-38
0.3427015841 0.09033527225 0.1029049158 2.347161195e-38
0.1196298301 0.1217227727 0.3389157653 2.347161195e-38
0.327732861 0.08511642367 0.2832475007 2.347161195e-38
0.2136461586 0.159037903 -0.1681366563 2.347161195e-38
0.3551520705 0.1473893076 -0.1176201403 2.347161195e-38
-0.0518171154 0.1043355018 -0.3255659342 2.347161195e-38
0.196783334 0.08974225819 0.4457993805 2.347161195e-38
0.113370657 -0.0339512825 0.2243852466 2.347161195e-38
0.1927065551 0.08930295706 0.2431626618 2.347161195e-38
-0.2759987116 0.008773388341 0.08018182963 2.347161195e-38
-0.03222517669 -0.0006562954513 0.4446521699 2.347161195e-38
-0.1003487259 -0.06693166494 0.1315834969 2.347161195e-38
-0.00863170065 0.02235194109 -0.006680882536 2.347161195e-38
-0.229279235 -0.03177285939 -0.1145335957 2.347161195e-38
-0.02037669346 -0.01672906801 0.4302385449 2.347161195e-38
-0.06167853251 -0.06625884771 0.2172253132 2.347161195e-38
-0.01930607855 -0.08499886841 0.1008440852 2.347161195e-38
-0.1790260077 -0.006761641707 0.3015791476 2.347161195e-38
-0.05782555044 -0.08147991449 0.385507077 2.347161195e-38
-0.09179867059 -0.1097253263 0.1950033307 2.347161195e-38
0.08897900581 -0.09289309382 -0.2097086459 2.347161195e-38
-0.07377386093 -0.04674984515 0.02162916027 2.347161195e-38
0.0132679902 -0.1113295928 0.2906489968 2.347161195e-38
-0.1755966842 -0.110998854 0.2807514966 2.347161195e-38
0.008976695128 -0.0810636729 0.01271815319 2.347161195e-38
-0.02158582211 -0.04091768712 -0.3561745584 2.347161195e-38
0.08225684613 -0.07072079927 -0.1306109428 2.347161195e-38
-0.223472178 -0.1220426708 -0.07381542027 2.347161195e-38
-0.1171889976 -0.066930525 0.3613387644 2.347161195e-38
-0.1659962982 -0.09026060998 0.1605494469 2.347161195e-38
0.02950192057 -0.1052385643 -0.02123655751 2.347161195e-38
-0.3246090114 0.09168884903 0.3534391522 2.346801622e-38
-0.2317977995 0.05455702543 0.47646451 2.346801622e-38
-0.01810489222 0.1074165329 0.1381751448 2.346801622e-38
-0.3563869894 0.1110219955 0.4141517878 2.346801622e-38
-0.3323086798 0.1018165648 0.2051521391 2.346801622e-38
-0.319311738 0.1141408831 0.4524046779 2.346801622e-38
-0.2389355898 0.1212567762 -0.01461059228 2.346801622e-38
-0.3462900221 0.1057773754 0.2503387332 2.346801622e-38
-0.3500626683 0.0389835164 0.3898884952 2.346801622e-38
-0.2263003737 0.06364145875 0.4848361313 2.346801622e-38
-0.2557396591 0.1402841359 0.1111726537 2.346801622e-38
-0.3448634446 0.1228469983 0.3377016187 2.346801622e-38
-0.3659538329 -0.08052580059 0.2486718148 2.346801622e-38
-0.306913197 0.04720590636 0.4542394876 2.346801622e-38
-0.2065672576 0.1150819585 0.03788098693 2.346801622e-38
-0.2988742292 0.07368332148 0.2960033715 2.346801622e-38
-0.2638382316 -0.1033833846 0.288351357 2.346801622e-38
-0.2533960044 -0.06607161462 0.4830469191 2.346801622e-38
-0.2276823372 0.1209497675 0.1631260365 2.346801622e-38
-0.2500668764 0.1389932185 0.3948392272 2.346801622e-38
-0.2664887011 -0.07261732221 0.1805686057 2.346801622e-38
-0.2545814514 0.03560418636 0.4220702648 2.346801622e-38
-0.2468274683 0.1030525193 0.1776819527 2.346801622e-38
-0.2427589297 0.1469534636 0.3434622288 2.346801622e-38
-0.2767943144 -0.0392183736 0.2310145944 2.346801622e-38
-0.1885675937 0.04682368785 0.4411320984 2.346801622e-38
-0.3194561899 -0.02065260522 0.06976892054 2.346801622e-38
-0.3433794379 0.1085815504 0.2768184543 2.346801622e-38
-0.3339457512 0.07123125345 0.1515786797 2.346801622e-38
-0.3160504103 0.1442646831 0.3970437348 2.346801622e-38
-0.3480386138 -0.06420622021 0.2974180579 2.346801622e-38
-0.2716951668 0.1040356457 0.4124669731 2.346801622e-38
-0.2545004785 0.1067570299 -0.3507153988 2.346406175e-38
0.2465957552 0.07691337168 -0.4506469369 2.346406175e-38
0.2873736918 0.1188732311 -0.1796456128 2.346406175e-38
-0.2866999209 0.1025295183 -0.495891571 2.346406175e-38
-0.03707203269 0.1358889788 -0.2233567685 2.346406175e-38
0.02261987701 0.1319032311 -0.4100887775 2.346406175e-38
-0.03797386587 0.0937474966 -0.203019321 2.346406175e-38
-0.1513955444 0.06917690486 -0.4612319171 2.346406175e-38
-0.3864769936 0.1109405681 -0.4192910492 2.346406175e-38
-0.02516170591 0.02733701654 -0.3427344561 2.346406175e-38
-0.1344826519 0.02407816425 -0.3428067267 2.346406175e-38
-0.2401663214 0.1222557127 -0.4756423533 2.346406175e-38
-0.2956451774 0.09971836954 -0.3431041241 2.346406175e-38
-0.1079963669 0.1082964912 -0.4057475328 2.346406175e-38
0.05258515105 -0.1021764502 -0.3007066548 2.346406175e-38
-0.1478554606 0.06989540905 -0.4787623584 2.346406175e-38
-0.210845083 0.1115827709 -0.3308837414 2.346406175e-38
0.003969891462 0.06719089299 -0.411937803 2.346406175e-38
0.133656621 0.02017499506 -0.3724246621 2.346406175e-38
-0.1823790073 0.1389873475 -0.4235324562 2.346406175e-38
-0.1358390003 0.006320112851 -0.1965701282 2.346406175e-38
-0.08327630162 0.03096054494 -0.3551231623 2.346406175e-38
0.05147613958 -0.04113960639 -0.3591173589 2.346406175e-38
-0.1516580135 0.1283385307 -0.397008121 2.346406175e-38
-0.07252088189 -0.003069525352 -0.3282178938 2.346406175e-38
-0.09196788818 0.01785521396 -0.3887428939 2.346406175e-38
-0.2692991793 -0.04561996087 -0.2530499995 2.346406175e-38
-0.1769096106 0.007179956418 -0.4092362821 2.346406175e-38
-0.1389772147 -0.1079032049 -0.3619169295 2.346406175e-38
-0.1157321855 0.02846679837 -0.4877336025 2.346406175e-38
-0.3325438797 0.0405295454 -0.3873040676 2.346406175e-38
-0.08826554567 -0.03778181598 -0.4609795213 2.346406175e-38
0.2739698589 0.1120940819 0.3132500052 2.346010729e-38
0.05653584749 0.08998340368 -0.006953637581 2.346010729e-38
0.09219821543 0.1206748858 -0.4033521414 2.346010729e-38
-0.05586627871 0.06166672334 -0.3229753673 2.346010729e-38
-0.2551491559 0.1613779068 0.4431042075 2.346010729e-38
0.2595456541 0.1063485965 0.1822393686 2.346010729e-38
-0.3260260522 0.1253106296 -0.4606952369 2.346010729e-38
-0.1409207731 0.1005708948 -0.01963283122 2.346010729e-38
0.1320686042 0.1179887503 0.4173160493 2.346010729e-38
-0.2381291837 0.1098743603 0.1134760976 2.346010729e-38
-0.2328725755 0.1021766067 -0.4124000072 2.346010729e-38
-0.2695868611 0.06947945058 -0.1299144775 2.346010729e-38
-0.1736422032 -0.018478496 0.4668251872 2.346010729e-38
-0.2243496627 0.008041119203 0.2695179582 2.346010729e-38
-0.2114609182 0.08678057045 -0.4536407292 2.346010729e-38
-0.2495696247 0.04157495871 -0.106771484 2.346010729e-38
-0.030507138 -0.06798823923 0.489821732 2.346010729e-38
-0.1497428119 -0.008176561445 0.1848509461 2.346010729e-38
-0.1031134576 0.0007547287969 -0.3667958081 2.346010729e-38
0.02709889598 0.003223333508 -0.3021855652 2.346010729e-38
-0.2471143305 0.0152272284 0.428717643 2.346010729e-38
-0.0522091426 -0.007281443104 0.2054996192 2.346010729e-38
-0.08955632895 -0.01421439275 -0.2718670666 2.346010729e-38
0.06779500097 -0.01495020464 -0.2063389421 2.346010729e-38
-0.1578946412 -0.005400634836 0.3654111326 2.346010729e-38
-0.006725084968 -0.06438172609 0.07250028104 2.346010729e-38
-0.1453731358 -0.05752516165 -0.1843109876 2.346010729e-38
-0.185467124 -0.03340931609 -0.04797804356 2.346010729e-38
-0.2834168375 0.08853013068 -0.3440290987 2.346010729e-38
-0.2582021356 0.03303474188 0.00994617492 2.346010729e-38
-0.1563324034 -0.05324485153 0.4317553937 2.346010729e-38
-0.3544047773 0.08155798912 0.1186976358 2.346010729e-38
0.3005919755 0.06963047385 0.268122077 2.345615283e-38
0.3286964595 0.06345273554 -0.0884084627 2.345615283e-38
-0.01564581506 0.1031665429 -0.2628568411 2.345615283e-38
-0.2170523256 0.1045426354 0.2713932693 2.345615283e-38
0.2410755754 0.1496474147 0.03232904896 2.345615283e-38
0.1569212973 0.1223815158 0.187396884 2.345615283e-38
-0.341280818 0.1211173981 -0.0197156854 2.345615283e-38
-0.2340673655 0.146867156 -0.04814683273 2.345615283e-38
-0.3030987978 -0.06784684211 0.2897471786 2.345615283e-38
-0.306927979 -0.03613593057 -0.1836132109 2.345615283e-38
-0.3108001649 0.1028280854 -0.2879817784 2.345615283e-38
-0.3260925114 0.1308003515 0.1999264359 2.345615283e-38
-0.1527517438 -0.08931925893 0.1817464083 2.345615283e-38
-0.3002047837 -0.09449757636 -0.09496390074 2.345615283e-38
-0.2653372586 0.09522773325 -0.1838382632 2.345615283e-38
-0.2450627685 0.0737259388 0.08979463577 2.345615283e-38
-0.09441490471 -0.09585434943 0.2336038351 2.345615283e-38
-0.1796901673 -0.0988727659 -0.1282049567 2.345615283e-38
-0.2308651209 0.03594854102 -0.3560890257 2.345615283e-38
-0.2416730076 0.09780456871 0.1840292066 2.345615283e-38
-0.005226363428 -0.1130174622 0.01970399357 2.345615283e-38
-0.1926527321 -0.1066807956 0.08715178818 2.345615283e-38
-0.1907839924 0.003348539118 -0.2354442775 2.345615283e-38
-0.2416806817 0.1152186766 0.1285118312 2.345615283e-38
-0.02521506697 -0.1091936529 0.07205760479 2.345615283e-38
-0.1908854097 -0.01016365737 0.2732745111 2.345615283e-38
-0.2232522219 -0.1080487445 -0.02760938555 2.345615283e-38
-0.3811626434 -0.1213953197 0.008581230417 2.345615283e-38
-0.3358392715 0.1000401229 0.03314909711 2.345615283e-38
-0.355111599 -0.03081460483 -0.10581927 2.345615283e-38
-0.201214999 -0.1633517742 0.08357040584 2.345615283e-38
-0.2715579271 -0.07036937773 0.08639323711 2.345615283e-38
-0.003755417652 0.1100311503 -0.04966957495 2.345219836e-38
0.3257092834 0.08304966241 -0.2227848321 2.345219836e-38
-0.3304904997 0.1034619436 -0.1295362711 2.345219836e-38
0.3246498406 0.09925491363 0.002992680762 2.345219836e-38
0.007848243229 0.1327532381 0.1600590348 2.345219836e-38
0.1875303537 0.1259400994 0.0205849316 2.345219836e-38
-0.3315449357 0.1190529391 0.1505162567 2.345219836e-38
0.09489319474 0.09218218178 -0.21096313 2.345219836e-38
-0.2661690116 0.08303701878 -0.1575248241 2.345219836e-38
-0.2268926799 0.07850205898 -0.2833158076 2.345219836e-38
-0.3340903223 -0.02365472354 -0.03262910619 2.345219836e-38
-0.01617898792 0.05510433018 -0.160627678 2.345219836e-38
-0.214756757 0.015774142 0.006049961317 2.345219836e-38
-0.2477676719 0.005221408792 -0.2383357435 2.345219836e-38
-0.2540028095 -0.009919098578 0.05496130139 2.345219836e-38
-0.1032622978 -0.03313405067 -0.1895408779 2.345219836e-38
-0.07086669654 0.00259174197 -0.01918555424 2.345219836e-38
-0.2520057857 0.00533147715 -0.2973128855 2.345219836e-38
-0.1511321813 0.01761882938 -0.07914073765 2.345219836e-38
-0.0441438742 0.0004748776264 -0.1124923453 2.345219836e-38
-0.01338765118 -0.02302176133 0.1215308234 2.345219836e-38
-0.1300436109 -0.01868342422 -0.06356623769 2.345219836e-38
-0.1463403106 0.003869197564 0.0006054862752 2.345219836e-38
-0.1133370847 -0.0479324311 -0.1528720707 2.345219836e-38
0.002930554561 -0.01966716349 0.08597355336 2.345219836e-38
-0.159062475 -0.0003547295637 -0.2009494007 2.345219836e-38
-0.1598716974 -0.01283883117 0.1269195676 2.345219836e-38
-0.244446829 -0.03711307421 -0.2538873851 2.345219836e-38
-0.3486637473 -0.03125229478 -0.1216721311 2.345219836e-38
-0.07573933154 -0.1051993892 -0.2472331226 2.345219836e-38
-0.2087278962 -0.02560115233 -0.1953507662 2.345219836e-38
0.02612696774 -0.0215386916 -0.2992478013 2.345219836e-38
0.2754770517 0.07774657011 -0.2741650343 2.344788516e-38
-0.3275791109 0.08222603798 0.3280457854 2.344788516e-38
0.2747376263 0.1056149825 0.141899094 2.344788516e-38
-0.1528235227 0.09014879167 0.1953721493 2.344788516e-38
0.2670916915 0.1561989784 0.07131461799 2.344788516e-38
0.00023182109 0.1451724619 0.03823017702 2.344788516e-38
-0.05310234055 0.0845797658 0.3351364434 2.344788516e-38
-0.1909593493 0.09790775925 -0.3572508991 2.344788516e-38
0.1945265681 0.06546101719 -0.2835919261 2.344788516e-38
-0.3315033913 0.03493888304 0.4167812765 2.344788516e-38
-0.1286107302 -0.09882166982 0.09175252169 2.344788516e-38
-0.3507383764 -0.08509080857 -0.1573804319 2.344788516e-38
-0.07980775833 -0.0462981537 -0.09910807759 2.344788516e-38
-0.2897641659 -0.09406757355 0.227159813 2.344788516e-38
-0.1673531234 -0.1019414589 0.156241402 2.344788516e-38
-0.2223020792 -0.1109672934 -0.1957873553 2.344788516e-38
0.04550546408 -0.0218004752 -0.2688616216 2.344788516e-38
-0.250126332 -0.0892092362 0.3248787522 2.344788516e-38
-0.03395161778 -0.09560653567 0.2083052844 2.344788516e-38
-0.1557005793 -0.1091796309 -0.001947691082 2.344788516e-38
0.01873648353 -0.0910532102 -0.03695000336 2.344788516e-38
-0.218828246 -0.1116152629 0.1707072258 2.344788516e-38
-0.07088707387 -0.1126971692 0.3022890091 2.344788516e-38
-0.09412713349 -0.1373509765 0.05272569507 2.344788516e-38
0.02076567523 -0.05177867413 -0.1416781247 2.344788516e-38
-0.1375531107 -0.1220399365 0.189691484 2.344788516e-38
-0.3202476501 -0.07948476076 -0.1440438032 2.344788516e-38
-0.3336656392 -0.114991799 0.06023890898 2.344788516e-38
-0.1767237186 -0.1036682799 -0.1430323124 2.344788516e-38
-0.3562478423 -0.1055608466 -0.01398217678 2.344788516e-38
-0.009441568516 0.03912832215 -0.4310222566 2.344788516e-38
-0.3229364157 -0.1351434439 0.2348212749 2.344788516e-38
0.1761841178 0.1100257859 -0.3634096682 2.344357197e-38
0.3110947907 0.0828634277 -0.1441354901 2.344357197e-38
0.1334890723 0.1273939461 -0.4332211018 2.344357197e-38
0.2950089276 -0.06560590863 -0.3598427176 2.344357197e-38
-0.01281192806 0.134315446 -0.3437593877 2.344357197e-38
0.04160345346 0.1075598523 -0.2222826481 2.344357197e-38
-0.2742142677 0.1316929311 -0.4329154789 2.344357197e-38
0.213237837 0.07795698941 -0.2810892761 2.344357197e-38
-0.1576516777 -0.04467406124 -0.2225899845 2.344357197e-38
0.08021402359 0.01853969507 -0.1143860891 2.344357197e-38
-0.07587905973 0.09771045297 -0.4190608263 2.344357197e-38
0.06152372435 -0.04757423699 -0.1054506972 2.344357197e-38
-0.1224193573 -0.09957253933 -0.2991609573 2.344357197e-38
-0.1715191901 -0.06805084646 -0.1197275668 2.344357197e-38
-0.1335570514 0.08240089566 -0.4208493233 2.344357197e-38
0.08859529346 -0.01886456087 -0.2119595259 2.344357197e-38
-0.04162710533 -0.08781915158 -0.3031878471 2.344357197e-38
0.04897477105 -0.06468798965 -0.09101326764 2.344357197e-38
0.02999217622 0.02411292866 -0.4000670612 2.344357197e-38
0.0984583199 -0.01415478531 -0.2626449168 2.344357197e-38
-0.129109934 -0.1219837666 -0.3040125966 2.344357197e-38
-0.03387276083 -0.09689006954 -0.1872290522 2.344357197e-38
-0.02785062045 -0.005668005906 -0.4008359909 2.344357197e-38
0.1138492748 -0.02215239033 -0.3345535994 2.344357197e-38
-0.1901066452 -0.09323885292 -0.3814826906 2.344357197e-38
-0.002423438244 -0.067919828 -0.1955714673 2.344357197e-38
-0.20681566 0.04808854312 -0.371340692 2.344357197e-38
0.08828283101 -0.01532617863 -0.3551885188 2.344357197e-38
-0.1163677871 -0.07669616491 -0.4339379966 2.344357197e-38
0.3073477745 -0.04798751697 -0.2093594819 2.344357197e-38
0.1108115688 -0.1513220966 -0.3415679932 2.344357197e-38
0.1236106679 -0.1456525922 -0.23864007 2.344357197e-38
0.002743121702 0.07904985547 0.4530873001 2.343925737e-38
0.2268861234 0.1142771617 0.3237847686 2.343925737e-38
-0.04099463671 0.08395452797 0.3977206647 2.343925737e-38
0.3233027458 0.05977730453 0.2289370745 2.343925737e-38
-0.1136392877 0.1377156973 0.2890358269 2.343925737e-38
-0.06252324581 0.09019524604 0.4072650075 2.343925737e-38
-0.3413434029 0.1570275128 0.4250660241 2.343925737e-38
0.1244255975 0.005648135673 -0.07345096767 2.343925737e-38
-0.221975401 0.06986121833 0.3289875388 2.343925737e-38
-0.04503676668 0.03074372746 0.2431061864 2.343925737e-38
-0.1441079527 -0.06186341122 0.4695782959 2.343925737e-38
-0.1903793663 -0.03799729422 0.02349930443 2.343925737e-38
-0.1230600849 0.00450586481 0.2450335771 2.343925737e-38
-0.2979934514 0.09834932536 0.3639315963 2.343925737e-38
-0.2028689682 -0.0639699623 0.4722859859 2.343925737e-38
-0.1477813721 -0.01700685918 0.01027495787 2.343925737e-38
-0.00060882041 -0.005807781592 0.3752396703 2.343925737e-38
-0.1922406554 0.02303815819 0.2989203334 2.343925737e-38
-0.04460195452 -0.03526965901 0.4942017496 2.343925737e-38
-0.123972401 0.003122684546 0.1110475212 2.343925737e-38
0.0563159585 -0.1150632054 0.2479854524 2.343925737e-38
-0.1243409142 -0.01352776028 0.2906954288 2.343925737e-38
-0.07488101721 -0.03540531546 0.3996787965 2.343925737e-38
-0.1764143854 -0.02092223801 0.2016636282 2.343925737e-38
-0.03059218079 -0.09747918695 0.3229758441 2.343925737e-38
-0.01548240706 -0.02389353886 0.21637851 2.343925737e-38
-0.1857755482 -0.040426597 0.3696670532 2.343925737e-38
-0.3356918395 -0.02447652631 0.246155858 2.343925737e-38
-0.1287737191 -0.04004475102 0.3867562115 2.343925737e-38
-0.09962007403 -0.08686900139 0.06529415399 2.343925737e-38
-0.2782486081 -0.0991217047 0.405290246 2.343925737e-38
-0.245626688 -0.09103510529 0.1398508251 2.343925737e-38
-0.2879979014 0.01807377301 0.458099544 2.343458544e-38
-0.312518239 -0.01796343923 0.3824730217 2.343458544e-38
-0.2856937945 -0.09811119735 0.4233440161 2.343458544e-38
-0.2532661557 0.1358662397 0.4860589504 2.343458544e-38
-0.3458392322 -0.07017512619 0.4551161528 2.343458544e-38
-0.3450288475 0.08455633372 0.4204769135 2.343458544e-38
-0.3151137531 -0.09100818634 0.3359789252 2.343458544e-38
-0.2968097925 0.08768918365 0.4335445762 2.343458544e-38
-0.3099286258 0.06144512072 0.4573043883 2.343458544e-38
-0.3548791111 -0.04456961527 0.2976330519 2.343458544e-38
-0.3284906149 -0.1047592759 0.3959290683 2.343458544e-38
-0.3092483282 0.119223699 0.4369443357 2.343458544e-38
-0.316665858 -0.01028369274 0.4799016714 2.343458544e-38
-0.3479420245 0.01228129212 0.256370157 2.343458544e-38
-0.2621448636 -0.1026826352 0.3667076826 2.343458544e-38
-0.240192011 0.04690615088 0.4079871178 2.343458544e-38
-0.2478231639 0.02653391473 0.4908535182 2.343458544e-38
-0.2794117928 -0.01488475129 0.1846978366 2.343458544e-38
-0.1469024569 -0.1068669707 0.4717493057 2.343458544e-38
-0.151251629 0.1032641158 0.4400209486 2.343458544e-38
-0.2242932022 -0.06557088345 0.4797061682 2.343458544e-38
-0.2497899383 0.01746256463 0.3115512133 2.343458544e-38
-0.1472704262 -0.09452103823 0.3610483408 2.343458544e-38
-0.2424097061 0.03344553709 0.4204914868 2.343458544e-38
-0.1917411536 -0.04607210681 0.4911570549 2.343458544e-38
-0.2090418041 -0.0002655610442 0.3500633538 2.343458544e-38
-0.2758895755 -0.05217702687 0.2030617595 2.343458544e-38
-0.3483293653 0.05567600206 0.3040767014 2.343458544e-38
-0.3177053034 -0.1096168011 0.3754886389 2.343458544e-38
-0.3079810441 0.02632633038 0.461740464 2.343458544e-38
-0.226951912 0.01953676529 0.4765441716 2.343458544e-38
-0.3045628965 -0.1442234367 0.297832191 2.343458544e-38
-0.3059523404 0.1020512134 0.3729027212 2.343027224e-38
-0.3504264057 0.06090151891 0.4462116063 2.343027224e-38
-0.110349685 0.1229928136 0.2851238251 2.343027224e-38
-0.3124510944 -0.1320818812 0.4293818176 2.343027224e-38
-0.2738030553 0.1061324701 0.4447742403 2.343027224e-38
-0.3324742019 -0.02355728298 0.4526981115 2.343027224e-38
-0.2778888047 0.1178283319 0.09971127659 2.343027224e-38
-0.3293789625 -0.0701540336 0.3649175763 2.343027224e-38
-0.4182910323 0.07348755747 0.2833198607 2.343027224e-38
-0.3812905252 0.03563477099 0.4206908345 2.343027224e-38
-0.2531502247 0.08499377221 0.2049424499 2.343027224e-38
-0.2477475554 -0.1110443473 0.3792608082 2.343027224e-38
-0.3137620091 0.1032872796 0.3814128339 2.343027224e-38
-0.335814178 -0.09467764199 0.4259359241 2.343027224e-38
-0.2516806722 0.1034353673 0.1308163404 2.343027224e-38
