# .PCD v0.7 - Point Cloud Data file format
VERSION 0.7
FIELDS x y z rgb
SIZE 4 4 4 4
TYPE F F F F
COUNT 1 1 1 1
WIDTH 825
HEIGHT 1
VIEWPOINT 0 0 0 1 0 0 0
POINTS 825
DATA ascii
-0.1285499483 -0.1422480196 0.3632512093 4.359662329e-39
0.1928081661 -0.05598790571 0.2795167863 4.359662329e-39
0.01742267422 0.04530217871 0.4743186235 4.359662329e-39
0.1686832309 -0.109445028 0.1722254455 4.359662329e-39
-0.07092192769 -0.1264187098 0.138493672 4.359662329e-39
0.1587932706 -0.01479760557 0.3790357709 4.359662329e-39
-0.04882133007 0.02535352483 0.4731800854 4.359662329e-39
0.1223968118 -0.06816083938 0.1048226431 4.359662329e-39
-0.1050762534 -0.09632752836 0.2333389372 4.359662329e-39
0.1474424303 -0.01999026909 0.3159849048 4.359662329e-39
0.02669961751 0.01280236337 0.3923641145 4.359662329e-39
0.1193191111 -0.1294874251 0.1823060364 4.359662329e-39
-0.02386002615 -0.1409639269 0.1266915202 4.359662329e-39
0.09878477454 -0.01875010878 0.3711306155 4.359662329e-39
0.006216933951 -0.009383514524 0.3564280868 4.359662329e-39
0.05059147626 -0.1077739149 0.1625338495 4.359662329e-39
-0.08253797889 -0.07460737228 0.3294416368 4.359662329e-39
0.06781429052 -0.02060259692 0.295776248 4.359662329e-39
0.003053052118 -0.1125368178 0.2587599456 4.359662329e-39
0.05981215835 -0.139522016 0.2356862724 4.359662329e-39
-0.1691326946 -0.04747380689 0.4031721354 4.359662329e-39
0.1401090175 -0.08640243858 0.01119036414 4.359662329e-39
-0.1297041178 -0.1410373151 0.2834739089 4.359662329e-39
0.1590654701 -0.0613085404 0.2706790566 4.359662329e-39
-0.1779659986 0.1315265894 0.2136058062 3.628921614e-39
-0.1692500561 -0.02049500309 -0.007090099622 3.628921614e-39
-0.1654648483 -0.132772252 -0.05996561795 3.628921614e-39
-0.1728399694 0.089282915 -0.1572150886 3.628921614e-39
-0.1728206426 -0.005863063037 0.3714732528 3.628921614e-39
-0.1614570767 -0.1215653121 0.2175462246 3.628921614e-39
-0.1608833522 -0.1441644579 0.1617865264 3.628921614e-39
-0.177279979 0.01097669732 -0.4087884724 3.628921614e-39
-0.1854194403 0.1002950817 0.1383268535 3.628921614e-39
-0.165574342 0.147484526 -0.01320474595 3.628921614e-39
-0.142335549 -0.1179320589 0.02524629049 3.628921614e-39
-0.1542337239 0.05111407116 -0.2785958946 3.628921614e-39
-0.1576115787 0.08026269823 0.2673262954 3.628921614e-39
-0.1682779193 -0.001126769464 0.1222395897 3.628921614e-39
-0.1092599258 -0.07211803645 0.1169633642 3.628921614e-39
-0.1435064971 0.006156445015 -0.3149553835 3.628921614e-39
-0.1523076594 0.07225172967 0.1864434034 3.628921614e-39
-0.1456172317 0.01026070956 0.04615936801 3.628921614e-39
-0.1382152587 -0.1071476713 -0.02085047401 3.628921614e-39
-0.1408756375 -0.0161448624 -0.1575713009 3.628921614e-39
-0.1580474973 -0.01148804743 0.3160246611 3.628921614e-39
-0.1472460926 -0.02028564364 0.183286041 3.628921614e-39
-0.1463051885 -0.1298784465 0.07205136865 3.628921614e-39
-0.1586053818 -0.1267245561 -0.191667676 3.628921614e-39
-0.1559834927 -0.04534816742 0.2534268498 3.628921614e-39
-0.1548095047 0.02603487484 -0.1161726415 3.628921614e-39
-0.1668030471 0.04304493591 0.3044401109 3.628921614e-39
-0.08937157691 -0.1364698708 -0.1267316192 3.628921614e-39
-0.1669404358 -0.03490277752 0.03113667481 3.628921614e-39
-0.1730038226 0.1044218242 -0.2278869152 3.628921614e-39
-0.157550469 0.1530514061 0.07595156878 3.628921614e-39
-0.1386104971 0.1575867385 -0.09960447252 3.628921614e-39
-0.1066701636 0.1378601938 0.3756669462 2.898180898e-39
0.1752696633 -0.02413320914 0.3820132017 2.898180898e-39
0.1739657223 -0.08020655066 0.1134383157 2.898180898e-39
0.1658911705 -0.1266760677 0.3959581852 2.898180898e-39
0.0791638121 0.06562621146 0.4856400788 2.898180898e-39
0.08617896587 0.07433574647 0.4436978102 2.898180898e-39
0.1786571294 -0.09096506983 -0.1604528129 2.898180898e-39
0.180401817 -0.09273786098 0.1784362495 2.898180898e-39
-0.1533731818 0.1250255257 0.4693104029 2.898180898e-39
0.1776077598 -0.07131255418 0.3451365232 2.898180898e-39
0.1406079233 -0.09449645877 -0.002941987477 2.898180898e-39
0.1572683305 -0.08766017854 0.2538873851 2.898180898e-39
-0.01932612062 0.08463062346 0.475772649 2.898180898e-39
0.09029007703 -0.01120482851 0.3847758174 2.898180898e-39
0.1032856405 -0.06718969345 -0.07891925424 2.898180898e-39
0.154319644 -0.03461128846 0.2114175558 2.898180898e-39
-0.08130624145 0.07372623682 0.4822281599 2.898180898e-39
0.09863458574 -0.03112873621 0.3415204585 2.898180898e-39
0.07924660295 -0.07863906026 0.05276745185 2.898180898e-39
0.136642471 -0.02620769851 0.2862447202 2.898180898e-39
0.006032606121 0.01564062387 0.4853517115 2.898180898e-39
0.05711613223 -0.03029075265 0.4099280238 2.898180898e-39
0.006124455482 -0.04423031956 0.08237430453 2.898180898e-39
0.07816174626 -0.01837347075 0.2137221247 2.898180898e-39
-0.07080919296 0.01291216072 0.3992973566 2.898180898e-39
0.08473102003 -0.09140478075 0.485578686 2.898180898e-39
-0.05190633237 -0.04159127921 0.4879244566 2.898180898e-39
0.03588334471 -0.03164948523 0.2569310665 2.898180898e-39
0.134849146 -0.1275544018 0.02295965143 2.898180898e-39
0.1481662542 -0.1386054903 0.4744380713 2.898180898e-39
-0.1742109954 0.05054280907 0.4886499345 2.898180898e-39
0.1582268178 -0.01526344009 0.4145084918 2.898180898e-39
-0.07608869672 -0.03297249228 -0.2465358824 2.167082852e-39
0.03151297197 0.0361938104 0.4238269925 2.167082852e-39
-0.009870034643 -0.01337414235 -0.2929206192 2.167082852e-39
-0.1811922938 0.02808198892 0.224295944 2.167082852e-39
-0.07887931913 0.01172390487 -0.04348826036 2.167082852e-39
0.01485600509 -0.05657753348 0.2068505883 2.167082852e-39
-0.1163339764 -0.002614596393 -0.4117196202 2.167082852e-39
-0.0618936494 0.0221051164 0.02365804091 2.167082852e-39
-0.1619604975 0.1571378857 -0.2387480885 2.167082852e-39
-0.05760741979 0.06864845008 0.4403192997 2.167082852e-39
-0.02986054681 -0.01783943176 -0.3491546214 2.167082852e-39
-0.09941826761 0.02116088569 0.1452146769 2.167082852e-39
-0.1008381173 0.07741969824 -0.09406888485 2.167082852e-39
-0.01199543569 -0.02119153738 0.2744337022 2.167082852e-39
-0.04331208393 -0.01472956687 -0.3837072253 2.167082852e-39
-0.04725433514 0.002972981427 0.08608287573 2.167082852e-39
-0.1033602059 0.03398820758 -0.1503689289 2.167082852e-39
-0.003823555075 6.055831909e-05 0.3374565542 2.167082852e-39
-0.0254395064 -0.04230180383 -0.1461577117 2.167082852e-39
-0.02938709781 -0.02330632135 0.1293095052 2.167082852e-39
-0.1344984621 0.09728427976 0.02395858243 2.167082852e-39
-0.05725663528 -0.01644336432 0.2373396009 2.167082852e-39
-0.05180938914 -0.05521215871 -0.0768231824 2.167082852e-39
0.03327628225 -0.0357157439 0.09827542305 2.167082852e-39
-0.1488726288 0.05360367522 -0.02636597492 2.167082852e-39
-0.1169925481 -0.008893985301 0.2785664499 2.167082852e-39
-0.118643187 -0.06210690364 -0.08813071251 2.167082852e-39
0.03580735624 -0.04287775978 0.003986122552 2.167082852e-39
-0.1453692168 -0.08118341118 -0.2714340389 2.167082852e-39
-0.151975587 0.03074448742 0.3524620533 2.167082852e-39
-0.1730532944 0.1339990199 -0.1553965211 2.167082852e-39
-0.1484322399 0.1511939019 0.4394141138 2.167082852e-39
-0.1829263568 0.01662149653 0.01894431375 1.435982003e-39
-0.1652568728 0.05460753664 0.4394376874 1.435982003e-39
-0.16813609 -0.1499910057 -0.0206250716 1.435982003e-39
-0.1765039414 -0.1265968829 0.2567590475 1.435982003e-39
-0.172582075 -0.1331939548 0.05304524302 1.435982003e-39
-0.1744003296 -0.1122864336 0.4117043614 1.435982003e-39
-0.1501258463 -0.1614220887 -0.4227505326 1.435982003e-39
-0.192302525 0.06220303103 0.301379025 1.435982003e-39
-0.175690487 0.114913404 0.2421483546 1.435982003e-39
-0.1722089648 0.09440630674 0.4644542933 1.435982003e-39
-0.1423739195 -0.1391141862 -0.2140758336 1.435982003e-39
-0.1542322785 -0.1130594909 0.282699585 1.435982003e-39
-0.1593912989 -0.05289070308 0.14038302 1.435982003e-39
-0.1489657313 -0.01588278823 0.3941767514 1.435982003e-39
-0.1254870147 -0.09404920787 -0.3162758946 1.435982003e-39
-0.1440322399 -0.06986689568 0.2823328376 1.435982003e-39
-0.1542018652 0.03555082157 0.2049609721 1.435982003e-39
-0.1444290429 0.05485100672 0.3881277144 1.435982003e-39
-0.07396647334 -0.1163467467 -0.04493633285 1.435982003e-39
-0.1472896934 -0.07622160763 0.20699431 1.435982003e-39
-0.1565032303 -0.09166501462 0.1165172309 1.435982003e-39
-0.1346395165 -0.08465955406 0.3637106121 1.435982003e-39
-0.1339368969 -0.1445386708 -0.1386483312 1.435982003e-39
-0.1058164015 -0.1229652315 0.1971975118 1.435982003e-39
-0.1616466194 0.01738872193 0.1526124477 1.435982003e-39
-0.1280717701 -0.1266512424 0.357999891 1.435982003e-39
-0.1813680083 -0.04349414259 -0.09573792666 1.435982003e-39
-0.09257230908 -0.1501690447 0.4201862216 1.435982003e-39
-0.1710618287 -0.1125597805 0.06327964365 1.435982003e-39
-0.1719871759 -0.06466571987 0.3199819028 1.435982003e-39
-0.1712871492 0.06344686449 0.2155499458 1.435982003e-39
-0.1514728516 -0.1061618105 0.4800835848 1.435982003e-39
0.1752021313 -0.099271819 0.4065990746 7.045238224e-40
-0.1607003957 0.1564802527 0.2964257002 7.045238224e-40
0.1077287123 -0.008818882518 0.07589814067 7.045238224e-40
0.002724696649 0.04018912837 0.3885613084 7.045238224e-40
0.2011642009 -0.04330392182 0.05789875984 7.045238224e-40
-0.1014490351 0.1093626618 -0.01446104608 7.045238224e-40
-0.06780989468 0.01536423527 -0.02227949351 7.045238224e-40
-0.09648895264 0.08540149778 0.328817606 7.045238224e-40
0.1018672213 -0.08034598827 0.4428657293 7.045238224e-40
-0.1619906723 0.1574750096 0.3832258284 7.045238224e-40
0.04422706738 -0.002769679297 0.1382214129 7.045238224e-40
-0.01182042249 0.007308613975 0.3252794743 7.045238224e-40
0.1566898525 -0.01456405036 0.2274555266 7.045238224e-40
-0.09631894529 0.1464280337 0.1873022169 7.045238224e-40
-0.03995784745 0.009278437123 0.09664105624 7.045238224e-40
-0.03803432733 0.01101030968 0.2732731402 7.045238224e-40
0.1578866392 -0.02506095544 0.3259668052 7.045238224e-40
-0.1054193377 0.1122158244 0.2424551845 7.045238224e-40
0.0194346346 -0.005228896625 0.06022521108 7.045238224e-40
0.05831656978 -0.006744908169 0.3210717142 7.045238224e-40
0.1487297863 -0.01177234948 0.1460576504 7.045238224e-40
-0.08061122149 0.05721404031 0.07076348364 7.045238224e-40
-0.01603598334 -0.01595575549 -0.03049907088 7.045238224e-40
0.007612172514 -0.02283538878 0.2143141776 7.045238224e-40
0.1142554209 -0.02338278852 0.2318006009 7.045238224e-40
-0.07924313098 0.01722610928 0.1766230762 7.045238224e-40
0.06648692489 -0.02006377652 -0.01245082635 7.045238224e-40
-0.05878376216 -0.01879114658 0.1271763891 7.045238224e-40
-0.1239118055 -0.02745964564 0.1879431605 7.045238224e-40
-0.1283071786 0.03651613742 0.4144819379 7.045238224e-40
0.02927323617 -0.04563677683 0.4433243573 7.045238224e-40
-0.1702977419 0.1549335271 0.1148155928 7.045238224e-40
0.1808070689 -0.06343025714 -0.01049929298 6.490113838e-41
0.1588243544 -0.004679634701 0.2851666212 6.490113838e-41
-0.01028292906 0.02513493039 0.4788614511 6.490113838e-41
0.1413007677 -0.1528316736 -0.02100251988 6.490113838e-41
0.1727959365 -0.005539081059 0.03495415673 6.490113838e-41
0.1800884157 -0.02344699204 0.09551268071 6.490113838e-41
0.1101911664 -0.003462129505 0.341252774 6.490113838e-41
0.1687104851 -0.1420315206 -0.4023144245 6.490113838e-41
0.1827608198 -0.07444251329 -0.1970865577 6.490113838e-41
0.09703553468 -0.007028799038 0.3001913428 6.490113838e-41
0.01119712926 0.0105853295 0.3976994455 6.490113838e-41
0.1496602744 -0.1198804304 -0.261926055 6.490113838e-41
0.1314670891 -0.01711715013 -0.07830934972 6.490113838e-41
0.1184544861 -0.006782833952 0.2067873329 6.490113838e-41
0.02274462208 0.001732779783 0.3486148715 6.490113838e-41
0.1515081674 -0.07009766251 -0.3608781397 6.490113838e-41
0.1266277432 -0.05172175914 -0.132502228 6.490113838e-41
0.08969128877 0.0008874272462 0.2300330102 6.490113838e-41
-0.08225312829 0.03052193113 0.4017549157 6.490113838e-41
0.08551745117 -0.09815077484 -0.1957878917 6.490113838e-41
0.009211696684 -0.02389524132 0.02061752416 6.490113838e-41
0.08226456493 -0.008881938644 0.1273230314 6.490113838e-41
-0.04979456961 -0.00213322835 0.3129570186 6.490113838e-41
0.08921679109 -0.03098748438 -0.1594882309 6.490113838e-41
-0.07826482505 -0.0235781651 0.0124975713 6.490113838e-41
-0.015403945 -0.04398114607 0.221964851 6.490113838e-41
-0.01613764465 -0.0988490507 0.1695596874 6.490113838e-41
0.1364235431 -0.0552357547 0.1348477602 6.490113838e-41
0.0772126317 -0.03847758472 0.01859939285 6.490113838e-41
0.03221021593 -0.08468031883 -0.2739277482 6.490113838e-41
0.01756025665 -0.1393179893 -0.1637540311 6.490113838e-41
0.09592177719 -0.03417977691 0.1675637066 6.490113838e-41
-0.1651960909 -0.1176133081 0.258633405 8.028094954e-40
-0.07606461644 -0.1304289848 -0.2290662676 8.028094954e-40
0.1602178216 -0.09934721142 -0.3282928765 8.028094954e-40
0.1819185615 -0.04308584705 0.4215016365 8.028094954e-40
-0.139471069 -0.1438583881 0.02731776237 8.028094954e-40
0.0429520309 -0.130602628 -1.353025436e-05 8.028094954e-40
-0.1606301218 0.03444469348 -0.4797035456 8.028094954e-40
0.1679679006 -0.01455610245 0.1243147403 8.028094954e-40
-0.02401970886 -0.1252332628 0.3216844797 8.028094954e-40
0.06694141775 -0.1396987587 -0.2600765228 8.028094954e-40
0.02564181015 -0.007686530706 -0.3815821409 8.028094954e-40
0.1552344263 -0.03126289696 0.337159276 8.028094954e-40
-0.06450611353 -0.09344577789 0.1258690655 8.028094954e-40
-0.03721363097 -0.1266208589 -0.1093808413 8.028094954e-40
-0.07971922308 0.04791323841 -0.4420106113 8.028094954e-40
0.1178904325 -0.005724196322 0.2236671299 8.028094954e-40
0.011428589 -0.06545556337 0.2196696252 8.028094954e-40
0.03858415037 -0.1074849218 -0.1769963801 8.028094954e-40
-0.08624005318 -0.07435844094 -0.3092428446 8.028094954e-40
0.06476930529 -0.03342068195 0.3853318691 8.028094954e-40
-0.01097655948 -0.1107276902 0.06759953499 8.028094954e-40
0.1274582148 -0.1187899336 0.004591928329 8.028094954e-40
-0.1614705324 -0.03584748879 -0.2849859893 8.028094954e-40
-0.0460588634 -0.07932537794 0.4237896502 8.028094954e-40
0.02743031271 -0.0580419898 0.1630509794 8.028094954e-40
0.1476499885 -0.02364421263 0.2717469633 8.028094954e-40
-0.1518363059 -0.04117374867 -0.1385858655 8.028094954e-40
-0.1366147548 -0.07722739875 0.1745515615 8.028094954e-40
-0.09768407047 -0.09329256415 -0.04180411249 8.028094954e-40
0.09110594541 -0.009848343208 0.3242740333 8.028094954e-40
-0.0568010807 -0.12557818 0.2864314318 8.028094954e-40
0.1351272464 -0.1076614186 -0.1093348265 8.028094954e-40
0.1796833426 -0.1221870929 -0.1891774088 1.540360521e-39
-0.06045683846 0.04880656302 -0.4091936648 1.540360521e-39
0.1769790202 -0.1183236316 -0.123050414 1.540360521e-39
-0.08402185142 0.1447279453 -0.3117529154 1.540360521e-39
0.1730917841 -0.1099886075 -0.2380824089 1.540360521e-39
0.03037457541 -0.0178049244 -0.2707823813 1.540360521e-39
0.1604373157 -0.1463534683 0.1129750758 1.540360521e-39
-0.1567641497 0.165627718 -0.381567806 1.540360521e-39
0.1283348948 -0.1477244645 -0.4218895137 1.540360521e-39
-0.08047886193 0.09264434129 -0.4592939317 1.540360521e-39
0.1213346869 -0.1211639568 -0.04017107934 1.540360521e-39
-0.130201146 0.1625583768 -0.2895179987 1.540360521e-39
0.1396752 -0.1156303287 -0.3061165512 1.540360521e-39
-0.04898700118 -0.007127767894 -0.3203444481 1.540360521e-39
0.07985458523 -0.09071273357 0.05200466141 1.540360521e-39
-0.1181122512 0.10519436 -0.3415184915 1.540360521e-39
0.1039511487 -0.1121111661 -0.3465853333 1.540360521e-39
-0.05212126672 0.01073103957 -0.359418273 1.540360521e-39
0.006776802707 -0.09431093186 -0.06231511384 1.540360521e-39
-0.1331100464 0.1175374016 -0.2191064954 1.540360521e-39
0.1160945073 -0.1204469651 -0.2443361729 1.540360521e-39
-0.02423727326 -0.02383411676 -0.2855947018 1.540360521e-39
-0.08418837935 -0.1083750725 -0.08814112097 1.540360521e-39
-0.1254651845 0.07323665172 -0.1489875019 1.540360521e-39
0.03963685036 -0.115693517 -0.2462636232 1.540360521e-39
0.02827549912 -0.007954645902 -0.3941802084 1.540360521e-39
0.0212214347 -0.1184813529 -0.1795600504 1.540360521e-39
-0.1035411432 -0.01608539931 -0.1682428122 1.540360521e-39
-0.01076728944 -0.1151165739 0.03577966243 1.540360521e-39
-0.1645776331 0.1003968343 -0.4553633034 1.540360521e-39
0.07300205529 -0.1497425288 -0.4414420128 1.540360521e-39
-0.1097029075 -0.01914557815 -0.2795088589 1.540360521e-39
-0.1697567999 -0.05723846331 0.3667117655 2.277910146e-39
-0.0274850931 -0.1333352774 0.439981997 2.277910146e-39
-0.1799527258 -0.101785481 -0.1232561022 2.277910146e-39
-0.1077869907 -0.1319062412 0.2030351609 2.277910146e-39
-0.1673285514 0.03820211813 0.1474133134 2.277910146e-39
-0.07808031887 -0.1443420947 0.3632389903 2.277910146e-39
-0.176770255 -0.03874932602 -0.3426255584 2.277910146e-39
-0.1881288439 -0.08828040212 -0.003863602178 2.277910146e-39
-0.1630274653 0.0530118458 0.4313655496 2.277910146e-39
0.02366147377 -0.1435609311 0.4414615631 2.277910146e-39
-0.1494056731 -0.05780967698 -0.2268872708 2.277910146e-39
-0.1112864763 -0.1128058434 0.1000542343 2.277910146e-39
-0.1337921321 0.08040658385 0.2838345766 2.277910146e-39
-0.07080564648 -0.123892799 0.38300547 2.277910146e-39
-0.1496886611 -0.05260810256 -0.2798883021 2.277910146e-39
-0.1028676257 -0.09243713319 0.02438537031 2.277910146e-39
-0.141506359 0.06704305857 0.3346837461 2.277910146e-39
-0.0005754976883 -0.1036312208 0.3724131286 2.277910146e-39
-0.1489502192 -0.07942096889 -0.08916962147 2.277910146e-39
-0.09824810922 -0.1269195527 0.1605488658 2.277910146e-39
-0.1262463182 0.08858902007 0.1951391995 2.277910146e-39
-0.05364381522 -0.1257082224 0.2962467372 2.277910146e-39
-0.1571253687 -0.07665996253 -0.06492977589 2.277910146e-39
-0.08614291996 -0.1269800067 0.1145664528 2.277910146e-39
-0.1402852535 0.07037316263 0.2379081249 2.277910146e-39
-0.1129953787 -0.1299073398 0.2653381228 2.277910146e-39
-0.1690959781 -0.01689140685 0.02760652639 2.277910146e-39
-0.1438575983 -0.08922319114 0.06756932288 2.277910146e-39
-0.161521703 -0.0441772975 -0.1721060723 2.277910146e-39
-0.1535950303 -0.134183228 0.206657216 2.277910146e-39
-0.1824195087 -0.09865303338 0.2981931567 2.277910146e-39
-0.1775844395 -0.1426245868 0.3486787677 2.277910146e-39
0.08464359492 -0.1364171952 -0.1043156385 3.015101038e-39
-0.08902209997 -0.002674245508 -0.1077086404 3.015101038e-39
-0.00818099454 -0.1267764866 -0.1498440802 3.015101038e-39
0.02801721171 -0.1000762358 -0.4480775595 3.015101038e-39
0.1399773657 -0.1434389055 -0.06273499131 3.015101038e-39
0.0677453056 -0.01557782944 0.1469386369 3.015101038e-39
-0.1481770575 -0.1491909921 -0.2545227408 3.015101038e-39
-0.1534407884 -0.1532425135 -0.4622642696 3.015101038e-39
-0.03548435494 -0.129606232 -0.2524211705 3.015101038e-39
-0.1209025458 -0.04421237111 -0.1686322838 3.015101038e-39
-0.08182287961 -0.1160573885 -0.1705601215 3.015101038e-39
-0.06489448249 -0.07966810465 -0.4588510692 3.015101038e-39
0.09577424824 -0.1081350446 -0.1940463036 3.015101038e-39
-0.04245809466 -0.02708006836 0.09951690584 3.015101038e-39
-0.1078289822 -0.07501601428 -0.2347591966 3.015101038e-39
-0.08727078885 -0.1063219309 -0.445713371 3.015101038e-39
0.02148363926 -0.08751776069 -0.2773056328 3.015101038e-39
-0.08485150337 -0.02252805419 -0.0223932676 3.015101038e-39
-0.02967524715 -0.1031887904 -0.09498615563 3.015101038e-39
-0.007085539866 -0.04652806744 -0.4014197588 3.015101038e-39
0.1075359955 -0.1277636737 -0.2413201034 3.015101038e-39
0.0486609824 -0.03353567049 0.02902220003 3.015101038e-39
0.01711017452 -0.1150574014 -0.02326009236 3.015101038e-39
0.07079526037 -0.08193575591 -0.3967874944 3.015101038e-39
0.05078057572 -0.05335469544 -0.3195039332 3.015101038e-39
-0.04866502061 -0.07805465907 -0.3235237896 3.015101038e-39
0.1137646437 -0.1097770035 -0.04664463922 3.015101038e-39
-0.02802284807 -0.1256992817 -0.3223237991 3.015101038e-39
-0.1663789898 -0.1399735361 -0.346914202 3.015101038e-39
-0.1816308945 -0.07677762955 -0.4727245569 3.015101038e-39
-0.07073648274 -0.04353479668 -0.2533075809 3.015101038e-39
-0.1351499259 -0.03903967515 -0.4199149311 3.015101038e-39
0.1009085178 -0.1356586069 0.4807492197 3.75229193e-39
0.1925379336 -0.04881995544 0.2258998454 3.75229193e-39
0.0556531027 0.02469374053 0.4947301745 3.75229193e-39
0.1805069745 -0.1086918935 0.4716407955 3.75229193e-39
-0.07482139021 -0.121997498 0.4845699966 3.75229193e-39
0.1628950238 0.05540583283 0.4325190783 3.75229193e-39
-0.164451763 0.01055794489 0.4902278781 3.75229193e-39
0.1818632782 -0.08313211054 0.2942564487 3.75229193e-39
0.1227294877 -0.05894701555 0.4886784554 3.75229193e-39
0.1767838448 -0.06407671422 0.1645189524 3.75229193e-39
-0.06083961204 0.07119658589 0.489251107 3.75229193e-39
0.1438444257 -0.1113063619 0.3820081651 3.75229193e-39
-0.001194886281 -0.1204027683 0.4851144254 3.75229193e-39
0.1289851218 -0.009616890922 0.2724488676 3.75229193e-39
-0.1132491231 0.04108636081 0.4939634204 3.75229193e-39
0.1439164877 -0.07647106797 0.356387347 3.75229193e-39
0.04678986967 -0.06792011112 0.4917759597 3.75229193e-39
0.1258190125 -0.01345544308 0.2453178763 3.75229193e-39
0.01467034034 0.06305213273 0.4911310375 3.75229193e-39
0.09915141761 -0.1096543595 0.4559592009 3.75229193e-39
-0.1213478073 -0.09716642648 0.4958716035 3.75229193e-39
0.1122789532 -0.01516277716 0.3226651847 3.75229193e-39
-0.006694023032 -0.01235702727 0.4923339784 3.75229193e-39
0.07836889476 -0.03991128132 0.4948400259 3.75229193e-39
-0.1041724235 -0.04504440352 0.4945240617 3.75229193e-39
0.1278679371 0.01761629805 0.4141808748 3.75229193e-39
-0.05068220571 -0.07842668146 0.4911584854 3.75229193e-39
0.1116088703 0.04818715155 0.4870634079 3.75229193e-39
-0.06188387424 -0.0110649569 0.4932098389 3.75229193e-39
0.1556445807 -0.03376492113 0.488856554 3.75229193e-39
0.0521912761 -0.04576376826 0.4901412129 3.75229193e-39
0.1075168326 0.00273337285 0.4362790585 3.75229193e-39
0.005478863604 -0.0207329113 -0.01235051639 4.48912409e-39
-0.06546328962 0.00320703187 0.3184331954 4.48912409e-39
0.1285974681 -0.0006717740325 -0.3568323255 4.48912409e-39
0.1633679718 -0.1476309001 -0.08839224279 4.48912409e-39
-0.07974662632 0.03394379467 -0.2492331862 4.48912409e-39
-0.06526798755 0.01063912455 0.08908237517 4.48912409e-39
-0.1269112527 0.03484552726 -0.3544423282 4.48912409e-39
0.1171126813 -0.1537231505 0.2517537773 4.48912409e-39
-0.0996420607 0.1538790315 -0.002478098962 4.48912409e-39
-0.06466767937 0.0108795343 0.390542984 4.48912409e-39
-0.002344745677 0.002342018764 -0.3596243858 4.48912409e-39
0.141027987 -0.132454589 0.04779317975 4.48912409e-39
-0.07471232861 0.125710994 -0.187028259 4.48912409e-39
-0.03747828305 -0.001001327881 0.2157350779 4.48912409e-39
-0.06450576335 0.01655042358 -0.3348447978 4.48912409e-39
0.1106744409 -0.09001139551 0.1734006703 4.48912409e-39
-0.09484938532 0.1071478426 -0.1007792503 4.48912409e-39
-0.02749905922 0.009169276804 0.2718785703 4.48912409e-39
0.04493422806 -0.0124618588 -0.2661668658 4.48912409e-39
0.07543221861 -0.1165330559 -0.06813257188 4.48912409e-39
-0.08676176518 0.1181466207 -0.2387287319 4.48912409e-39
-0.0927786231 -0.02198313922 0.1158851013 4.48912409e-39
0.01831768453 -0.01734420285 -0.2347429842 4.48912409e-39
0.02601119317 -0.1049593315 -0.06187458709 4.48912409e-39
-0.09402569383 0.03121964447 -0.1799850464 4.48912409e-39
0.037898276 -0.01687180251 0.2249601781 4.48912409e-39
-0.05477002636 -0.01422262378 -0.2274167538 4.48912409e-39
-0.1178903133 -0.06830836833 -0.01284688804 4.48912409e-39
-0.1381198168 -0.03249231353 -0.1169273853 4.48912409e-39
0.1114149913 -0.1484431773 0.1010204852 4.48912409e-39
-0.1208413094 0.1733721048 -0.07562252879 4.48912409e-39
-0.1435446292 0.171812579 0.06370890886 4.48912409e-39
0.04768127203 0.01524856221 -0.4925594926 5.225597518e-39
0.1354670674 -0.1479013115 -0.3866541684 5.225597518e-39
0.1615608186 0.02048441209 -0.4957053363 5.225597518e-39
-0.1236761883 -0.1497392952 -0.3734346628 5.225597518e-39
-0.1264594048 0.05999220535 -0.4916888177 5.225597518e-39
0.02234576456 -0.1507961601 -0.4181259871 5.225597518e-39
0.1654652208 -0.1032321677 -0.4810782075 5.225597518e-39
-0.1879894882 0.007889524102 -0.4156304002 5.225597518e-39
0.1400538236 0.0791677013 -0.4883788526 5.225597518e-39
0.1797379404 -0.1357606947 -0.3424042761 5.225597518e-39
0.1307905912 -0.03321256489 -0.483851552 5.225597518e-39
-0.1506391615 -0.1050001979 -0.3734110594 5.225597518e-39
0.008534812368 0.05866311118 -0.493308872 5.225597518e-39
0.07447770983 -0.1212685406 -0.3712698519 5.225597518e-39
0.1519424468 -0.05857626721 -0.489975512 5.225597518e-39
-0.148586601 -0.02887999825 -0.407792598 5.225597518e-39
0.04671730474 0.05234636739 -0.4892297387 5.225597518e-39
0.1053025126 -0.1103136986 -0.3266967535 5.225597518e-39
0.1119699553 0.006137815304 -0.4939064085 5.225597518e-39
-0.07734689862 -0.08345434815 -0.3821436763 5.225597518e-39
-0.068719998 0.02547824197 -0.4958551228 5.225597518e-39
0.007561360952 -0.1279087514 -0.3915499747 5.225597518e-39
0.08084589243 -0.04285335168 -0.4912673533 5.225597518e-39
-0.01619455218 -0.06955556571 -0.3939089775 5.225597518e-39
-0.06169557199 -0.0272944048 -0.4946634173 5.225597518e-39
-0.0448522605 -0.1329418421 -0.42948246 5.225597518e-39
-0.1356662214 -0.03880041465 -0.4856788516 5.225597518e-39
0.01150532719 -0.04769426212 -0.4298304021 5.225597518e-39
0.08936612308 -0.1139334813 -0.4881747365 5.225597518e-39
-0.09323061258 -0.07824908942 -0.4983333349 5.225597518e-39
0.00120269449 -0.01736688241 -0.4936829805 5.225597518e-39
0.1600763798 -0.1391865462 -0.4044769406 5.225597518e-39
0.1664183438 -0.1331421286 0.07972584665 5.962428276e-39
-0.02983340248 0.00621813722 -0.3942685723 5.962428276e-39
0.1856894344 -0.04337454587 -0.04767725989 5.962428276e-39
-0.1042068824 -0.08713508397 0.1140458956 5.962428276e-39
-0.008181463927 -0.141029045 -0.01238547266 5.962428276e-39
-0.02621214092 -0.0009682846139 -0.1939164698 5.962428276e-39
0.18729572 -0.04828647524 -0.3136459589 5.962428276e-39
-0.1687599868 -0.01488265768 -0.2510530353 5.962428276e-39
0.1505800486 -0.1360385269 0.1816360056 5.962428276e-39
0.07303121686 -0.001354321023 -0.3895250857 5.962428276e-39
0.1582633704 -0.03471487015 -0.1300157905 5.962428276e-39
-0.1274502277 -0.08963781595 -0.008377334103 5.962428276e-39
0.006532307714 -0.08758658916 0.04957497865 5.962428276e-39
-0.01954464614 -0.01006639283 -0.2821294367 5.962428276e-39
0.1223938018 -0.01762037911 -0.2232491523 5.962428276e-39
-0.1148291603 -0.04169769585 -0.140922904 5.962428276e-39
0.06653115898 -0.06328591704 0.1829942614 5.962428276e-39
0.02537188679 -0.008766598068 -0.2774486244 5.962428276e-39
0.09483411163 -0.02843111195 -0.1659639925 5.962428276e-39
-0.05085583404 0.02146157809 -0.09896421432 5.962428276e-39
-0.1166893095 -0.106879428 0.07039114088 5.962428276e-39
0.05251454562 -0.02023679949 -0.05132665485 5.962428276e-39
0.1062628925 -0.0519820787 -0.2424343079 5.962428276e-39
-0.08264885843 -0.01711991802 -0.2252396792 5.962428276e-39
-0.08860502392 -0.04087237269 0.1756849289 5.962428276e-39
-0.00965542905 -0.0115097668 0.007970671169 5.962428276e-39
-0.004372106865 -0.1269596666 -0.1472328156 5.962428276e-39
-0.1165286005 -0.0143034989 -0.3806245923 5.962428276e-39
0.1314525604 -0.06272411346 0.08143560588 5.962428276e-39
-0.1350336373 -0.1210497171 -0.1949488223 5.962428276e-39
0.09373228252 -0.1175680384 0.01661288179 5.962428276e-39
0.09867891669 -0.006519717164 -0.09855428338 5.962428276e-39
0.02625545859 -0.02801493369 0.4864686131 6.698542971e-39
0.1789524257 -0.06182741374 0.4253738225 6.698542971e-39
0.03376744688 0.03830995038 0.4240863621 6.698542971e-39
0.1745820343 -0.1006444469 0.4728673697 6.698542971e-39
0.1349807978 0.05760836229 0.4852415323 6.698542971e-39
0.1800099164 0.03492850065 0.4188406765 6.698542971e-39
-0.07861908525 0.119344078 0.4520228505 6.698542971e-39
0.164560914 -0.1766984165 0.4597988129 6.698542971e-39
0.1045070663 -0.06848851591 0.485260576 6.698542971e-39
0.1773163229 -0.09177850932 0.3915223777 6.698542971e-39
0.03372456878 0.07598285377 0.4332264662 6.698542971e-39
0.1560875624 -0.1301110238 0.4583851993 6.698542971e-39
0.1237191334 0.01843863353 0.4877260029 6.698542971e-39
0.1589639634 -0.02587394975 0.3982083499 6.698542971e-39
-0.03207965195 0.06943100691 0.437053591 6.698542971e-39
0.129297927 -0.1215433925 0.4718897045 6.698542971e-39
0.1041485593 -0.01300699636 0.4863166213 6.698542971e-39
0.1653272957 -0.04529729858 0.3964381516 6.698542971e-39
-0.05181903392 -0.01452141255 0.3816007674 6.698542971e-39
0.07976149768 -0.1161941439 0.4364474714 6.698542971e-39
0.09932235628 0.05432229862 0.4873867631 6.698542971e-39
0.140214175 -0.00658310391 0.427202642 6.698542971e-39
-0.1229807884 -0.003575935727 0.3956213295 6.698542971e-39
0.02109506726 -0.124489896 0.4739266038 6.698542971e-39
0.04322618619 0.03518642113 0.4881105721 6.698542971e-39
0.1296688914 -0.04225372896 0.4568288326 6.698542971e-39
-0.07037309557 -0.04559510946 0.4607806504 6.698542971e-39
-0.002518231282 -0.08394258469 0.4848712683 6.698542971e-39
-0.06117984653 -0.0841678679 0.4842923582 6.698542971e-39
0.06920134276 -0.1598622948 0.4606197774 6.698542971e-39
0.08520639688 -0.04092548415 0.4800477624 6.698542971e-39
0.1414663494 -0.09863682091 0.4751169384 6.698542971e-39
0.1794851571 -0.105927676 0.06311445683 7.434656265e-39
-0.07495128363 0.04059994221 -0.2900704145 7.434656265e-39
0.120024085 0.06988274306 -0.4753505588 7.434656265e-39
-0.05820411816 0.003216343001 0.1884479672 7.434656265e-39
0.1760925949 -0.08154540509 -0.1453659236 7.434656265e-39
0.056392584 -0.06708300859 -0.1196386963 7.434656265e-39
0.1822104901 -0.06101933494 -0.2268013209 7.434656265e-39
-0.09243279696 0.03932316601 -0.08099237829 7.434656265e-39
0.1747552752 -0.1331324428 0.3228444755 7.434656265e-39
-0.08515986055 0.131005764 -0.2981141806 7.434656265e-39
0.09587867558 0.0294489786 -0.4153275788 7.434656265e-39
-0.05052892491 0.006309615448 0.06978211552 7.434656265e-39
0.1509236693 -0.1181301624 0.1706869751 7.434656265e-39
-0.04492122307 -0.009073500521 -0.197129637 7.434656265e-39
0.07987979054 0.00260752975 -0.3350237906 7.434656265e-39
-0.02679349296 0.00534302881 -0.02333504148 7.434656265e-39
0.1408284158 -0.105197981 0.2366006076 7.434656265e-39
-0.04093666747 0.0019787692 -0.2226375043 7.434656265e-39
-0.01279168297 0.01271564513 -0.3797771931 7.434656265e-39
0.01099999249 -0.008841684088 0.1290953159 7.434656265e-39
0.1559639126 -0.09911641479 0.03940558434 7.434656265e-39
0.01427522209 -0.01181925926 -0.107488893 7.434656265e-39
0.1061306149 -0.01225409843 -0.2760981321 7.434656265e-39
0.0453870371 -0.02583698183 0.05127722397 7.434656265e-39
0.1231235936 -0.06785324216 0.1310618818 7.434656265e-39
-0.006359409541 0.004568707198 -0.07757432014 7.434656265e-39
0.1383489966 -0.1190512776 -0.07881867886 7.434656265e-39
0.1073110849 -0.003514321987 -0.0450948514 7.434656265e-39
-0.03492605314 -0.1361245066 -0.04140148312 7.434656265e-39
-0.1788893044 -0.02339951694 0.06280897558 7.434656265e-39
0.02080428973 -0.1440165788 0.2746137977 7.434656265e-39
-0.1377376318 0.06681100279 -0.1631161124 7.434656265e-39
-0.06832202524 0.004408465233 -0.3564495444 8.170410826e-39
-0.1791476011 0.09926892817 -0.08438713849 8.170410826e-39
0.1878616512 -0.02288660407 -0.2565883398 8.170410826e-39
-0.1573009044 0.01036472898 0.09028242528 8.170410826e-39
-0.07927074283 -0.0006228200509 -0.2328796983 8.170410826e-39
-0.1850172579 0.02127232775 -0.2307780534 8.170410826e-39
0.18030864 -0.03648585454 -0.4573377967 8.170410826e-39
-0.1807310283 0.02004108578 0.3466076851 8.170410826e-39
0.1481255442 -0.004245300312 -0.1512051672 8.170410826e-39
-0.1735333502 0.09606424719 -0.006510467269 8.170410826e-39
0.1494549215 -0.01407124382 -0.341917783 8.170410826e-39
-0.1587037891 0.05828230083 0.163855657 8.170410826e-39
-0.04628440365 0.007031116169 -0.1026440561 8.170410826e-39
-0.1546867788 0.02541610412 -0.1316533238 8.170410826e-39
0.1343189478 0.002346663969 -0.4216025472 8.170410826e-39
-0.1492706835 0.02889887802 0.2525375485 8.170410826e-39
0.01650827751 -0.006513816305 -0.1673550755 8.170410826e-39
-0.1409272403 -0.03187213466 -0.06974484771 8.170410826e-39
0.1005866751 -0.01355841383 -0.2648823857 8.170410826e-39
-0.08244701475 0.06786125898 0.05383171141 8.170410826e-39
-0.01665049978 -0.01788918488 -0.03612606227 8.170410826e-39
-0.0921645239 0.006734988187 -0.1269669384 8.170410826e-39
0.01400835998 -0.01235622633 -0.3187735677 8.170410826e-39
-0.07761595398 -0.01583427377 0.01282196213 8.170410826e-39
0.01051892247 -0.02121820673 -0.08887539059 8.170410826e-39
-0.06121968478 -0.04402739927 0.1159275323 8.170410826e-39
-0.1751784086 0.02881004661 -0.3559597433 8.170410826e-39
-0.006084130611 -0.0988028124 0.05120692775 8.170410826e-39
0.08088377118 0.002104175044 -0.3738922477 8.170410826e-39
-0.1046646908 -0.0006911641685 0.2474420667 8.170410826e-39
0.003122209571 -0.06642919779 -0.2284095287 8.170410826e-39
-0.1654098779 -0.08713456988 -0.2764239013 8.170410826e-39
-0.1757860482 -0.1019029394 0.1684036553 8.906165387e-39
-0.1201511249 -0.1368147582 -0.2985541224 8.906165387e-39
-0.06512456387 -0.1446186006 0.1640455574 8.906165387e-39
-0.09731695801 0.1347227246 -0.4408319592 8.906165387e-39
-0.1867291033 -0.1239994988 -0.1514750272 8.906165387e-39
-0.05877292901 -0.1557288021 -0.04056313634 8.906165387e-39
-0.1446484625 -0.1539626569 0.4222669005 8.906165387e-39
-0.1496989131 0.1782613844 -0.1472229958 8.906165387e-39
-0.1818206012 -0.02069091424 0.2505976558 8.906165387e-39
-0.1693849713 -0.0789276287 -0.2459054142 8.906165387e-39
-0.06044402719 -0.1329296827 0.2471980304 8.906165387e-39
-0.09819330275 0.1407465637 -0.3530603647 8.906165387e-39
-0.1587701589 0.06344634295 -0.006157652009 8.906165387e-39
-0.06397917122 -0.1166935042 -0.1357040852 8.906165387e-39
-0.08849235624 -0.07720842957 0.3686148524 8.906165387e-39
-0.08674324304 0.1044047847 -0.2655148208 8.906165387e-39
-0.1599119604 0.02841912769 0.08944986016 8.906165387e-39
-0.09311574697 -0.106419988 -0.1636714935 8.906165387e-39
-0.05312490091 -0.1107446849 0.09036047012 8.906165387e-39
-0.05567692965 0.06756991148 -0.3922878504 8.906165387e-39
-0.1453380734 0.005155219696 -0.06346646696 8.906165387e-39
-0.08531473577 -0.1221005991 -0.09651380777 8.906165387e-39
-0.03265355155 -0.1365542561 0.05483427271 8.906165387e-39
-0.03103054687 -0.1078903452 -0.2441970259 8.906165387e-39
-0.144042328 -0.03585397825 0.01442034077 8.906165387e-39
-0.1017474532 0.06556734443 -0.2216778547 8.906165387e-39
-0.1589050144 -0.1491656601 0.04698970914 8.906165387e-39
-0.09280459583 -0.1437243223 -0.01333752926 8.906165387e-39
-0.1672546268 -0.07446938753 0.3544139862 8.906165387e-39
-0.1789069176 0.09878778458 -0.09842373431 8.906165387e-39
-0.1783041507 -0.03949022666 0.1283546388 8.906165387e-39
-0.1728067845 -0.09295631945 -0.3720311224 8.906165387e-39
0.1488090605 -0.001113317907 0.1820495427 9.641561216e-39
-0.08374367654 0.01509937644 0.2482180297 9.641561216e-39
0.1396900564 -0.004114085343 -0.01659007184 9.641561216e-39
-0.004169395193 0.04678699747 0.4887926877 9.641561216e-39
0.05836235732 0.003671237035 0.02297729999 9.641561216e-39
0.1446111649 -0.0001933393069 0.3724776208 9.641561216e-39
0.1243087649 -0.00389610813 -0.2228801847 9.641561216e-39
-0.167052567 -0.09262936562 0.4797472358 9.641561216e-39
0.09515003115 0.002505960874 0.2441838831 9.641561216e-39
-0.08169720322 0.005936049856 0.1313632876 9.641561216e-39
0.07843922079 -0.004141957499 -0.1291221082 9.641561216e-39
-0.06977172196 0.0220795013 0.4921417236 9.641561216e-39
0.06064031646 -0.007828120142 0.09793847054 9.641561216e-39
-0.006755219307 -0.0029880004 0.2431106418 9.641561216e-39
0.03831982985 -0.002895110054 -0.1878447682 9.641561216e-39
-0.1133924797 -0.02554337308 0.4934527874 9.641561216e-39
0.05947226286 -0.006968841422 0.1897183806 9.641561216e-39
-0.01558013819 -0.003645058023 0.2000090033 9.641561216e-39
0.07860838622 -0.007033744827 -0.07855110615 9.641561216e-39
-0.005638033152 0.04451211914 0.4584029019 9.641561216e-39
-0.01115094125 -0.02045154944 0.03221021593 9.641561216e-39
0.05688531324 -0.02533182129 0.2710468769 9.641561216e-39
-0.02259604447 -0.00902911555 -0.09109726548 9.641561216e-39
0.05318895355 0.0584153235 0.4436107278 9.641561216e-39
-0.03099159524 -0.0249053929 0.07644926012 9.641561216e-39
-0.04742559418 -0.01601647399 0.3289731443 9.641561216e-39
-0.07696219534 -0.02338784188 -0.04193095863 9.641561216e-39
0.1136965826 0.05865569785 0.4278232753 9.641561216e-39
0.1062872633 -0.01677243598 0.002551132813 9.641561216e-39
-0.1895944476 -0.1104859784 0.3328715563 9.641561216e-39
0.03214067593 -0.0116376318 0.1486825496 9.641561216e-39
-0.1282426417 -0.01018548571 0.3420550823 9.641561216e-39
-0.09214108437 -0.06301181018 -0.4347851872 1.037659831e-38
-0.09334278107 0.0689863041 0.3147207499 1.037659831e-38
-0.05082447827 0.006597735919 0.03152859583 1.037659831e-38
0.003539949656 -0.01583265141 0.2785398066 1.037659831e-38
-0.1760345399 0.002824686468 0.0363775529 1.037659831e-38
-0.1096399277 0.1642673612 0.07355540991 1.037659831e-38
-0.09290006757 0.1294994056 -0.2864883244 1.037659831e-38
0.1719159633 0.08366906643 0.4815554917 1.037659831e-38
-0.1782278866 0.08528188616 -0.4085847437 1.037659831e-38
-0.07735748589 -0.02874398977 0.2575820088 1.037659831e-38
-0.06907232106 0.00646790769 -0.05593497306 1.037659831e-38
-0.01836904325 0.01483708527 0.4058395922 1.037659831e-38
-0.1472283155 -0.03560109437 -0.08878003061 1.037659831e-38
-0.08226493001 -0.01309625432 0.1433820128 1.037659831e-38
-0.04651140049 -0.01538323704 -0.2403115183 1.037659831e-38
0.03105961718 0.02483316138 0.4369404912 1.037659831e-38
-0.1239906698 -0.00984373223 -0.2671124339 1.037659831e-38
-0.09969852865 -0.05212790146 0.1710257977 1.037659831e-38
-0.08926012367 0.05421935394 0.1452905387 1.037659831e-38
-0.0835146457 0.01490189042 0.3506865799 1.037659831e-38
-0.1443346888 -0.002777494723 -0.007929692045 1.037659831e-38
-0.07471550256 -0.006615587045 0.08120351285 1.037659831e-38
-0.157863766 0.04231884703 0.07860627025 1.037659831e-38
-0.1458782852 0.1008856818 0.4289427698 1.037659831e-38
-0.1485983729 0.04788335785 -0.1685221791 1.037659831e-38
-0.0266229175 -0.007557143923 0.1925924867 1.037659831e-38
-0.1637165546 0.1506121904 -0.02403392829 1.037659831e-38
-0.1389720142 0.1479934007 0.3533793688 1.037659831e-38
-0.1132975742 0.1164397821 -0.3307615221 1.037659831e-38
-0.04266588762 -0.05117228255 0.3676719368 1.037659831e-38
-0.169817999 0.06943312287 -0.48360309 1.037659831e-38
-0.1764686406 0.09389874339 0.264991492 1.037659831e-38
0.1637967676 -0.139798522 -0.4655128717 1.111163541e-38
-0.1331510097 -0.1391265392 -0.3911699951 1.111163541e-38
-0.06225717813 0.06333040446 -0.402490139 1.111163541e-38
-0.1805047542 -0.03692149743 -0.4303556681 1.111163541e-38
0.1553270519 -0.07508007437 -0.4851492047 1.111163541e-38
-0.01475400291 -0.1450675428 -0.3536156416 1.111163541e-38
0.1604940444 0.02495034598 -0.4726713002 1.111163541e-38
-0.1723642945 0.1269299984 -0.4690068066 1.111163541e-38
-0.009022303857 -0.1149049625 -0.4753360152 1.111163541e-38
-0.1751044542 -0.1302546561 -0.4185386896 1.111163541e-38
0.0162452627 0.06730888784 -0.4242027998 1.111163541e-38
-0.1547603905 0.04993291199 -0.4852120578 1.111163541e-38
0.09117663652 -0.1387024522 -0.4431675076 1.111163541e-38
-0.05446347967 -0.1222272515 -0.3387203217 1.111163541e-38
0.07070087641 0.0668348223 -0.4513067007 1.111163541e-38
-0.1081428453 0.08095924556 -0.4922144413 1.111163541e-38
0.0173435621 -0.1240686029 -0.4724834561 1.111163541e-38
-0.09461162239 -0.07908727974 -0.3443246186 1.111163541e-38
-0.0174619928 0.06405964494 -0.4161769152 1.111163541e-38
-0.1106452197 -0.00426537171 -0.4920316339 1.111163541e-38
0.1074054018 -0.05906422809 -0.488068223 1.111163541e-38
-0.05432507768 -0.09810200334 -0.4108072519 1.111163541e-38
0.09560025483 0.04080734402 -0.4500830173 1.111163541e-38
-0.07941246033 0.00828904286 -0.4922929704 1.111163541e-38
0.0507157892 -0.08716262877 -0.4865756035 1.111163541e-38
-0.09814575315 -0.1227390319 -0.4795954227 1.111163541e-38
0.1456137747 -0.1374009699 -0.4677671194 1.111163541e-38
-0.02606293187 -0.07708469778 -0.4912578464 1.111163541e-38
0.01575162075 -0.03716755658 -0.4897788167 1.111163541e-38
-0.1358064562 -0.03314176574 -0.4821372628 1.111163541e-38
-0.07760580629 -0.07923284173 -0.4871990979 1.111163541e-38
-0.1415118128 -0.08528017253 -0.4868635237 1.111163541e-38
-0.08288586885 0.02967088483 -0.02650015242 1.184631237e-38
-0.1595787108 0.1647903621 -0.2937910259 1.184631237e-38
-0.1703683585 0.1636227667 0.07642182708 1.184631237e-38
-0.07116149366 0.06605416536 0.315562278 1.184631237e-38
-0.1177367866 0.1424997151 -0.008300117217 1.184631237e-38
-0.1565821618 0.1668867469 -0.06122650579 1.184631237e-38
-0.1632243097 0.1377427727 0.2823189497 1.184631237e-38
-0.09005037695 0.08979319036 0.04453258589 1.184631237e-38
-0.09789581597 0.1365195513 -0.4075971246 1.184631237e-38
-0.1684943736 0.1651562303 -0.3301466405 1.184631237e-38
-0.1498009264 0.1592606306 0.1564112604 1.184631237e-38
-0.0767441839 0.08223631233 0.2507988811 1.184631237e-38
-0.08235998452 0.09269588441 -0.2679742575 1.184631237e-38
-0.1214293689 0.1647510529 -0.1411358416 1.184631237e-38
-0.1068012118 0.1176444739 0.2256818563 1.184631237e-38
-0.09715757519 0.0344693847 0.114023231 1.184631237e-38
-0.1162335575 0.05035435408 -0.3676766753 1.184631237e-38
-0.1196819767 0.1385701895 -0.1812455654 1.184631237e-38
-0.09658912569 0.1363489032 0.04201587662 1.184631237e-38
-0.06720146537 0.07220683992 0.4298100471 1.184631237e-38
-0.07997950166 0.05272311345 -0.1796803027 1.184631237e-38
-0.08004844189 0.1267345548 -0.0676356256 1.184631237e-38
-0.09835810959 0.1271894872 0.09737327695 1.184631237e-38
-0.092031084 0.1215186864 0.3694278598 1.184631237e-38
-0.03511983529 -0.002857587999 -0.213609457 1.184631237e-38
-0.0930480957 0.06734342128 -0.1042382792 1.184631237e-38
-0.1085180491 -0.03956117854 0.1906743795 1.184631237e-38
-0.1713965237 0.1392357051 0.01438119542 1.184631237e-38
-0.1590166241 0.1010157168 0.16940099 1.184631237e-38
-0.1102473065 -0.004288915545 -0.3156921268 1.184631237e-38
-0.1028185934 0.08451290429 -0.4796669781 1.184631237e-38
-0.1700230092 0.1714544892 -0.2289418578 1.184631237e-38
-0.09635302424 0.1405213177 0.01451047696 1.258099074e-38
0.1838036627 -0.04851236939 0.4718987346 1.258099074e-38
-0.1542894393 0.01804797351 0.3731464744 1.258099074e-38
0.1755255759 0.05694735795 0.4515440762 1.258099074e-38
-0.1070487276 0.152608186 0.1633113623 1.258099074e-38
-0.1378715783 -0.1096391305 0.3885293901 1.258099074e-38
-0.08679876477 0.1108224988 0.1645937562 1.258099074e-38
-0.09439687431 0.1149252281 0.428815484 1.258099074e-38
-0.1065163687 0.1686971635 -0.2079077065 1.258099074e-38
0.1770419031 -0.1572466493 0.4535088241 1.258099074e-38
-0.07293120027 0.09009923041 0.2611845732 1.258099074e-38
-0.006260499358 0.08750073612 0.4325735271 1.258099074e-38
-0.1059516519 0.1601987481 -6.122142076e-05 1.258099074e-38
0.0106371874 -0.1253014952 0.3846176565 1.258099074e-38
-0.07795730978 0.06876139343 0.1915475726 1.258099074e-38
-0.04111164063 0.08011209965 0.414337635 1.258099074e-38
-0.09647303075 0.09941464663 -0.08141390234 1.258099074e-38
0.1059504375 -0.09992689639 0.4138780236 1.258099074e-38
-0.07347351313 0.08594486117 0.3153634369 1.258099074e-38
0.1156499237 0.04982497543 0.4264412522 1.258099074e-38
-0.1206407249 0.1227070838 0.1123468727 1.258099074e-38
-0.1012986302 -0.09608353674 0.3697936833 1.258099074e-38
-0.1063843071 0.1180465668 0.3972392678 1.258099074e-38
0.0500526838 0.05899142101 0.427957356 1.258099074e-38
-0.1237835884 0.10296271 0.08117926866 1.258099074e-38
0.04910071567 -0.08215451986 0.4109886885 1.258099074e-38
-0.132469669 0.1216811687 0.3435461521 1.258099074e-38
-0.09142152965 -0.08473003656 0.4368608594 1.258099074e-38
-0.161664322 0.07007619739 0.3098189831 1.258099074e-38
-0.04245562479 -0.008238717914 0.4462879896 1.258099074e-38
-0.1302692145 0.1652298719 -0.1293709725 1.258099074e-38
0.04856301844 -0.1399475932 0.4655176699 1.258099074e-38
-0.02777145244 -0.02026569471 0.1340917051 1.331530897e-38
0.0640103966 -0.01206606161 0.4666529596 1.331530897e-38
0.1774518639 -0.04355916381 0.1958421767 1.331530897e-38
0.1773541272 -0.1268057972 0.1149270311 1.331530897e-38
0.1781147718 -0.04225377366 0.0138065014 1.331530897e-38
-0.08445374668 0.05348963663 0.3531756401 1.331530897e-38
-0.01683551446 0.007835838944 0.06089506298 1.331530897e-38
0.1797497272 -0.136485517 0.3986777663 1.331530897e-38
-0.07607105374 0.00195942563 -0.155324623 1.331530897e-38
0.1500986814 -0.05277974904 0.4856716394 1.331530897e-38
0.1260960549 -0.005650490057 0.1268305182 1.331530897e-38
0.1376383901 -0.1148145497 0.2680560946 1.331530897e-38
0.01534375455 0.003790509421 -0.02700857259 1.331530897e-38
-0.05763822049 -0.03096847609 0.3810250163 1.331530897e-38
0.02404849604 0.01097529288 0.07673133165 1.331530897e-38
0.1313771009 -0.08031094819 0.3499391377 1.331530897e-38
-0.002181943739 -0.007211098447 -0.1380946189 1.331530897e-38
0.002992852125 -0.05618098751 0.4056854546 1.331530897e-38
0.01878962852 -0.003453941317 0.2045046836 1.331530897e-38
0.09115406126 -0.08284451067 0.2515158653 1.331530897e-38
0.139622286 -0.01653997228 -0.02145714313 1.331530897e-38
-0.07492792606 -0.03101760335 0.2758081257 1.331530897e-38
-0.08840927482 0.06405427307 0.2354780436 1.331530897e-38
0.06768942624 -0.03158372268 0.3089314699 1.331530897e-38
0.0923070237 -0.02107308246 -0.06136175245 1.331530897e-38
-0.007692080922 -0.09411934763 0.250076592 1.331530897e-38
-0.120043233 -0.003463805886 0.1255416125 1.331530897e-38
-0.1487338543 -0.009771453217 0.3530867994 1.331530897e-38
-0.1579562873 -0.005363308825 0.0487110801 1.331530897e-38
0.1453956813 -0.1157856584 0.1381488889 1.331530897e-38
0.08908857405 -0.03170311078 -0.156021595 1.331530897e-38
0.1260402799 -0.09944947809 0.3798297346 1.331530897e-38
-0.1208403185 -0.1193058938 -0.480845809 1.404926846e-38
-0.004616689868 -0.02568007819 -0.4929409027 1.404926846e-38
0.1126885787 0.06233204901 -0.4220586121 1.404926846e-38
-0.1594557911 -0.07770435512 -0.4860462546 1.404926846e-38
0.002345140558 0.0503709726 -0.4899433553 1.404926846e-38
0.1459996551 -0.1206298992 -0.458555907 1.404926846e-38
0.1610833555 -0.002121337689 -0.2903992832 1.404926846e-38
-0.1723942012 0.03783847392 -0.488773644 1.404926846e-38
-0.1579181701 0.08963619918 -0.4881787598 1.404926846e-38
-0.04436337203 0.01947105303 -0.4897780418 1.404926846e-38
0.09097979218 -0.0004814827989 -0.375169605 1.404926846e-38
-0.1629599035 -0.05384081602 -0.4844840765 1.404926846e-38
-0.06306129694 0.07713504881 -0.4701436758 1.404926846e-38
0.08986778557 -0.04358522221 -0.4920961261 1.404926846e-38
0.07488959283 -0.001019095187 -0.2866428196 1.404926846e-38
-0.1498719603 -0.003428916447 -0.4866608381 1.404926846e-38
-0.1150849387 0.05287563056 -0.4468528628 1.404926846e-38
0.05306091905 0.01237933617 -0.4908319414 1.404926846e-38
0.0439562723 -0.01912942342 -0.4031921327 1.404926846e-38
-0.1241633818 -0.09318400174 -0.4751115739 1.404926846e-38
-0.03874857351 0.05843904614 -0.4805594087 1.404926846e-38
0.1002440602 -0.1099054813 -0.3775753081 1.404926846e-38
0.04521831498 0.04677886143 -0.4718008637 1.404926846e-38
-0.03458948806 -0.1250353903 -0.4623824358 1.404926846e-38
-0.1029306948 0.05589762703 -0.4960708022 1.404926846e-38
0.03376520053 -0.07864690572 -0.491884619 1.404926846e-38
-0.04537085071 -0.1268289834 -0.4851510227 1.404926846e-38
0.05400327966 -0.09679730982 -0.4841372669 1.404926846e-38
-0.05930330977 0.04457202181 -0.4772638977 1.404926846e-38
-0.09643299878 -0.1068326011 -0.4921835959 1.404926846e-38
-0.1351300329 0.1375124454 -0.4624226391 1.404926846e-38
-0.04589856789 -0.003271531779 -0.4859155118 1.404926846e-38
0.143924281 -0.1317069083 -0.1876671463 1.478322936e-38
