# .PCD v0.7 - Point Cloud Data file format
VERSION 0.7
FIELDS x y z rgb
SIZE 4 4 4 4
TYPE F F F F
COUNT 1 1 1 1
WIDTH 826
HEIGHT 1
VIEWPOINT 0 0 0 1 0 0 0
POINTS 826
DATA ascii
-0.08707392961 0.07651443034 0.3024618328 1.258099074e-38
-0.1479467899 -0.09934082627 0.1516384035 1.258099074e-38
0.01551627275 -0.06163718179 -0.2882638872 1.258099074e-38
-0.1568296254 -0.1206500158 -0.3025369346 1.258099074e-38
-0.08737011254 0.08797254413 0.023231484 1.258099074e-38
-0.1366073489 -0.03886771575 -0.1670042872 1.258099074e-38
-0.01605366729 0.001361900126 -0.1484224945 1.258099074e-38
-0.1034879759 -0.1273056865 -0.3933229744 1.258099074e-38
-0.08045119792 0.06645694375 0.2442598194 1.258099074e-38
-0.1425181031 -0.07228390872 0.06113961712 1.258099074e-38
0.005242612679 -0.03944100067 -0.2570847869 1.258099074e-38
-0.1560955346 -0.1164974496 -0.32520926 1.258099074e-38
-0.0888139084 0.07758081704 0.04395424202 1.258099074e-38
-0.1374938041 -0.0327661857 -0.1481574774 1.258099074e-38
-0.01088465936 -0.003918055911 -0.176032722 1.258099074e-38
-0.09036813676 -0.1230453625 -0.4027705193 1.258099074e-38
-0.09082166851 0.06106281281 0.2233145833 1.258099074e-38
-0.1410474181 -0.0395889394 0.06435637921 1.258099074e-38
0.009157610126 -0.05091224238 -0.2788402736 1.258099074e-38
-0.1516792774 -0.1245127097 -0.3538300693 1.258099074e-38
-0.08674555272 0.07594013214 0.1125857681 1.258099074e-38
-0.1490576267 -0.06265644729 -0.09575625509 1.258099074e-38
-0.03255691379 -0.01094066445 -0.2039625496 1.258099074e-38
-0.1635760963 -0.1205848604 -0.2986683249 1.258099074e-38
-0.08809334785 0.08289908618 0.004380421713 1.258099074e-38
-0.1435105056 -0.02748417854 -0.1859948039 1.258099074e-38
-0.01183512714 0.002812534571 -0.1465199739 1.258099074e-38
0.1951650232 -0.1326045096 -0.130486384 1.331530897e-38
0.1844433397 -0.04363428801 -0.005565770436 1.331530897e-38
-0.1165801436 -0.06713487208 0.002365415217 1.331530897e-38
0.1744444817 -0.02080477029 -0.2038701475 1.331530897e-38
-0.0867414549 -0.06807650626 0.1255800426 1.331530897e-38
0.1569355726 -0.0390855968 0.2953578234 1.331530897e-38
0.1478779763 -0.05597474426 0.03085982613 1.331530897e-38
0.0322592929 -0.07107144594 -0.4575991333 1.331530897e-38
0.0001604706049 -0.1068129241 -0.141768232 1.331530897e-38
0.150003463 -0.01561556477 0.1056925058 1.331530897e-38
0.0009496805142 -0.02447195351 0.02664859407 1.331530897e-38
0.1396868825 -0.08314648271 -0.3223623335 1.331530897e-38
-0.1258235574 -0.09187474847 0.06745426357 1.331530897e-38
0.1581912935 -0.0326404348 0.2534531951 1.331530897e-38
0.1105333269 -0.01595172659 0.02643979713 1.331530897e-38
0.07016611844 -0.07749257237 -0.4423530102 1.331530897e-38
-0.08179722726 -0.1077029184 -0.1486299932 1.331530897e-38
0.1286703199 -0.01740594208 0.1328987777 1.331530897e-38
0.02001188137 -0.01221005991 0.02542005852 1.331530897e-38
0.1196579784 -0.08981821686 -0.3668192029 1.331530897e-38
-0.1259775758 -0.07748030871 0.07552841306 1.331530897e-38
0.131429553 -0.03510775045 0.2800098956 1.331530897e-38
0.1157173067 -0.01528602932 0.02728432603 1.331530897e-38
0.022996163 -0.07454497367 -0.4452348351 1.331530897e-38
-0.1218576431 -0.1122836694 -0.0691305548 1.331530897e-38
0.1631547064 -0.02705390565 0.1671597362 1.331530897e-38
0.05985584855 -0.006863113958 0.02452267893 1.331530897e-38
0.1393942833 -0.09465259314 -0.4040190578 1.331530897e-38
0.02117485553 -0.1066321358 -0.1426597387 1.331530897e-38
0.1487534344 -0.01848162338 0.09947602451 1.331530897e-38
-0.009181524627 -0.02002714947 0.0267023854 1.331530897e-38
0.1353925765 -0.0836962387 -0.3244703114 1.331530897e-38
-0.1738771349 0.1740844697 0.2994768918 1.404926846e-38
-0.1122145429 0.04732659459 0.2871499956 1.404926846e-38
-0.1921409518 0.09822079539 0.2438552678 1.404926846e-38
-0.160275951 -0.1184508353 -0.02284813114 1.404926846e-38
0.02660041675 0.0878983289 0.4667507708 1.404926846e-38
0.05671695992 -0.1074498072 0.401099354 1.404926846e-38
-0.1033833548 0.05989190936 -0.2528025508 1.404926846e-38
0.007079855539 -0.08208265156 0.206116423 1.404926846e-38
-0.1460344344 0.1499411017 0.3759112656 1.404926846e-38
-0.07709366083 0.0210221801 0.3473756909 1.404926846e-38
-0.1505206078 0.08328671008 0.06168700755 1.404926846e-38
-0.07783281058 0.0198839251 0.09867101163 1.404926846e-38
-0.02824720182 0.08640132099 0.4517538249 1.404926846e-38
0.01068742108 -0.09658910334 0.3766323924 1.404926846e-38
-0.1069819182 0.06177626923 -0.1952728182 1.404926846e-38
-0.0372582376 -0.03374311328 0.2039495856 1.404926846e-38
-0.1278030574 0.1316815317 0.3941693902 1.404926846e-38
-0.05995807052 -0.008294422179 0.3545029461 1.404926846e-38
-0.1504458487 0.07401393354 0.03750127926 1.404926846e-38
-0.07561141253 0.04577523097 0.1668779701 1.404926846e-38
-0.01948035695 0.08350038528 0.4596905112 1.404926846e-38
0.02044364624 -0.1037103534 0.3732891977 1.404926846e-38
-0.08288626373 0.04808043316 -0.190116927 1.404926846e-38
-0.03181593493 -0.02070552669 0.2277843654 1.404926846e-38
-0.1171132699 0.1336383373 0.421364367 1.404926846e-38
-0.05590054765 -0.02617017739 0.3634864092 1.404926846e-38
-0.1470727324 0.07503421605 -0.03974994645 1.404926846e-38
-0.07169963419 0.04739088565 0.1868156642 1.404926846e-38
-0.1500093788 0.1417503208 0.3709678948 1.404926846e-38
-0.08659444749 0.02078163065 0.3474675417 1.404926846e-38
-0.148884207 0.07488220185 0.09091683477 1.404926846e-38
-0.08383705467 0.0002105981112 0.104897283 1.404926846e-38
0.1271279603 -0.1378533393 -0.3598838151 1.478322936e-38
0.170018211 -0.004797958303 -0.4698460698 1.478322936e-38
0.1647339314 -0.09032358974 -0.4817000628 1.478322936e-38
-0.08736753464 0.0493285805 -0.4865850508 1.478322936e-38
-0.1168990061 -0.1231056228 -0.2079213411 1.478322936e-38
0.08289188892 -0.1476958841 -0.2581475079 1.478322936e-38
-0.07611954212 -0.1409819722 -0.4241470993 1.478322936e-38
0.1529462039 0.07954903692 -0.4843353629 1.478322936e-38
0.0004160254903 -0.1225754842 -0.3619989753 1.478322936e-38
0.1616699845 -0.1021804437 -0.4382886291 1.478322936e-38
0.06226551905 -0.1091582105 -0.4772955179 1.478322936e-38
0.04429516196 0.03722350672 -0.4878434241 1.478322936e-38
-0.1192640141 -0.118370153 -0.2702306211 1.478322936e-38
0.1273898631 -0.1382231712 -0.3069392741 1.478322936e-38
-0.04564862698 -0.1272726208 -0.4575753212 1.478322936e-38
0.1410608441 0.06000031158 -0.4876044393 1.478322936e-38
-0.02263284847 -0.1162771657 -0.372433573 1.478322936e-38
0.151752457 -0.108599022 -0.4399538934 1.478322936e-38
0.03643050045 -0.1123077422 -0.4844084382 1.478322936e-38
0.08394129574 0.01468237024 -0.4910416901 1.478322936e-38
-0.1235954091 -0.1081700251 -0.264175415 1.478322936e-38
0.09036621451 -0.1256270111 -0.3529410362 1.478322936e-38
-0.05037534237 -0.1412940323 -0.4691394567 1.478322936e-38
0.1413463205 0.04443185776 -0.489595145 1.478322936e-38
-0.08655653894 -0.1199462935 -0.3399557769 1.478322936e-38
0.1687230915 -0.136188224 -0.3811009228 1.478322936e-38
0.00240613427 -0.1212291121 -0.4746200442 1.478322936e-38
0.1065867022 0.03898923099 -0.4880580902 1.478322936e-38
0.01858389005 -0.1271824986 -0.3792265952 1.478322936e-38
0.1674339324 -0.0964750424 -0.4498659074 1.478322936e-38
0.07177829742 -0.1106114984 -0.4847422838 1.478322936e-38
0.05175802857 0.01459663268 -0.4924305081 1.478322936e-38
-0.04984392598 0.03566487134 0.2683678865 1.551683013e-38
0.130214721 0.01131645683 -0.2850315273 1.551683013e-38
-0.01293846313 0.007613854483 -0.1179096922 1.551683013e-38
0.09349555522 -0.005641430151 0.008919373155 1.551683013e-38
-0.05514519662 0.04725504294 -0.0969805941 1.551683013e-38
0.08949618787 0.004423693754 0.0858393535 1.551683013e-38
0.1148758233 0.003255773103 0.3642903566 1.551683013e-38
0.02132814191 0.01106963493 -0.1850143373 1.551683013e-38
-0.04863813519 0.007372409571 0.1269515008 1.551683013e-38
0.1463176459 0.001314669033 -0.1522155702 1.551683013e-38
0.06701488048 -0.002458150266 0.1475171745 1.551683013e-38
0.06140016764 0.008588803001 -0.03711793572 1.551683013e-38
-0.0425151065 0.01082209684 -0.05138150975 1.551683013e-38
0.1261741668 -0.003392191604 0.04660330713 1.551683013e-38
0.08490832895 -0.004622888286 0.3238564134 1.551683013e-38
0.04195145145 -0.006318693515 -0.1680157185 1.551683013e-38
-0.05461128801 -0.0006482898025 0.08737236261 1.551683013e-38
0.13731727 -0.00585501641 -0.1130370274 1.551683013e-38
0.07059072703 -0.004123113118 0.187076509 1.551683013e-38
0.04259070754 0.01003021654 -0.06004045159 1.551683013e-38
-0.04680821672 0.007812862284 -0.05425333232 1.551683013e-38
0.1160860062 -0.006681953557 0.05387429148 1.551683013e-38
0.0905373469 -0.001962078037 0.3377475142 1.551683013e-38
0.02613702975 -0.002427215688 -0.1931605488 1.551683013e-38
-0.04929258674 -0.001513569383 0.03131711483 1.551683013e-38
0.1533144563 -0.00769589562 -0.06118334085 1.551683013e-38
0.05966671184 -0.004705289844 0.2462714612 1.551683013e-38
0.05396893248 -0.0003860592551 -0.08809027076 1.551683013e-38
-0.04871574789 0.002876229119 0.1414594054 1.551683013e-38
0.1438383013 -0.002007794566 -0.1657987535 1.551683013e-38
0.06786353141 -0.004512189887 0.1468836665 1.551683013e-38
0.0446623005 0.007488587406 -0.02569874376 1.551683013e-38
0.01796061359 -0.140557006 0.4662249386 1.625043089e-38
-0.0764984414 0.06177623197 0.4503948092 1.625043089e-38
0.02036843263 -0.05595662817 0.4613749087 1.625043089e-38
0.08934848756 0.09499483556 0.4357694089 1.625043089e-38
-0.1153311208 -0.1124720797 0.3268235922 1.625043089e-38
-0.1290580034 0.1179643124 0.1166317984 1.625043089e-38
0.1584464312 -0.1318517029 0.458360374 1.625043089e-38
-0.1228431091 -0.1351110041 0.1851111948 1.625043089e-38
-0.04437335208 -0.1163840219 0.4472865462 1.625043089e-38
-0.1173827201 0.0470026657 0.3765112758 1.625043089e-38
0.07374548912 -0.06574947387 0.4639880657 1.625043089e-38
-0.01252438221 0.02820020542 0.4178815186 1.625043089e-38
-0.1103805676 -0.1134232655 0.3860186338 1.625043089e-38
-0.1281465441 0.1079230905 0.1775749922 1.625043089e-38
0.130403325 -0.1195494533 0.4611617327 1.625043089e-38
-0.1066498235 -0.1123265177 0.2621620297 1.625043089e-38
-0.05552819371 -0.1111186668 0.4486531913 1.625043089e-38
-0.1050597951 0.07293197513 0.3791350424 1.625043089e-38
0.08788853884 -0.08912026882 0.4774957001 1.625043089e-38
-0.02006763406 0.0297234524 0.4315518141 1.625043089e-38
-0.09839374572 -0.09707994014 0.3879542053 1.625043089e-38
-0.1247721836 0.1302442551 0.2190605849 1.625043089e-38
0.1390555501 -0.1151076332 0.4691619873 1.625043089e-38
-0.1042831913 -0.09471185505 0.2874671817 1.625043089e-38
-0.08832485974 -0.123991996 0.4351982772 1.625043089e-38
-0.121037595 0.07886333019 0.3003502786 1.625043089e-38
0.1070213467 -0.0878148973 0.468257606 1.625043089e-38
-0.07168835402 -0.05489236861 0.3644498587 1.625043089e-38
-0.04190373048 -0.1148478463 0.4519800544 1.625043089e-38
-0.1129177734 0.05500565842 0.4047960639 1.625043089e-38
0.07388398796 -0.07862080634 0.4802038372 1.625043089e-38
-0.001794787007 0.03973689675 0.4344802499 1.625043089e-38
-0.1428652704 -0.1522533894 0.3243423104 1.698367293e-38
-0.1704548299 0.1661323756 0.3371798098 1.698367293e-38
-0.1401669085 -0.1435486525 0.3404025137 1.698367293e-38
-0.1777424961 0.04392588139 0.3310234249 1.698367293e-38
-0.1469594091 -0.04061413556 0.122030966 1.698367293e-38
-0.1429745853 -0.07578579336 0.4056049287 1.698367293e-38
0.02900015004 -0.1335162222 0.4274480939 1.698367293e-38
-0.155506134 0.06794433296 -0.1432642788 1.698367293e-38
-0.1336847842 -0.1116122678 0.2611884475 1.698367293e-38
-0.1615860164 0.0943307057 0.3919396996 1.698367293e-38
-0.03464978561 -0.1137257144 0.3648002744 1.698367293e-38
-0.1373179704 0.05528957024 0.1970066428 1.698367293e-38
-0.1468177736 -0.08601400256 0.1580446213 1.698367293e-38
-0.1468962282 -0.02699945122 0.4021869302 1.698367293e-38
0.01688239537 -0.112513952 0.4298032224 1.698367293e-38
-0.141505599 0.08742707223 -0.05843814835 1.698367293e-38
-0.1439055651 -0.106172055 0.2682132423 1.698367293e-38
-0.1369119138 0.0713512525 0.4108103216 1.698367293e-38
-0.03632685915 -0.1116196513 0.4151691198 1.698367293e-38
-0.1314782053 0.05167581514 0.2078501582 1.698367293e-38
-0.1351705194 -0.08026822656 0.168694675 1.698367293e-38
-0.1287996918 -0.01849230379 0.4212883413 1.698367293e-38
0.01689035073 -0.1109721288 0.4666466713 1.698367293e-38
-0.1187320724 0.05599204823 -0.03601512685 1.698367293e-38
-0.1493893564 -0.1144884899 0.2025030553 1.698367293e-38
-0.1552117616 0.0523214899 0.4066902995 1.698367293e-38
-0.02570756897 -0.1119820848 0.4074629843 1.698367293e-38
-0.1468107104 0.06212050095 0.1020335108 1.698367293e-38
-0.1509370059 -0.1155843139 0.2965463996 1.698367293e-38
-0.1602984667 0.09925494343 0.4031687975 1.698367293e-38
-0.05639602989 -0.1137176901 0.3964488506 1.698367293e-38
-0.1433409601 0.04365130141 0.2492575049 1.698367293e-38
-0.07166635245 -0.04265609384 -0.476479888 1.771655483e-38
-0.1454190016 -0.1758635789 -0.4708387852 1.771655483e-38
-0.1817494631 -0.06928250939 -0.4498378932 1.771655483e-38
0.01243636012 -0.08450699598 -0.4736331999 1.771655483e-38
0.1269060224 0.07352112979 -0.4795013666 1.771655483e-38
0.01079787035 -0.05277119949 -0.4853034019 1.771655483e-38
0.04299468175 0.02461309545 -0.478451401 1.771655483e-38
-0.1570053548 -0.153942585 -0.4691167176 1.771655483e-38
0.06682584435 -0.07883255184 -0.4803145826 1.771655483e-38
-0.09588607401 -0.1317710429 -0.4812189639 1.771655483e-38
-0.1132948995 0.05078080669 -0.4842852056 1.771655483e-38
-0.08512508869 -0.04790938646 -0.4861465693 1.771655483e-38
0.1410363764 -0.007943336852 -0.4809562862 1.771655483e-38
-0.005428097211 -0.08244034648 -0.4883164167 1.771655483e-38
-0.002692856826 0.04596163705 -0.4770222604 1.771655483e-38
-0.1419263333 -0.1189309657 -0.4810058475 1.771655483e-38
0.07909672707 -0.091584526 -0.4879037738 1.771655483e-38
-0.08546654135 -0.1178662404 -0.4900302291 1.771655483e-38
-0.1031833887 0.06022116542 -0.4842039049 1.771655483e-38
-0.09751866758 -0.05084044114 -0.4935182035 1.771655483e-38
0.1396145225 -0.008655555546 -0.4891682565 1.771655483e-38
-0.002058637328 -0.07339011878 -0.4955189526 1.771655483e-38
-0.004429922439 0.05318553746 -0.4810680747 1.771655483e-38
-0.1349678636 -0.1217174381 -0.4928453863 1.771655483e-38
0.1242590547 -0.07585448772 -0.4829927981 1.771655483e-38
-0.05881923437 -0.1210497096 -0.4860105515 1.771655483e-38
-0.07577308267 0.05326916277 -0.4794433713 1.771655483e-38
-0.1243492365 -0.07591810822 -0.4863028824 1.771655483e-38
0.05361868069 -0.09939184785 -0.4851967692 1.771655483e-38
-0.1074131578 -0.1345210522 -0.4841566682 1.771655483e-38
-0.1233135909 0.05528961495 -0.4871683717 1.771655483e-38
-0.08416838944 -0.03552854061 -0.4926684797 1.771655483e-38
-0.008040240034 -0.1312310249 -0.05616262928 1.844943813e-38
0.1715265214 -0.009025105275 0.189913258 1.844943813e-38
0.03775510192 -0.005574466661 0.02997102588 1.844943813e-38
0.1896995604 -0.1153898239 0.2458088398 1.844943813e-38
0.1583925486 -0.1082601026 0.2194238603 1.844943813e-38
0.1645886451 -0.07295413315 -0.1146289334 1.844943813e-38
0.0873336643 -0.01379795745 -0.3255763948 1.844943813e-38
-0.03828870133 -0.1119407117 0.3869446814 1.844943813e-38
0.05515282229 -0.1051551253 0.087180987 1.844943813e-38
0.150246188 -0.104041636 0.08287844062 1.844943813e-38
0.1096875817 -0.02069559135 -0.1277883202 1.844943813e-38
0.1530710459 -0.07826527953 0.3307422101 1.844943813e-38
0.1616484672 -0.09906734526 0.1950981021 1.844943813e-38
0.1725304872 -0.07632656395 -0.05921940506 1.844943813e-38
0.0970608741 -0.01265595295 -0.2824997306 1.844943813e-38
0.01151200943 -0.1124044582 0.3990386128 1.844943813e-38
0.05767402053 -0.08538162708 0.1202151626 1.844943813e-38
0.1419959664 -0.1019368544 0.07507765293 1.844943813e-38
0.1185641214 -0.01503252983 -0.1516311616 1.844943813e-38
0.1408177614 -0.08230929822 0.3679806888 1.844943813e-38
0.1594568044 -0.06259519607 0.2295233607 1.844943813e-38
0.1514626592 -0.07171627134 -0.05440584943 1.844943813e-38
0.09577276558 -0.01184263546 -0.2982585132 1.844943813e-38
-0.02815167047 -0.09646874666 0.4324963987 1.844943813e-38
0.1287859827 -0.1158867627 0.1399862915 1.844943813e-38
0.1628639847 -0.1046623439 0.03213790059 1.844943813e-38
0.1283200234 -0.01463955361 -0.1928136945 1.844943813e-38
0.105592005 -0.1112637594 0.3889243007 1.844943813e-38
0.04382894188 -0.1064852327 0.0716342628 1.844943813e-38
0.1595711857 -0.1092262566 0.09399007261 1.844943813e-38
0.1082014292 -0.01363867894 -0.1139217392 1.844943813e-38
0.1512971222 -0.07657830417 0.3423685431 1.844943813e-38
0.03339904174 0.00805084873 0.3066349328 1.91819627e-38
-0.03716684133 0.01880370453 -0.1488434523 1.91819627e-38
0.1086719185 -0.008941248059 -0.03258240223 1.91819627e-38
0.1930475235 -0.02654898539 -0.08142057061 1.91819627e-38
-0.04412693903 0.0305913724 0.007912301458 1.91819627e-38
-0.0980572477 0.1654247046 -0.4202179313 1.91819627e-38
0.1631765515 -0.09854365885 0.3170796633 1.91819627e-38
-0.1034608111 0.09018711001 -0.2377626151 1.91819627e-38
-0.02672287822 0.008410076611 0.2541934252 1.91819627e-38
-0.05242314935 0.02899650298 -0.2612199187 1.91819627e-38
0.1238473505 -0.01162394695 0.1662427485 1.91819627e-38
0.03808486089 -0.01531330775 -0.09037081152 1.91819627e-38
-0.04661044106 0.02049781755 0.09738406539 1.91819627e-38
-0.09084364027 0.1223960966 -0.3993989229 1.91819627e-38
0.148096025 -0.07115444541 0.2826809883 1.91819627e-38
-0.09245562553 0.04278421775 -0.1689916551 1.91819627e-38
-0.03653879464 0.01267085224 0.2558828294 1.91819627e-38
-0.06179692969 0.03520736098 -0.297375977 1.91819627e-38
0.1289374679 -0.02452383935 0.1960841715 1.91819627e-38
0.02477295324 -0.01397970133 -0.09609542787 1.91819627e-38
-0.05291053653 0.02976219356 0.1140316725 1.91819627e-38
-0.09141810983 0.1282504201 -0.4047913849 1.91819627e-38
0.1441264898 -0.08004362881 0.3016971648 1.91819627e-38
-0.07469026744 0.05191537738 -0.1909066588 1.91819627e-38
-0.03435315192 0.02194952033 0.1996692419 1.91819627e-38
-0.08479303867 0.06231802329 -0.34003672 1.91819627e-38
0.1472209543 -0.02844250202 0.2246596813 1.91819627e-38
-0.05085363239 -0.007373273838 -0.1059798375 1.91819627e-38
-0.02638260275 -0.006481675897 0.2776226997 1.91819627e-38
-0.04709255323 0.01529330015 -0.2575181425 1.91819627e-38
0.1253997087 -0.01094653737 0.1601537019 1.91819627e-38
0.06252883375 -0.01543198153 -0.08932951093 1.91819627e-38
-0.1738344133 0.1558882147 -0.2177173346 1.991448586e-38
-0.09048038721 0.09268919379 -0.3430997431 1.991448586e-38
-0.1963367909 0.1340945214 -0.1571006775 1.991448586e-38
-0.1690187603 0.09861967713 -0.3450391591 1.991448586e-38
0.002048996277 -0.009425897151 -0.3765056729 1.991448586e-38
-0.06998098642 0.1087687463 0.0231219139 1.991448586e-38
-0.1543108225 0.1638251543 0.2247263342 1.991448586e-38
-0.1464268863 -0.1311847121 -0.4091863334 1.991448586e-38
-0.1598638445 0.09621126205 -0.2872676849 1.991448586e-38
-0.07049369812 0.07541424036 -0.2297209352 1.991448586e-38
-0.1248958856 0.1285771281 -0.02574546821 1.991448586e-38
-0.1421347558 0.008796136826 -0.351262629 1.991448586e-38
-0.07200124115 -0.01234805398 -0.3710483611 1.991448586e-38
-0.07420817763 0.07651280612 -0.02027497441 1.991448586e-38
-0.1389510334 0.1433521062 0.1640619487 1.991448586e-38
-0.1450849324 -0.09039957821 -0.3974250853 1.991448586e-38
-0.1575350463 0.08381521702 -0.3042584956 1.991448586e-38
-0.06904909015 0.07350483537 -0.2240410596 1.991448586e-38
-0.1156692803 0.1228575557 0.01007132418 1.991448586e-38
-0.1321664602 -0.001571117551 -0.3754018545 1.991448586e-38
-0.08940063417 -0.002261530375 -0.3898211122 1.991448586e-38
-0.0699711442 0.07980377972 -0.01171550155 1.991448586e-38
-0.1225028411 0.1456064731 0.1435390115 1.991448586e-38
-0.1324719936 -0.08918123692 -0.4162690938 1.991448586e-38
-0.1618383527 0.04325767234 -0.3316337466 1.991448586e-38
-0.07776983827 0.07040810585 -0.1437145323 1.991448586e-38
-0.1361915469 0.139951542 0.07444527745 1.991448586e-38
-0.1490969062 -0.039990291 -0.3751357794 1.991448586e-38
-0.1588239223 0.09753388911 -0.2788473964 1.991448586e-38
-0.074198246 0.07182522863 -0.2554730177 1.991448586e-38
-0.1218458414 0.1199541911 -0.03268781677 1.991448586e-38
-0.1405601799 0.02685669065 -0.3650858402 1.991448586e-38
0.1424871683 -0.07013385743 -0.06366926432 2.06466517e-38
0.1652917564 0.001813834417 0.3503004611 2.06466517e-38
0.1773261577 -0.05993121117 0.2478349954 2.06466517e-38
0.01889476366 -0.002256322652 0.2264861166 2.06466517e-38
-0.02562499046 0.05163246766 -0.3860464692 2.06466517e-38
0.06308847666 0.006101904903 0.09082462639 2.06466517e-38
0.1626084298 -0.08191943169 -0.006922142114 2.06466517e-38
0.1421352923 0.08640890568 0.4631491005 2.06466517e-38
0.1161157861 -0.09072427452 -0.2230927348 2.06466517e-38
0.1288353652 -0.004859059118 0.2729595006 2.06466517e-38
0.1492418051 -0.07131076604 0.1575238407 2.06466517e-38
0.0871616751 0.01677612029 0.3628314435 2.06466517e-38
-0.01002763119 -0.004712665919 -0.375516057 2.06466517e-38
0.04348352551 -0.02964920737 0.1356157959 2.06466517e-38
0.1519061178 -0.08530880511 0.04475102201 2.06466517e-38
0.1442081779 0.0628849715 0.4501635134 2.06466517e-38
0.08276803792 -0.06590721011 -0.2546954155 2.06466517e-38
0.09222169966 -0.02670336328 0.2482279539 2.06466517e-38
0.1442329735 -0.07093270868 0.1419913024 2.06466517e-38
0.1114244014 0.02227074467 0.3846912086 2.06466517e-38
-0.04941513017 0.0146795772 -0.359524399 2.06466517e-38
-0.009250101633 -0.05136031657 0.1272860169 2.06466517e-38
0.1386501789 -0.0673032105 0.03503481299 2.06466517e-38
0.1174577773 0.0593194738 0.4611159265 2.06466517e-38
0.08822885901 -0.06372836232 -0.3232462704 2.06466517e-38
0.08573652804 -0.02233264223 0.216793552 2.06466517e-38
0.1533509344 -0.08292210847 0.1161030605 2.06466517e-38
0.1460574418 0.03938446194 0.4023385048 2.06466517e-38
0.09869400412 -0.08788708597 -0.2074111253 2.06466517e-38
0.1242294759 -0.0198269356 0.2801639438 2.06466517e-38
0.1514677256 -0.06717310101 0.1702355742 2.06466517e-38
0.07971516997 0.01473093778 0.3665676117 2.06466517e-38
-0.03803513572 0.02528714947 -0.09471216053 2.137881613e-38
-0.08909971267 0.04638841748 0.06078679487 2.137881613e-38
-0.007586244028 -0.06343568861 0.008993889205 2.137881613e-38
-0.1249300241 0.125670597 -0.002640470397 2.137881613e-38
0.1216054782 0.00590900518 0.2301163524 2.137881613e-38
-0.008901039138 0.001420754008 0.3362633884 2.137881613e-38
-0.1337958723 -0.1289269179 0.05301653966 2.137881613e-38
-0.1040917113 0.1559946388 -0.3123319447 2.137881613e-38
0.09496492147 -0.006914084312 0.03197315335 2.137881613e-38
-0.01858644746 -0.003439133521 0.1386868805 2.137881613e-38
0.0002527255565 -0.108219333 -0.1239289343 2.137881613e-38
-0.09604395181 0.1348935217 -0.1426542699 2.137881613e-38
0.1239406168 -0.006806216203 0.18410182 2.137881613e-38
-0.005754480138 0.001515674172 0.3060830534 2.137881613e-38
-0.107677266 -0.1217823997 -0.02869927138 2.137881613e-38
-0.08882837743 0.1227470338 -0.2710116208 2.137881613e-38
0.09347667545 -0.00530586997 0.07220758498 2.137881613e-38
-0.02080687508 -0.007730363403 0.1689250916 2.137881613e-38
-0.01008926705 -0.1053625643 -0.1468846947 2.137881613e-38
-0.08947590739 0.1280175894 -0.158318013 2.137881613e-38
0.1104542688 -0.009583656676 0.2054071128 2.137881613e-38
-0.01746677235 -0.007244419307 0.3113373518 2.137881613e-38
-0.1152485237 -0.1221849993 0.0003319620155 2.137881613e-38
-0.08655356616 0.1211642027 -0.2738744617 2.137881613e-38
0.1118562967 -0.006178479176 0.1026282758 2.137881613e-38
-0.01806600578 -0.001371055027 0.2032427341 2.137881613e-38
-0.05615539476 -0.1162209958 -0.1425811201 2.137881613e-38
-0.08963561058 0.1223288402 -0.2049711943 2.137881613e-38
0.09847259521 -0.008092263713 0.02580667473 2.137881613e-38
-0.02671473846 -0.007979864255 0.1241004914 2.137881613e-38
0.01591847837 -0.1051732376 -0.1097938418 2.137881613e-38
-0.09800239652 0.1381334066 -0.134187609 2.137881613e-38
0.1692976207 -0.08581206203 0.4671196342 2.211062324e-38
0.09101522714 -0.1260109097 0.223364681 2.211062324e-38
0.1726071984 -0.1718327105 0.38914904 2.211062324e-38
0.13647075 -0.09745248407 0.4613605738 2.211062324e-38
0.1453296095 0.07613150775 0.466218859 2.211062324e-38
0.1691075563 -0.02701798268 0.3196095824 2.211062324e-38
0.1598622501 0.02222231776 0.4075891078 2.211062324e-38
-0.1146217957 -0.1214700118 0.2455752641 2.211062324e-38
0.1471321732 -0.02017315105 0.4766082466 2.211062324e-38
0.1468252391 -0.1169593558 0.2350267321 2.211062324e-38
0.1386181414 -0.08561061323 0.4191381037 2.211062324e-38
0.09794668853 -0.1297372133 0.441947192 2.211062324e-38
0.1445643455 0.04879387468 0.4760084152 2.211062324e-38
0.1734907478 -0.06457976997 0.349485755 2.211062324e-38
0.1458617002 -0.01095629577 0.4220929742 2.211062324e-38
-0.06539293379 -0.121596165 0.3160443902 2.211062324e-38
0.1374964565 -0.0003210604191 0.4902869463 2.211062324e-38
0.1489958912 -0.1114341244 0.3185522854 2.211062324e-38
0.1262577623 -0.06698773056 0.4393256009 2.211062324e-38
0.09048403054 -0.1253905892 0.4587824643 2.211062324e-38
0.10982088 0.06631033868 0.4873958528 2.211062324e-38
0.1419619322 -0.03719702736 0.3837728798 2.211062324e-38
0.124468565 -5.070865154e-05 0.4512218535 2.211062324e-38
-0.04250586405 -0.1276404858 0.3626998663 2.211062324e-38
0.1517925858 0.01599973999 0.4804395735 2.211062324e-38
0.1640072465 -0.09782245755 0.3149817586 2.211062324e-38
0.1506199241 -0.04954402149 0.4210365117 2.211062324e-38
0.0450226739 -0.1368187964 0.4158521891 2.211062324e-38
0.1528359205 -0.02703408711 0.4845460951 2.211062324e-38
0.146948114 -0.1200190932 0.2671692371 2.211062324e-38
0.1329633892 -0.08581743389 0.4342526793 2.211062324e-38
0.1138221845 -0.122606203 0.4723850787 2.211062324e-38
0.09017752856 0.1187960356 0.4512989521 2.284242894e-38
-0.0156110879 0.0982606113 0.4522615373 2.284242894e-38
0.02513056062 -0.05180126429 0.3347441852 2.284242894e-38
0.1088003144 -0.1254133284 0.1303493083 2.284242894e-38
0.1666483581 -0.1047928482 0.2425982654 2.284242894e-38
0.124425754 0.01114247832 0.2141474932 2.284242894e-38
-0.1556210965 0.1304987073 0.4437649548 2.284242894e-38
0.04113997146 -0.03567708284 0.2702347636 2.284242894e-38
0.1549321264 0.05187205598 0.4154526293 2.284242894e-38
0.05382530019 0.001331552048 0.4123127759 2.284242894e-38
-0.0436918661 0.008914357051 0.4302084148 2.284242894e-38
-0.07205907255 -0.06904359907 0.2393196374 2.284242894e-38
0.1624551415 -0.1029932573 0.3021117449 2.284242894e-38
0.1007519737 0.00476469053 0.2599411607 2.284242894e-38
-0.1386809796 0.07056342065 0.4604536891 2.284242894e-38
0.0005234106793 -0.0223393254 0.3095981479 2.284242894e-38
0.1517497152 0.02573410235 0.4209286273 2.284242894e-38
0.05561858043 -0.009771756828 0.405341059 2.284242894e-38
-0.07474960387 0.004520299844 0.4596592486 2.284242894e-38
-0.1192009971 -0.05246711522 0.3291714787 2.284242894e-38
0.1545769572 -0.08023991436 0.3063030839 2.284242894e-38
0.1016709656 0.0001814439893 0.2788433135 2.284242894e-38
-0.143701911 0.0657550171 0.4673993289 2.284242894e-38
0.01979254186 -0.03655992076 0.3170434535 2.284242894e-38
0.172290042 -0.04220676795 0.3897036016 2.284242894e-38
0.07440314442 -0.005027547944 0.3558460176 2.284242894e-38
-0.09989861399 0.01704029366 0.466588676 2.284242894e-38
-0.1178708524 -0.03104985878 0.3511180878 2.284242894e-38
0.153251186 0.04121736065 0.4278970361 2.284242894e-38
0.0541591458 -0.007917739451 0.4326621592 2.284242894e-38
-0.05246793106 -0.006575888023 0.439168185 2.284242894e-38
-0.07395198196 -0.06687656045 0.2492335141 2.284242894e-38
-0.1742075682 0.1687993556 0.1372039616 2.348204041e-38
-0.1616899073 0.07094326615 -0.1609881371 2.348204041e-38
-0.1746572852 -0.08648107201 0.03082514741 2.348204041e-38
-0.1715338528 0.07396246493 0.01573887467 2.348204041e-38
-0.1392111629 -0.01868356206 -0.1717621386 2.348204041e-38
0.08256975561 -0.0920130685 -0.4378053248 2.348204041e-38
-0.1567803621 0.06826344132 0.3382083476 2.348204041e-38
-0.02224322781 -0.04471418634 -0.1266105622 2.348204041e-38
-0.159701556 0.1128634289 0.006218541414 2.348204041e-38
-0.09550457448 0.03837862238 -0.3287489414 2.348204041e-38
-0.1515410244 -0.04042764008 0.1549675763 2.348204041e-38
-0.07474401593 0.01984717883 0.007646430284 2.348204041e-38
-0.1525411755 0.0231743753 -0.1382879466 2.348204041e-38
0.02908175439 -0.07199176401 -0.4210631847 2.348204041e-38
-0.1509682238 0.03744185343 0.2961235344 2.348204041e-38
-0.02843377739 -0.03186969459 -0.08489698917 2.348204041e-38
-0.1540943384 0.09606873244 -0.01656504907 2.348204041e-38
-0.07958385348 0.01960603707 -0.3537397683 2.348204041e-38
-0.1498857141 -0.02717124112 0.1795631945 2.348204041e-38
-0.0470691137 0.01885833591 -0.002842968097 2.348204041e-38
-0.1404768676 0.00204698462 -0.1469767392 2.348204041e-38
0.02818950452 -0.07910744101 -0.4429042637 2.348204041e-38
-0.1532948017 0.03651932254 0.3036754727 2.348204041e-38
-0.01187648624 -0.03043621778 -0.1023310423 2.348204041e-38
-0.1654816121 0.09763176739 -0.07601168007 2.348204041e-38
-0.05198916793 0.001144267153 -0.3841854632 2.348204041e-38
-0.1523825377 -0.01183751784 0.2160167694 2.348204041e-38
-0.03028866835 -0.006490295753 -0.01718580723 2.348204041e-38
-0.170066908 0.1026251167 0.02440258861 2.348204041e-38
-0.1092387661 0.03988462314 -0.3207439184 2.348204041e-38
-0.1520615071 -0.04419118538 0.1472873241 2.348204041e-38
-0.06699870527 0.03551267087 0.003387199715 2.348204041e-38
0.1626201272 -0.01742298342 -0.08597911894 2.347880341e-38
0.1720705181 -0.02874197997 -0.1471917033 2.347880341e-38
0.1833265871 -0.05673994124 -0.06074640527 2.347880341e-38
0.1726735085 -0.05598283559 0.1653649658 2.347880341e-38
0.1618175656 -0.00414977828 0.1108481362 2.347880341e-38
0.111004144 -0.03169164807 -0.4291085899 2.347880341e-38
0.1607571542 -0.100055255 -0.2764241695 2.347880341e-38
0.01259492803 0.0617489256 0.4448706508 2.347880341e-38
0.1698093563 -0.06885094941 0.006991002243 2.347880341e-38
0.1709445715 -0.01596022397 -0.2703174353 2.347880341e-38
0.1341372877 -0.06586242467 -0.1439640075 2.347880341e-38
0.1430073529 -0.01159957889 0.2976756096 2.347880341e-38
0.1663033962 -0.04718290642 0.1010707095 2.347880341e-38
0.1202014983 0.01528802607 -0.4145109355 2.347880341e-38
0.1413301975 -0.09587750584 -0.2538130581 2.347880341e-38
0.05759394169 0.02841850184 0.4325763881 2.347880341e-38
0.1483931243 -0.06638358533 0.01317261904 2.347880341e-38
0.139863804 -0.01362129953 -0.2956468761 2.347880341e-38
0.1166950464 -0.07868385315 -0.178982541 2.347880341e-38
0.1217911988 -0.0008472500485 0.3186697066 2.347880341e-38
0.1445934325 -0.03985452652 0.1090352535 2.347880341e-38
0.07850721478 0.05153946206 -0.4483989775 2.347880341e-38
0.1155978292 -0.09451136738 -0.2831325829 2.347880341e-38
0.004122651182 0.02857855894 0.4171056747 2.347880341e-38
0.1648719311 -0.06820114702 0.05437337235 2.347880341e-38
0.1588827074 -0.0003433451056 -0.3391219378 2.347880341e-38
0.1351556033 -0.07781348377 -0.1858710349 2.347880341e-38
0.1208494753 0.01188289281 0.373811692 2.347880341e-38
0.1714337319 -0.07461711019 0.001993405866 2.347880341e-38
0.1670758426 -0.0307115335 -0.2499647737 2.347880341e-38
0.1256956309 -0.06331968307 -0.1475435346 2.347880341e-38
0.144407019 -0.01217771508 0.2841509581 2.347880341e-38
0.068019256 -0.008490850218 -0.2951565683 2.347520768e-38
-0.1205983758 0.1870353669 -0.2737267315 2.347520768e-38
-0.1044007689 0.07835543156 -0.3624622822 2.347520768e-38
-0.1127866805 0.1757180244 -0.368688494 2.347520768e-38
0.04914849252 0.003963866737 0.003285470651 2.347520768e-38
-0.1462861896 0.1778740287 0.08965305239 2.347520768e-38
0.1592049152 -0.1278335154 -0.3878590465 2.347520768e-38
-0.1254489273 0.1705858707 -0.05117514357 2.347520768e-38
0.07825380564 -0.01046710275 -0.2134314328 2.347520768e-38
-0.1516050696 0.1586599797 -0.196094662 2.347520768e-38
0.03073772788 -0.05687750876 -0.3335058093 2.347520768e-38
-0.1055577397 0.1403965056 -0.2937915921 2.347520768e-38
0.06319212168 -0.01952703856 -0.06301083416 2.347520768e-38
-0.1419222802 0.1588196456 0.03834781796 2.347520768e-38
0.1248123199 -0.1139931828 -0.3616167307 2.347520768e-38
-0.1174480915 0.1520551741 -0.1200843155 2.347520768e-38
0.04962707311 0.000111758709 -0.2284250408 2.347520768e-38
-0.1381333768 0.1407835931 -0.1786471307 2.347520768e-38
0.04897424579 -0.07897420973 -0.3479839861 2.347520768e-38
-0.1035943031 0.1277249902 -0.2868614793 2.347520768e-38
0.04109175131 -0.0145870382 -0.08550806344 2.347520768e-38
-0.1285904646 0.1505799443 0.02474427223 2.347520768e-38
0.1276440918 -0.1145872027 -0.3892180622 2.347520768e-38
-0.1223881766 0.1423839033 -0.1299165189 2.347520768e-38
0.07841540873 -0.01655428857 -0.1449804753 2.347520768e-38
-0.1557159573 0.1562850177 -0.1102412269 2.347520768e-38
0.07730507106 -0.09416424483 -0.3447174728 2.347520768e-38
-0.1234869957 0.1492306888 -0.2234542519 2.347520768e-38
0.06646924466 -0.009950219654 -0.2449337542 2.347520768e-38
-0.1418576241 0.1450600028 -0.2151323408 2.347520768e-38
0.0223496668 -0.05400114134 -0.3405403197 2.347520768e-38
-0.1019810885 0.1293243915 -0.3026223779 2.347520768e-38
-0.1164827049 -0.1599999666 -0.1329587698 2.347161195e-38
0.1740086526 0.101299502 -0.4074191451 2.347161195e-38
-0.1207864434 -0.1113386825 -0.3297433257 2.347161195e-38
-0.167798385 0.05729719996 -0.3388008177 2.347161195e-38
0.09892340004 -0.1083378568 0.2179245353 2.347161195e-38
-0.1421792209 0.1495747566 -0.4108597338 2.347161195e-38
0.1077893376 -0.1457572877 -0.1047002748 2.347161195e-38
0.1410701424 -0.02093834616 -0.2843996286 2.347161195e-38
-0.0050523635 -0.1338690668 -0.06173706055 2.347161195e-38
0.05034998432 0.07222578675 -0.4211242795 2.347161195e-38
0.01394098997 -0.115999423 -0.2752759457 2.347161195e-38
-0.0009518728475 -0.01814270578 -0.3591967225 2.347161195e-38
0.07792328298 -0.1170886159 0.1279987991 2.347161195e-38
-0.09907510132 0.1129904091 -0.4020309746 2.347161195e-38
0.08433722705 -0.1172028854 -0.1537753344 2.347161195e-38
0.1237953305 -0.005233820993 -0.3310610056 2.347161195e-38
0.01123308856 -0.1170020178 -0.05188361928 2.347161195e-38
0.00264757988 0.07936353236 -0.4385085404 2.347161195e-38
0.03591792658 -0.1131993607 -0.2788611948 2.347161195e-38
0.02538278885 -0.01529656257 -0.3766136765 2.347161195e-38
0.07851050049 -0.1149255261 0.1666508019 2.347161195e-38
-0.1097339243 0.1028621197 -0.4145775437 2.347161195e-38
0.08507855237 -0.1113347486 -0.1643287838 2.347161195e-38
0.1372843385 -0.0190768037 -0.36325562 2.347161195e-38
0.04776246473 -0.1197335273 -0.007213720586 2.347161195e-38
-0.02399650216 0.09439036995 -0.4216207862 2.347161195e-38
0.06951534748 -0.1152034849 -0.2447068542 2.347161195e-38
0.04686969891 -0.02740675583 -0.3611604571 2.347161195e-38
-0.03293288499 -0.1315718144 -0.06770595908 2.347161195e-38
0.05595099926 0.06098856032 -0.4282678366 2.347161195e-38
0.01058771554 -0.1157744229 -0.2893426716 2.347161195e-38
-0.008834479377 -0.009854980744 -0.3680107892 2.347161195e-38
-0.1668950021 -0.009692380205 -0.1349397302 2.346801622e-38
-0.05705560744 0.08250870556 -0.3768024147 2.346801622e-38
-0.1751992255 0.1164451689 -0.3620727658 2.346801622e-38
-0.1562534571 -0.02609870769 -0.1212711856 2.346801622e-38
-0.1558412164 0.01926752925 0.1252545118 2.346801622e-38
0.02706214041 0.01529146731 -0.09136944264 2.346801622e-38
-0.1039320827 -0.1291705668 -0.1158628538 2.346801622e-38
0.08847690374 0.05351697654 -0.3726221919 2.346801622e-38
-0.169112131 -0.02638787404 -0.03362365812 2.346801622e-38
0.01968786493 0.0156889949 -0.3066516519 2.346801622e-38
-0.1254705638 -0.1148229688 -0.2705453634 2.346801622e-38
-0.1275792718 0.01358888857 -0.2829986215 2.346801622e-38
-0.1567360759 0.0007821766776 0.0839504078 2.346801622e-38
0.0512726903 -0.006297527347 -0.1678764969 2.346801622e-38
-0.1098743156 -0.1304987371 -0.161751911 2.346801622e-38
0.03431117162 0.06371996552 -0.4079991579 2.346801622e-38
-0.1589561701 -0.02123858221 -0.0140319271 2.346801622e-38
0.05355690047 0.01088230591 -0.2999232113 2.346801622e-38
-0.1238089055 -0.117884703 -0.2615397871 2.346801622e-38
-0.1044791266 0.03158022463 -0.3526924551 2.346801622e-38
-0.1398551464 0.007444482762 0.09736165404 2.346801622e-38
0.05027070269 -0.01177427173 -0.1636452675 2.346801622e-38
-0.1042496711 -0.1274946928 -0.1591686159 2.346801622e-38
0.04911895469 0.0525958091 -0.4015947282 2.346801622e-38
-0.1725679338 -0.02042305283 0.01836730354 2.346801622e-38
0.06835558265 0.004065774381 -0.2614854574 2.346801622e-38
-0.1303314269 -0.1230510026 -0.2305140197 2.346801622e-38
-0.07643704116 0.06539974362 -0.4093553424 2.346801622e-38
-0.1713072062 -0.0257064905 -0.04266312346 2.346801622e-38
0.0105218133 0.01428803429 -0.3201627135 2.346801622e-38
-0.1259843111 -0.1132106334 -0.2843695879 2.346801622e-38
-0.1250942498 0.001574664027 -0.272990793 2.346801622e-38
0.1612344533 0.06032575294 0.4467038214 2.346406175e-38
0.1808417737 -0.08251194656 -0.3026010394 2.346406175e-38
0.1098710895 -0.01041417196 -0.2124168277 2.346406175e-38
0.1842768341 -0.1413329244 0.01000661496 2.346406175e-38
0.1521154642 -0.03225273639 -0.01636400819 2.346406175e-38
-0.05862472206 0.1045919731 -0.4272713959 2.346406175e-38
0.05113242194 -0.04193531722 0.2930948436 2.346406175e-38
0.1539214104 -0.1223322153 0.0366675593 2.346406175e-38
0.1657664925 -0.08016251773 0.3182957768 2.346406175e-38
0.1252103299 -0.001323326607 -0.3735921085 2.346406175e-38
0.04202031344 -0.01441405714 0.006843981799 2.346406175e-38
0.1258108914 -0.1256459653 -0.2186246514 2.346406175e-38
0.1585447639 -0.05906336382 0.07088265568 2.346406175e-38
-0.01602633111 0.04382380471 -0.4119327962 2.346406175e-38
0.06917401403 -0.0153411217 0.2196245342 2.346406175e-38
0.1588831246 -0.09485410899 -0.0365549475 2.346406175e-38
0.150909707 -0.0779826045 0.2745214403 2.346406175e-38
0.08250981569 -0.00934606418 -0.3778990805 2.346406175e-38
0.03713620454 -0.01682877354 0.03916479647 2.346406175e-38
0.1096892655 -0.1156701297 -0.2432982326 2.346406175e-38
0.1441719085 -0.048086036 0.05211262405 2.346406175e-38
-0.05459388345 0.04644107819 -0.3973950446 2.346406175e-38
0.0595802553 -0.01140442211 0.2291691154 2.346406175e-38
0.146047309 -0.1023022979 -0.0008630005177 2.346406175e-38
0.1689415723 -0.07949121296 0.210807234 2.346406175e-38
0.0651177913 0.008466116153 -0.3939694464 2.346406175e-38
0.05880321935 -0.009332788177 0.1030779853 2.346406175e-38
0.141943872 -0.09854985774 -0.2021846324 2.346406175e-38
0.1656538695 -0.08479715139 0.3214669526 2.346406175e-38
0.1320497841 -0.01870732009 -0.3664950728 2.346406175e-38
0.02473264188 -0.004740627483 -0.03515474498 2.346406175e-38
0.1233073026 -0.1274770796 -0.1994393915 2.346406175e-38
-0.1417787969 -0.003723708447 -0.2655909657 2.346010729e-38
-0.1772079617 0.09917642176 -0.1312180012 2.346010729e-38
-0.1599490643 -0.07553941756 -0.0385006927 2.346010729e-38
-0.1738336831 -0.01813021116 -0.07303673774 2.346010729e-38
0.1131746992 0.03910020366 -0.4020797312 2.346010729e-38
-0.01213094685 0.02898847312 -0.3206897676 2.346010729e-38
-0.1324162036 -0.1259805113 -0.2409437299 2.346010729e-38
-0.1427830607 -0.04077915847 0.2309691459 2.346010729e-38
-0.06158742309 -0.002249713987 -0.3146452308 2.346010729e-38
-0.1593996584 0.01061482355 -0.2242650986 2.346010729e-38
-0.1449699998 -0.104110226 -0.1465460956 2.346010729e-38
-0.1378726512 -0.03653153777 0.02775409073 2.346010729e-38
0.07934345305 0.02110614814 -0.383834362 2.346010729e-38
-0.05074121803 0.006437529344 -0.3040641248 2.346010729e-38
-0.1533424109 -0.1057355925 -0.2320771962 2.346010729e-38
-0.1428070366 -0.03917794302 0.1741861701 2.346010729e-38
-0.04995467886 0.003694692627 -0.3389744163 2.346010729e-38
-0.1385261714 0.005706661846 -0.2627447248 2.346010729e-38
-0.1386750787 -0.09429577738 -0.1684320122 2.346010729e-38
-0.1325685829 -0.03918765858 0.04619034752 2.346010729e-38
0.07865600288 0.03034069575 -0.4062705338 2.346010729e-38
-0.03923797607 0.003711262485 -0.3209892809 2.346010729e-38
-0.1451493055 -0.1088146865 -0.2399696559 2.346010729e-38
-0.1339449584 -0.04176032916 0.1925161183 2.346010729e-38
-0.01307977643 0.004054758698 -0.3555192053 2.346010729e-38
-0.1160826311 0.0142581258 -0.274846673 2.346010729e-38
-0.1502583176 -0.1055866852 -0.1798241585 2.346010729e-38
-0.1448716372 -0.04063522071 0.08921535313 2.346010729e-38
-0.08073151857 -0.005437439773 -0.3183754981 2.346010729e-38
-0.1603067517 0.01787053421 -0.2257089019 2.346010729e-38
-0.1437095553 -0.1038684025 -0.1473117322 2.346010729e-38
-0.1404530257 -0.03947343677 0.01733859442 2.346010729e-38
-0.1414953619 0.1518377066 0.01534230541 2.345615283e-38
-0.1713724881 0.07484945655 -0.01594398916 2.345615283e-38
-0.1841059625 0.02766101621 0.0285310261 2.345615283e-38
-0.1527259499 0.1826947033 0.06084129214 2.345615283e-38
-0.1069831178 0.1592607647 -0.2100484073 2.345615283e-38
-0.1383565515 -0.04248481616 -0.3091690242 2.345615283e-38
-0.1563654095 0.03670052066 0.2588209212 2.345615283e-38
-0.1202781349 0.1612843275 0.3717324734 2.345615283e-38
-0.1121311337 0.1393397897 -0.04216360301 2.345615283e-38
-0.1453920603 0.004968408495 -0.1138760448 2.345615283e-38
-0.1475016624 0.06498188525 0.08409867436 2.345615283e-38
-0.1136033833 0.134064436 0.1874207854 2.345615283e-38
-0.0989350453 0.1315658092 -0.1669047773 2.345615283e-38
-0.1487644464 -0.03257934749 -0.2595185041 2.345615283e-38
-0.1511806846 0.03033803403 0.2178124934 2.345615283e-38
-0.1109069064 0.1383570731 0.325499028 2.345615283e-38
-0.1001331657 0.1145695224 -0.07012989372 2.345615283e-38
-0.1399750262 -0.01980908401 -0.1427264661 2.345615283e-38
-0.1433076411 0.03439536691 0.1059601083 2.345615283e-38
-0.1081775129 0.1319160014 0.2115022838 2.345615283e-38
-0.09618894011 0.1186831146 -0.1891764104 2.345615283e-38
-0.1336873621 -0.04422643408 -0.2773840129 2.345615283e-38
-0.1463455111 -0.01189692784 0.2286826074 2.345615283e-38
-0.1014131084 0.1379334927 0.3307954967 2.345615283e-38
-0.1045309007 0.1295688152 -0.09917091578 2.345615283e-38
-0.1564267427 -0.001801742124 -0.1787076443 2.345615283e-38
-0.1600578129 0.02311933786 0.1430155933 2.345615283e-38
-0.121218197 0.1400048882 0.2593145669 2.345615283e-38
-0.1098701358 0.1286520511 -0.03826170415 2.345615283e-38
-0.1495093256 -0.005141183268 -0.1028393805 2.345615283e-38
-0.14605546 0.05207050964 0.08018601686 2.345615283e-38
-0.1141956151 0.1285607815 0.1732284725 2.345615283e-38
-0.03170172125 -0.1357314736 -0.04159696028 2.345219836e-38
-0.1480783969 -0.1533877403 -0.1016912386 2.345219836e-38
-0.07943627983 -0.1668044925 -0.2137894183 2.345219836e-38
-0.1502682269 -0.1560879797 0.2426208109 2.345219836e-38
-0.05662498996 -0.1229465827 -0.339302361 2.345219836e-38
-0.1277890652 -0.139530912 -0.387129426 2.345219836e-38
-0.04292673618 -0.1362526715 0.1030490398 2.345219836e-38
-0.1699492335 -0.09680146724 -0.1356140971 2.345219836e-38
0.02104324102 -0.1095899493 -0.1657529473 2.345219836e-38
-0.1453649849 -0.1183107123 -0.1924800575 2.345219836e-38
-0.0732210204 -0.1188903153 -0.0543731451 2.345219836e-38
-0.1448845267 -0.1277757734 0.05558425561 2.345219836e-38
-0.04718539119 -0.1172017977 -0.2864207923 2.345219836e-38
-0.1403956711 -0.1117862314 -0.3585995138 2.345219836e-38
-0.08370170742 -0.1270537823 0.07533427328 2.345219836e-38
-0.1620817184 -0.08681806922 -0.108713381 2.345219836e-38
-0.01667885855 -0.1032541543 -0.1994731277 2.345219836e-38
-0.1564776599 -0.09116692096 -0.2582192719 2.345219836e-38
-0.08541820198 -0.1210970432 -0.03827251121 2.345219836e-38
-0.1447174102 -0.1114152893 0.001956385793 2.345219836e-38
-0.06216805056 -0.1079208851 -0.3292217255 2.345219836e-38
-0.1403041929 -0.09655935317 -0.4069052041 2.345219836e-38
-0.07286535203 -0.1286563575 0.07934436202 2.345219836e-38
-0.1481947154 -0.07811894268 -0.1381668299 2.345219836e-38
0.0194088947 -0.1087083295 -0.2277406454 2.345219836e-38
-0.159468621 -0.1097159684 -0.2680271864 2.345219836e-38
-0.09000660479 -0.1183357686 0.004454531241 2.345219836e-38
-0.1582691222 -0.1025171503 -0.03777518496 2.345219836e-38
0.00824741181 -0.1091908664 -0.1497027129 2.345219836e-38
-0.156807676 -0.1057840362 -0.2042357773 2.345219836e-38
-0.07139575481 -0.1182774752 -0.07168097049 2.345219836e-38
-0.1437410563 -0.1230419278 0.05988654867 2.345219836e-38
0.06638438255 0.009229159914 0.2932025492 2.344788516e-38
0.02188190073 -0.06577608734 0.1224770099 2.344788516e-38
0.1691928357 -0.08747438341 0.1078047231 2.344788516e-38
0.1477185786 -0.1379724741 0.03941424936 2.344788516e-38
0.01348282676 -0.01186648197 -0.184794426 2.344788516e-38
-0.010943125 -0.09483155608 -0.08013955504 2.344788516e-38
0.1414030492 -0.1208404526 0.4093352556 2.344788516e-38
0.06078151986 -0.138558358 0.3193380833 2.344788516e-38
0.003247972345 -0.06626275927 0.1716533154 2.344788516e-38
-0.05233422294 -0.0745549649 -0.05658521503 2.344788516e-38
0.134656921 -0.1278645098 0.2708289921 2.344788516e-38
0.06086445227 -0.1260604113 0.1540893465 2.344788516e-38
-0.006092860363 -0.08529374748 -0.08046222478 2.344788516e-38
-0.03581756726 -0.06028514728 -0.1365255564 2.344788516e-38
0.1395256668 -0.0956934616 0.3885294497 2.344788516e-38
0.0600152947 -0.1348070353 0.2834931612 2.344788516e-38
-0.0005006193533 -0.09005896002 0.15034087 2.344788516e-38
-0.05242799222 -0.0723144412 -0.08936983347 2.344788516e-38
0.1339524537 -0.1136524975 0.3211990595 2.344788516e-38
0.05656018481 -0.1247558743 0.1794309169 2.344788516e-38
-0.03160149604 -0.09004360437 -0.04851336777 2.344788516e-38
-0.03091114573 -0.05179318786 -0.1387659758 2.344788516e-38
0.1360631585 -0.08335097134 0.4054170847 2.344788516e-38
0.07346049696 -0.133745864 0.3038797677 2.344788516e-38
-0.01178384386 -0.09830089658 0.06741259992 2.344788516e-38
-0.07757562399 -0.01751298271 -0.1851475984 2.344788516e-38
0.1465880126 -0.1101186797 0.342323035 2.344788516e-38
0.04153282568 -0.1328479946 0.2279962003 2.344788516e-38
0.01161934249 -0.06173332408 0.1933551431 2.344788516e-38
-0.04436320812 -0.08890022337 -0.03994516283 2.344788516e-38
0.1381024867 -0.1265999526 0.2829757631 2.344788516e-38
0.06119418144 -0.1246740595 0.1521344632 2.344788516e-38
0.1251444966 -0.06248132512 -0.001479253988 2.344357197e-38
-0.02489290945 0.03861259669 -0.4072492421 2.344357197e-38
0.03337363526 -0.105424948 -0.313097626 2.344357197e-38
-0.00854111556 -0.1435440928 0.08985608816 2.344357197e-38
0.1256628335 -0.1402305961 0.398760438 2.344357197e-38
0.1596742272 -0.03781598434 -0.1409587413 2.344357197e-38
0.03207384795 -0.1361946315 0.114117384 2.344357197e-38
-0.1078389287 -0.0006767659215 -0.2271016091 2.344357197e-38
0.1580262333 -0.1243304238 0.1180964708 2.344357197e-38
0.09092362225 0.01074873935 -0.3956167698 2.344357197e-38
0.03570737317 -0.1173341796 -0.2183683664 2.344357197e-38
-0.09572003037 -0.1065903902 -0.03924992308 2.344357197e-38
0.1326920837 -0.1238301769 0.345921129 2.344357197e-38
0.1635472476 -0.03251561522 -0.2054504901 2.344357197e-38
0.04745842889 -0.1222937703 -0.02528877556 2.344357197e-38
-0.113660641 -0.02826059423 -0.184384048 2.344357197e-38
0.1500976086 -0.1159431413 0.1683658361 2.344357197e-38
0.1255399138 0.005567634478 -0.4178191125 2.344357197e-38
0.04209043086 -0.123853758 -0.2055538595 2.344357197e-38
-0.09345936775 -0.08495622128 -0.08663075417 2.344357197e-38
0.116403155 -0.1130476296 0.3761225641 2.344357197e-38
0.1510713845 -0.02044361643 -0.2161331624 2.344357197e-38
0.03223373741 -0.1127651632 -0.004711702932 2.344357197e-38
-0.07767219841 -0.007484929636 -0.2154939324 2.344357197e-38
0.1520307958 -0.1345679611 0.2138392329 2.344357197e-38
0.1562173963 -0.00986751169 -0.3588575721 2.344357197e-38
0.05279652029 -0.1279162914 -0.1552525759 2.344357197e-38
-0.1206101403 -0.08431684226 -0.1046864465 2.344357197e-38
0.1606150866 -0.1232161373 0.1064160392 2.344357197e-38
0.08398494869 0.01392115839 -0.4031616449 2.344357197e-38
0.03407358006 -0.1191254109 -0.2401093096 2.344357197e-38
