# .PCD v0.7 - Point Cloud Data file format
VERSION 0.7
FIELDS x y z rgb
SIZE 4 4 4 4
TYPE F F F F
COUNT 1 1 1 1
WIDTH 835
HEIGHT 1
VIEWPOINT 0 0 0 1 0 0 0
POINTS 835
DATA ascii
-0.1418473423 0.1975262165 0.070703201 1.020306431e-38
0.1930996627 -0.06182680652 0.1507679075 1.020306431e-38
-0.09321136773 -0.2428117841 0.1271693558 1.020306431e-38
0.06123147905 0.02604904771 0.1023333594 1.020306431e-38
-0.1418474913 0.1975282878 0.07070174068 1.020306431e-38
0.1930992156 -0.06182826683 0.1507685483 1.020306431e-38
-0.09321244806 -0.24281317 0.1271692812 1.020306431e-38
0.1182718277 0.01867905445 0.1092996448 1.020306431e-38
-0.1325575411 0.04076473042 0.09612482041 1.020306431e-38
0.2122204453 0.01494510937 0.104925476 1.020306431e-38
0.005820357706 -0.1495503634 0.1258257926 1.020306431e-38
0.1228765771 0.01982465573 0.1192357242 1.020306431e-38
-0.1345195323 0.02933841012 0.0953296721 1.020306431e-38
0.2143836915 0.01534266304 0.0894658491 1.020306431e-38
0.03764473274 -0.08792003244 0.134347111 1.020306431e-38
-0.02784085274 0.02039467171 0.05073503405 1.020306431e-38
-0.1528051198 0.2680558562 0.005540351383 1.020306431e-38
0.1491531432 -0.2707433999 0.1421112716 1.020306431e-38
-0.126907289 -0.2506784797 0.1222522259 1.020306431e-38
-0.1892369986 0.267178297 0.05245731398 9.472685133e-39
-0.1486728787 -0.4094612002 0.140450567 9.472685133e-39
-0.1361416131 -0.1042076647 0.1363989264 9.472685133e-39
-0.1120045781 -0.351793915 0.155574739 9.472685133e-39
-0.1526752561 0.06256636232 0.1532291472 9.472685133e-39
-0.1521985233 -0.2830527127 0.1731421351 9.472685133e-39
-0.1287972927 -0.001574410708 0.08707073331 9.472685133e-39
-0.1701139957 -0.4516277015 0.1781019866 9.472685133e-39
-0.1185869575 -0.2131090015 0.1447956264 9.472685133e-39
-0.1189550236 -0.1773638874 0.1478913277 9.472685133e-39
-0.09333451092 0.08747901022 0.002931973897 9.472685133e-39
-0.1845072061 -0.4837125242 0.1527297348 9.472685133e-39
-0.1402117014 0.01234674267 0.14319323 9.472685133e-39
-0.143582508 -0.3035283983 0.1569368541 9.472685133e-39
-0.1131165996 0.01469948795 0.06072657555 9.472685133e-39
-0.1637417078 -0.4637076259 0.1666660309 9.472685133e-39
-0.1402114034 0.01234203484 0.1431938559 9.472685133e-39
-0.1435822248 -0.3035261333 0.1569375098 9.472685133e-39
-0.1131161749 0.01470093336 0.06072508916 9.472685133e-39
-0.1637422144 -0.4637087882 0.1666661352 9.472685133e-39
-0.1728883386 0.2316386253 0.1205392182 9.472685133e-39
-0.1703722328 -0.4000473619 0.1238350272 9.472685133e-39
-0.1125243008 -0.04464942217 0.1083733514 9.472685133e-39
-0.1181649566 -0.3978666365 0.1531322151 9.472685133e-39
-0.1859373748 0.2871198356 0.108949177 9.472685133e-39
-0.176244542 -0.4041463435 0.1315429211 9.472685133e-39
-0.1195300519 -0.05882986635 0.1146118566 9.472685133e-39
-0.1199430004 -0.3816601336 0.1528020203 9.472685133e-39
-0.1155594364 -0.2421410233 0.1423494071 9.472685133e-39
-0.1181413606 -0.1592966467 0.141974628 9.472685133e-39
-0.09312793612 0.07941990346 -0.02870064788 9.472685133e-39
-0.1985096931 -0.4857224226 0.1516919732 9.472685133e-39
-0.131871745 0.04613197595 -0.1378345191 8.742304551e-39
-0.1249514371 0.2268893272 -0.08628698438 8.742304551e-39
-0.04098272696 0.06293860823 0.05180492997 8.742304551e-39
-0.1381572336 0.03183881938 -0.005009959452 8.742304551e-39
-0.1659902334 0.352432251 -0.07479961216 8.742304551e-39
-0.1560179293 0.2744579911 0.05988074094 8.742304551e-39
-0.1092230156 -0.04056907445 -0.0822166279 8.742304551e-39
-0.07396651059 0.0275633689 0.1249109805 8.742304551e-39
-0.1511716396 0.2551544905 0.07638588548 8.742304551e-39
-0.1394476295 0.2820082307 0.1326398402 8.742304551e-39
-0.1202986836 -0.1372170299 -0.1528070718 8.742304551e-39
0.007237326819 0.03252672032 0.124739401 8.742304551e-39
-0.1570323408 0.3647145331 -0.06179982424 8.742304551e-39
-0.1461144537 0.275837034 0.06825120747 8.742304551e-39
-0.1121946052 -0.07458549738 -0.09822613746 8.742304551e-39
-0.04918761551 0.04828999937 0.105106838 8.742304551e-39
-0.1570326537 0.3647159338 -0.061797034 8.742304551e-39
-0.1461146027 0.2758377492 0.06825404614 8.742304551e-39
-0.1121952534 -0.07458650321 -0.09822773188 8.742304551e-39
-0.0491874218 0.04829048365 0.1051063314 8.742304551e-39
-0.1527007371 0.253002733 -0.1177463233 8.742304551e-39
-0.1440846175 0.219510749 -0.04381360859 8.742304551e-39
-0.0766467154 -0.007676405832 -0.01253582444 8.742304551e-39
-0.1169729829 0.01263701729 0.06985583156 8.742304551e-39
-0.1587656736 0.2188669145 -0.1331368238 8.742304551e-39
-0.153358683 0.20571886 -0.04894602671 8.742304551e-39
-0.06891894341 -0.005135967862 0.001425608061 8.742304551e-39
-0.1418679655 -0.008785915561 0.0583400391 8.742304551e-39
-0.15490444 0.2311155945 0.1021600738 8.742304551e-39
-0.1417482793 0.2823682725 0.1401439011 8.742304551e-39
-0.1143859997 -0.1964727789 -0.1578724831 8.742304551e-39
0.01777344756 0.02235066332 0.1386083066 8.742304551e-39
0.1669762135 -0.007907277904 0.05644974485 8.012284103e-39
-0.02435092442 0.03546118364 -0.1632270515 8.012284103e-39
0.1847882122 0.009028152563 -0.01354680397 8.012284103e-39
0.1495638639 0.06715496629 0.0603668578 8.012284103e-39
0.1806594878 -0.05017675459 0.1744304001 8.012284103e-39
-0.07028371841 0.02048756368 -0.04197351635 8.012284103e-39
0.1939611435 -0.03423792869 -0.1179580614 8.012284103e-39
0.174926877 0.01938290335 -0.04548138008 8.012284103e-39
0.03842382133 -0.01108514518 0.1595867872 8.012284103e-39
-0.1033060625 0.02876679972 0.05968658254 8.012284103e-39
0.1754549891 -0.1835602075 -0.1773858219 8.012284103e-39
0.1690143496 0.01143440697 -0.120888792 8.012284103e-39
0.1836850792 -0.05781464651 0.161803022 8.012284103e-39
-0.05694837123 0.0002462565899 -0.01168220583 8.012284103e-39
0.1869248748 -0.03387872875 -0.1263527423 8.012284103e-39
0.1704511642 0.01833789796 -0.06203728542 8.012284103e-39
0.1836839914 -0.05781440809 0.1618042886 8.012284103e-39
-0.05694935098 0.0002461597323 -0.01167998277 8.012284103e-39
0.186924547 -0.0338797234 -0.1263540834 8.012284103e-39
0.1704512537 0.01833766699 -0.06203861535 8.012284103e-39
0.207174316 -0.02691153251 0.08693058789 8.012284103e-39
-0.005659758113 -0.006389638875 -0.1270942688 8.012284103e-39
0.2251558304 -0.01852994598 -0.06514822692 8.012284103e-39
0.1589706093 0.003142912872 0.01527766883 8.012284103e-39
0.2079545856 -0.02173142321 0.07595382631 8.012284103e-39
-0.0006331204786 -0.009187774733 -0.1480771303 8.012284103e-39
0.229868114 -0.02834945731 -0.05521127954 8.012284103e-39
0.1619196832 -0.007730747107 0.03382726759 8.012284103e-39
0.008979705162 0.01103185024 0.1552086174 8.012284103e-39
-0.1178506538 0.0357141681 0.06633016467 8.012284103e-39
0.1784430891 -0.2222765535 -0.1839255542 8.012284103e-39
0.1751162559 0.005514387041 -0.1336789727 8.012284103e-39
-0.1422408819 0.3256547153 0.1634747386 7.281903522e-39
-0.1583170146 0.4036754966 -0.07789439708 7.281903522e-39
-0.1523760557 0.2310664952 0.1252887845 7.281903522e-39
-0.1577662826 0.2601580322 -0.03767357767 7.281903522e-39
-0.1555188894 0.3313002288 0.1048714519 7.281903522e-39
-0.1524864584 0.406581074 0.008025235496 7.281903522e-39
-0.1625414789 0.09790811688 0.1315091252 7.281903522e-39
-0.1689363271 0.3308957517 -0.131584838 7.281903522e-39
-0.165650025 0.2833816409 0.004742080346 7.281903522e-39
-0.1310859919 0.3070750237 0.09443950653 7.281903522e-39
-0.1314702332 -0.1429526657 0.1086382493 7.281903522e-39
-0.1469035447 0.413412869 -0.1623984128 7.281903522e-39
-0.1559722871 0.3012584746 0.07730958611 7.281903522e-39
-0.1268351972 0.3941645324 0.03154470772 7.281903522e-39
-0.1472586691 0.009664890356 0.1021153107 7.281903522e-39
-0.157820642 0.3430909812 -0.130001083 7.281903522e-39
-0.1559723914 0.3012575507 0.0773082003 7.281903522e-39
-0.126834631 0.394163698 0.03154680505 7.281903522e-39
-0.1472585946 0.009660598822 0.1021149158 7.281903522e-39
-0.1578202844 0.3430920541 -0.1300024539 7.281903522e-39
-0.155071944 0.3343092501 0.1270697266 7.281903522e-39
-0.1629805416 0.4099681675 -0.04989566281 7.281903522e-39
-0.1618065685 0.1404614002 0.1161457524 7.281903522e-39
-0.1623974293 0.2800620198 -0.05727264658 7.281903522e-39
-0.1708209962 0.3492285907 0.1442151368 7.281903522e-39
-0.1742969453 0.4127849042 -0.06386715174 7.281903522e-39
-0.1689060181 0.1747896969 0.1263825595 7.281903522e-39
-0.1738630682 0.2727831602 -0.05538827553 7.281903522e-39
-0.1735467464 0.2850487232 -0.008209588006 7.281903522e-39
-0.1356392205 0.284833312 0.09995369613 7.281903522e-39
-0.1328929961 -0.1610730886 0.119211331 7.281903522e-39
-0.1538393497 0.4334495664 -0.1684174389 7.281903522e-39
0.02883126028 0.04757885262 -0.09251853824 6.55152294e-39
-0.1038371697 -0.3438207209 -0.1327496618 6.55152294e-39
-0.1074262187 0.07354210317 -0.001658900059 6.55152294e-39
0.1701445729 -0.1840389818 -0.1033685952 6.55152294e-39
0.1773810983 0.02529721148 -0.06870689243 6.55152294e-39
-0.1777957678 -0.103998296 -0.1649342775 6.55152294e-39
-0.0434332937 0.02471920103 0.07447750866 6.55152294e-39
-0.05652005225 -0.1169794723 -0.1473333091 6.55152294e-39
0.2088679224 -0.01767855138 0.0602039285 6.55152294e-39
-0.1437111199 0.1958529651 -0.1384063512 6.55152294e-39
0.05762682483 0.01304491237 0.0002365410328 6.55152294e-39
-0.1438378692 -0.08184236288 -0.1153737232 6.55152294e-39
0.1855076849 0.01186910644 -0.02553773299 6.55152294e-39
-0.1631524861 -0.1488465667 -0.1470267028 6.55152294e-39
-0.0282726977 0.02433822118 0.06810493767 6.55152294e-39
-0.08150503039 -0.1541487873 -0.1318649054 6.55152294e-39
0.1855086982 0.01186896954 -0.02553564869 6.55152294e-39
-0.1631519496 -0.1488401443 -0.1470266283 6.55152294e-39
-0.02827054076 0.02433801442 0.06810478866 6.55152294e-39
-0.08150679618 -0.1541467905 -0.1318641305 6.55152294e-39
0.1251181662 0.03413292766 -0.07974611968 6.55152294e-39
-0.1427526921 -0.320931077 -0.1332299858 6.55152294e-39
-0.08195498586 0.02483354695 0.02313323319 6.55152294e-39
0.03763390332 -0.1787418574 -0.1120230258 6.55152294e-39
0.1077990234 0.03968192637 -0.08984287083 6.55152294e-39
-0.146837309 -0.308753103 -0.1325735897 6.55152294e-39
-0.09844789654 0.02030685171 0.01898266375 6.55152294e-39
0.07183475047 -0.1712123603 -0.1132678762 6.55152294e-39
0.2082507461 -0.01737446338 0.07303370535 6.55152294e-39
-0.1427825242 0.2279900163 -0.1373877674 6.55152294e-39
0.05359140411 -0.003729998367 -0.02352871746 6.55152294e-39
-0.1590109468 -0.05666222051 -0.1108490005 6.55152294e-39
-0.03488285467 0.0251975134 0.1375403702 5.820783626e-39
0.1995521933 0.01148036309 -0.1284361184 5.820783626e-39
0.1830685437 -0.3510775566 0.12458691 5.820783626e-39
0.1933854818 0.07893687487 0.07749331743 5.820783626e-39
-0.1355498433 0.08155076206 0.05153886601 5.820783626e-39
0.1827370077 0.02399989404 -0.1698521674 5.820783626e-39
0.1810336411 -0.1169674248 0.1227985248 5.820783626e-39
0.2117855549 0.0370657146 -0.03107650951 5.820783626e-39
-0.1237057224 0.1331807673 -0.03699135408 5.820783626e-39
0.069390513 0.02685220167 -0.1733849794 5.820783626e-39
0.08814644814 0.007183175068 0.09133723378 5.820783626e-39
0.2072590739 0.04708798602 -0.1064160541 5.820783626e-39
-0.1209590584 0.07637471706 0.03425334767 5.820783626e-39
0.1782134622 0.00925764814 -0.1667935401 5.820783626e-39
0.1720178276 -0.1085582152 0.1215908974 5.820783626e-39
0.2133802921 0.05221890658 -0.04220649227 5.820783626e-39
-0.1209591478 0.07637587935 0.03425129503 5.820783626e-39
0.1782125235 0.009257856756 -0.1667937636 5.820783626e-39
0.1720162928 -0.1085552126 0.1215907559 5.820783626e-39
0.2133804113 0.05221903324 -0.04220784828 5.820783626e-39
-0.02298982628 0.02387426049 0.0874665454 5.820783626e-39
0.2112777233 0.01398142986 -0.1448992789 5.820783626e-39
0.1937155426 -0.2856135666 0.1290595531 5.820783626e-39
0.2108492404 0.04253125563 0.02608409338 5.820783626e-39
-0.01878688671 0.01613493264 0.09841325879 5.820783626e-39
0.2192014754 0.01577745564 -0.1380059421 5.820783626e-39
0.1976021379 -0.3067158461 0.1305658966 5.820783626e-39
0.2125112861 0.02515295707 0.03395263478 5.820783626e-39
-0.1258299053 0.141566813 -0.04783536121 5.820783626e-39
0.0532117486 0.02824078314 -0.1763945669 5.820783626e-39
0.07592326403 0.01493414491 0.07190769911 5.820783626e-39
0.2085652053 0.03639650345 -0.1212372631 5.820783626e-39
-0.1592721939 0.3967289031 0.1116980091 5.090401643e-39
-0.1300214827 0.1609374881 0.1024760231 5.090401643e-39
-0.1591036618 0.2750621438 0.1331145018 5.090401643e-39
-0.147417143 -0.141690731 0.1349886358 5.090401643e-39
-0.1414475143 0.3671862185 0.0541565232 5.090401643e-39
-0.1520161033 0.05322483927 -0.08756040782 5.090401643e-39
-0.1825723648 0.4264036417 0.1631660759 5.090401643e-39
-0.1471346468 0.05158480257 0.1669384241 5.090401643e-39
-0.1482892483 0.39430812 -0.07697503269 5.090401643e-39
-0.1308134794 -0.1411737204 -0.1435545385 5.090401643e-39
-0.1678180695 0.4464094341 0.06136279926 5.090401643e-39
-0.1516294181 0.2089858204 0.1448512524 5.090401643e-39
-0.1303887069 0.3548796773 0.02846537903 5.090401643e-39
-0.1556881219 0.005842395592 -0.08429041505 5.090401643e-39
-0.1615600139 0.4217960835 0.1391972601 5.090401643e-39
-0.1483040899 0.07869490981 0.1442125589 5.090401643e-39
-0.1303893626 0.3548801541 0.028462708 5.090401643e-39
-0.1556871384 0.00583561603 -0.08429212123 5.090401643e-39
-0.1615596265 0.421797663 0.1391970962 5.090401643e-39
-0.1483040899 0.07869800925 0.1442124397 5.090401643e-39
-0.1474971473 0.3744219542 0.0933835879 5.090401643e-39
-0.1549393088 0.1722306758 0.03801439703 5.090401643e-39
-0.1796398014 0.3416902721 0.144372493 5.090401643e-39
-0.146091193 -0.05820212886 0.1437632889 5.090401643e-39
-0.1638834178 0.379905045 0.1026312709 5.090401643e-39
-0.1674194485 0.1867760867 0.05232141539 5.090401643e-39
-0.1863040477 0.3312727809 0.1483330131 5.090401643e-39
-0.1421288699 -0.08322585374 0.143724367 5.090401643e-39
-0.1525695324 0.3940016031 -0.09220910072 5.090401643e-39
-0.1329803914 -0.1550970525 -0.1557373405 5.090401643e-39
-0.183383584 0.4029941261 -0.001641674316 5.090401643e-39
-0.1606862247 0.241549477 0.1523388475 5.090401643e-39
-0.1900666803 0.4469186664 0.01096616685 4.359662329e-39
-0.1473998278 0.04515989497 0.1012753323 4.359662329e-39
-0.1667053998 0.1801602989 -0.02330373041 4.359662329e-39
-0.1582327485 0.06635973603 -0.06658357382 4.359662329e-39
-0.1814793497 0.4644778967 0.1162911206 4.359662329e-39
-0.179488495 0.09376227856 0.1526814401 4.359662329e-39
-0.1775060743 -0.02773161605 -0.1269133091 4.359662329e-39
-0.1632671505 0.08837167174 0.02295690402 4.359662329e-39
-0.144088462 0.3955591917 0.1875496358 4.359662329e-39
-0.1633582264 0.1580798775 0.1666395366 4.359662329e-39
-0.1635936499 -0.258067131 -0.1350275278 4.359662329e-39
-0.1561519057 -0.0008263735217 0.09953533113 4.359662329e-39
-0.1763718575 0.4448238313 0.1187893823 4.359662329e-39
-0.1843501478 0.09152729064 0.1410566121 4.359662329e-39
-0.172060281 -0.1162721664 -0.1227194816 4.359662329e-39
-0.1605823338 0.07486754656 0.04094937444 4.359662329e-39
-0.1763709933 0.4448229373 0.1187913418 4.359662329e-39
-0.1843502223 0.09152837843 0.1410572231 4.359662329e-39
-0.172060132 -0.1162754819 -0.1227198169 4.359662329e-39
-0.160581857 0.07486673445 0.04095133767 4.359662329e-39
-0.1964076012 0.4342597127 0.03827973083 4.359662329e-39
-0.1797905415 0.09788119793 0.1159988344 4.359662329e-39
-0.1806084216 0.03262765706 -0.09006487578 4.359662329e-39
-0.1739873886 0.02947510593 -0.01881008036 4.359662329e-39
-0.2013781667 0.447232008 0.03944333643 4.359662329e-39
-0.1734370738 0.08523772657 0.1157075018 4.359662329e-39
-0.1857118309 0.07534124702 -0.07938799262 4.359662329e-39
-0.1750053763 6.66603446e-05 -0.03170738369 4.359662329e-39
-0.1409962475 0.3817478716 0.1965284944 4.359662329e-39
-0.1560975313 0.1756556034 0.1696760654 4.359662329e-39
-0.1648374349 -0.2735721767 -0.1441620588 4.359662329e-39
-0.1389042437 -0.01479052939 0.1122417003 4.359662329e-39
-0.1237657219 -0.1685785502 0.1097231954 3.628921614e-39
-0.1370187402 0.3405924141 0.1523160636 3.628921614e-39
-0.1613526046 -0.2773615122 0.1058783755 3.628921614e-39
-0.1411597282 -0.02464385144 0.1532257795 3.628921614e-39
-0.1604380012 -0.03772874177 0.1314323545 3.628921614e-39
-0.1567940116 0.4478951693 0.0674405247 3.628921614e-39
-0.1711191684 -0.3668519258 0.1469449401 3.628921614e-39
-0.1556359529 0.2146591246 0.1568686813 3.628921614e-39
-0.1458517164 0.06324403733 -0.01696706936 3.628921614e-39
-0.1460660994 0.4365249574 -0.08178127557 3.628921614e-39
-0.1686526239 -0.4648472071 0.1378846169 3.628921614e-39
-0.1856178939 0.2418259382 0.01669320278 3.628921614e-39
-0.1501471847 -0.04925896227 0.1183311269 3.628921614e-39
-0.1454879493 0.4393674731 0.02874754742 3.628921614e-39
-0.1713213027 -0.4066668749 0.1232659593 3.628921614e-39
-0.161825195 0.1963617951 0.1171815917 3.628921614e-39
-0.1501483917 -0.04925677925 0.1183289513 3.628921614e-39
-0.1454877257 0.4393676221 0.02874451131 3.628921614e-39
-0.1713213325 -0.406668514 0.123266086 3.628921614e-39
-0.1618266404 0.1963641793 0.1171808317 3.628921614e-39
-0.1333383173 -0.1010580435 0.1449855417 3.628921614e-39
-0.1543699205 0.4052140117 0.1275881678 3.628921614e-39
-0.175489977 -0.3262214661 0.1039511114 3.628921614e-39
-0.1380402744 0.07563830912 0.1483947039 3.628921614e-39
-0.1369246542 -0.09333524108 0.1424077302 3.628921614e-39
-0.1634432524 0.4072775543 0.1352933794 3.628921614e-39
-0.1779635996 -0.3076734543 0.1049035937 3.628921614e-39
-0.1381378174 0.07005566359 0.1614631414 3.628921614e-39
-0.1511376351 0.07610887289 -0.03313521668 3.628921614e-39
-0.1504460275 0.4347457588 -0.09496068209 3.628921614e-39
-0.1779240817 -0.4752513468 0.150927484 3.628921614e-39
-0.1946365088 0.2643136084 -0.01503428817 3.628921614e-39
-0.1640098542 0.2768592238 -0.02030294016 2.898180898e-39
-0.1638149917 0.4813468754 0.07529090345 2.898180898e-39
-0.1805419922 0.4665146172 -0.007836963981 2.898180898e-39
-0.1660671681 0.4746496677 0.1324388534 2.898180898e-39
-0.1631838232 0.2520836592 0.04672150314 2.898180898e-39
-0.1615502834 0.4854748249 -0.03853533044 2.898180898e-39
-0.1746056974 0.4829002321 -0.09958305955 2.898180898e-39
-0.183551684 0.4815075397 0.07747378945 2.898180898e-39
-0.1258646101 0.1893722266 0.1193966568 2.898180898e-39
-0.1715498418 0.4865867794 -0.09284627438 2.898180898e-39
-0.1666417867 0.4413942993 -0.1560128182 2.898180898e-39
-0.1946426928 0.4854673743 0.01186690666 2.898180898e-39
-0.1600944847 0.2331688404 0.04916507378 2.898180898e-39
-0.1562525183 0.4858225584 -0.03227699175 2.898180898e-39
-0.1600866318 0.4733847976 -0.109833464 2.898180898e-39
-0.1718889028 0.4827182889 0.04838044569 2.898180898e-39
-0.1600942165 0.2331670374 0.04916608334 2.898180898e-39
-0.1562530398 0.4858225584 -0.03227860853 2.898180898e-39
-0.1600869745 0.473385185 -0.1098347306 2.898180898e-39
-0.171889618 0.4827183485 0.04837951809 2.898180898e-39
-0.1601661891 0.2693750262 -0.003812935436 2.898180898e-39
-0.1587476283 0.4809297025 0.04949456081 2.898180898e-39
-0.1800997555 0.4601478577 -0.05083940178 2.898180898e-39
-0.1660816222 0.4772550464 0.09838228673 2.898180898e-39
-0.1744912118 0.2736379206 -0.01532967947 2.898180898e-39
-0.1755791754 0.4809427261 0.05998820812 2.898180898e-39
-0.1958760768 0.4565453827 -0.03991309926 2.898180898e-39
-0.1723304987 0.4750768244 0.1143121421 2.898180898e-39
-0.1271729022 0.1787392199 0.132908985 2.898180898e-39
-0.175984785 0.4866144061 -0.09850833565 2.898180898e-39
-0.1766726375 0.4304867089 -0.1689511687 2.898180898e-39
-0.2080951482 0.4859779775 0.005251120776 2.898180898e-39
0.1767839491 0.06471815705 -0.1105395779 2.167082852e-39
0.1548839211 -0.4369753003 0.138506487 2.167082852e-39
0.15301314 -0.05971715599 0.1584245116 2.167082852e-39
0.1272499263 -0.2793969214 0.1038112193 2.167082852e-39
-0.1047665253 0.03574344143 -0.1263895035 2.167082852e-39
0.1934004724 -0.2381281257 0.1828699708 2.167082852e-39
0.168830514 0.03416541591 0.06319135427 2.167082852e-39
0.1557017565 -0.3936178982 0.1551117748 2.167082852e-39
0.03525501117 0.02448978089 0.1396573633 2.167082852e-39
0.1431618184 -0.09558100998 0.1429272741 2.167082852e-39
0.07624073327 0.0518691279 -0.002358268248 2.167082852e-39
0.1707548946 -0.4632936716 0.1624982655 2.167082852e-39
-0.1241174787 0.02993670851 -0.09755774587 2.167082852e-39
0.1917110533 -0.2231994122 0.1733918935 2.167082852e-39
0.1560392827 0.0424534753 0.06973013282 2.167082852e-39
0.1495257169 -0.407853663 0.1378642768 2.167082852e-39
-0.1241183802 0.02993673831 -0.0975529626 2.167082852e-39
0.1917109638 -0.2231958658 0.1733922362 2.167082852e-39
0.1560383886 0.04245462269 0.06972946972 2.167082852e-39
0.1495257914 -0.407854706 0.1378646493 2.167082852e-39
0.04948703945 -0.002319823485 -0.1569389701 2.167082852e-39
0.1841755509 -0.3463011384 0.1546788216 2.167082852e-39
0.1798774451 0.009042835794 0.08303604275 2.167082852e-39
0.1371946186 -0.3440340459 0.1133899242 2.167082852e-39
0.08141511679 -0.009623632766 -0.161470741 2.167082852e-39
0.1904866248 -0.3627369702 0.157613337 2.167082852e-39
0.1833211333 0.003041392192 0.08234764636 2.167082852e-39
0.1413387805 -0.3279816508 0.117287077 2.167082852e-39
0.07428282499 0.03168673813 0.1418866515 2.167082852e-39
0.1312563121 -0.09013198316 0.1370888799 2.167082852e-39
0.01771337539 0.02634109557 -0.002716355724 2.167082852e-39
0.1913717836 -0.4757738411 0.1742086112 2.167082852e-39
-0.132325232 0.1404238343 0.1362057775 1.435982003e-39
-0.1071780622 -0.1287197471 0.1213760972 1.435982003e-39
-0.1977211982 0.4217054248 0.104732126 1.435982003e-39
-0.05609247833 0.08807371557 0.1303519309 1.435982003e-39
-0.1469419301 0.2932729721 0.1749320626 1.435982003e-39
-0.144080326 -0.3053694665 0.1666209549 1.435982003e-39
-0.202229932 0.4566485584 -0.03636005148 1.435982003e-39
-0.1498869658 0.07723902166 0.1439627707 1.435982003e-39
-0.1592826843 0.364046216 0.09142975509 1.435982003e-39
-0.1517988741 -0.3933970034 0.1719671488 1.435982003e-39
-0.1867698729 0.2406771481 -0.06332979351 1.435982003e-39
-0.159667924 -0.1853425652 0.1099932641 1.435982003e-39
-0.1377656013 0.3031133711 0.1713557541 1.435982003e-39
-0.1398553252 -0.3198899329 0.1624903381 1.435982003e-39
-0.1887060851 0.4513700902 -0.07038649917 1.435982003e-39
-0.1484165937 0.01188475359 0.1081294194 1.435982003e-39
-0.1377661377 0.3031172752 0.1713559926 1.435982003e-39
-0.1398557425 -0.3198918998 0.1624905914 1.435982003e-39
-0.1887059212 0.4513690472 -0.07038781047 1.435982003e-39
-0.1484171748 0.01187940128 0.1081291437 1.435982003e-39
-0.09916506708 0.1731546372 0.1504773945 1.435982003e-39
-0.1159766242 -0.2189009339 0.1240583956 1.435982003e-39
-0.2243165821 0.4489268959 -0.01839527115 1.435982003e-39
-0.1134948507 0.1324124932 0.1227988154 1.435982003e-39
-0.1075267866 0.1649213731 0.1495111138 1.435982003e-39
-0.1156770885 -0.2049707025 0.1173005104 1.435982003e-39
-0.2272865325 0.4417163432 0.004251707811 1.435982003e-39
-0.1133564636 0.1174604297 0.1276932508 1.435982003e-39
-0.1725230515 0.3729938269 0.07056516409 1.435982003e-39
-0.1513053477 -0.3997924924 0.1716624051 1.435982003e-39
-0.190893203 0.1200627312 -0.05096074939 1.435982003e-39
-0.1593333036 -0.2169316262 0.1177825853 1.435982003e-39
0.002066497458 0.021839967 0.1132399067 7.045238224e-40
-0.1421365589 0.03865192086 0.08192444593 7.045238224e-40
-0.04639026523 0.1142825931 0.1058556587 7.045238224e-40
-0.1045557931 -0.2024483979 0.1220107824 7.045238224e-40
0.07349358499 -0.0127509553 -0.03421354294 7.045238224e-40
-0.1432458311 0.1890919358 0.1496651769 7.045238224e-40
-0.02054920606 0.05145835131 0.07496151328 7.045238224e-40
-0.1399131268 -0.1084202006 0.145710066 7.045238224e-40
0.1019903049 -0.02775896713 -0.1301279366 7.045238224e-40
-0.124392204 0.3138715327 0.1776919216 7.045238224e-40
0.07398167998 0.0469121635 0.02758780308 7.045238224e-40
-0.1580060422 0.01950912736 0.1334488839 7.045238224e-40
0.09229339659 -0.02206822485 -0.059999872 7.045238224e-40
-0.1352207959 0.1626401097 0.1270410866 7.045238224e-40
-0.002590873977 0.05719172582 0.05405277014 7.045238224e-40
-0.1495581269 -0.07964437455 0.1299905479 7.045238224e-40
0.09229396284 -0.02206828445 -0.06000220403 7.045238224e-40
-0.1352206916 0.1626422554 0.1270419061 7.045238224e-40
-0.002589979907 0.05719108507 0.05405217409 7.045238224e-40
-0.1495585144 -0.07964202017 0.1299904883 7.045238224e-40
0.03687974066 -0.02972127311 0.02927835658 7.045238224e-40
-0.1388658285 0.06421080977 0.08371648192 7.045238224e-40
-0.03057730012 0.06192388386 0.08100193739 7.045238224e-40
-0.1460656077 -0.2484274805 0.1433649063 7.045238224e-40
0.008582292125 -0.02418204583 0.06644519418 7.045238224e-40
-0.1470145732 0.0509603098 0.08763507754 7.045238224e-40
-0.03920185193 0.05172484741 0.08905482292 7.045238224e-40
-0.1363464445 -0.2962634861 0.1468918324 7.045238224e-40
0.102757439 -0.0201279372 -0.1372974068 7.045238224e-40
-0.127331093 0.3365671933 0.1854745299 7.045238224e-40
0.08969595283 0.03503694758 0.009784587659 7.045238224e-40
-0.1569746584 0.02736425959 0.14036192 7.045238224e-40
-0.1612760425 0.1984531581 0.07130078971 6.490113838e-41
-0.08109184355 0.01344222855 0.142974332 6.490113838e-41
-0.1680789441 0.04727356881 0.1329172701 6.490113838e-41
-0.03473925591 0.05503590778 0.1339071393 6.490113838e-41
-0.1669078618 0.27985394 -0.05511632934 6.490113838e-41
-0.1520176232 0.02635832317 0.1370712072 6.490113838e-41
-0.1646027267 0.01956177503 0.03999366239 6.490113838e-41
0.05343914777 0.0233237911 0.1439779848 6.490113838e-41
-0.1457185298 0.2998788655 -0.1405151188 6.490113838e-41
-0.0372071974 0.05538788438 -0.01268154196 6.490113838e-41
-0.1690711975 0.05206935108 -0.02966170572 6.490113838e-41
0.1672788709 0.03275697306 0.1532742232 6.490113838e-41
-0.1400041878 0.262176007 -0.06026948243 6.490113838e-41
-0.1298430115 0.02406573482 0.1142690554 6.490113838e-41
-0.1698060483 0.01294986065 0.03231872618 6.490113838e-41
0.08599338681 0.04178612307 0.1342807263 6.490113838e-41
-0.14000386 0.2621776462 -0.06027146056 6.490113838e-41
-0.1298408806 0.02406607755 0.1142670885 6.490113838e-41
-0.1698061973 0.01295003947 0.0323176831 6.490113838e-41
0.08599544317 0.04178636149 0.134281069 6.490113838e-41
-0.148027882 0.1563770622 0.01572977565 6.490113838e-41
-0.09141062945 0.01806137152 0.1377765834 6.490113838e-41
-0.1790068597 -0.02650897391 0.07710075378 6.490113838e-41
0.01329963468 -0.009305536747 0.1260831505 6.490113838e-41
-0.1572934091 0.1771630645 0.02594118379 6.490113838e-41
-0.08727921546 0.01390284114 0.1408731192 6.490113838e-41
-0.1815036535 -0.03527863324 0.09457027912 6.490113838e-41
-5.584955215e-05 -0.02444249764 0.128794387 6.490113838e-41
-0.1529371589 0.3070326149 -0.1446178257 6.490113838e-41
-0.03159448504 0.05726728588 -0.03815013543 6.490113838e-41
-0.1717654616 0.04983727634 -0.04334772378 6.490113838e-41
0.1875928342 0.02058294229 0.1584456861 6.490113838e-41
-0.06529643387 0.09922379255 0.1134096906 8.028094954e-40
-0.1278338879 0.02118953504 -0.01982694305 8.028094954e-40
-0.03390796855 0.07141078264 0.1135948002 8.028094954e-40
-0.1437953115 -0.1405960172 0.07447944582 8.028094954e-40
-0.1551553309 0.3640477359 0.1482272446 8.028094954e-40
-0.1656872779 0.105257012 0.04278070107 8.028094954e-40
0.04064486176 0.003744204761 0.08005985618 8.028094954e-40
-0.1741538048 -0.3298706412 0.1479298323 8.028094954e-40
-0.1817048639 0.473382622 0.04370937124 8.028094954e-40
-0.1498812586 0.3093426824 0.07579921186 8.028094954e-40
0.132101357 -0.0450460054 -0.06510187685 8.028094954e-40
-0.1455335021 -0.4099455476 0.1628936678 8.028094954e-40
-0.1562099308 0.3879860044 0.134292081 8.028094954e-40
-0.1686087251 0.1429537088 0.04926273599 8.028094954e-40
0.06484840065 -0.007164244074 0.04017836973 8.028094954e-40
-0.1718480587 -0.3851824999 0.1223443225 8.028094954e-40
-0.1562108546 0.3879882991 0.1342907548 8.028094954e-40
-0.1686083972 0.1429572403 0.04926337674 8.028094954e-40
0.0648496151 -0.007164631505 0.04017657042 8.028094954e-40
-0.1718477607 -0.3851837218 0.1223445311 8.028094954e-40
-0.1394488662 0.2702477574 0.1350207776 8.028094954e-40
-0.1534759551 0.04900637269 -0.004965890199 8.028094954e-40
-0.02157226764 -0.002013300546 0.09589660913 8.028094954e-40
-0.1544027776 -0.2481152862 0.100309886 8.028094954e-40
-0.1455514133 0.2385470867 0.1371675432 8.028094954e-40
-0.1532041878 0.03565881401 -0.00943410676 8.028094954e-40
-0.03811486438 -0.001036643633 0.1052092686 8.028094954e-40
-0.1514185667 -0.2136684656 0.1013079584 8.028094954e-40
-0.1874318123 0.4692987502 0.02626860701 8.028094954e-40
-0.1560633183 0.3204977214 0.08104654402 8.028094954e-40
0.1408421248 -0.05498048291 -0.08788442612 8.028094954e-40
-0.1443219632 -0.4228916466 0.1653798819 8.028094954e-40
0.1020226181 0.03995184973 0.1372873783 1.540360521e-39
-0.1323128194 -0.3166923523 0.1687293351 1.540360521e-39
0.02144487016 0.03571479395 -0.06846279651 1.540360521e-39
-0.07178415358 -0.211332649 0.1023003682 1.540360521e-39
-0.02014931291 -0.0004329979129 0.1873485893 1.540360521e-39
-0.1574642807 -0.4101105928 0.1739074439 1.540360521e-39
0.1139061376 0.03981262445 -0.09421083331 1.540360521e-39
-0.1523535401 -0.2497289628 0.1543149054 1.540360521e-39
-0.12472222 -0.05348419026 0.1695092767 1.540360521e-39
-0.176294297 -0.4636140168 0.1737520248 1.540360521e-39
0.1652338654 0.08013669401 -0.04863125831 1.540360521e-39
-0.1572777778 -0.359026283 0.115665026 1.540360521e-39
-0.03628228232 -0.03533212841 0.1732456684 1.540360521e-39
-0.1493461132 -0.4248732626 0.1665375829 1.540360521e-39
0.1632945091 0.04953224212 -0.1284282804 1.540360521e-39
-0.1225931272 -0.3094273508 0.1104884371 1.540360521e-39
-0.03628503531 -0.0353320539 0.1732457429 1.540360521e-39
-0.1493463814 -0.4248746634 0.1665377468 1.540360521e-39
0.1632963866 0.04953286797 -0.1284285933 1.540360521e-39
-0.1225939915 -0.3094287217 0.1104880199 1.540360521e-39
0.04871056974 -0.01306300052 0.1641871333 1.540360521e-39
-0.1334918439 -0.3478581607 0.1537781209 1.540360521e-39
0.09932970256 0.03669707105 -0.1162127107 1.540360521e-39
-0.07073549181 -0.2699606717 0.08594785631 1.540360521e-39
0.0611359328 0.002867735457 0.1769300252 1.540360521e-39
-0.1370669603 -0.3261034787 0.1497228742 1.540360521e-39
0.07879351825 0.03950511664 -0.1082931533 1.540360521e-39
-0.08231519163 -0.2334085405 0.1001536995 1.540360521e-39
-0.1345064938 -0.06000481173 0.1643736959 1.540360521e-39
-0.1823107749 -0.466042459 0.1724589467 1.540360521e-39
0.1717360169 0.06054583564 -0.005432015751 1.540360521e-39
-0.1563072652 -0.3765187263 0.1133319288 1.540360521e-39
-0.1726904809 0.1681198329 -0.1552155614 2.277910146e-39
-0.1585473716 0.3337527812 -0.03641922027 2.277910146e-39
-0.07558131218 0.05678716674 -0.1390726864 2.277910146e-39
-0.116914764 0.3548389971 -0.1159912497 2.277910146e-39
-0.1480654478 0.1353811026 -0.1566729546 2.277910146e-39
-0.1681672931 0.1874949038 -0.06766170263 2.277910146e-39
0.06752885878 0.01447489299 -0.1512197405 2.277910146e-39
-0.1770283729 0.4320677221 -0.1233168691 2.277910146e-39
-0.05539453775 0.04702299833 -0.1646115333 2.277910146e-39
-0.1321254671 0.06375639886 -0.111968413 2.277910146e-39
0.1577178538 -0.06802660972 -0.1368265152 2.277910146e-39
-0.174937889 0.4882262945 -0.004729399458 2.277910146e-39
-0.1280447096 0.1365225762 -0.1554733664 2.277910146e-39
-0.1506761909 0.1769471765 -0.07094162703 2.277910146e-39
0.09270292521 0.0006738154916 -0.1415488273 2.277910146e-39
-0.1489035487 0.4626655281 -0.04195709527 2.277910146e-39
-0.1280442178 0.1365206987 -0.1554733068 2.277910146e-39
-0.1506760865 0.1769445688 -0.07094258815 2.277910146e-39
0.09270489216 0.0006740464596 -0.1415487826 2.277910146e-39
-0.1489039361 0.4626664519 -0.04195629805 2.277910146e-39
-0.1526836902 0.1580704302 -0.1555513591 2.277910146e-39
-0.1318919808 0.2914724052 -0.03894498199 2.277910146e-39
-0.05319520831 -0.002112363232 -0.1254500598 2.277910146e-39
-0.1329763234 0.3919394016 -0.09385622293 2.277910146e-39
-0.1643869877 0.1639449149 -0.1553552151 2.277910146e-39
-0.1494559944 0.2974694669 -0.03249147907 2.277910146e-39
-0.07761200517 0.008460006677 -0.1309629828 2.277910146e-39
-0.1406762898 0.3763091862 -0.1161102504 2.277910146e-39
-0.02506129816 0.03641786799 -0.1673959345 2.277910146e-39
-0.1296412498 0.05508127064 -0.1209009886 2.277910146e-39
0.169629097 -0.1007177606 -0.1316330731 2.277910146e-39
-0.193594262 0.4859051108 0.008095713332 2.277910146e-39
-0.1576215178 -0.3666117787 -0.1229488701 3.015101038e-39
-0.1487733722 0.07090548426 -0.0456989035 3.015101038e-39
-0.1592017263 0.2099147886 -0.02359730005 3.015101038e-39
-0.1720613092 0.3069885373 -0.004817858338 3.015101038e-39
-0.1736545116 -0.4520307183 -0.1578049064 3.015101038e-39
-0.1503703892 -0.1873195022 -0.1581786424 3.015101038e-39
-0.1629039794 0.1143696457 -0.05859838426 3.015101038e-39
-0.1908765733 0.3944422603 0.1406403035 3.015101038e-39
-0.1417669058 -0.4895104468 -0.1717603207 3.015101038e-39
-0.1568575501 -0.3029997051 -0.1523505896 3.015101038e-39
-0.1274116635 -0.04425480962 -0.1173051372 3.015101038e-39
-0.1697853953 0.2000330687 0.1565941423 3.015101038e-39
-0.1623176187 -0.4699624479 -0.1351038963 3.015101038e-39
-0.1600203663 -0.2743137479 -0.1365421563 3.015101038e-39
-0.1624237448 0.05390221626 -0.08450641483 3.015101038e-39
-0.1759621203 0.3509326875 0.145143196 3.015101038e-39
-0.1623172313 -0.4699631929 -0.1351045221 3.015101038e-39
-0.1600202769 -0.2743152678 -0.136542365 3.015101038e-39
-0.1624229848 0.05389835313 -0.08450806141 3.015101038e-39
-0.1759619117 0.3509313762 0.1451440305 3.015101038e-39
-0.1615118682 -0.4295234382 -0.1135280877 3.015101038e-39
-0.1633779854 -0.1491568387 -0.08849760145 3.015101038e-39
-0.1785624921 0.1693291962 -0.03114574775 3.015101038e-39
-0.1834631264 0.3825956881 0.02577805705 3.015101038e-39
-0.164364472 -0.4151019752 -0.1180459857 3.015101038e-39
-0.1645786762 -0.05021737516 -0.0743252933 3.015101038e-39
-0.1828246266 0.1937555671 -0.01832379214 3.015101038e-39
-0.1861973703 0.3689543605 0.01540515851 3.015101038e-39
-0.142152369 -0.4891419113 -0.1771694422 3.015101038e-39
-0.1564168632 -0.3048628569 -0.1579728872 3.015101038e-39
-0.1177425757 -0.04220981896 -0.1238084659 3.015101038e-39
-0.1773819029 0.1442476213 0.1530917287 3.015101038e-39
-0.1995146275 0.484490037 -0.05433849245 3.75229193e-39
-0.1247176901 -0.01617658511 -0.1905705631 3.75229193e-39
-0.1091844514 0.3649030924 -0.1433652341 3.75229193e-39
-0.04796428606 -0.01002950128 -0.1290166825 3.75229193e-39
-0.1594128162 0.4760780931 0.08303365856 3.75229193e-39
-0.1757209301 0.02497284859 -0.08788281679 3.75229193e-39
-0.1826639175 0.4381954968 -0.1148615107 3.75229193e-39
0.1374711245 -0.04621873051 -0.1419346929 3.75229193e-39
-0.1659604609 0.4588534236 0.1573788971 3.75229193e-39
-0.1600019634 0.07819085568 0.02840825729 3.75229193e-39
-0.1881970614 0.3149202764 0.04032164812 3.75229193e-39
0.1752040088 -0.2121669948 -0.1223105937 3.75229193e-39
-0.1418957561 0.4742964506 0.08879492432 3.75229193e-39
-0.169066906 0.04096980765 -0.07388427109 3.75229193e-39
-0.177808255 0.4146137834 -0.09378656 3.75229193e-39
0.1550637931 -0.07197131962 -0.1158884019 3.75229193e-39
-0.1418961734 0.4742960334 0.08879648894 3.75229193e-39
-0.1690665483 0.04097129405 -0.07388221473 3.75229193e-39
-0.1778094023 0.414611727 -0.09378439933 3.75229193e-39
0.1550654322 -0.07197244465 -0.1158881783 3.75229193e-39
-0.17201823 0.4944017828 -0.002757303882 3.75229193e-39
-0.1490227133 -0.04605687782 -0.1445646584 3.75229193e-39
-0.1507874131 0.4169112742 -0.1588153094 3.75229193e-39
0.02414156683 -0.0308266636 -0.129254058 3.75229193e-39
-0.1852156669 0.4948503375 -0.01520483755 3.75229193e-39
-0.1450790763 -0.06078419089 -0.151782304 3.75229193e-39
-0.1595669538 0.402061224 -0.1558381766 3.75229193e-39
-0.006935533602 -0.048724439 -0.1358530968 3.75229193e-39
-0.1705697924 0.4602295756 0.1634060889 3.75229193e-39
-0.1632301658 0.08926426619 0.045352038 3.75229193e-39
-0.1874270439 0.2972456217 0.08327253163 3.75229193e-39
0.178296268 -0.2472933233 -0.1310509294 3.75229193e-39
-0.1786952615 0.01194033306 -0.09114346653 4.48912409e-39
-0.1304056346 0.4692555666 -0.1033217385 4.48912409e-39
-0.1587723494 -0.06945293397 -0.04575445876 4.48912409e-39
-0.1503880322 0.218907088 -0.07909534127 4.48912409e-39
-0.1594923884 -0.1401193738 -0.1502490193 4.48912409e-39
-0.1791021824 0.3631628454 -0.1605211645 4.48912409e-39
-0.1871407181 -0.01525963843 0.09968650341 4.48912409e-39
-0.1772907376 0.3410681784 -0.02664240077 4.48912409e-39
-0.1467474699 -0.3165276051 -0.1572006941 4.48912409e-39
-0.1561920792 0.2300975025 -0.1536845863 4.48912409e-39
-0.1477539837 -0.2419155389 0.1448536217 4.48912409e-39
-0.1785718054 0.4015671611 0.04665516689 4.48912409e-39
-0.1566622555 -0.208966583 -0.1427800506 4.48912409e-39
-0.1516513079 0.359690696 -0.1434956044 4.48912409e-39
-0.1709767133 -0.09556894004 0.1218134686 4.48912409e-39
-0.1649008542 0.3741606176 0.01272332575 4.48912409e-39
-0.1566619873 -0.2089699209 -0.142780751 4.48912409e-39
-0.1516514719 0.3596873879 -0.1434958428 4.48912409e-39
-0.1709762961 -0.09557180852 0.121814236 4.48912409e-39
-0.1649012417 0.3741612136 0.01272432413 4.48912409e-39
-0.1540433019 -0.09339860082 -0.1161438599 4.48912409e-39
-0.1350309253 0.459261924 -0.1062962413 4.48912409e-39
-0.1951556951 -0.01008870453 0.05359205604 4.48912409e-39
-0.1521114111 0.2842737138 -0.03602522239 4.48912409e-39
-0.1533689052 -0.04999773949 -0.1103720888 4.48912409e-39
-0.1549319029 0.4633465707 -0.1095130369 4.48912409e-39
-0.1960055232 -9.978190064e-05 0.02998710424 4.48912409e-39
-0.1623027325 0.236583665 -0.0497558713 4.48912409e-39
-0.1417973638 -0.3216223419 -0.1578511596 4.48912409e-39
-0.1572926641 0.2155460566 -0.1573679447 4.48912409e-39
-0.1433598995 -0.2301241159 0.1477365643 4.48912409e-39
-0.1888408512 0.3990775049 0.05509277433 4.48912409e-39
0.1371715218 0.03280775994 0.04300593957 5.225597518e-39
0.1675545126 -0.3613528907 -0.1259777695 5.225597518e-39
0.1221035644 -0.01140464563 -0.1472059637 5.225597518e-39
0.1225269586 -0.1181128994 -0.1303996742 5.225597518e-39
-0.07187147439 0.02625568211 0.08062374592 5.225597518e-39
0.1839305907 -0.4259022772 -0.1544502079 5.225597518e-39
0.1699348241 0.01819132641 0.0688482821 5.225597518e-39
0.195884198 -0.2079417706 -0.1396299452 5.225597518e-39
-0.1668393463 0.08312218636 0.08572421968 5.225597518e-39
0.1782703847 -0.4829949141 -0.1572355032 5.225597518e-39
0.07220003754 0.03092895076 0.1502216309 5.225597518e-39
0.1687384993 -0.3264841735 -0.1243166104 5.225597518e-39
-0.08266575634 0.0009815838421 0.07248434424 5.225597518e-39
0.1731221527 -0.4439157844 -0.1336767972 5.225597518e-39
0.1595572084 0.01530155353 0.1238660067 5.225597518e-39
0.1747749597 -0.2817929685 -0.1142562777 5.225597518e-39
-0.08266945183 0.0009818222607 0.07248426974 5.225597518e-39
0.1731221527 -0.4439168572 -0.1336770505 5.225597518e-39
0.159557119 0.01530173235 0.1238681227 5.225597518e-39
0.1747744679 -0.281794101 -0.1142562553 5.225597518e-39
0.02291173674 -0.008936197497 0.05047049746 5.225597518e-39
0.1748791635 -0.3807936609 -0.1245018095 5.225597518e-39
0.1370253563 0.001348449965 -0.0336865671 5.225597518e-39
0.1631152779 -0.2025744319 -0.1286044866 5.225597518e-39
0.04334883019 0.004339355044 0.04635190219 5.225597518e-39
0.1830269694 -0.3670494854 -0.1302182674 5.225597518e-39
0.1547705382 -0.004049785435 -0.04461782798 5.225597518e-39
0.1435770839 -0.1521044374 -0.1339964569 5.225597518e-39
-0.1721899807 0.1030817404 0.08140067011 5.225597518e-39
0.1691708118 -0.483736366 -0.1656012237 5.225597518e-39
0.02068691514 0.0101773357 0.1283576638 5.225597518e-39
0.1734739393 -0.3306764066 -0.1287710071 5.225597518e-39
0.0866907835 0.03685222194 -0.1066894606 5.962428276e-39
-0.1459765285 0.3312443793 0.08888085186 5.962428276e-39
0.0575155057 0.07034381479 0.1552208364 5.962428276e-39
-0.03783640638 0.1267503202 -0.05389223248 5.962428276e-39
0.1240927652 0.0462767221 0.08027448505 5.962428276e-39
-0.1493205577 0.2045564204 -0.004788227845 5.962428276e-39
0.01224619802 0.06049148366 0.07500192523 5.962428276e-39
-0.09515226632 0.07104020566 0.06414933503 5.962428276e-39
0.1544815153 0.04279854521 0.1692860126 5.962428276e-39
-0.103431344 -0.0404772684 -0.1521443576 5.962428276e-39
0.01885058172 0.05835713446 -0.027538592 5.962428276e-39
-0.02945252135 0.08546198905 0.1570584476 5.962428276e-39
0.1307794005 0.03571203351 0.1010553092 5.962428276e-39
-0.1280672401 0.1286667585 -0.04871605337 5.962428276e-39
0.02669823356 0.05843224749 0.07507074624 5.962428276e-39
-0.08376119286 0.1009106562 0.06032354385 5.962428276e-39
0.1307801306 0.03571200371 0.1010575071 5.962428276e-39
-0.1280660331 0.1286622882 -0.04871874675 5.962428276e-39
0.02669793554 0.05843194947 0.07507002354 5.962428276e-39
-0.08375973254 0.1009105816 0.06032522768 5.962428276e-39
0.1249645501 0.03352252766 -0.019993769 5.962428276e-39
-0.171705395 0.2635169625 0.06795748323 5.962428276e-39
0.07065735012 0.05501393974 0.1214695871 5.962428276e-39
-0.06133555993 0.09188536555 -0.01624220796 5.962428276e-39
0.1211188138 0.02233473584 -0.05670993775 5.962428276e-39
-0.1756997406 0.2838485837 0.08652436733 5.962428276e-39
0.082536906 0.04745352641 0.126591742 5.962428276e-39
-0.05888588727 0.07255078852 -0.02823600359 5.962428276e-39
0.1531485617 0.04760992154 0.1743924171 5.962428276e-39
-0.10500516 -0.05288092047 -0.1665124744 5.962428276e-39
0.02306438982 0.03440191597 -0.06245733798 5.962428276e-39
-0.01990283467 0.06078398973 0.1910915375 5.962428276e-39
-0.03636759147 -0.05124911293 0.1703926772 6.698542971e-39
-0.1403488815 0.1927432865 0.1552072316 6.698542971e-39
0.09999662638 0.01356280129 0.1181833446 6.698542971e-39
0.01027273946 0.05103620514 0.09856712818 6.698542971e-39
-0.1096853018 -0.03895900398 0.1696419716 6.698542971e-39
-0.1679551452 0.3467249572 0.1218697652 6.698542971e-39
0.1596814245 -0.07408768684 0.1297681034 6.698542971e-39
-0.1316912025 0.1272214502 0.1393112838 6.698542971e-39
-0.1207273975 0.05307134613 0.08457710594 6.698542971e-39
-0.1658769697 0.4147202075 0.03873917088 6.698542971e-39
0.1778192371 -0.2189910114 0.1277499944 6.698542971e-39
-0.152763322 0.2384583801 0.09844958037 6.698542971e-39
-0.1177536696 -0.03457963467 0.1583859473 6.698542971e-39
-0.1473222524 0.3502854407 0.1219869256 6.698542971e-39
0.1729692966 -0.08811334521 0.1049714759 6.698542971e-39
-0.1326184422 0.1694693714 0.1208036616 6.698542971e-39
-0.1177541092 -0.03457451239 0.158386603 6.698542971e-39
-0.1473230571 0.350287199 0.1219855472 6.698542971e-39
0.1729701608 -0.08811433613 0.1049716622 6.698542971e-39
-0.1326187998 0.1694705784 0.1208031774 6.698542971e-39
-0.06764650345 -0.09260889143 0.1551168412 6.698542971e-39
-0.1458552629 0.2231608927 0.1524456739 6.698542971e-39
0.1412597299 -0.02987913787 0.1043353602 6.698542971e-39
-0.04229094461 0.07986668497 0.1218670458 6.698542971e-39
-0.06140770391 -0.07367216796 0.1688212156 6.698542971e-39
-0.1551053822 0.2083851397 0.1574124694 6.698542971e-39
0.1199735627 -0.02446286939 0.1277475506 6.698542971e-39
-0.02169795521 0.04778856784 0.1277068555 6.698542971e-39
-0.1081337482 0.05800808221 0.04327555001 6.698542971e-39
-0.167541489 0.4239290953 0.02247130312 6.698542971e-39
0.1832374185 -0.2377649844 0.138104856 6.698542971e-39
-0.1629152149 0.2438142598 0.09524035454 6.698542971e-39
-0.1421058923 0.1806581765 -0.1412150562 7.434656265e-39
-0.1175521985 -0.07239238173 -0.09472876787 7.434656265e-39
-0.1362626702 -0.0327880308 0.07558754086 7.434656265e-39
-0.1778118163 0.3758713901 0.07441622019 7.434656265e-39
-0.1522795558 0.394715786 -0.04389455914 7.434656265e-39
-0.1401038468 -0.3076888621 -0.1574088782 7.434656265e-39
-0.1432167739 -0.01497839112 0.01301856525 7.434656265e-39
-0.1604961604 0.2935444117 0.1434470564 7.434656265e-39
-0.1487962604 0.2985559106 0.1143019423 7.434656265e-39
-0.1358202994 -0.4833046496 -0.1597954035 7.434656265e-39
-0.09418479353 -0.1557483375 -0.1323577017 7.434656265e-39
-0.1782232672 -0.07648228854 0.09174058586 7.434656265e-39
-0.1592697799 0.3570895195 -0.045312915 7.434656265e-39
-0.1501727104 -0.4518939257 -0.1317804754 7.434656265e-39
-0.1301160753 -0.1071502343 -0.05197299272 7.434656265e-39
-0.1560186297 0.09817762673 0.09473209083 7.434656265e-39
-0.1592694074 0.3570902944 -0.04531019181 7.434656265e-39
-0.1501719803 -0.4518972039 -0.1317817122 7.434656265e-39
-0.1301156729 -0.1071524471 -0.05197535455 7.434656265e-39
-0.1560190618 0.09817191958 0.09473079443 7.434656265e-39
-0.1688926667 0.303271234 -0.1431649029 7.434656265e-39
-0.1346010119 -0.1834836155 -0.1070671603 7.434656265e-39
-0.1386524737 -0.05867744237 0.003182370681 7.434656265e-39
-0.1685400605 0.3248253465 0.1037378684 7.434656265e-39
-0.1707796454 0.3120335639 -0.1562584639 7.434656265e-39
-0.1316259801 -0.1198972017 -0.1041488126 7.434656265e-39
-0.1511594057 -0.03961939365 0.01237251051 7.434656265e-39
-0.1794894487 0.388436079 0.08863610029 7.434656265e-39
-0.1463034302 0.2702553272 0.1336034536 7.434656265e-39
-0.1360262185 -0.4853021502 -0.1646377295 7.434656265e-39
-0.09391120076 -0.1358374804 -0.1427234411 7.434656265e-39
-0.1839450151 -0.08770258725 0.09147684276 7.434656265e-39
-0.0876487866 0.05595282093 -0.1268288195 8.170410826e-39
-0.1391353458 0.3673023582 -0.1548129469 8.170410826e-39
-0.09159771353 0.03117721155 -0.08456650376 8.170410826e-39
-0.09565935284 0.08599919081 -0.05526702106 8.170410826e-39
0.003680212656 0.01722253487 -0.1466816664 8.170410826e-39
-0.170773685 0.4161573648 -0.08329368383 8.170410826e-39
-0.1707092673 0.0636594817 -0.02042825893 8.170410826e-39
-0.1522777677 0.1929164231 -0.1657418609 8.170410826e-39
0.134886235 -0.04014066979 -0.1596823335 8.170410826e-39
-0.1543962955 0.4267268777 0.02914668433 8.170410826e-39
-0.1480955333 0.06548456848 0.07495182753 8.170410826e-39
-0.159268111 0.2930456698 -0.101105012 8.170410826e-39
0.031113429 0.002285688883 -0.1355280131 8.170410826e-39
-0.1568629295 0.4168155491 -0.05854455382 8.170410826e-39
-0.1679579318 0.05770969763 0.02911607362 8.170410826e-39
-0.1508346647 0.2216489911 -0.1378613561 8.170410826e-39
0.03111627139 0.0022852642 -0.1355278641 8.170410826e-39
-0.1568627656 0.4168162048 -0.05854307115 8.170410826e-39
-0.1679583043 0.05771007016 0.0291178599 8.170410826e-39
-0.1508354098 0.2216504067 -0.1378620267 8.170410826e-39
-0.06790839136 0.01740883291 -0.1288092881 8.170410826e-39
-0.1635440886 0.3549166322 -0.1090658158 8.170410826e-39
-0.1285003126 0.05515315011 -0.03640861064 8.170410826e-39
-0.1217395663 0.1188569963 -0.0872130692 8.170410826e-39
-0.09592052549 0.02665708028 -0.1092807651 8.170410826e-39
-0.1705112159 0.3505999446 -0.1227143109 8.170410826e-39
-0.1221866757 0.05955893174 -0.0511746034 8.170410826e-39
-0.1196906045 0.09860432148 -0.07761535048 8.170410826e-39
0.1476114392 -0.04083278775 -0.1690695584 8.170410826e-39
-0.1603570431 0.4243222177 0.04533209652 8.170410826e-39
-0.1189511642 0.04491887614 0.06843426079 8.170410826e-39
-0.1692868471 0.3079658449 -0.08405686915 8.170410826e-39
-0.05390341952 0.08131296933 -0.141604647 8.906165387e-39
0.01779620163 0.02290278114 0.1646501869 8.906165387e-39
0.1455197632 0.07940326631 0.1294368953 8.906165387e-39
0.04156181589 0.02633971721 0.1064239368 8.906165387e-39
-0.1074604169 0.06790611893 -0.01247015037 8.906165387e-39
-0.09837062657 0.01363544352 0.1718042195 8.906165387e-39
0.1915162951 0.04041626677 0.1200921386 8.906165387e-39
0.1381838471 0.01010994427 0.1829749048 8.906165387e-39
-0.1337339282 0.1409647465 0.07376294583 8.906165387e-39
-0.1439020932 0.06446889043 0.1721711606 8.906165387e-39
0.1916620433 0.03240628168 0.03770652041 8.906165387e-39
0.1764771938 -0.117676504 0.168084532 8.906165387e-39
-0.1044733673 0.07756556571 -0.006340597756 8.906165387e-39
-0.0998564288 0.02783948742 0.1694745868 8.906165387e-39
0.2006137669 0.03682138398 0.0924635753 8.906165387e-39
0.1639105082 -0.01943641715 0.1879507303 8.906165387e-39
