# .PCD v0.7 - Point Cloud Data file format
VERSION 0.7
FIELDS x y z rgb
SIZE 4 4 4 4
TYPE F F F F
COUNT 1 1 1 1
WIDTH 833
HEIGHT 1
VIEWPOINT 0 0 0 1 0 0 0
POINTS 833
DATA ascii
-0.1252825707 0.1130051464 -0.06204621121 7.434656265e-39
0.08799508214 -0.04753677174 -0.02518153377 7.434656265e-39
-0.1397042572 0.1266641617 -0.03580240533 7.434656265e-39
0.1510224342 -0.3796463013 0.1695120335 7.434656265e-39
-0.138360858 0.2601765096 -0.1468583792 7.434656265e-39
0.04997782782 -0.0719236955 -0.09320308268 7.434656265e-39
-0.1407491565 0.07408326119 0.02251789719 7.434656265e-39
0.168139413 -0.2501894236 0.1545107812 7.434656265e-39
-0.1423393786 0.2424287051 -0.09862057865 7.434656265e-39
0.01989985071 -0.06192424893 -0.1464959085 7.434656265e-39
-0.1345791668 0.08518475294 0.09547916055 7.434656265e-39
0.1815325916 -0.1839301437 0.1387675852 7.434656265e-39
-0.1499325335 0.1553189009 -0.09381100535 7.434656265e-39
0.009068231098 -0.00493136514 -0.06787354499 7.434656265e-39
-0.1405223906 0.05966244265 0.06082714349 7.434656265e-39
0.1572590172 -0.1721078008 0.1093079224 7.434656265e-39
-0.1362000853 0.1652076244 -0.08658248186 7.434656265e-39
0.07587973028 -0.09676105529 0.04563811421 7.434656265e-39
0.09546064585 -0.04655533284 0.05060625821 7.434656265e-39
0.03923275322 -0.07781200856 0.01924332418 7.434656265e-39
-0.09258063138 0.09522520006 0.02435182594 7.434656265e-39
0.183950454 -0.05803908035 0.03575998917 7.434656265e-39
0.07529547065 -0.02819197811 -0.07204766572 7.434656265e-39
0.06815295666 -0.03544133902 -0.02414672077 7.434656265e-39
-0.1705927104 0.1139545441 -0.007480839267 7.434656265e-39
0.1407156438 -0.2150963396 0.1882116646 7.434656265e-39
-0.1678310633 0.145398438 -0.120786421 7.434656265e-39
-0.003740777494 0.0654886812 -0.1428479105 8.170410826e-39
-0.1679131538 0.388084501 -0.1127675623 8.170410826e-39
0.1415057629 0.01966015808 -0.1431231499 8.170410826e-39
-0.1676980257 0.3024262786 0.08206063509 8.170410826e-39
-0.05292030051 0.0270969905 0.06304357946 8.170410826e-39
-0.1456218213 0.3316589892 -0.1608729511 8.170410826e-39
0.1699175239 -0.3672641814 -0.1557337791 8.170410826e-39
-0.1558372229 0.4462373853 0.1297888309 8.170410826e-39
0.1887967438 -0.03187605739 -0.07323157042 8.170410826e-39
-0.1390713453 0.3995473385 -0.03665320948 8.170410826e-39
0.1534086913 -0.3060957491 -0.1670388132 8.170410826e-39
-0.1500887722 0.4037182033 0.1258523613 8.170410826e-39
-0.0239839498 -0.03876565769 -0.03324071318 8.170410826e-39
-0.1365227103 0.3487204909 -0.08150410652 8.170410826e-39
0.1431008577 -0.1496767551 -0.1834197938 8.170410826e-39
-0.1519403905 0.3238099813 0.1040375531 8.170410826e-39
-0.06193509325 -0.03575651348 -0.01317310892 8.170410826e-39
-0.1207671985 0.3118020296 -0.1239363924 8.170410826e-39
0.04061641917 -0.07965639979 -0.1885592639 8.170410826e-39
-0.1822580695 0.1445066184 0.02692755312 8.170410826e-39
-0.026845349 -0.03434601426 -0.1043354869 8.170410826e-39
-0.1601490229 0.07595804334 -0.1218882948 8.170410826e-39
-0.1373765767 0.04535534233 -0.1899435967 8.170410826e-39
-0.1164988428 0.0595247969 -0.08465426415 8.170410826e-39
0.01012872066 -0.04277417064 -0.1724416316 8.170410826e-39
-0.1278248429 0.09473458678 0.07372258604 8.170410826e-39
-0.1366634965 -0.001690229634 -0.1132320985 8.170410826e-39
-0.1323782206 0.2519508302 -0.1794790775 8.170410826e-39
0.1423060596 -0.1746709496 -0.1494168937 8.170410826e-39
-0.1620159149 0.1391895264 0.120653972 8.170410826e-39
0.06822271645 -0.05535099655 -0.08253086358 8.170410826e-39
-0.1773014218 0.2276977152 -0.06555872411 8.170410826e-39
-0.1666731536 0.1188489348 0.1561932564 8.906165387e-39
-0.1824394315 -0.3625988662 -0.1673678011 8.906165387e-39
-0.1488176882 -0.2720505595 0.1476773024 8.906165387e-39
-0.1629744172 0.4542381465 -0.1296577454 8.906165387e-39
-0.1473618895 0.2807764709 -0.01802331582 8.906165387e-39
-0.1356122345 -0.3443931937 -0.1740126312 8.906165387e-39
-0.1572843045 -0.4924781621 0.1659827828 8.906165387e-39
-0.1572672874 0.4534913003 0.007188412361 8.906165387e-39
-0.135400176 0.1965413541 0.0882795155 8.906165387e-39
-0.154219076 -0.469907701 -0.124521479 8.906165387e-39
-0.1502701491 -0.4645615816 0.1605889648 8.906165387e-39
-0.1493502557 0.4513827264 -0.05121211335 8.906165387e-39
-0.1387440264 0.2267125547 -0.004563687369 8.906165387e-39
-0.1472927928 -0.4303762317 -0.1754457504 8.906165387e-39
-0.1229671314 -0.3940798342 0.1623692513 8.906165387e-39
-0.1208534017 0.4442467391 -0.09782898426 8.906165387e-39
-0.1453081667 0.2686797082 -0.05396204442 8.906165387e-39
-0.1467013657 -0.3457844555 -0.1834010929 8.906165387e-39
-0.1539186984 -0.2372482717 0.1432361901 8.906165387e-39
-0.1315174699 0.232436046 -0.116627261 8.906165387e-39
-0.1774383187 0.1644576937 -0.08755081147 8.906165387e-39
-0.1142658666 -0.17434901 -0.1810892969 8.906165387e-39
-0.1437639147 -0.1279994398 0.111948058 8.906165387e-39
-0.09877907485 -0.1613491178 -0.07567168772 8.906165387e-39
-0.1441042274 -0.1603237242 0.004557037726 8.906165387e-39
-0.1202388778 0.08634115756 -0.08448785543 8.906165387e-39
-0.190405041 -0.1183974966 0.01019984484 8.906165387e-39
-0.1262158453 -0.1765799075 -0.1666381061 8.906165387e-39
-0.1286654174 -0.4300259948 0.1291292906 8.906165387e-39
-0.1727501154 0.4064766169 -0.06347589195 8.906165387e-39
-0.1780314744 0.2372587621 0.06423464417 8.906165387e-39
-0.141767472 -0.4127980769 -0.119943887 8.906165387e-39
0.07605116069 0.05883133039 0.106033355 9.641561216e-39
-0.03813931346 0.04442812875 0.06068871543 9.641561216e-39
0.2039563358 0.02741363831 0.04241586104 9.641561216e-39
-0.1241260692 -0.2328746766 0.1463295817 9.641561216e-39
0.08981400728 0.02052708715 0.03251061961 9.641561216e-39
-0.1048781127 0.05901262909 0.1483748704 9.641561216e-39
0.1787247807 -0.03615535796 -0.1493811458 9.641561216e-39
-0.165658623 -0.4592328668 0.1618342102 9.641561216e-39
0.1442106068 -0.0433694683 0.173476249 9.641561216e-39
-0.04384185001 -0.04032460973 0.009268972091 9.641561216e-39
0.1983495206 -0.07162119448 -0.09851950407 9.641561216e-39
-0.1485432982 -0.4086679518 0.1570128053 9.641561216e-39
0.1786093712 -0.03535142913 0.1143352538 9.641561216e-39
-0.1218207702 -0.05258107185 0.05272170156 9.641561216e-39
0.1912532151 -0.04331394285 -0.05057024211 9.641561216e-39
-0.1328206062 -0.3254052997 0.1602119952 9.641561216e-39
0.1792056113 -0.03502181172 0.07953921705 9.641561216e-39
-0.1516426504 -0.01109266561 0.1093673855 9.641561216e-39
0.193843171 -0.06118996814 0.01543338224 9.641561216e-39
-0.1532768607 -0.2057349235 0.1575428247 9.641561216e-39
0.1135047153 -0.02583197877 0.05907215551 9.641561216e-39
-0.149533689 0.0579267405 0.1367684305 9.641561216e-39
0.08716766536 0.05808549374 0.01800378226 9.641561216e-39
-0.08206437528 0.02807210945 0.08815958351 9.641561216e-39
0.09105940908 -0.03342378885 -0.07854630798 9.641561216e-39
-0.122194618 -0.1277791411 0.07574652135 9.641561216e-39
-0.03651130572 -0.05919867381 0.02920550853 9.641561216e-39
0.02782839164 -0.008876441047 0.182035476 9.641561216e-39
0.1651933342 0.01667635329 -0.1032234803 9.641561216e-39
-0.147137925 -0.1780152023 0.1460036784 9.641561216e-39
0.1004026607 -0.07204733044 0.1601827592 9.641561216e-39
-0.1499701738 -0.0268847663 0.07717693597 9.641561216e-39
-0.1368957013 0.2675923109 -0.1558700353 1.037659831e-38
-0.1288764328 0.08956793696 0.1665003449 1.037659831e-38
-0.1759775728 0.4224337041 0.08867713809 1.037659831e-38
0.1850807965 -0.04725714028 0.1726323515 1.037659831e-38
-0.1776952744 0.2587898374 -0.07161859423 1.037659831e-38
-0.1703423709 0.184119314 0.05505359918 1.037659831e-38
-0.1801562756 0.4657583237 -0.1496461928 1.037659831e-38
0.1483752877 -0.3585632145 0.1438262761 1.037659831e-38
-0.1259542853 0.36737445 -0.1359294504 1.037659831e-38
-0.124261193 -0.001866100007 0.1564602405 1.037659831e-38
-0.1745834798 0.4494120777 -0.06185464561 1.037659831e-38
0.1824415475 -0.2846489847 0.1537426561 1.037659831e-38
-0.144861415 0.1446182579 -0.1139414757 1.037659831e-38
-0.1408375204 0.1136940122 0.1070435867 1.037659831e-38
-0.1293697804 0.4561465383 0.007572675589 1.037659831e-38
0.1821617931 -0.1505021304 0.1650977582 1.037659831e-38
-0.1147184595 0.2187710404 -0.05926341936 1.037659831e-38
-0.1519182026 0.1678985953 0.07790364325 1.037659831e-38
-0.1733396649 0.3860853314 0.1657450348 1.037659831e-38
0.08236284554 -0.04058309272 0.1512036622 1.037659831e-38
-0.1569679081 0.12978369 -0.0883699134 1.037659831e-38
-0.1561709642 0.1040422395 0.08747521043 1.037659831e-38
-0.1643538624 0.1604238153 -0.1149620712 1.037659831e-38
-0.1390084326 0.192012772 0.1702462137 1.037659831e-38
-0.1824809611 0.2383445054 -0.01451720018 1.037659831e-38
-0.03336762637 -0.01453198958 0.0634720698 1.037659831e-38
-0.1843648851 0.1385683268 -0.1624093801 1.037659831e-38
-0.185710445 0.1423323303 0.05465368181 1.037659831e-38
-0.1631910354 0.4091363847 -0.1194212809 1.037659831e-38
-0.03686764836 -0.0305942595 0.187700063 1.037659831e-38
-0.1290002763 0.249075979 -0.173655957 1.037659831e-38
-0.1719232798 0.01779432595 0.1206452996 1.037659831e-38
0.1870268285 -0.03583727404 -0.1436837763 1.111163541e-38
-0.1605739743 -0.4413544238 -0.1933870912 1.111163541e-38
0.168595925 -0.3263680041 -0.1649750322 1.111163541e-38
-0.1567022353 0.2768731713 -0.1274767071 1.111163541e-38
0.08004936576 -0.0258338023 -0.1538800597 1.111163541e-38
-0.1461631358 -0.4828733802 -0.1660684496 1.111163541e-38
0.1840059757 -0.4774298072 -0.1492519826 1.111163541e-38
-0.1594666392 0.3821613491 -0.1225225478 1.111163541e-38
-0.1496995986 -0.2450938523 -0.1605218053 1.111163541e-38
-0.1783297509 -0.4158201218 -0.1409153491 1.111163541e-38
0.1756054014 -0.4625724852 -0.1712665856 1.111163541e-38
-0.1615247428 0.3220511377 -0.1647288501 1.111163541e-38
-0.1317134351 -0.2493174523 -0.1799294651 1.111163541e-38
-0.1620343775 -0.4479097724 -0.1582133621 1.111163541e-38
0.1630601138 -0.4159987569 -0.1926365048 1.111163541e-38
-0.1432617754 0.2481281161 -0.1664642394 1.111163541e-38
-0.1128539443 -0.2240113467 -0.1887346506 1.111163541e-38
-0.1304307729 -0.442653656 -0.1735765338 1.111163541e-38
0.1591571122 -0.4038540125 -0.179232806 1.111163541e-38
-0.1291380674 0.1731487811 -0.1863193363 1.111163541e-38
-0.1140587255 -0.2792251706 -0.1760386378 1.111163541e-38
-0.1500002593 -0.2183190584 -0.141956538 1.111163541e-38
0.004841874819 -0.1019665003 -0.1059486121 1.111163541e-38
-0.156964004 -0.1382996738 -0.1521783918 1.111163541e-38
-0.02814474143 -0.02293778956 -0.1548155993 1.111163541e-38
-0.1186833456 0.04515821487 -0.1132534072 1.111163541e-38
0.137622118 -0.09126001596 -0.1450509578 1.111163541e-38
-0.0804002285 -0.3876364231 -0.1139462218 1.111163541e-38
0.1187229156 -0.2895031273 -0.1368776113 1.111163541e-38
-0.1375959963 0.2195500135 -0.1904451102 1.111163541e-38
-0.1363017559 -0.1249765083 -0.1720085442 1.111163541e-38
-0.1549981982 -0.3360183835 -0.1379602253 1.111163541e-38
-0.1726717353 0.4242039323 -0.07875414193 1.184631237e-38
-0.1762932092 0.4882111847 -0.05682570115 1.184631237e-38
-0.1900708079 0.4809023142 0.03669851646 1.184631237e-38
-0.1462965906 0.3456233144 0.1209784746 1.184631237e-38
-0.1076043695 0.4148382246 -0.02296684496 1.184631237e-38
-0.1573415697 0.4911750853 -0.004552401602 1.184631237e-38
-0.1370505989 0.4755545855 0.1401810348 1.184631237e-38
-0.1684011817 0.3011546135 -0.02952782437 1.184631237e-38
-0.122161746 0.4247086346 -0.1576958895 1.184631237e-38
-0.1313452572 0.4871219695 -0.08920352906 1.184631237e-38
-0.1423804462 0.4793607295 0.1064464971 1.184631237e-38
-0.1580228209 0.3133202493 0.01713353023 1.184631237e-38
-0.1339873224 0.3693442047 -0.0946084857 1.184631237e-38
-0.1484656036 0.4918932915 -0.03439062834 1.184631237e-38
-0.1470307559 0.4759587348 0.07070574164 1.184631237e-38
-0.1226574481 0.3305625618 0.1271795034 1.184631237e-38
-0.1402171254 0.3532294929 -0.07141960412 1.184631237e-38
-0.1552928537 0.4911254346 -0.02378063835 1.184631237e-38
-0.161221981 0.4301496744 0.0294778049 1.184631237e-38
-0.1428843141 0.2981544733 0.08663929254 1.184631237e-38
-0.1417063475 0.3153711557 -0.0124104768 1.184631237e-38
-0.1472741514 0.260932982 -0.06731882691 1.184631237e-38
-0.1587118506 0.09198269248 -0.09964199364 1.184631237e-38
-0.1477563083 0.2206701189 0.06462373585 1.184631237e-38
-0.1625923812 0.2366185337 0.08044080436 1.184631237e-38
-0.1478198022 0.2485886812 0.1152297854 1.184631237e-38
-0.159921959 0.2858316004 -0.08270345628 1.184631237e-38
-0.1626139432 0.4524638355 0.01946487278 1.184631237e-38
-0.140122205 0.4671718478 0.1121533066 1.184631237e-38
-0.1514456421 0.209429577 0.03542975709 1.184631237e-38
-0.1614770442 0.4012489915 -0.1527163982 1.184631237e-38
-0.1675365716 0.4812974632 -0.0950922519 1.184631237e-38
-0.1764825583 0.4916388392 0.02903387323 1.258099074e-38
0.1714451909 -0.3436675072 0.1804157197 1.258099074e-38
-0.1312301308 0.2131773382 0.1532051414 1.258099074e-38
0.1666917205 -0.1478576064 0.1619330049 1.258099074e-38
-0.1726544648 0.4834823906 0.07828365266 1.258099074e-38
0.141591087 -0.2643795907 0.1709646285 1.258099074e-38
-0.1598335207 0.4056961536 0.155085668 1.258099074e-38
-0.146465227 -0.1224250197 0.1316903383 1.258099074e-38
-0.1307283789 0.4695208371 -0.0991813615 1.258099074e-38
0.1436004639 -0.4320649803 0.1562161446 1.258099074e-38
-0.1468084604 0.3762177825 0.169109717 1.258099074e-38
-0.1163788661 -0.1511555612 0.1511145085 1.258099074e-38
-0.1340028048 0.4352447987 0.04036374018 1.258099074e-38
0.1577125341 -0.3150712252 0.1885007769 1.258099074e-38
-0.1199349687 0.3035973012 0.1762418896 1.258099074e-38
0.1180840582 -0.1443923116 0.1813360304 1.258099074e-38
-0.1259096414 0.4435500205 0.0543596074 1.258099074e-38
0.1405189037 -0.2543070912 0.1884521991 1.258099074e-38
-0.09055411816 0.1580187976 0.1824368238 1.258099074e-38
0.1139728203 0.02740626968 0.1863647699 1.258099074e-38
-0.1621391624 0.3484506011 0.1085772216 1.258099074e-38
0.1727343947 -0.1258631498 0.1654203236 1.258099074e-38
-0.1029645279 0.1525095999 0.1521771848 1.258099074e-38
4.917383194e-05 0.0295087155 0.1318054795 1.258099074e-38
-0.07534150779 0.1026071161 0.1711303294 1.258099074e-38
0.08423580974 0.002221573144 0.1175767481 1.258099074e-38
-0.1748619229 0.397248894 0.09486785531 1.258099074e-38
0.07116662711 -0.03934910521 0.1525826901 1.258099074e-38
-0.14324826 0.3482855558 0.1665255278 1.258099074e-38
-0.0396030806 -0.01963013038 0.1691648513 1.258099074e-38
-0.1864995211 0.4605866075 -0.06391818821 1.258099074e-38
0.1362592727 -0.3662209809 0.1492623538 1.258099074e-38
0.02551299147 0.03909733891 0.0465249978 1.331530897e-38
0.1968312711 -0.08776699007 0.1613029838 1.331530897e-38
0.1506502628 -0.2661789954 0.1680089682 1.331530897e-38
0.1662103683 -0.4280188084 0.1532624215 1.331530897e-38
0.09682635963 0.03401063755 -0.0158523228 1.331530897e-38
0.09916532785 -0.01777807251 0.1800940037 1.331530897e-38
0.03470714018 -0.06865524501 0.07596263289 1.331530897e-38
0.185463801 -0.4946700335 0.1486676186 1.331530897e-38
-0.1335329413 -0.1689314991 -0.1530300826 1.331530897e-38
0.1737960279 -0.261821866 0.1573776752 1.331530897e-38
0.1559655815 -0.150473386 0.1334648579 1.331530897e-38
0.1926487386 -0.4874928594 0.1457328051 1.331530897e-38
0.05112999678 -0.05462833121 -0.1395421624 1.331530897e-38
0.1247592494 -0.2035027444 0.1678874493 1.331530897e-38
0.1509958804 -0.2347563356 0.1658082008 1.331530897e-38
0.1713705957 -0.4308574796 0.1416029036 1.331530897e-38
0.09126523882 -0.1033646986 -0.1365761161 1.331530897e-38
0.1350931376 -0.1401567161 0.1763814837 1.331530897e-38
-0.09843913466 -0.05130189657 0.2152173519 1.331530897e-38
0.1738046259 -0.3711728454 0.1378841549 1.331530897e-38
0.1156616509 -0.08717855066 -0.1677934974 1.331530897e-38
0.1144322157 -0.0855152458 0.07522080839 1.331530897e-38
-0.1341546029 -0.03500449285 0.134067595 1.331530897e-38
0.02914029732 -0.04352065921 0.1579818726 1.331530897e-38
0.109599255 -0.1638543606 -0.05096747354 1.331530897e-38
0.1415615231 -0.2279001325 0.02835921943 1.331530897e-38
-0.02064727992 -0.03902307898 0.0717087239 1.331530897e-38
-0.02031262219 -0.09979195893 0.1337786466 1.331530897e-38
0.1075926498 -0.07661473751 0.09530587494 1.331530897e-38
0.1648182124 -0.4150933027 0.1485859454 1.331530897e-38
-0.06594223529 -0.1851959378 -0.165684402 1.331530897e-38
0.1775611788 -0.1739719212 0.1332151443 1.331530897e-38
-0.1660336107 0.3376614153 -0.08646703511 1.404926846e-38
-0.1367818862 0.0009851525538 -0.1904607564 1.404926846e-38
0.05230466649 0.02481620386 -0.1752097607 1.404926846e-38
-0.1649185419 0.187049821 0.01191544719 1.404926846e-38
-0.1308590323 0.2106207311 -0.1715276688 1.404926846e-38
-0.06315260381 0.007990990765 -0.1851605177 1.404926846e-38
0.1724829227 -0.04942457005 0.01474731043 1.404926846e-38
-0.1597609818 0.3100909889 -0.02142566256 1.404926846e-38
-0.1535089016 0.4347085953 -0.1098261476 1.404926846e-38
-0.1590656042 -0.2059322447 -0.1441093236 1.404926846e-38
0.1571153551 -0.06858858466 -0.01183497813 1.404926846e-38
-0.1507755369 0.2460168004 -0.03956799209 1.404926846e-38
-0.1330982 0.2506569922 -0.1651088446 1.404926846e-38
-0.1173315942 -0.2816508412 -0.166290611 1.404926846e-38
0.1031297073 -0.05408197269 -0.07439143956 1.404926846e-38
-0.1395463794 0.1838516593 -0.02481189556 1.404926846e-38
-0.127440691 0.2343319207 -0.1649104804 1.404926846e-38
-0.1166464835 -0.1419151723 -0.1898303777 1.404926846e-38
0.04188158363 -0.066709131 -0.1385446489 1.404926846e-38
-0.1586209238 0.1046414226 -0.02914841101 1.404926846e-38
-0.13027592 0.09266451746 -0.1008467451 1.404926846e-38
-0.1616851091 -0.06307647377 -0.150622651 1.404926846e-38
-0.07188217342 -0.03502687812 -0.1560531259 1.404926846e-38
0.03095870279 -0.03106181882 -0.1377089471 1.404926846e-38
0.007132230327 -0.03664963692 -0.09694172442 1.404926846e-38
-0.1241354644 0.0526454486 -0.1061206013 1.404926846e-38
-0.1490917057 0.05346210301 -0.0910333544 1.404926846e-38
0.1060262173 -0.00759070972 -0.1713627875 1.404926846e-38
0.07263211906 -0.001720535685 -0.02908970602 1.404926846e-38
-0.1689629704 0.1714743376 -0.06687343121 1.404926846e-38
-0.1590429842 0.3692277074 -0.1627051532 1.404926846e-38
-0.1404625326 0.04207167029 -0.1679346859 1.404926846e-38
0.09195374697 0.06304748356 -0.02420682274 1.478322936e-38
0.1692934632 -0.4591177106 -0.1569031924 1.478322936e-38
0.1827132255 -0.2721149623 -0.1638965458 1.478322936e-38
0.1809063107 0.03257034719 -0.1377987564 1.478322936e-38
-0.07124689221 0.0004974901094 -0.1005097926 1.478322936e-38
0.1459398121 -0.4362615943 -0.1199392155 1.478322936e-38
0.1914137751 -0.4134678245 -0.156007573 1.478322936e-38
0.1632975638 -0.2688389421 -0.1203942448 1.478322936e-38
0.05499116704 -0.03111825138 0.0204059165 1.478322936e-38
0.1561913788 -0.4840797782 -0.1519484967 1.478322936e-38
0.1875326037 -0.3869850636 -0.1563753486 1.478322936e-38
0.1839099675 -0.2254817933 -0.1393361092 1.478322936e-38
-0.1118785664 -0.03867100552 -0.0508177951 1.478322936e-38
0.1541290134 -0.4694803655 -0.1393093914 1.478322936e-38
0.1814802885 -0.3636768162 -0.15137209 1.478322936e-38
0.1737885028 -0.1505108774 -0.1412480175 1.478322936e-38
-0.161136955 -0.04880649596 -0.1150340065 1.478322936e-38
0.1505618393 -0.4413769245 -0.1334680021 1.478322936e-38
0.2007232904 -0.3511343896 -0.1283026934 1.478322936e-38
0.1465476453 -0.1351432055 -0.1453962028 1.478322936e-38
-0.08680623025 -0.005749542266 -0.05553086847 1.478322936e-38
0.1474300474 -0.3068579137 -0.08994594216 1.478322936e-38
0.08080191165 -0.06515005976 -0.0693135038 1.478322936e-38
0.08398029953 -0.1295135468 -0.07037140429 1.478322936e-38
0.1395455301 -0.1638614088 -0.05302839354 1.478322936e-38
0.1045870036 -0.1575086415 -0.05704811588 1.478322936e-38
0.03659196943 -0.03685153276 -0.03738796338 1.478322936e-38
0.09081602097 -0.1314157844 -0.08190513402 1.478322936e-38
0.1589250118 -0.3582599163 -0.1224122122 1.478322936e-38
0.1845836937 -0.08714800328 -0.1510086954 1.478322936e-38
-0.1080979183 -0.1214181557 0.009875043295 1.478322936e-38
0.1777680218 -0.4547190964 -0.1685429364 1.478322936e-38
-0.02904988639 0.06438027322 -0.08542181551 1.551683013e-38
-0.1507501006 0.4496501982 0.1616974324 1.551683013e-38
-0.1728735715 0.4726873338 -0.1545502543 1.551683013e-38
-0.176741153 0.3773497045 -0.06573802233 1.551683013e-38
-0.1141473949 0.05090529472 0.01496669278 1.551683013e-38
-0.149952203 0.3318547904 0.1395606697 1.551683013e-38
-0.1331342459 0.484036237 0.0547439307 1.551683013e-38
-0.1128683314 0.4186820388 0.04616162553 1.551683013e-38
-0.1760314405 -0.02544710413 -0.135204643 1.551683013e-38
-0.155266732 0.4904759526 0.0756399557 1.551683013e-38
-0.1455392689 0.4878135324 -0.03872305155 1.551683013e-38
-0.1554049402 0.3962408006 0.01147832256 1.551683013e-38
-0.1684472263 0.005374923814 -0.03179590404 1.551683013e-38
-0.1253997982 0.4038603306 0.1439520419 1.551683013e-38
-0.1527128816 0.4828706086 -0.08608854562 1.551683013e-38
-0.1470124871 0.3318118453 -0.03440721706 1.551683013e-38
-0.1638059318 0.04921845347 0.009341396391 1.551683013e-38
-0.1315776706 0.3293621838 0.1475099325 1.551683013e-38
-0.1864802986 0.4346077442 -0.1587285995 1.551683013e-38
-0.1527519673 0.2221517563 -0.01866351813 1.551683013e-38
-0.1664647907 -0.03173495457 -0.06592885405 1.551683013e-38
-0.1374630183 0.2095105648 -0.04557896778 1.551683013e-38
-0.1793257445 0.1899781078 0.003901819466 1.551683013e-38
-0.163469553 0.09552382678 0.08664513379 1.551683013e-38
-0.1723965555 0.3493058681 -0.134797439 1.551683013e-38
-0.1716889441 0.2971151769 -0.166018635 1.551683013e-38
-0.2016361654 0.1599338502 0.03739260882 1.551683013e-38
-0.1879855096 0.1809324026 0.1313689351 1.551683013e-38
-0.1639208645 0.478017211 0.009116780944 1.551683013e-38
-0.1533757299 0.2896967828 0.06478776038 1.551683013e-38
-0.1655898839 0.07765963674 -0.1080380455 1.551683013e-38
-0.1610272378 0.3995760679 0.1558864862 1.551683013e-38
-0.1668149233 0.3482633829 -0.04592206329 1.625043089e-38
-0.1901125759 0.4117100537 -0.02556651458 1.625043089e-38
-0.1707401127 0.3378271163 -0.1641569585 1.625043089e-38
-0.1472657621 0.1451032311 0.01170931105 1.625043089e-38
-0.1855027527 0.3774380386 -0.08900332451 1.625043089e-38
-0.1563815325 0.4519337714 -0.1588512808 1.625043089e-38
-0.1353829652 -0.3549526334 -0.1277758628 1.625043089e-38
-0.1425710917 0.1957274675 0.1307337284 1.625043089e-38
-0.1507619917 0.2713202834 0.06757299602 1.625043089e-38
-0.1451058686 0.4686969817 0.01008710358 1.625043089e-38
-0.1570019126 -0.2663457096 -0.1448737383 1.625043089e-38
-0.1477255076 0.1888122261 0.09843298793 1.625043089e-38
-0.1166120395 0.2068181485 -0.03816339001 1.625043089e-38
-0.1314139664 0.4801301956 -0.100197345 1.625043089e-38
-0.1480772793 0.08700089902 -0.1714192629 1.625043089e-38
-0.1289385706 0.1718640178 0.07345543802 1.625043089e-38
-0.162070632 0.2875975668 -0.07029228657 1.625043089e-38
-0.1279391795 0.4546067715 -0.1778317392 1.625043089e-38
-0.151152119 0.112845853 -0.1695550531 1.625043089e-38
-0.1455099434 0.1204068363 0.05474439636 1.625043089e-38
-0.135484457 0.1930526197 -0.1250893176 1.625043089e-38
-0.1506874263 0.3508568406 -0.1395214498 1.625043089e-38
-0.1251825839 0.08113965392 -0.1565612555 1.625043089e-38
-0.1457337886 -0.1071728021 -0.01996801607 1.625043089e-38
-0.1219019666 -0.06698949635 -0.1010576487 1.625043089e-38
-0.1584364921 0.09321565181 -0.01552445535 1.625043089e-38
-0.1873029768 0.20533216 -0.07021890581 1.625043089e-38
-0.1711017191 0.2686425745 -0.1416166127 1.625043089e-38
-0.1565092802 -0.1512422413 -0.1135499552 1.625043089e-38
-0.157756567 0.05757764727 0.1247111931 1.625043089e-38
-0.1795524806 0.2917449772 0.01105916128 1.625043089e-38
-0.1688702255 0.4672476351 -0.04944773763 1.625043089e-38
0.05750731006 0.04446858168 -0.1588206142 1.698367293e-38
-0.06198106334 -0.008352627046 -0.171120733 1.698367293e-38
0.1669012159 0.04037600383 -0.02398926206 1.698367293e-38
-0.1808599979 0.1842624992 -0.09104819596 1.698367293e-38
0.01238999423 0.01339655276 -0.1769482195 1.698367293e-38
-0.02607665397 0.03001831286 -0.1680894196 1.698367293e-38
-0.06685388833 -0.03628824279 0.04657801241 1.698367293e-38
-0.173884958 0.165164724 0.116508007 1.698367293e-38
0.1887065619 -0.2100718617 -0.1520022452 1.698367293e-38
-0.1529916972 -0.1989077628 -0.1570153832 1.698367293e-38
-0.0108833937 -0.06483152509 0.007564296015 1.698367293e-38
-0.1694534421 0.1301696897 0.04926533252 1.698367293e-38
0.1034878194 -0.09808685631 -0.1782150418 1.698367293e-38
-0.1341675371 -0.2020389885 -0.1872927248 1.698367293e-38
0.09564190358 -0.02877265029 -0.005488102324 1.698367293e-38
-0.1680607498 0.1494525075 -0.03517430648 1.698367293e-38
0.0535081923 -0.08264125884 -0.172012493 1.698367293e-38
-0.1133338958 -0.1452538669 -0.185207963 1.698367293e-38
0.03113480657 -0.08601561189 -0.05151562393 1.698367293e-38
-0.1638678014 0.192112118 0.03312972188 1.698367293e-38
0.1202362925 -0.180978924 -0.1623734832 1.698367293e-38
-0.1241133064 0.07250051945 -0.1603632867 1.698367293e-38
-0.1364189684 -0.1173889637 -0.001098259818 1.698367293e-38
-0.03050357476 -0.180756703 -0.02574969642 1.698367293e-38
0.107846126 -0.1184200794 -0.07746844739 1.698367293e-38
-0.1005357876 0.04985262826 -0.01742325164 1.698367293e-38
-0.06989503652 -0.06857281178 -0.1595437974 1.698367293e-38
0.00650624698 -0.05785807222 -0.1575835943 1.698367293e-38
-0.04750897735 -0.06965152919 0.03086463921 1.698367293e-38
-0.160533905 0.0423344709 0.07902054489 1.698367293e-38
0.1250955909 -0.09629715234 -0.1984141618 1.698367293e-38
-0.1543643177 -0.08020090312 -0.1574982852 1.698367293e-38
0.01734730229 0.04496832937 0.02067350596 1.771655483e-38
0.1520133913 0.03595677391 -0.1947099566 1.771655483e-38
0.1685718149 -0.3289029896 0.1276416779 1.771655483e-38
0.1850134581 -0.498960048 -0.1691948473 1.771655483e-38
-0.1624895036 -0.04783918709 0.1340312511 1.771655483e-38
0.1033051237 -0.006592386868 -0.1340159774 1.771655483e-38
0.1510317922 -0.4980295002 0.1551969498 1.771655483e-38
0.177215457 -0.3336138427 -0.1537065506 1.771655483e-38
-0.01006314438 -0.01060761977 0.1309481561 1.771655483e-38
0.192381829 -0.1771525443 -0.1297543943 1.771655483e-38
0.1586280763 -0.4891317487 0.1525255889 1.771655483e-38
0.1952369362 -0.4445328712 -0.1646102518 1.771655483e-38
-0.1526909769 -0.1012035683 0.1511929631 1.771655483e-38
0.1821327507 -0.2226307988 -0.1590196788 1.771655483e-38
0.161098361 -0.3554779291 0.158297509 1.771655483e-38
0.1700531244 -0.4894774854 -0.1571649164 1.771655483e-38
-0.1556464583 -0.1241104305 0.1350564808 1.771655483e-38
0.1464245468 -0.2283688784 -0.1776678264 1.771655483e-38
0.1652189046 -0.2533048987 0.1144322082 1.771655483e-38
0.1406965703 -0.4448429048 -0.1397259086 1.771655483e-38
-0.1064983383 -0.1225068942 0.1208696067 1.771655483e-38
0.0844566226 -0.203014493 -0.1112730205 1.771655483e-38
0.05637839809 -0.06175060943 0.1261104494 1.771655483e-38
0.1083835065 -0.1135069355 0.1430539191 1.771655483e-38
0.07562120259 -0.1267822087 0.1378262639 1.771655483e-38
0.03451130912 -0.2040066421 -0.09325464815 1.771655483e-38
-0.04279651865 -0.07341073453 0.1989560425 1.771655483e-38
-0.003654895816 -0.05344150215 -0.1369595975 1.771655483e-38
0.1513627172 -0.4344773293 0.1223389953 1.771655483e-38
0.1639417708 -0.3239600062 -0.1262885481 1.771655483e-38
-0.06834887713 -0.1517271399 0.07972472161 1.771655483e-38
0.1556357294 -0.0670985505 -0.1998256296 1.771655483e-38
-0.1909081042 0.4665096402 -0.06616484374 1.844943813e-38
-0.1750871539 0.299398005 -0.07271955907 1.844943813e-38
-0.1626668423 -0.3358435035 -0.1322274357 1.844943813e-38
-0.1821666807 0.07166663557 -0.1171273366 1.844943813e-38
-0.1492056102 0.4109587669 -0.007751935627 1.844943813e-38
-0.137993902 0.288020581 0.03875748068 1.844943813e-38
-0.1440947056 -0.4969135225 -0.1592417359 1.844943813e-38
-0.1689237207 -0.1968772709 -0.1301503181 1.844943813e-38
-0.1708111018 0.4738204479 0.01531347167 1.844943813e-38
-0.1142497882 0.2662675381 -0.1591496021 1.844943813e-38
-0.1528146863 -0.4369032979 -0.1503793448 1.844943813e-38
-0.1467363089 -0.2249161303 -0.1318382621 1.844943813e-38
-0.1266647577 0.4149194956 0.1271870583 1.844943813e-38
-0.1250754148 0.261707902 -0.05085818842 1.844943813e-38
-0.1621943861 -0.3592649996 -0.152696684 1.844943813e-38
-0.1292571872 0.01233079378 -0.1263367087 1.844943813e-38
-0.1319609433 0.3837628663 0.0764612183 1.844943813e-38
-0.1253332049 0.2468237132 -0.02026014589 1.844943813e-38
-0.1760588884 -0.3127634525 -0.1648626328 1.844943813e-38
-0.1487429142 0.04561163113 -0.05260362476 1.844943813e-38
-0.1467310339 0.2458625734 0.04881782457 1.844943813e-38
-0.1274435818 0.1046434194 0.1359870881 1.844943813e-38
-0.1196894348 0.05674164742 -0.01379499212 1.844943813e-38
-0.1128217429 0.06298139691 0.02948658541 1.844943813e-38
-0.1042624265 -0.2517951429 -0.08561319113 1.844943813e-38
-0.1238801777 -0.06193494797 -0.02053871937 1.844943813e-38
-0.143993482 0.2507261336 0.1666378528 1.844943813e-38
-0.1534714699 0.09961923212 0.1107747555 1.844943813e-38
-0.1026409194 -0.4647348225 -0.1450118423 1.844943813e-38
-0.1559260786 0.09354805946 -0.1708289236 1.844943813e-38
-0.1760836244 0.4802495241 0.08794850856 1.844943813e-38
-0.1613921672 0.2675569355 -0.1279297322 1.844943813e-38
0.07624936849 0.06427509338 0.1556451917 1.91819627e-38
0.04969792813 0.03057426773 0.0333655104 1.91819627e-38
0.1959946156 0.006675576326 0.1578156501 1.91819627e-38
-0.1415247768 0.3638387918 0.1612817198 1.91819627e-38
-0.1054778546 0.05496407673 0.1473443508 1.91819627e-38
-0.04352471977 0.01479133405 -0.03915566206 1.91819627e-38
0.1778858006 -0.4267928004 0.1381258965 1.91819627e-38
-0.1560992599 0.4531637728 0.09627769142 1.91819627e-38
0.1035812572 -0.03346260265 0.129078269 1.91819627e-38
-0.09957867861 -0.08028186113 0.04669589177 1.91819627e-38
0.170978263 -0.3274785876 0.1665945351 1.91819627e-38
-0.1398707479 0.4081143439 0.1471891552 1.91819627e-38
-0.08093713224 -0.08166118711 0.1343812048 1.91819627e-38
-0.1466236264 -0.04495605826 -0.01592266001 1.91819627e-38
0.1689098477 -0.2093238533 0.1562749296 1.91819627e-38
-0.1240190566 0.3639089465 0.1701291651 1.91819627e-38
-0.1048104391 0.03614239395 0.1229383573 1.91819627e-38
-0.1524677724 0.001461743261 -0.04906477034 1.91819627e-38
0.1946866363 -0.08454421163 0.1511003524 1.91819627e-38
-0.1479930729 0.256541431 0.1692400426 1.91819627e-38
-0.03161921352 -0.02013703063 0.09567825496 1.91819627e-38
-0.1467997283 0.2259501815 -0.03194224089 1.91819627e-38
0.03776990995 0.005968604237 0.06369954348 1.91819627e-38
0.1038300246 0.01315181144 0.04299630225 1.91819627e-38
0.04435739294 -0.05851689726 0.04992718622 1.91819627e-38
-0.09957389534 0.2787927687 0.127279073 1.91819627e-38
-0.1133029163 -0.03919909149 0.2095628232 1.91819627e-38
0.0960355103 -0.02151625045 -0.03038860671 1.91819627e-38
0.151617676 -0.3153143823 0.1066261828 1.91819627e-38
-0.1373101324 0.1450726092 0.1830662638 1.91819627e-38
0.01745823026 -0.1119777858 0.186738044 1.91819627e-38
-0.1325354576 -0.1191280708 -0.01711718366 1.91819627e-38
-0.06149442866 0.04733358324 0.01137674693 1.991448586e-38
0.1840349883 0.01747136749 0.1418354809 1.991448586e-38
-0.06048972905 0.03953532875 0.1198191196 1.991448586e-38
0.1602238119 -0.4112787545 0.1720797867 1.991448586e-38
-0.1901318878 -0.03187709302 -0.1090651453 1.991448586e-38
0.161237523 -0.0136365518 0.07206350565 1.991448586e-38
-0.157576859 -0.05699823052 0.06013710797 1.991448586e-38
0.1728827208 -0.2246636301 0.1651711762 1.991448586e-38
-0.009095135145 -0.07755452394 0.01311638206 1.991448586e-38
0.1778070182 -0.07084074616 0.1690409631 1.991448586e-38
-0.1817511469 -0.09245244414 0.1132279262 1.991448586e-38
0.1704133898 -0.2816355824 0.162229389 1.991448586e-38
-0.1049751118 -0.06092849001 -0.06429420412 1.991448586e-38
0.1818309277 -0.08346186578 0.1075075343 1.991448586e-38
-0.1485171765 -0.04017429426 0.1507131159 1.991448586e-38
0.1503250897 -0.3868042231 0.154155001 1.991448586e-38
-0.1430815905 -0.05771914497 -0.1293598264 1.991448586e-38
0.1717060357 -0.05204899609 0.08176213503 1.991448586e-38
-0.1814025044 -0.02911925688 0.199137494 1.991448586e-38
0.1488265544 -0.4476709068 0.1112525016 1.991448586e-38
-0.06117021292 -0.1051938608 -0.109304741 1.991448586e-38
0.0851764679 -0.1653613746 -0.02499780804 1.991448586e-38
-0.1443100721 -0.208843857 0.0424095653 1.991448586e-38
0.1086306348 -0.1608217061 0.031587217 1.991448586e-38
0.02148504741 -0.1554113775 -0.01873396151 1.991448586e-38
0.08810985088 -0.1038939282 0.1091024578 1.991448586e-38
-0.1458884329 -0.09593853354 -0.01673601754 1.991448586e-38
0.1337048262 -0.0261229258 -0.002981929574 1.991448586e-38
-0.1246405691 -0.1009394228 0.08403342962 1.991448586e-38
0.1443700641 -0.4623271227 0.1504112035 1.991448586e-38
0.1196247265 -0.1216668412 -0.05271813273 1.991448586e-38
0.169953838 -0.06799374521 0.1490416229 1.991448586e-38
0.08088923991 0.05736093223 -0.1734959185 2.06466517e-38
-0.1579993367 0.2673553526 -0.1404327899 2.06466517e-38
0.1772263199 0.04718473554 0.003196973586 2.06466517e-38
0.1434281319 0.0155782951 -0.1838813871 2.06466517e-38
-0.1214735806 -0.2254506201 -0.1448202729 2.06466517e-38
-0.1269893795 0.210184589 -0.1230010018 2.06466517e-38
0.1587119251 -0.2162968367 0.1744984239 2.06466517e-38
0.1628819555 -0.2593681812 -0.1315796971 2.06466517e-38
0.02011867985 -0.0204765033 -0.1466315985 2.06466517e-38
-0.127092436 0.4074609876 -0.07064745575 2.06466517e-38
0.1790311038 -0.1581495851 0.1194100603 2.06466517e-38
0.1801930219 -0.2290610671 -0.1788242161 2.06466517e-38
-0.1145898849 -0.1897146106 -0.1710325927 2.06466517e-38
-0.1276282519 0.3146943152 -0.08784178644 2.06466517e-38
0.1765132546 -0.09620075673 0.06825578958 2.06466517e-38
0.187342003 -0.1577632427 -0.1843249351 2.06466517e-38
-0.1327629387 -0.1908397228 -0.1595332921 2.06466517e-38
-0.1223530173 0.2256978899 -0.1698783338 2.06466517e-38
0.2122633457 -0.09725356847 -0.03535167873 2.06466517e-38
0.1692349464 -0.2357192487 -0.176860556 2.06466517e-38
-0.06661205739 -0.06809094548 -0.1494213939 2.06466517e-38
-0.0496167317 0.2103814483 -0.08566954732 2.06466517e-38
0.1576012075 -0.05969988927 -0.07482771575 2.06466517e-38
-0.01169802528 0.009902212769 -0.0616870448 2.06466517e-38
0.1320699304 -0.08668780327 0.03288432956 2.06466517e-38
-0.01064921916 -0.03386871889 -0.02542528883 2.06466517e-38
-0.06340911984 -0.05441111699 -0.06264592707 2.06466517e-38
-0.1320311129 0.1126673296 -0.132818684 2.06466517e-38
0.1666691303 -0.05172004178 0.1161240563 2.06466517e-38
0.1734877378 -0.02368527092 -0.1143475473 2.06466517e-38
-0.06409864873 -0.1122583821 -0.1825365722 2.06466517e-38
-0.1519472003 0.3557212055 -0.1497584134 2.06466517e-38
-0.1664092988 0.2592141926 0.04482840747 2.137881613e-38
-0.161849007 0.4466236532 0.1456782669 2.137881613e-38
-0.1567812115 0.4346647263 -0.1707236916 2.137881613e-38
-0.1550444067 0.4979251027 -0.00587549014 2.137881613e-38
-0.1785217524 0.3352061808 0.006923147477 2.137881613e-38
-0.1484318078 0.4733713865 0.1209328473 2.137881613e-38
-0.1400662363 0.4910930097 -0.03887710348 2.137881613e-38
-0.1238943115 0.4892184138 0.07909225672 2.137881613e-38
-0.1439313889 -0.04047266394 0.1269101351 2.137881613e-38
-0.1093842834 0.3030302525 0.1518578529 2.137881613e-38
-0.126788348 0.4944410026 -0.09120121598 2.137881613e-38
-0.1407832056 0.4905182123 0.05266994238 2.137881613e-38
-0.1191573218 0.1448558271 0.1179304868 2.137881613e-38
-0.1126914695 0.3999429941 0.1661286801 2.137881613e-38
-0.1310634315 0.4842707515 -0.130610466 2.137881613e-38
-0.1195255667 0.4886970818 0.02866370045 2.137881613e-38
-0.1401733905 0.2366799712 0.0908510983 2.137881613e-38
-0.1245475337 0.3977350295 0.1519950032 2.137881613e-38
-0.1785691977 0.3993752897 -0.1465444714 2.137881613e-38
-0.1646296531 0.4069977105 -0.007403983269 2.137881613e-38
-0.1485745907 0.1383227855 0.1154746786 2.137881613e-38
-0.1036346704 0.1601286829 0.05350080878 2.137881613e-38
-0.1606803238 0.133691743 -0.01222621463 2.137881613e-38
-0.1722521931 0.1916498691 -0.03733954951 2.137881613e-38
-0.1269009262 0.2456936091 -0.1779213399 2.137881613e-38
-0.1278403252 0.2769498229 -0.07142334431 2.137881613e-38
-0.1861799061 0.2220892012 0.02668954432 2.137881613e-38
-0.1584725827 0.3503819704 0.09108529985 2.137881613e-38
-0.163499102 0.4464875162 -0.08932379633 2.137881613e-38
-0.1448541284 0.4395416379 0.06695994735 2.137881613e-38
-0.1796151251 0.1311586499 0.1610019058 2.137881613e-38
-0.158618167 0.2914507985 0.1856529117 2.137881613e-38
-0.1532416195 0.2719267011 0.1025370136 2.211062324e-38
-0.1752530038 0.4811085761 0.003168678377 2.211062324e-38
-0.1707528234 0.1017429456 -0.174290821 2.211062324e-38
-0.1509691179 0.4325685501 -0.179031238 2.211062324e-38
-0.1696879417 0.1019990742 -0.1003054455 2.211062324e-38
-0.1597288102 0.4541952908 -0.05161744729 2.211062324e-38
-0.006198170595 -0.04735381156 -0.1805532873 2.211062324e-38
-0.1402439773 0.4904356897 -0.1071988344 2.211062324e-38
-0.1324546486 0.1508189142 0.1292505562 2.211062324e-38
-0.1536434889 0.4900527 0.07424934953 2.211062324e-38
-0.1270256341 -0.03555263579 -0.1673097759 2.211062324e-38
-0.1531963199 0.4688183665 -0.1522479355 2.211062324e-38
-0.1365454197 0.1135041341 0.04513581842 2.211062324e-38
-0.1337042302 0.477411896 -0.02416902594 2.211062324e-38
-0.1433323324 0.06867412478 -0.161147058 2.211062324e-38
-0.1415527165 0.4293730855 -0.184991315 2.211062324e-38
-0.1318962723 0.1076422781 -0.02629781328 2.211062324e-38
-0.1325345784 0.4490337074 -0.03582568467 2.211062324e-38
-0.1345024109 0.08965702355 -0.05150822923 2.211062324e-38
-0.1689640731 0.3383139968 -0.157754913 2.211062324e-38
-0.1159021482 0.01700286567 -0.01705473289 2.211062324e-38
-0.1391230077 0.2701804936 0.05943910778 2.211062324e-38
-0.2229427248 0.06934191287 -0.0553794615 2.211062324e-38
-0.1525557935 0.2140194178 -0.02058631554 2.211062324e-38
-0.1113844141 0.05583161861 -0.1501201242 2.211062324e-38
-0.1614831388 0.2583413422 -0.1738123447 2.211062324e-38
-0.1508722752 0.06085150316 0.07592187077 2.211062324e-38
-0.1815686822 0.317900002 -0.0365646705 2.211062324e-38
-0.08034648001 -0.02366242558 -0.1814598739 2.211062324e-38
-0.1604139954 0.3430039883 -0.1305779219 2.211062324e-38
-0.1724136919 0.1409911662 0.07120052725 2.211062324e-38
-0.1565042436 0.4054972827 0.1031828672 2.211062324e-38
0.04346488416 0.04687317088 0.06877437979 2.284242894e-38
0.1797222644 -0.0008977565449 0.1177491993 2.284242894e-38
0.04941186309 0.02233811095 0.1764889359 2.284242894e-38
0.1626481712 -0.1581317335 -0.1483758241 2.284242894e-38
0.04368542135 0.02482760139 0.1299144626 2.284242894e-38
0.1568751335 0.02815252729 0.1529464424 2.284242894e-38
-0.1538454443 0.07930728793 0.1526015252 2.284242894e-38
0.1480374634 -0.3940873444 -0.1725449711 2.284242894e-38
0.1128179878 -0.09824163467 -0.1631280184 2.284242894e-38
0.1621684581 -0.1160398126 0.02242770232 2.284242894e-38
-0.1332363188 0.02414297126 0.1720883697 2.284242894e-38
0.1659835428 -0.3533924818 -0.1656022668 2.284242894e-38
0.08203195035 -0.04464635253 -0.0196402669 2.284242894e-38
0.1822726876 -0.1302547604 0.1235302836 2.284242894e-38
-0.100411728 -0.04828388989 0.1882604957 2.284242894e-38
0.1614389271 -0.2693857551 -0.1501662433 2.284242894e-38
0.05669691041 -0.0544141531 -0.0169841852 2.284242894e-38
0.1622492075 -0.1391717196 0.1729224622 2.284242894e-38
0.02050952613 -0.01934462786 0.189960286 2.284242894e-38
0.1531671286 -0.1424034834 -0.144889161 2.284242894e-38
0.04977932572 -0.03481060639 -0.06610743701 2.284242894e-38
-0.0472398214 -0.009524120949 0.07744073868 2.284242894e-38
0.02538522147 0.030129686 0.06637296081 2.284242894e-38
0.08594564348 -0.03469523787 0.1127482355 2.284242894e-38
0.0003260523081 -0.009239804 0.1173787713 2.284242894e-38
0.03161936253 0.009689440951 -0.07091572136 2.284242894e-38
0.0142150782 -0.04598121345 0.05916416645 2.284242894e-38
0.143695876 0.01907640696 0.167288065 2.284242894e-38
-0.1102787778 0.02518657036 0.1529326737 2.284242894e-38
0.1347737908 -0.2083838731 -0.1662837416 2.284242894e-38
0.03593799472 -0.1063405499 -0.1512288004 2.284242894e-38
0.1328293979 -0.08766501397 0.003476497717 2.284242894e-38
0.1631533802 -0.2354346216 -0.1573272347 2.348204041e-38
0.2023426592 -0.4458165467 -0.175352186 2.348204041e-38
-0.07872181386 0.04526012391 -0.02894814499 2.348204041e-38
0.1675457358 -0.3601633906 -0.1429903507 2.348204041e-38
0.156591326 -0.227650106 -0.1378258318 2.348204041e-38
0.1440829933 -0.4462698996 -0.1679041237 2.348204041e-38
-0.005090386607 -0.02451176196 -0.04778272286 2.348204041e-38
0.1729919761 -0.4181923568 -0.1435199082 2.348204041e-38
0.1634905785 -0.3325975239 -0.1356538236 2.348204041e-38
0.1598166227 -0.496142149 -0.1308927089 2.348204041e-38
-0.09686700255 -0.09816165268 -0.05870147422 2.348204041e-38
0.1551423967 -0.4030822217 -0.1609390229 2.348204041e-38
0.1762202382 -0.2708205879 -0.1460265815 2.348204041e-38
0.1560757607 -0.4782289863 -0.1671176255 2.348204041e-38
-0.1193571687 -0.05041160807 -0.05623592809 2.348204041e-38
0.1360477507 -0.3737287521 -0.1815887839 2.348204041e-38
0.1704228073 -0.2539331913 -0.1636678427 2.348204041e-38
0.1367252469 -0.4390106499 -0.1573792994 2.348204041e-38
-0.1477998793 -0.02394275181 -0.02069346234 2.348204041e-38
0.09712760895 -0.2562491596 -0.1609334201 2.348204041e-38
0.1767915636 -0.1683805436 -0.1484612674 2.348204041e-38
0.1216477752 -0.2151623666 -0.08526624739 2.348204041e-38
-0.04196617007 -0.03039439768 -0.04428355396 2.348204041e-38
-0.02763926238 -0.07423634827 -0.1461849362 2.348204041e-38
0.1684799194 -0.03370865434 -0.1236443073 2.348204041e-38
0.1227959022 -0.1983730644 -0.1150386557 2.348204041e-38
0.1432279646 -0.08807975799 -0.106867373 2.348204041e-38
0.07050076872 -0.3296334743 -0.1437381357 2.348204041e-38
0.006471916102 -0.07373209298 -0.04530784488 2.348204041e-38
0.14135167 -0.3843803406 -0.1222480163 2.348204041e-38
0.1719519794 -0.2759346664 -0.129701212 2.348204041e-38
0.1672258526 -0.3985714614 -0.1723241359 2.348204041e-38
-0.1733522117 0.3461281657 0.02123693749 2.347880341e-38
-0.180631265 0.288234055 -0.1730220467 2.347880341e-38
-0.1621537209 -0.470282644 -0.1802681535 2.347880341e-38
-0.1481473148 -0.3836812973 -0.1647943556 2.347880341e-38
-0.1433632225 0.180715546 0.02263347059 2.347880341e-38
-0.1449266076 0.3514959812 -0.1203876063 2.347880341e-38
-0.1345105916 -0.4844656289 -0.1289845258 2.347880341e-38
-0.1402269304 -0.2754300833 -0.1455156654 2.347880341e-38
-0.1445325911 0.2894057035 0.08164674044 2.347880341e-38
-0.1471990049 -0.1459902078 -0.08093813807 2.347880341e-38
-0.1348084807 -0.4929690361 -0.1530355066 2.347880341e-38
-0.1417791247 -0.3411811888 -0.1461985707 2.347880341e-38
-0.1320725083 0.05930996314 0.129021734 2.347880341e-38
-0.1312620193 0.1252539307 -0.1208377928 2.347880341e-38
-0.1515617073 -0.4925688505 -0.1836251467 2.347880341e-38
-0.1428012401 -0.3686228395 -0.1577342898 2.347880341e-38
-0.1315668374 0.04289373383 0.07784920186 2.347880341e-38
-0.1172205508 0.1438663304 -0.1447938681 2.347880341e-38
-0.1739178151 -0.4688774645 -0.166288808 2.347880341e-38
-0.1510564834 -0.2620406151 -0.1482801437 2.347880341e-38
-0.1192040816 0.0273204539 0.06828345358 2.347880341e-38
-0.1396884322 -0.03184735775 -0.1547190994 2.347880341e-38
-0.1280895174 -0.04912517592 -0.1906373501 2.347880341e-38
-0.1427820921 -0.02559070289 -0.08455447853 2.347880341e-38
-0.1312500238 -0.3585659266 -0.1419717073 2.347880341e-38
-0.1539505422 -0.2166359872 -0.126352638 2.347880341e-38
-0.183833316 0.06952144951 0.04580910504 2.347880341e-38
-0.1758037806 0.2697145343 -0.09874926507 2.347880341e-38
-0.1359066963 -0.4462065399 -0.1494595706 2.347880341e-38
-0.1580532938 -0.3141318858 -0.1177326217 2.347880341e-38
-0.173725605 0.3020245433 0.1055487841 2.347880341e-38
-0.1751185656 0.03794755787 -0.1477481276 2.347880341e-38
0.1016786397 0.04305967689 -0.1113000587 2.347520768e-38
-0.1777157187 0.4353212416 0.04041525349 2.347520768e-38
-0.1581737846 0.2988709807 -0.003688020632 2.347520768e-38
-0.1475678831 0.3740851581 -0.1789346337 2.347520768e-38
-0.0008296219748 0.008708171546 0.004974398762 2.347520768e-38
-0.1550756842 0.3867109716 0.0113092456 2.347520768e-38
-0.1152382046 0.1152486578 -0.1417108774 2.347520768e-38
-0.1406558901 0.4410682321 -0.04762083292 2.347520768e-38
-0.1618962884 -0.1026704684 -0.03560884669 2.347520768e-38
-0.1214107201 0.394764781 0.1662136316 2.347520768e-38
-0.1282945424 0.2048597634 -0.104064174 2.347520768e-38
-0.1378752738 0.3967661858 -0.09300781041 2.347520768e-38
-0.151655674 -0.1154782251 -0.07186117768 2.347520768e-38
-0.117755644 0.3651310802 0.1086354554 2.347520768e-38
-0.1381606013 0.2362822592 -0.04358093813 2.347520768e-38
-0.1081383228 0.3747293055 -0.1673900336 2.347520768e-38
-0.1314990669 -0.1101584956 -0.1297717839 2.347520768e-38
-0.1229420304 0.3192967176 0.06793091446 2.347520768e-38
-0.1684752107 0.1441031694 -0.01821109466 2.347520768e-38
-0.1315508634 0.2600313127 -0.1711460203 2.347520768e-38
-0.1442773491 -0.1929739714 -0.1373657733 2.347520768e-38
-0.1160415411 0.2281115353 -0.06973780692 2.347520768e-38
-0.1379408091 -0.04501841217 -0.1468085349 2.347520768e-38
-0.1538438499 -0.1373427063 -0.05946461111 2.347520768e-38
-0.1585172713 -0.005675562192 -0.05209479108 2.347520768e-38
-0.1456471235 0.2322124094 -0.1365073323 2.347520768e-38
-0.08835683018 -2.038106322e-05 -0.06966508925 2.347520768e-38
-0.1588231325 0.1635949165 0.0514656119 2.347520768e-38
-0.1496632993 0.144104749 -0.0983139798 2.347520768e-38
-0.1558325589 0.4587191045 -0.1259495318 2.347520768e-38
-0.147427395 -0.01858305931 -0.03515098616 2.347520768e-38
-0.1628804654 0.3464713395 0.1277765632 2.347520768e-38
0.08532740921 0.05765672773 -0.1185863391 2.347161195e-38
0.1877720654 0.03538916633 -0.04811057448 2.347161195e-38
-0.07015203685 0.03743231669 0.1200516075 2.347161195e-38
0.1682186127 -0.3166127503 0.1515896618 2.347161195e-38
0.009908679873 0.02743621171 -0.01347363554 2.347161195e-38
0.1673784703 -0.2684655488 -0.1693385541 2.347161195e-38
-0.1460990459 0.0104372995 -0.1217306778 2.347161195e-38
0.160094738 -0.2352277786 0.1587332636 2.347161195e-38
0.09000032395 -0.04344406351 0.09615380317 2.347161195e-38
0.1779818982 -0.08715182543 0.02956300415 2.347161195e-38
-0.1597221941 0.02493984811 0.008999780752 2.347161195e-38
0.1662565917 -0.2876375318 0.1720883697 2.347161195e-38
0.03527702764 -0.07799293101 0.09594047815 2.347161195e-38
0.1929793656 -0.1166398749 -0.1326275766 2.347161195e-38
-0.1430492997 0.01632018387 0.09162091464 2.347161195e-38
0.1686185747 -0.3569126129 0.1404824555 2.347161195e-38
0.02077865973 -0.05659961328 0.1020313725 2.347161195e-38
0.1487604082 -0.2635824084 -0.1399037689 2.347161195e-38
-0.1322824657 -0.02805048972 0.07567547262 2.347161195e-38
0.1651187241 -0.2786262631 0.1413695067 2.347161195e-38
0.009770320728 -0.07167389244 0.1539547741 2.347161195e-38
0.1176786348 -0.07652433217 -0.06465578824 2.347161195e-38
0.1114305705 -0.04174990207 -0.04115459695 2.347161195e-38
0.05045237765 -0.07546267658 0.001694086706 2.347161195e-38
-0.03445430845 -0.01947948523 0.1235613599 2.347161195e-38
0.09213610739 0.03000448272 0.1868947148 2.347161195e-38
0.03977486491 -0.07996892184 0.02667057887 2.347161195e-38
0.1229502931 -0.01267246157 -0.1369130611 2.347161195e-38
-0.153364256 0.009186809883 -0.03955251724 2.347161195e-38
0.1836704314 -0.1385472715 0.1786143035 2.347161195e-38
0.0007068662671 -0.1340435147 0.1859508455 2.347161195e-38
0.1679999232 -0.1097002998 0.009424045682 2.347161195e-38
-0.1592929214 0.09640167654 -0.02744033374 2.346801622e-38
-0.1745128334 0.3358315825 0.1468441784 2.346801622e-38
-0.1733921915 0.4261138439 0.002896747785 2.346801622e-38
-0.1588690728 0.4839586318 0.1496306956 2.346801622e-38
-0.1802273244 -0.0385370627 -0.0999513939 2.346801622e-38
-0.1752362102 0.292502284 0.06373624504 2.346801622e-38
