# .PCD v0.7 - Point Cloud Data file format
VERSION 0.7
FIELDS x y z rgb
SIZE 4 4 4 4
TYPE F F F F
COUNT 1 1 1 1
WIDTH 830
HEIGHT 1
VIEWPOINT 0 0 0 1 0 0 0
POINTS 830
DATA ascii
-0.09143693745 0.08271832019 0.1511441469 1.625043089e-38
0.06403093785 -0.06041710824 0.1845773906 1.625043089e-38
-0.2466818094 0.07860488445 0.1326061785 1.625043089e-38
0.2181481719 -0.08870574087 0.1819116175 1.625043089e-38
-0.08026099205 0.07141407579 0.1537293047 1.625043089e-38
0.02599495463 -0.05017900467 0.1924982667 1.625043089e-38
-0.2851615846 0.08114732057 0.1109136716 1.625043089e-38
0.2572327256 -0.1031021848 0.1888616681 1.625043089e-38
-0.1019721702 0.09414628148 0.150043115 1.625043089e-38
-0.04056768864 -0.03613824025 0.1839167178 1.625043089e-38
-0.3172538579 0.06226621196 0.05776984245 1.625043089e-38
0.3001606762 -0.1102532521 0.1810130775 1.625043089e-38
-0.1430812925 0.08979819715 0.1457551867 1.625043089e-38
-0.2393674552 -0.136232689 0.1692943871 1.698367293e-38
-0.4495042562 -0.0894940868 0.1064561382 1.698367293e-38
-0.2380388677 -0.09027446806 0.1937727332 1.698367293e-38
-0.3539379835 -0.1137712002 0.1333554685 1.698367293e-38
-0.3228003681 -0.1430298537 0.1858280599 1.698367293e-38
-0.4687680006 -0.07934448123 -0.02691167407 1.698367293e-38
-0.1304748654 -0.04248206317 0.1918416321 1.698367293e-38
-0.4117718339 -0.1082444713 0.09391527623 1.698367293e-38
-0.3079670072 -0.1385470778 0.1805446893 1.698367293e-38
-0.4721984863 -0.07853052765 -0.006312167272 1.698367293e-38
-0.1441786885 -0.02053849585 0.1867249161 1.698367293e-38
-0.4116870165 -0.1032608077 0.1001493856 1.698367293e-38
-0.339902997 -0.128643766 0.175962463 1.698367293e-38
-0.4688237906 -0.05434963107 -0.06464755535 1.698367293e-38
-0.08684349805 -0.0002995282412 0.1808934361 1.698367293e-38
-0.4332431853 -0.09554218501 0.06438608468 1.698367293e-38
-0.3034164011 -0.1372119337 0.178965047 1.698367293e-38
-0.4727274477 -0.07768591493 0.006591693964 1.698367293e-38
-0.15403983 -0.01443369314 0.1857577711 1.698367293e-38
-0.409866184 -0.1022507325 0.1039638892 1.698367293e-38
-0.2907579243 -0.1410198808 0.1808307022 1.698367293e-38
-0.4681151509 -0.07999340445 0.03182688355 1.698367293e-38
-0.1783244014 -0.03131064773 0.1913293302 1.698367293e-38
-0.4022466242 -0.106754683 0.1130128875 1.698367293e-38
-0.3195320368 -0.1379638165 0.1848372668 1.698367293e-38
-0.4723441005 -0.07624772191 -0.0164121259 1.698367293e-38
-0.1339958161 -0.02280555107 0.190411225 1.698367293e-38
-0.4155727029 -0.1035243049 0.09376561642 1.698367293e-38
-0.3445741534 -0.119706057 0.1646394283 1.698367293e-38
-0.4626277089 -0.0442654863 -0.07436212897 1.698367293e-38
-0.06920903176 0.01054726169 0.1781947166 1.698367293e-38
-0.4344524145 -0.09042034298 0.04356477037 1.698367293e-38
0.2574784458 -0.0703022033 -0.1982211173 1.771655483e-38
-0.2562986314 -0.04655230045 -0.1741030812 1.771655483e-38
-0.03240209073 -0.06806704402 -0.165908128 1.771655483e-38
-0.05385828391 -0.01032287441 -0.1845247149 1.771655483e-38
0.3751864135 -0.09673766792 -0.1761828065 1.771655483e-38
-0.3662428856 -0.09654984623 -0.1666590571 1.771655483e-38
0.08310782909 -0.0465522632 -0.1902590841 1.771655483e-38
-0.1670048386 -0.08829252422 -0.1852799356 1.771655483e-38
0.3578915596 -0.09506116062 -0.1736436784 1.771655483e-38
-0.3537682891 -0.09026438743 -0.169798702 1.771655483e-38
0.06310500205 -0.04449970275 -0.18293266 1.771655483e-38
-0.1499822289 -0.0771907717 -0.17727229 1.771655483e-38
0.4115403891 -0.1028424129 -0.128098771 1.771655483e-38
-0.3940980732 -0.09576939791 -0.1624189615 1.771655483e-38
0.1395236999 -0.04770805687 -0.1847734898 1.771655483e-38
-0.2093688846 -0.109510228 -0.1702147275 1.771655483e-38
0.345517993 -0.09523450583 -0.1742378771 1.771655483e-38
-0.347776413 -0.08658388257 -0.1719824523 1.771655483e-38
0.05416375771 -0.04651116952 -0.1792454273 1.771655483e-38
-0.1414284706 -0.07125232369 -0.1762636453 1.771655483e-38
0.3169095814 -0.09397949278 -0.1894751191 1.771655483e-38
-0.334584862 -0.0812298432 -0.1747459322 1.771655483e-38
0.0331370309 -0.04614676163 -0.1782420874 1.771655483e-38
-0.1197680011 -0.05853682384 -0.1804584414 1.771655483e-38
0.3747961521 -0.1017916426 -0.1756986827 1.771655483e-38
-0.3654994965 -0.09525585175 -0.1705653667 1.771655483e-38
0.08339703828 -0.04963642359 -0.18854101 1.771655483e-38
-0.1639233828 -0.08714451641 -0.1818552315 1.771655483e-38
0.4293823838 -0.1095524803 -0.1179803833 1.771655483e-38
-0.4027572274 -0.08946338296 -0.1596225649 1.771655483e-38
0.1592398137 -0.04836230725 -0.1817866415 1.771655483e-38
-0.2211647183 -0.1103989854 -0.1691251695 1.771655483e-38
0.408678025 -0.1045370474 0.03788018972 1.844943813e-38
0.3864218593 -0.09998901188 0.1894526929 1.844943813e-38
0.2153100967 -0.1083891913 0.1042626277 1.844943813e-38
0.3336497545 -0.01553166192 0.09690821916 1.844943813e-38
0.34921664 -0.13975133 0.1587280482 1.844943813e-38
0.4622902572 -0.0970961228 0.1091418937 1.844943813e-38
0.3200894892 -0.1096368581 0.02177448571 1.844943813e-38
0.2350699008 -0.125381723 0.1718559861 1.844943813e-38
0.3584915102 -0.125564754 0.1479604989 1.844943813e-38
0.4585509598 -0.09703419358 0.1179740429 1.844943813e-38
0.3071763217 -0.1054666713 0.03354002535 1.844943813e-38
0.2515651882 -0.1061102152 0.1600461006 1.844943813e-38
0.315965116 -0.1447969824 0.1804302186 1.844943813e-38
0.4682246149 -0.09608390182 0.05849407613 1.844943813e-38
0.3470914662 -0.1124928966 -0.04955390841 1.844943813e-38
0.1780654341 -0.08643072844 0.1861226857 1.844943813e-38
0.3645685613 -0.1178597584 0.1397355497 1.844943813e-38
0.4561429024 -0.09721210599 0.1220804229 1.844943813e-38
0.2903503776 -0.1033183187 0.04040750861 1.844943813e-38
0.2600322664 -0.09853669256 0.1545264274 1.844943813e-38
0.3743852377 -0.1098062694 0.1185844094 1.844943813e-38
0.4454434812 -0.09913039953 0.1396951228 1.844943813e-38
0.2564786375 -0.1064503491 0.05224372819 1.844943813e-38
0.2749605179 -0.08704119921 0.1427945346 1.844943813e-38
0.3528277576 -0.1327452064 0.1542936713 1.844943813e-38
0.4612839818 -0.09701666981 0.1107822806 1.844943813e-38
0.3184400499 -0.1067444459 0.02548551001 1.844943813e-38
0.2371248007 -0.1109965667 0.1632395536 1.844943813e-38
0.3035531342 -0.1337084174 0.1851815879 1.844943813e-38
0.4551446438 -0.09789587557 0.01459462848 1.844943813e-38
0.3305259347 -0.1088597327 -0.06167972833 1.844943813e-38
0.1274539679 -0.0786056146 0.1839798838 1.844943813e-38
0.1820687652 0.06550225616 0.1286951303 1.91819627e-38
-0.03626991436 0.1476839036 -0.0364309065 1.91819627e-38
0.1518169045 0.009853968397 0.07616722584 1.91819627e-38
0.0725280866 0.1343935579 0.1119005904 1.91819627e-38
0.1247566342 0.1071966067 0.009367704391 1.91819627e-38
-0.1962125599 0.1350068003 -0.07685020566 1.91819627e-38
0.2370080054 -0.04210187122 0.1406833678 1.91819627e-38
-0.0404868871 0.1488401592 0.01983209513 1.91819627e-38
0.1320429891 0.09587935358 0.01734352298 1.91819627e-38
-0.1821631193 0.1316770911 -0.06889452785 1.91819627e-38
0.2255981416 -0.04013083503 0.1350819916 1.91819627e-38
-0.02373831905 0.1382353753 0.02036908641 1.91819627e-38
0.09376797825 0.1203388274 -0.02316826396 1.91819627e-38
-0.2502585948 0.1159227863 -0.08919543028 1.91819627e-38
0.2924594879 -0.0451525338 0.1514520496 1.91819627e-38
-0.09362892061 0.1459280252 0.004106459208 1.91819627e-38
0.1334139109 0.09022243321 0.02424407005 1.91819627e-38
-0.1721299142 0.1289488673 -0.06342094392 1.91819627e-38
0.2192026377 -0.04187561199 0.1299293786 1.91819627e-38
-0.01096674055 0.1350339353 0.02182842232 1.91819627e-38
0.1353236735 0.08387067169 0.05148037151 1.91819627e-38
-0.1367549449 0.1367836297 -0.05561095476 1.91819627e-38
0.200911805 -0.04018839821 0.1175565496 1.91819627e-38
0.001534669427 0.1291945279 0.02815870754 1.91819627e-38
0.1221626326 0.09972461313 0.006470029242 1.91819627e-38
-0.2021505535 0.129753381 -0.07363124937 1.91819627e-38
0.2340052575 -0.04188871384 0.141858831 1.91819627e-38
-0.03451147303 0.1409594417 0.01864447631 1.91819627e-38
0.07619323581 0.1198945343 -0.04051280767 1.91819627e-38
-0.2564361989 0.09778121114 -0.0912021175 1.91819627e-38
0.2922368348 -0.04482448101 0.1546505243 1.91819627e-38
-0.1276889443 0.1314242035 0.00819207821 1.91819627e-38
-0.3633219004 0.05439399183 -0.15676862 1.991448586e-38
-0.399980545 0.08614853024 -0.1424062401 1.991448586e-38
-0.265337497 0.09990628064 -0.1433291882 1.991448586e-38
-0.2191383541 -0.1012738422 -0.1803327352 1.991448586e-38
-0.255060643 -0.02143403329 -0.1898233145 1.991448586e-38
-0.3162082434 0.1108931676 -0.001129641663 1.991448586e-38
-0.1393679231 0.05905933306 -0.1504299343 1.991448586e-38
-0.3126471043 -0.09229598939 -0.1892821342 1.991448586e-38
-0.27240628 -0.01028611697 -0.1873117089 1.991448586e-38
-0.3261966109 0.1045304015 -0.02051951922 1.991448586e-38
-0.1515064538 0.06012943015 -0.1492663771 1.991448586e-38
-0.2958245277 -0.09446194023 -0.1874995977 1.991448586e-38
-0.2182808071 -0.02444675565 -0.1914999932 1.991448586e-38
-0.2959849238 0.1057811528 0.04225708917 1.991448586e-38
-0.07013189793 0.03834488615 -0.1540914327 1.991448586e-38
-0.345115602 -0.06625346094 -0.1879952103 1.991448586e-38
-0.2834647894 -0.004843391012 -0.1870286167 1.991448586e-38
-0.3339147568 0.1007689536 -0.03343549743 1.991448586e-38
-0.1636948287 0.06016890332 -0.1481007785 1.991448586e-38
-0.2881967425 -0.09495396167 -0.1864812076 1.991448586e-38
-0.2975721359 -0.004992711823 -0.1887949407 1.991448586e-38
-0.3472578526 0.09484554082 -0.05870207027 1.991448586e-38
-0.2045094669 0.06914506853 -0.1459726542 1.991448586e-38
-0.2721783519 -0.1031491756 -0.1866467595 1.991448586e-38
-0.262509793 -0.0171881821 -0.1905524582 1.991448586e-38
-0.3233996034 0.1063987389 -0.01136359852 1.991448586e-38
-0.1428588033 0.0578943193 -0.1498363018 1.991448586e-38
-0.3083386421 -0.09540338814 -0.1894145906 1.991448586e-38
-0.2088994086 -0.01714751497 -0.1872574091 1.991448586e-38
-0.283804059 0.0954336077 0.06070561334 1.991448586e-38
-0.08019605279 0.03317879885 -0.1527622938 1.991448586e-38
-0.355853498 -0.0557381846 -0.1874555796 1.991448586e-38
0.4554738104 -0.06068360806 -0.1519779861 2.06466517e-38
0.08815400302 0.1227609143 0.023741927 2.06466517e-38
0.2814839482 0.04303327575 0.0712864697 2.06466517e-38
0.3979061246 -0.03242857382 0.1793248951 2.06466517e-38
0.3113326728 -0.06968500465 -0.1576157361 2.06466517e-38
0.2295377702 0.05538065732 -0.01188484486 2.06466517e-38
0.4219041169 0.003957139328 0.03889832646 2.06466517e-38
0.2460419983 0.01959107444 0.1796721518 2.06466517e-38
0.3249174654 -0.07639096677 -0.1468465328 2.06466517e-38
0.2135541886 0.06169509143 -0.008306409232 2.06466517e-38
0.4023880363 0.008135220967 0.0417146571 2.06466517e-38
0.2685951591 0.01579388045 0.1747267544 2.06466517e-38
0.2573993206 -0.08330218494 -0.1469114423 2.06466517e-38
0.2878161669 0.04039124772 -0.01453886554 2.06466517e-38
0.4532176852 -0.0222271122 0.002240139991 2.06466517e-38
0.1864842623 0.04716470838 0.167319417 2.06466517e-38
0.3328801692 -0.08073630184 -0.1435557753 2.06466517e-38
0.2011655122 0.06613831222 -0.005955111701 2.06466517e-38
0.3875503838 0.006663998589 0.04185539484 2.06466517e-38
0.2779428363 0.01455919351 0.1717493981 2.06466517e-38
0.35424155 -0.08608831465 -0.1499072909 2.06466517e-38
0.1651696414 0.0770483613 0.007187570445 2.06466517e-38
0.3525670171 0.01214047521 0.04204619303 2.06466517e-38
0.3006606996 0.006240480579 0.1715428233 2.06466517e-38
0.315182507 -0.07975629717 -0.1482749581 2.06466517e-38
0.2264324278 0.05365526676 -0.01049098652 2.06466517e-38
0.417234987 0.0004473551817 0.03435251489 2.06466517e-38
0.2498202324 0.02113002352 0.1770624369 2.06466517e-38
0.2295677513 -0.07971479744 -0.1343078762 2.06466517e-38
0.2981908321 0.03259504959 -0.01241237205 2.06466517e-38
0.4477811456 -0.02370322496 -0.008189800195 2.06466517e-38
0.1514859051 0.06251512468 0.1560376734 2.06466517e-38
-0.02015826665 -0.04389407486 0.1574958563 2.137881613e-38
-0.03465948254 0.03778235987 -0.04517797381 2.137881613e-38
-0.01626305655 0.03156638518 0.04854042456 2.137881613e-38
0.1051286533 0.1238906607 -0.005474774633 2.137881613e-38
0.1262766421 0.03605442867 0.07385914028 2.137881613e-38
-0.233321473 -0.009105088189 -0.122452952 2.137881613e-38
-0.1782687753 -0.02181800269 0.1173458025 2.137881613e-38
-0.07628455013 0.1472912133 -0.1008433402 2.137881613e-38
0.1146567017 0.02831082605 0.08072894067 2.137881613e-38
-0.207160607 -0.01108209882 -0.1173921898 2.137881613e-38
-0.1561495066 -0.002678019227 0.1110364646 2.137881613e-38
-0.05944568664 0.1378572583 -0.08176280558 2.137881613e-38
0.1812779307 0.05539471656 0.043847505 2.137881613e-38
-0.2822523415 -0.01000231318 -0.1324021071 2.137881613e-38
-0.2220419943 -0.06861189008 0.1343998313 2.137881613e-38
-0.1386427581 0.1283466071 -0.1104221195 2.137881613e-38
0.1057477072 0.02304898202 0.08184236288 2.137881613e-38
-0.1943951845 -0.01238317788 -0.1139733642 2.137881613e-38
-0.145098269 -0.006188462488 0.1030786783 2.137881613e-38
-0.04797462747 0.1329693347 -0.07159604132 2.137881613e-38
0.07521104068 0.002467493061 0.09028711915 2.137881613e-38
-0.1652932018 -0.00622153841 -0.09991428256 2.137881613e-38
-0.1188270003 0.006098353304 0.09579077363 2.137881613e-38
-0.01888905093 0.1340499818 -0.05347743258 2.137881613e-38
0.1245374978 0.03786251321 0.07020968199 2.137881613e-38
-0.23335132 -0.01238804311 -0.1191935539 2.137881613e-38
-0.172799319 -0.01839757897 0.1158634871 2.137881613e-38
-0.07548157871 0.1383570731 -0.09503980726 2.137881613e-38
0.206124559 0.04289360717 0.04211573675 2.137881613e-38
-0.3014128506 -0.009437772445 -0.1301872432 2.137881613e-38
-0.2293127477 -0.1094516963 0.1292110682 2.137881613e-38
-0.1519308686 0.1188675463 -0.1069535092 2.137881613e-38
0.02564701438 -0.1040705442 0.1206882969 2.211062324e-38
0.305467397 -0.0483116582 0.1747771949 2.211062324e-38
-0.1732143611 -0.06853919476 0.1508594453 2.211062324e-38
0.2499872595 -0.1453887075 0.1723430008 2.211062324e-38
0.3056123257 -0.1258633435 0.1295332313 2.211062324e-38
0.4415824115 -0.03094791807 0.1391668171 2.211062324e-38
0.1313355863 -0.04993573576 0.1529572904 2.211062324e-38
0.3875665367 -0.1113172546 0.1492391825 2.211062324e-38
0.2565188408 -0.1129196659 0.118008025 2.211062324e-38
0.4259107411 -0.02769388445 0.1469525844 2.211062324e-38
0.07451810688 -0.05242013186 0.1440472901 2.211062324e-38
0.3839260638 -0.1063122824 0.1510673463 2.211062324e-38
0.3319193423 -0.1107837781 0.1055765748 2.211062324e-38
0.4560883641 -0.02533483692 0.0871970281 2.211062324e-38
0.1999089271 -0.03937417641 0.1582480222 2.211062324e-38
0.4094720185 -0.1003147587 0.08837261051 2.211062324e-38
0.2230610251 -0.1113570333 0.1084522977 2.211062324e-38
0.4102134407 -0.02749732509 0.1499108821 2.211062324e-38
0.04111203551 -0.05629532784 0.1415643841 2.211062324e-38
0.378631264 -0.1062502638 0.1514089108 2.211062324e-38
0.1834367514 -0.1135015413 0.1053068563 2.211062324e-38
0.382820189 -0.03618867695 0.1626211554 2.211062324e-38
-0.02301731892 -0.06404557079 0.1449148655 2.211062324e-38
0.3539096117 -0.1165087 0.1577801853 2.211062324e-38
0.2901817262 -0.1182359233 0.1291452497 2.211062324e-38
0.4342505932 -0.02729570679 0.1436378509 2.211062324e-38
0.1185982227 -0.05070294812 0.1536791325 2.211062324e-38
0.3892136514 -0.1046618521 0.149391219 2.211062324e-38
0.3364462256 -0.1091116294 0.08732043207 2.211062324e-38
0.4497197866 -0.0182234738 0.05432418734 2.211062324e-38
0.2037335038 -0.05362571776 0.1668915898 2.211062324e-38
0.4098544419 -0.09496854991 0.05918096751 2.211062324e-38
0.180851832 -0.03027854487 0.1838326156 2.284242894e-38
-0.04136954248 0.07917158306 0.1629445404 2.284242894e-38
0.09381411225 -0.009844051674 0.1890585124 2.284242894e-38
0.09582329541 0.08320902288 0.1612697393 2.284242894e-38
0.3076385558 -0.09792729467 0.1781386137 2.284242894e-38
0.03164211288 0.006607467774 0.181371659 2.284242894e-38
0.2006217539 -0.04347269982 0.1939375252 2.284242894e-38
-0.1218588278 0.1565622538 0.04920250922 2.284242894e-38
0.2915759683 -0.08871374279 0.1782296747 2.284242894e-38
0.02042805776 0.009810315445 0.1801323444 2.284242894e-38
0.1899132729 -0.03430348262 0.1922252625 2.284242894e-38
-0.1071825027 0.1405162662 0.0500411652 2.284242894e-38
0.3495160639 -0.10420724 0.1748047918 2.284242894e-38
0.06449505687 -0.004451026674 0.183502093 2.284242894e-38
0.2395806015 -0.06159486622 0.1897087395 2.284242894e-38
-0.1932595074 0.1126942486 -0.02558653243 2.284242894e-38
0.2822992206 -0.08496897668 0.1785483211 2.284242894e-38
0.01276291907 0.01206862275 0.1793488711 2.284242894e-38
0.1808956712 -0.02946837991 0.192143172 2.284242894e-38
-0.1011972949 0.1307545602 0.04717243835 2.284242894e-38
0.256038934 -0.08064670116 0.1804675013 2.284242894e-38
-0.0009242069791 0.01606361941 0.1779166907 2.284242894e-38
0.1600718647 -0.02608359419 0.1941443384 2.284242894e-38
-0.0778137669 0.1248303354 0.0778330639 2.284242894e-38
0.304386586 -0.09451981634 0.1787405759 2.284242894e-38
0.026090106 0.009057013318 0.1815416366 2.284242894e-38
0.2014861405 -0.04041999206 0.1944310814 2.284242894e-38
-0.1248883307 0.1455550939 0.04641389102 2.284242894e-38
0.3532731235 -0.1017621458 0.1702821404 2.284242894e-38
0.07204992324 -0.008553356864 0.1825843751 2.284242894e-38
0.2413673103 -0.061843656 0.1889013499 2.284242894e-38
-0.2262447625 0.05538571626 -0.05156167969 2.284242894e-38
-0.2240458131 -0.005110159516 0.1552315205 2.348204041e-38
-0.1403039694 -0.1036475822 0.01348259021 2.348204041e-38
-0.2967847586 -0.1034731641 0.05824185535 2.348204041e-38
-0.2371636033 -0.1054190323 0.03272987157 2.348204041e-38
-0.2409235388 0.05104224756 -0.05697625875 2.348204041e-38
0.09060314298 -0.1201118827 -0.06058710814 2.348204041e-38
-0.3192727864 -0.01091170963 0.1332254708 2.348204041e-38
-0.1167868525 -0.1100685149 0.02224054746 2.348204041e-38
-0.2367830724 0.04376193136 -0.01578399725 2.348204041e-38
0.0558171086 -0.1172762513 -0.05066913366 2.348204041e-38
-0.3135889769 -0.02497072704 0.1320525408 2.348204041e-38
-0.1402239949 -0.1061853096 0.02550338209 2.348204041e-38
-0.2438231111 0.05475949869 -0.1251960099 2.348204041e-38
0.1703551114 -0.1155230775 -0.08652949333 2.348204041e-38
-0.3328472078 0.0229591839 0.1498059332 2.348204041e-38
-0.07639767975 -0.1049756184 0.01719272137 2.348204041e-38
-0.2344992161 0.03738203645 -0.0003925710625 2.348204041e-38
0.03720301762 -0.1147416607 -0.04557919875 2.348204041e-38
-0.3115477562 -0.03233299404 0.1284011751 2.348204041e-38
-0.1505412608 -0.1059851125 0.02707585134 2.348204041e-38
-0.2245624512 0.03260384127 0.03497280926 2.348204041e-38
-0.01637568697 -0.1132914722 -0.03059916385 2.348204041e-38
-0.3062731028 -0.04346321896 0.1161744744 2.348204041e-38
-0.1531893313 -0.108579509 0.02770613134 2.348204041e-38
-0.2420863509 0.05085341632 -0.05226750299 2.348204041e-38
0.0831496492 -0.1193038002 -0.06000802293 2.348204041e-38
-0.3189882338 -0.0159776248 0.1324720979 2.348204041e-38
-0.1255706102 -0.1093790308 0.02352628671 2.348204041e-38
-0.2362601012 0.04820676148 -0.1218762174 2.348204041e-38
0.1902069896 -0.1051275954 -0.09378376603 2.348204041e-38
-0.330861181 0.03446110338 0.1515334398 2.348204041e-38
-0.05067572743 -0.1018199027 0.006523747463 2.348204041e-38
0.4635092616 -6.076693535e-05 0.05389844999 2.347880341e-38
0.4811783433 -0.05500909686 0.04400784895 2.347880341e-38
0.4795020819 -0.06022835895 0.0912034139 2.347880341e-38
0.3474421799 -0.1038893685 0.09883493185 2.347880341e-38
0.449767977 -0.03616164625 0.1321776658 2.347880341e-38
0.4787341058 -0.08188177645 -0.0669150278 2.347880341e-38
0.4793930352 -0.08742986619 -0.0007614268106 2.347880341e-38
0.3127247691 -0.01623686776 0.1864644885 2.347880341e-38
0.4501790702 -0.0333257094 0.1228289679 2.347880341e-38
0.481136471 -0.07604697347 -0.05266257748 2.347880341e-38
0.4804646075 -0.08204892278 0.01529589761 2.347880341e-38
0.3289123476 -0.02803602628 0.1789684892 2.347880341e-38
0.421564579 -0.0339868404 0.1570541412 2.347880341e-38
0.4706486464 -0.09391315281 -0.1029512212 2.347880341e-38
0.4821576178 -0.09688915312 -0.03461082652 2.347880341e-38
0.254165858 0.004440293182 0.1905568838 2.347880341e-38
0.4498115778 -0.03497244418 0.1182229891 2.347880341e-38
0.4820695519 -0.07365675271 -0.04605729133 2.347880341e-38
0.480753094 -0.0797438696 0.02486079372 2.347880341e-38
0.3392432332 -0.03571959212 0.1749341488 2.347880341e-38
0.4480332136 -0.0358633548 0.1064369678 2.347880341e-38
0.4844284058 -0.07492782921 -0.02641448379 2.347880341e-38
0.4809074402 -0.0747910738 0.04077202827 2.347880341e-38
0.3572966754 -0.04852821305 0.1676192731 2.347880341e-38
0.448893398 -0.0412039049 0.1305473 2.347880341e-38
0.4786251783 -0.08183310181 -0.06426016241 2.347880341e-38
0.4791909754 -0.08631412685 0.00128908013 2.347880341e-38
0.3140298724 -0.01939860173 0.1844153255 2.347880341e-38
0.393358916 -0.03403272852 0.1586138606 2.347880341e-38
0.4684056342 -0.08978231251 -0.109848626 2.347880341e-38
0.4826001525 -0.09384664148 -0.04209141061 2.347880341e-38
0.2284892648 0.007658160292 0.188540712 2.347880341e-38
0.2957088351 0.007263041101 -0.1813471764 2.347520768e-38
0.1508688629 0.07650603354 0.006147203036 2.347520768e-38
0.2804876566 -0.09482739866 -0.1805422902 2.347520768e-38
0.2692433298 0.06156788021 -0.1088044345 2.347520768e-38
0.2123027593 0.03734641895 -0.1737813503 2.347520768e-38
-0.1998483241 0.01854098402 -0.04999997094 2.347520768e-38
0.3457377255 -0.1149248332 -0.1877768785 2.347520768e-38
0.1549362242 0.08973579854 -0.04683310911 2.347520768e-38
0.2244358957 0.02805311792 -0.1740644127 2.347520768e-38
-0.1543316245 0.05120562017 -0.04988695681 2.347520768e-38
0.3426042795 -0.1110542417 -0.1798012853 2.347520768e-38
0.1588107944 0.06831142306 -0.06187321618 2.347520768e-38
0.1662360728 0.05586744845 -0.15979819 2.347520768e-38
-0.2453341335 0.03194065019 -0.002092164708 2.347520768e-38
0.3890283108 -0.08165439218 -0.1766471714 2.347520768e-38
0.09892002493 0.1107418537 -0.005090788938 2.347520768e-38
0.2301283777 0.02341755666 -0.1762476563 2.347520768e-38
-0.1293974817 0.06337994337 -0.04905246943 2.347520768e-38
0.3383163214 -0.1090032607 -0.176600337 2.347520768e-38
0.1585381329 0.05709112063 -0.0708013624 2.347520768e-38
0.2457996011 0.01746986434 -0.1797784865 2.347520768e-38
-0.08559099585 0.07766154408 -0.06403822452 2.347520768e-38
0.3181676269 -0.120861508 -0.1797227859 2.347520768e-38
0.1750982106 0.04096427187 -0.0828025192 2.347520768e-38
0.2132093757 0.03395726532 -0.1756527722 2.347520768e-38
-0.1905523986 0.03485238925 -0.0568905063 2.347520768e-38
0.3507198095 -0.1053576842 -0.1846252084 2.347520768e-38
0.1527708769 0.07681554556 -0.05265711248 2.347520768e-38
0.1464339048 0.05549801514 -0.1540233046 2.347520768e-38
-0.2417732179 -0.01356864162 0.05991652608 2.347520768e-38
0.3976885676 -0.06719337404 -0.1705734581 2.347520768e-38
0.06409677863 0.1145556644 0.0269271154 2.347520768e-38
0.02046257071 -0.03210137039 -0.1706161797 2.347161195e-38
-0.2896467447 0.08556453884 -0.1362833679 2.347161195e-38
-0.2461134195 -0.09166089445 -0.01552522555 2.347161195e-38
-0.409788847 -0.03054950945 -0.161603108 2.347161195e-38
0.1757869571 -0.05324313045 -0.04963024333 2.347161195e-38
-0.1151664555 0.1262688935 -0.1328917891 2.347161195e-38
-0.01717515849 -0.1200100407 -0.03738348559 2.347161195e-38
-0.2693626285 -0.07265230268 -0.1162686124 2.347161195e-38
0.1532763094 -0.03908632696 -0.08994421363 2.347161195e-38
-0.1362951547 0.1227790266 -0.1310323626 2.347161195e-38
-0.06793549657 -0.1133920997 -0.01357015409 2.347161195e-38
-0.2867631912 -0.0779998377 -0.1120624021 2.347161195e-38
0.2040923387 -0.0597682856 0.04435871914 2.347161195e-38
-0.04528352991 0.1252290308 -0.1273348778 2.347161195e-38
0.1024724245 -0.09668716043 -0.1023474932 2.347161195e-38
-0.191170007 -0.06569809467 -0.109521538 2.347161195e-38
0.1364369988 -0.0390721038 -0.1056496873 2.347161195e-38
-0.1479531676 0.1193123907 -0.1293007731 2.347161195e-38
-0.1017131433 -0.1095867679 0.0008595285472 2.347161195e-38
-0.3004321754 -0.08476831764 -0.1134417504 2.347161195e-38
0.08486388624 -0.06259209663 -0.1392900348 2.347161195e-38
-0.1793307662 0.1161556318 -0.1298954487 2.347161195e-38
-0.1659449488 -0.1053639427 0.02609472536 2.347161195e-38
-0.3385488391 -0.09141886234 -0.1212394983 2.347161195e-38
0.1686054766 -0.05460453779 -0.05518933013 2.347161195e-38
-0.128330037 0.1248243228 -0.1315975338 2.347161195e-38
-0.0136010265 -0.1097014844 -0.04696895182 2.347161195e-38
-0.2691866755 -0.08825089037 -0.1180881783 2.347161195e-38
0.1950822026 -0.06171543524 0.08213537186 2.347161195e-38
-0.02031737939 0.1180655882 -0.1181890815 2.347161195e-38
0.1177519187 -0.0884963572 -0.1169647872 2.347161195e-38
-0.1712246537 -0.06091782078 -0.1103278473 2.347161195e-38
-0.2715129554 -0.1043468863 -0.1048554629 2.346801622e-38
-0.1581615657 -0.111629881 -0.1539214402 2.346801622e-38
-0.2128305286 -0.1333982348 -0.1620164067 2.346801622e-38
-0.2669272721 -0.09742516279 -0.03318326175 2.346801622e-38
-0.3666781783 -0.1081718206 -0.04296755046 2.346801622e-38
-0.04062876478 -0.1096908599 -0.1834867448 2.346801622e-38
-0.3488249481 -0.1291677803 -0.1772580892 2.346801622e-38
-0.1772401631 -0.1073198542 -0.06474531442 2.346801622e-38
-0.3615939021 -0.1049744859 -0.05698562786 2.346801622e-38
-0.06282291561 -0.1077341884 -0.1779472977 2.346801622e-38
-0.3362933695 -0.1267292202 -0.1787524372 2.346801622e-38
-0.1961632222 -0.1050572693 -0.06866122782 2.346801622e-38
-0.3893360198 -0.09604945779 0.01026409585 2.346801622e-38
0.00743655581 -0.105809696 -0.178835541 2.346801622e-38
-0.3668423891 -0.09938227385 -0.1287713498 2.346801622e-38
-0.1296183318 -0.1076119393 -0.05868991837 2.346801622e-38
-0.357316047 -0.1035691202 -0.06249946356 2.346801622e-38
-0.0742591545 -0.1069066375 -0.1744669229 2.346801622e-38
-0.3269228935 -0.1258496195 -0.181596145 2.346801622e-38
-0.202031076 -0.1062025204 -0.07037994266 2.346801622e-38
-0.3366198838 -0.1031640619 -0.06826727092 2.346801622e-38
-0.09429289401 -0.1075622812 -0.1694461554 2.346801622e-38
-0.3041600585 -0.132999599 -0.1886780262 2.346801622e-38
-0.2172323912 -0.1055936515 -0.06969308853 2.346801622e-38
-0.3708355725 -0.1055589691 -0.04817892984 2.346801622e-38
-0.0480273068 -0.1078619659 -0.1826394647 2.346801622e-38
-0.3475910723 -0.1226910502 -0.1729448438 2.346801622e-38
-0.1855862439 -0.1049457043 -0.06380718201 2.346801622e-38
-0.3919541538 -0.08533412963 0.03052883781 2.346801622e-38
0.01827663742 -0.1020517498 -0.1680774391 2.346801622e-38
-0.3725842237 -0.09637340158 -0.1115626171 2.346801622e-38
-0.1002907827 -0.1048212498 -0.06401135772 2.346801622e-38
0.4249199927 0.01823476516 0.1070911139 2.346406175e-38
0.4247255921 0.02425760962 -0.08523388207 2.346406175e-38
0.1618309468 0.07905908674 -0.09892876446 2.346406175e-38
0.4714834988 -0.04081010818 -0.07552155107 2.346406175e-38
0.2800912559 0.04235495999 0.03771583363 2.346406175e-38
0.2606977522 0.03991229832 -0.1099905223 2.346406175e-38
0.02790158801 0.1472590715 -0.01141589414 2.346406175e-38
0.3967677057 -0.03587013111 -0.1806997359 2.346406175e-38
0.3003380299 0.03318820894 0.05275982991 2.346406175e-38
0.2874002159 0.03360176459 -0.1004513055 2.346406175e-38
0.03873550519 0.1425845474 -0.02134587429 2.346406175e-38
0.4171577692 -0.03717471287 -0.1696446836 2.346406175e-38
0.2253110409 0.04633709416 0.01120809466 2.346406175e-38
0.2057837695 0.03944275156 -0.1282124221 2.346406175e-38
-0.0211149659 0.1505838335 0.03480548039 2.346406175e-38
0.3393655419 -0.01617064141 -0.1832630038 2.346406175e-38
0.3126856983 0.02808755822 0.06537880749 2.346406175e-38
0.3005454838 0.03102422319 -0.0956255272 2.346406175e-38
0.0459231399 0.1384458244 -0.02783657238 2.346406175e-38
0.4268033206 -0.03973581269 -0.1624849141 2.346406175e-38
0.3314095438 0.01863191649 0.09467526525 2.346406175e-38
0.32869187 0.02575567551 -0.08854407817 2.346406175e-38
0.06456714869 0.1316703409 -0.04462118074 2.346406175e-38
0.4405988455 -0.04466789961 -0.150975123 2.346406175e-38
0.2844327986 0.0381202139 0.04387952387 2.346406175e-38
0.2696779072 0.03358277306 -0.107489489 2.346406175e-38
0.02481916361 0.1455641091 -0.00853263028 2.346406175e-38
0.398411423 -0.03709775209 -0.1792203337 2.346406175e-38
0.190321058 0.03560647368 0.005645110738 2.346406175e-38
0.1996823251 0.04493081197 -0.1332567334 2.346406175e-38
-0.04749872535 0.1457840502 0.0462340489 2.346406175e-38
0.3091818392 -0.005148432218 -0.1761750281 2.346406175e-38
-0.3543868959 -0.09501259029 -0.1148605794 2.346010729e-38
-0.1883504093 -0.09716102481 -0.1033875719 2.346010729e-38
-0.1979740709 -0.08265410364 -0.188603729 2.346010729e-38
-0.4037485719 -0.06774991751 -0.1142461449 2.346010729e-38
-0.2986568809 -0.1543694586 -0.1833443344 2.346010729e-38
-0.09773114324 -0.1030112281 -0.184531197 2.346010729e-38
0.1032790244 -0.07377243787 -0.1840339154 2.346010729e-38
-0.3999126256 -0.07959426939 0.02333560027 2.346010729e-38
-0.3051693141 -0.1511259377 -0.179712683 2.346010729e-38
-0.1158865541 -0.1010959148 -0.1841342449 2.346010729e-38
0.06672521681 -0.0711383298 -0.1809159666 2.346010729e-38
-0.3978419304 -0.07864063233 0.007573385257 2.346010729e-38
-0.269646734 -0.1382047236 -0.188713178 2.346010729e-38
-0.07451014221 -0.1050513163 -0.1845771521 2.346010729e-38
0.1732100546 -0.07583518326 -0.1865164638 2.346010729e-38
-0.3666723967 -0.07022471726 0.09981811792 2.346010729e-38
-0.308930397 -0.1471735239 -0.1787598431 2.346010729e-38
-0.1306387931 -0.102804631 -0.1822269261 2.346010729e-38
0.0465320386 -0.06974627078 -0.1797396839 2.346010729e-38
-0.3999153078 -0.07819177955 -0.00288086338 2.346010729e-38
-0.317958504 -0.1406232715 -0.1700588316 2.346010729e-38
-0.1488180161 -0.1010863483 -0.1737786531 2.346010729e-38
0.01212708838 -0.06748841703 -0.177284047 2.346010729e-38
-0.4059823155 -0.08103390038 -0.03359764814 2.346010729e-38
-0.299882859 -0.1499732137 -0.1840322018 2.346010729e-38
-0.1030602008 -0.1010600328 -0.1862055957 2.346010729e-38
0.0935877189 -0.07176139951 -0.1854007095 2.346010729e-38
-0.4006491899 -0.0817463249 0.02339414507 2.346010729e-38
-0.2528984547 -0.1225361377 -0.1876985729 2.346010729e-38
-0.06579303741 -0.09405173361 -0.1849565357 2.346010729e-38
0.18619892 -0.07296951115 -0.1916749179 2.346010729e-38
-0.3482351303 -0.06357248873 0.1240326464 2.346010729e-38
-0.4529896975 0.06248288602 0.08254917711 2.345615283e-38
-0.3722778559 0.06115407497 0.0812375322 2.345615283e-38
-0.2528096437 0.1166792884 0.1145287305 2.345615283e-38
-0.3015804589 0.09934831411 0.06369884312 2.345615283e-38
-0.4533572495 0.05468571559 -0.007222353481 2.345615283e-38
-0.3694603741 0.09865158051 -0.03570731357 2.345615283e-38
-0.3928670585 0.07203689963 0.1469414532 2.345615283e-38
-0.1777874231 0.1563199311 -0.02450237423 2.345615283e-38
-0.4540843964 0.04704935849 0.006262954324 2.345615283e-38
-0.3735306263 0.09961051494 -0.02719636634 2.345615283e-38
-0.3674806356 0.06861232221 0.145516783 2.345615283e-38
-0.1990158707 0.1372675449 -0.01098069176 2.345615283e-38
-0.4512683153 0.0617261976 -0.03911086917 2.345615283e-38
-0.3622235954 0.06115847081 -0.06543841213 2.345615283e-38
-0.4185910523 0.04714009911 0.1633053869 2.345615283e-38
-0.1334506571 0.1414546371 -0.05873515457 2.345615283e-38
-0.4581814706 0.04342359677 0.01448935736 2.345615283e-38
-0.3775026798 0.08314676583 -0.02370033786 2.345615283e-38
-0.3521138728 0.06508484483 0.1453083456 2.345615283e-38
-0.2118614316 0.1301826686 -0.00458151428 2.345615283e-38
-0.4586202204 0.03708974645 0.03383784369 2.345615283e-38
-0.3607628942 0.08252891153 0.01349082962 2.345615283e-38
-0.3281065822 0.06879331917 0.1398527622 2.345615283e-38
-0.2348149866 0.1272362024 0.01160228718 2.345615283e-38
-0.4515264332 0.05172870681 -0.003642878262 2.345615283e-38
-0.371229589 0.09257751703 -0.03238479421 2.345615283e-38
-0.3850667477 0.06631376594 0.1493078172 2.345615283e-38
-0.1828854531 0.1458126605 -0.0227645915 2.345615283e-38
-0.4381958246 0.05347327515 -0.0445176512 2.345615283e-38
-0.3623235226 0.03011485562 -0.08049016446 2.345615283e-38
-0.4303824008 0.03470655158 0.1601549834 2.345615283e-38
-0.125950098 0.1290414929 -0.07095551491 2.345615283e-38
-0.08173916489 -0.1078902036 0.03987585381 2.345219836e-38
-0.1918882728 -0.1149244905 -0.1065991074 2.345219836e-38
-0.1593422592 -0.110787414 0.04461945593 2.345219836e-38
-0.08365296572 -0.1062652096 -0.02161769941 2.345219836e-38
0.1186214462 -0.1204443276 0.003592423629 2.345219836e-38
-0.2753007114 -0.1490427405 -0.1507624835 2.345219836e-38
-0.07889208943 -0.1163787693 0.127422303 2.345219836e-38
-0.1984451711 -0.1091308743 -0.01442961115 2.345219836e-38
0.09232591838 -0.1156770661 0.006711404771 2.345219836e-38
-0.2643484175 -0.1412550658 -0.1450979859 2.345219836e-38
-0.0887876004 -0.1141795516 0.1191659272 2.345219836e-38
-0.1844352186 -0.1083695889 -0.01793394983 2.345219836e-38
0.1855477691 -0.1183715686 -0.006518931128 2.345219836e-38
-0.302700907 -0.1467415392 -0.1578317434 2.345219836e-38
-0.03298793733 -0.1124134809 0.1476290375 2.345219836e-38
-0.2441716194 -0.1077955365 -0.01263349317 2.345219836e-38
0.07707093656 -0.1145494133 0.007747934666 2.345219836e-38
-0.2581076324 -0.1358890384 -0.1416100115 2.345219836e-38
-0.09508797526 -0.1116592512 0.1123224348 2.345219836e-38
-0.174199447 -0.1101392955 -0.01962591149 2.345219836e-38
0.04030520469 -0.1150168478 0.01256223954 2.345219836e-38
-0.2454850078 -0.1284850091 -0.1352152228 2.345219836e-38
-0.1132768542 -0.1142458469 0.094534114 2.345219836e-38
-0.1603258997 -0.1133288518 -0.02075804956 2.345219836e-38
0.1140999496 -0.1196784005 0.003754374571 2.345219836e-38
-0.2735341191 -0.1435452998 -0.1493241042 2.345219836e-38
-0.08322767168 -0.1151909158 0.1263558418 2.345219836e-38
-0.195159018 -0.1073431075 -0.01755005494 2.345219836e-38
0.1997556388 -0.1129928231 -0.005138165783 2.345219836e-38
-0.3041732311 -0.1372759491 -0.1545045525 2.345219836e-38
-0.007995427586 -0.1089479849 0.1426623315 2.345219836e-38
-0.2552087009 -0.1032379419 -0.009265474044 2.345219836e-38
0.3252568841 -0.112629123 0.02765427344 2.344788516e-38
0.3277620077 -0.1140696183 -0.1605119705 2.344788516e-38
0.0361552462 -0.09723183513 -0.06432320178 2.344788516e-38
0.2723469138 -0.08210781217 -0.1514871269 2.344788516e-38
0.197017163 -0.1174757555 -0.1083922982 2.344788516e-38
0.4029135704 -0.1111807898 0.002404383384 2.344788516e-38
0.260750711 -0.1210731342 0.1023383662 2.344788516e-38
-0.235956952 -0.1227331311 -0.1006286964 2.344788516e-38
0.2132406384 -0.1142139956 -0.09700642526 2.344788516e-38
0.3945267797 -0.111235939 -0.01282581408 2.344788516e-38
0.2533737719 -0.110977456 0.08076447248 2.344788516e-38
-0.189852342 -0.1185510308 -0.1161952913 2.344788516e-38
0.1119441092 -0.1117365584 -0.1148008108 2.344788516e-38
0.4211977422 -0.1076255962 0.03399864957 2.344788516e-38
0.2933924198 -0.1268621236 0.1268888265 2.344788516e-38
-0.152656436 -0.1154673174 -0.02128958143 2.344788516e-38
0.2260241508 -0.1138949394 -0.08276445419 2.344788516e-38
0.3877192736 -0.1113290861 -0.0190501269 2.344788516e-38
0.2426979691 -0.1092411205 0.06409038603 2.344788516e-38
-0.1701885015 -0.1164952591 -0.120173201 2.344788516e-38
0.2475201786 -0.1159101799 -0.05523844808 2.344788516e-38
0.3732564151 -0.1156664118 -0.05452645198 2.344788516e-38
0.1991322488 -0.1080939695 0.02607585117 2.344788516e-38
-0.106549494 -0.1183893457 -0.1284101903 2.344788516e-38
0.1943470836 -0.1161687374 -0.10904935 2.344788516e-38
0.398439467 -0.1102899089 0.002741151256 2.344788516e-38
0.2620584667 -0.1164266765 0.09524614364 2.344788516e-38
-0.2309902608 -0.1179083586 -0.1060212627 2.344788516e-38
0.07614612579 -0.103754364 -0.1214868426 2.344788516e-38
0.4213975668 -0.103321895 0.04013074562 2.344788516e-38
0.2866959572 -0.126647234 0.1337017268 2.344788516e-38
-0.1515536457 -0.1100617573 -0.01312083285 2.344788516e-38
0.1897078902 -0.07783508301 0.08338863403 2.344357197e-38
0.1706723869 -0.1109414473 -0.1318716705 2.344357197e-38
0.1666350216 -0.1124409065 -0.07241605967 2.344357197e-38
0.0681078881 -0.1080988124 -0.009487550706 2.344357197e-38
0.3297558725 -0.0156587828 0.1288597435 2.344357197e-38
0.2699007988 -0.1440291405 -0.1311810166 2.344357197e-38
0.06618278474 -0.1085558012 -0.1707156748 2.344357197e-38
-0.1147628203 -0.1040575877 -0.09867590666 2.344357197e-38
0.3124149442 -0.01458396204 0.1267978996 2.344357197e-38
0.2514209747 -0.1335276812 -0.1346269548 2.344357197e-38
0.07430244237 -0.1083758697 -0.1588285565 2.344357197e-38
-0.08734792471 -0.1025331914 -0.091231592 2.344357197e-38
0.3625966609 -0.01835088059 0.1288044453 2.344357197e-38
0.2976801693 -0.1449033767 -0.1352512389 2.344357197e-38
0.00557317026 -0.104162246 -0.1764496863 2.344357197e-38
-0.1734208465 -0.1043725088 -0.1231989041 2.344357197e-38
0.2994930446 -0.02016766369 0.1253994703 2.344357197e-38
0.2402907908 -0.1268667877 -0.1382484287 2.344357197e-38
0.08398553729 -0.1083091423 -0.1473852247 2.344357197e-38
-0.07830258459 -0.1020400971 -0.08762871474 2.344357197e-38
0.2814538777 -0.03431035951 0.1178983152 2.344357197e-38
0.2211990952 -0.1197314709 -0.1374534667 2.344357197e-38
0.1114256829 -0.111712113 -0.1316115558 2.344357197e-38
-0.05221933126 -0.1014303043 -0.07611267269 2.344357197e-38
0.3192921877 -0.01501909178 0.1295584589 2.344357197e-38
0.2598148882 -0.1371519566 -0.1354519874 2.344357197e-38
0.06331703812 -0.1098825932 -0.1671647877 2.344357197e-38
-0.1029832661 -0.1022192761 -0.09846217185 2.344357197e-38
0.3711035252 -0.0220943857 0.1236239225 2.344357197e-38
0.2983445227 -0.1381225437 -0.1366289109 2.344357197e-38
-0.0117392363 -0.09985807538 -0.164996326 2.344357197e-38
-0.1893723607 -0.09511819482 -0.1349107474 2.344357197e-38
-0.3654696643 -0.02779858187 0.1770978272 2.343925737e-38
-0.1706938893 0.1175305694 0.1369106919 2.343925737e-38
-0.4271890521 -0.03039249219 0.1743578464 2.343925737e-38
-0.3019075096 0.04657776654 0.1675464809 2.343925737e-38
-0.2400017083 -0.03253658116 0.06279984862 2.343925737e-38
-0.02836148255 0.1076630205 0.1363422126 2.343925737e-38
-0.4784210324 -0.06217411533 0.06940547377 2.343925737e-38
-0.216406092 0.1130306348 0.1381208152 2.343925737e-38
-0.2504647672 -0.02169323154 0.08558110893 2.343925737e-38
-0.05029466376 0.1070162058 0.1329386681 2.343925737e-38
-0.479006201 -0.05797256157 0.08675887436 2.343925737e-38
-0.2268720716 0.09713919461 0.1380402595 2.343925737e-38
-0.2117327154 -0.04981129244 0.01354067679 2.343925737e-38
0.02563565969 0.09565270692 0.1369011104 2.343925737e-38
-0.4697907567 -0.07330398262 0.01352591999 2.343925737e-38
-0.1892310083 0.1235267222 0.1257714033 2.343925737e-38
-0.2532817125 -0.01768949814 0.09620388597 2.343925737e-38
-0.06409982592 0.1062566712 0.1301998049 2.343925737e-38
-0.477576226 -0.05829791352 0.0974548161 2.343925737e-38
-0.2325312644 0.0914754644 0.1384626627 2.343925737e-38
-0.269436419 -0.02783217281 0.1177958399 2.343925737e-38
-0.09768673033 0.1095224619 0.1272159517 2.343925737e-38
-0.4734282494 -0.05486626551 0.1210993081 2.343925737e-38
-0.2449325323 0.08336894959 0.1405981481 2.343925737e-38
-0.2445267588 -0.03169409186 0.07311531156 2.343925737e-38
-0.03586800396 0.1069182679 0.1346381456 2.343925737e-38
-0.4788540006 -0.0612628758 0.07254918665 2.343925737e-38
-0.2193441391 0.1048939824 0.1361736208 2.343925737e-38
-0.2005669028 -0.04838243127 0.004812136292 2.343925737e-38
0.0537796244 0.08688491583 0.1303927898 2.343925737e-38
-0.4670625925 -0.08005467057 0.001627957914 2.343925737e-38
-0.1694927067 0.1222937554 0.1060107723 2.343925737e-38
0.2233608216 0.01426597405 -0.1875941306 2.343458544e-38
0.1584428996 0.02692841366 -0.05920028687 2.343458544e-38
0.2298002541 -0.01627937891 -0.1317920387 2.343458544e-38
0.134728983 0.1038721353 -0.109298341 2.343458544e-38
0.1421629488 0.04232708737 -0.1737042964 2.343458544e-38
0.2365174443 -0.05744972825 -0.1071400717 2.343458544e-38
0.3425966799 -0.0742514506 -0.1217600405 2.343458544e-38
0.01623021625 0.1392100304 -0.1104948148 2.343458544e-38
0.1557180285 0.03643768281 -0.173974365 2.343458544e-38
0.2232297361 -0.04385472834 -0.1076027974 2.343458544e-38
0.3383972943 -0.06775716692 -0.1158646643 2.343458544e-38
0.02971772291 0.1283311248 -0.1052045003 2.343458544e-38
0.08215218037 0.04568947479 -0.1712634265 2.343458544e-38
0.2710933089 -0.08127084374 -0.1094891578 2.343458544e-38
0.3858616352 -0.09346906096 -0.1091403142 2.343458544e-38
-0.04160160944 0.1345935762 -0.07268950343 2.343458544e-38
0.1634814441 0.03286572546 -0.1738445461 2.343458544e-38
0.2147856951 -0.03643542901 -0.1066198349 2.343458544e-38
0.3337576091 -0.0640847832 -0.1132935956 2.343458544e-38
0.03690895811 0.1226928383 -0.1049727872 2.343458544e-38
0.1799579561 0.02655229345 -0.1755468994 2.343458544e-38
0.1887900978 -0.02216099016 -0.09762776643 2.343458544e-38
0.308270514 -0.0511566177 -0.1169391572 2.343458544e-38
0.05493442342 0.1177721173 -0.1057990715 2.343458544e-38
0.144021377 0.04146143049 -0.1740094274 2.343458544e-38
0.2332290709 -0.05168454349 -0.1065263376 2.343458544e-38
0.3417493105 -0.07461232692 -0.1205039695 2.343458544e-38
0.01901535131 0.129475683 -0.1062037647 2.343458544e-38
0.05646057799 0.04670382664 -0.1649684608 2.343458544e-38
0.2686087489 -0.08045437932 -0.1045255214 2.343458544e-38
0.3881133795 -0.092980735 -0.08361598104 2.343458544e-38
-0.06217049435 0.1268006265 -0.05945830047 2.343458544e-38
0.375487566 -0.04787389189 -0.1803941578 2.343027224e-38
0.1750245839 -0.1081218049 0.0173909422 2.343027224e-38
0.247341454 0.0468833521 -0.08244872838 2.343027224e-38
0.3300809562 -0.1216462031 0.122903496 2.343027224e-38
0.2302324176 -0.05036830157 -0.1793322712 2.343027224e-38
-0.03081631102 -0.1119075418 0.08452510834 2.343027224e-38
0.02170932107 0.07490935177 -0.1502202749 2.343027224e-38
0.1537378728 -0.1272850931 0.1303132027 2.343027224e-38
0.2482009232 -0.0500831008 -0.1794504523 2.343027224e-38
0.01339628082 -0.1134932712 0.07661081851 2.343027224e-38
0.05978631601 0.0649857223 -0.1530943364 2.343027224e-38
0.1787670851 -0.1190973446 0.1260709763 2.343027224e-38
0.1620643437 -0.05077891424 -0.1793582141 2.343027224e-38
-0.08916730434 -0.1092871949 0.09849342704 2.343027224e-38
-0.01407659985 0.09314669669 -0.1471562386 2.343027224e-38
0.08790917695 -0.1097690538 0.1376402825 2.343027224e-38
0.2609036565 -0.04988799244 -0.1795288473 2.343027224e-38
0.03568892181 -0.1123804674 0.07309361547 2.343027224e-38
0.07464837283 0.0612026006 -0.1556377262 2.343027224e-38
0.1938642263 -0.1168413907 0.122726351 2.343027224e-38
0.286445111 -0.04966963455 -0.1795606017 2.343027224e-38
0.06735377014 -0.1135790795 0.06466022879 2.343027224e-38
0.1026791856 0.05060081929 -0.1574679613 2.343027224e-38
0.2270196229 -0.1192389205 0.1157980934 2.343027224e-38
0.2317767888 -0.05031517893 -0.1793629378 2.343027224e-38
-0.008736363612 -0.1130387485 0.07664207369 2.343027224e-38
0.03484337777 0.0791805163 -0.1524919271 2.343027224e-38
0.1610142142 -0.1227518693 0.1261792481 2.343027224e-38
0.1595317721 -0.05143933371 -0.1788971424 2.343027224e-38
-0.1098598465 -0.1013157442 0.09624931216 2.343027224e-38
-0.02589438111 0.08732618392 -0.1500059515 2.343027224e-38
0.07681003213 -0.1024946049 0.1346331239 2.343027224e-38
0.1916886568 -0.1019298211 -0.1795502007 2.342559891e-38
-0.02285417728 -0.09157004207 -0.1718931496 2.342559891e-38
0.2787546813 -0.1441403329 -0.1817267537 2.342559891e-38
-0.3184064627 -0.08498105407 -0.1018479913 2.342559891e-38
0.2703655958 -0.1021139473 -0.1807123125 2.342559891e-38
0.0985211879 -0.1121868417 -0.1742245704 2.342559891e-38
0.3725179434 -0.09955217689 -0.1859709173 2.342559891e-38
-0.1128274649 -0.06168402359 -0.1552533805 2.342559891e-38
0.2570798397 -0.1056341156 -0.1782640815 2.342559891e-38
0.08436766267 -0.1115928665 -0.1745998561 2.342559891e-38
0.3743064702 -0.1039760634 -0.1784013659 2.342559891e-38
-0.1276097745 -0.05611765757 -0.1526341438 2.342559891e-38
0.2991795242 -0.07035976648 -0.1835906655 2.342559891e-38
0.1278160661 -0.1096611395 -0.1763029993 2.342559891e-38
0.4182175994 -0.05683455244 -0.1639933735 2.342559891e-38
-0.05633703619 -0.04424258322 -0.1913291961 2.342559891e-38
0.2459408045 -0.1062422395 -0.176922828 2.342559891e-38
0.07777259499 -0.1115659773 -0.1761962622 2.342559891e-38
0.3687882423 -0.1072402149 -0.1769091785 2.342559891e-38
-0.1357588917 -0.05586981028 -0.1501010209 2.342559891e-38
0.2248980701 -0.1119916663 -0.1775669754 2.342559891e-38
0.06095389649 -0.1118625253 -0.175752297 2.342559891e-38
0.3436590433 -0.1195378974 -0.1839208752 2.342559891e-38
-0.1648532897 -0.05654289573 -0.1367407143 2.342559891e-38
0.2634097338 -0.09926435351 -0.1809148937 2.342559891e-38
0.09709713608 -0.1125763059 -0.176475957 2.342559891e-38
0.3771111667 -0.09563676268 -0.18107526 2.342559891e-38
-0.1091907695 -0.05628497526 -0.1603670418 2.342559891e-38
0.3063489199 -0.05730263516 -0.1771761477 2.342559891e-38
0.1254140884 -0.1027825549 -0.1757057011 2.342559891e-38
0.4122984707 -0.0388860926 -0.1588659286 2.342559891e-38
-0.03949946538 -0.05022615939 -0.193106547 2.342559891e-38
0.240459919 -0.0310631115 0.1847054809 2.342128572e-38
0.1969535947 -0.0914735496 0.02000163496 2.342128572e-38
0.2312457412 -0.100261353 0.08799594641 2.342128572e-38
0.2855578959 -0.0855493322 0.1315689236 2.342128572e-38
0.3473812938 -0.05344722793 0.1887280345 2.342128572e-38
-0.08738680184 -0.08365202695 -0.02557622828 2.342128572e-38
0.0008230170351 -0.06884912401 0.1280820668 2.342128572e-38
0.1316853166 -0.07897087932 0.1813244671 2.342128572e-38
0.3354424834 -0.04142560437 0.1860491186 2.342128572e-38
-0.03889037669 -0.07571993768 -0.0377064608 2.342128572e-38
0.0218354091 -0.07210875303 0.1210340932 2.342128572e-38
0.156677559 -0.08227092773 0.1606556624 2.342128572e-38
0.3836892843 -0.06239615753 0.1843003631 2.342128572e-38
-0.1787490398 -0.07359045744 -0.01997109875 2.342128572e-38
-0.0913862288 -0.05177209899 0.1316398084 2.342128572e-38
0.06883864105 -0.06407447159 0.1820242703 2.342128572e-38
0.3285112679 -0.03496292606 0.1859142929 2.342128572e-38
-0.01461654343 -0.0731549561 -0.04190927371 2.342128572e-38
0.0376213789 -0.07600264251 0.1164163277 2.342128572e-38
0.1695126742 -0.08581194282 0.1499694437 2.342128572e-38
0.311298877 -0.02774969861 0.1863397807 2.342128572e-38
0.03229610994 -0.07937477529 -0.0405331701 2.342128572e-38
0.07925473899 -0.08493596315 0.1074066386 2.342128572e-38
0.1953808367 -0.09087001532 0.1425153911 2.342128572e-38
0.3458786011 -0.04900510237 0.1897188872 2.342128572e-38
-0.07463932037 -0.07999244332 -0.02395073324 2.342128572e-38
-0.00277533778 -0.06892191619 0.1324798763 2.342128572e-38
0.1389158368 -0.08063942194 0.1713273972 2.342128572e-38
0.3910987079 -0.05882310122 0.1816055179 2.342128572e-38
-0.196157068 -0.0604756698 -0.02322568931 2.342128572e-38
-0.1152406782 -0.04826029018 0.1222670153 2.342128572e-38
0.03686635941 -0.0707186535 0.1715102494 2.342128572e-38
-0.1201650351 -0.1095407382 -0.1097824797 2.341805152e-38
-0.01327114832 -0.06308843195 -0.1834962219 2.341805152e-38
-0.1039178893 -0.05982945487 -0.1904481947 2.341805152e-38
0.1459291279 -0.1131257266 -0.1687811762 2.341805152e-38
0.002002169611 -0.1197317317 -0.1556545049 2.341805152e-38
0.1693537831 -0.09966962785 -0.1908881366 2.341805152e-38
-0.2238422036 -0.05299224332 -0.1967532635 2.341805152e-38
0.2514398992 -0.0436299704 -0.1382471919 2.341805152e-38
-0.01659037732 -0.1157863662 -0.1521745324 2.341805152e-38
0.1412603706 -0.09145198762 -0.1886510551 2.341805152e-38
-0.2151924819 -0.05337905139 -0.1937015802 2.341805152e-38
0.2423199564 -0.04130738601 -0.1397417188 2.341805152e-38
0.03629570454 -0.1116892844 -0.1379919052 2.341805152e-38
0.220602721 -0.1098223701 -0.1918268651 2.341805152e-38
-0.270499438 -0.049984999 -0.1937173158 2.341805152e-38
0.3013553321 -0.02476742864 -0.1261380017 2.341805152e-38
-0.02787478641 -0.1143506989 -0.1505277306 2.341805152e-38
