# .PCD v0.7 - Point Cloud Data file format
VERSION 0.7
FIELDS x y z rgb
SIZE 4 4 4 4
TYPE F F F F
COUNT 1 1 1 1
WIDTH 828
HEIGHT 1
VIEWPOINT 0 0 0 1 0 0 0
POINTS 828
DATA ascii
0.2106243372 0.05023162439 0.07633143663 1.258099074e-38
0.322313875 -0.1248266399 0.1902808696 1.258099074e-38
0.08962583542 0.08058585972 0.1456694156 1.258099074e-38
0.1141178235 0.03355723619 0.1627303064 1.258099074e-38
0.2113973498 0.04381013662 0.1424700469 1.258099074e-38
0.1312532872 -0.1035074294 0.1519527137 1.258099074e-38
-0.1942878962 0.09937897325 0.128482461 1.258099074e-38
-0.2852272093 0.07622990012 0.1296545118 1.258099074e-38
-0.005190065131 0.08492107689 0.1565945745 1.258099074e-38
0.2352023572 -0.08494308591 0.1138709188 1.258099074e-38
-0.2907233536 -0.04275259376 0.0566152446 1.258099074e-38
-0.1620331556 -0.09287834913 0.1278164685 1.258099074e-38
0.04819672555 -0.1136480272 -0.08687621355 1.331530897e-38
0.2396194488 -0.1258598566 0.1487147361 1.331530897e-38
0.2053105086 -0.1172857955 0.1045309454 1.331530897e-38
0.2643878162 -0.1072574034 -0.1946765631 1.331530897e-38
0.2136921585 -0.1238852441 -0.09879928827 1.331530897e-38
0.1667162627 -0.1086317748 0.1834730357 1.331530897e-38
-0.09360102564 -0.1071217209 0.05513048172 1.331530897e-38
0.4572220445 -0.1103539392 -0.02837766707 1.331530897e-38
-0.1155791357 -0.07060535997 -0.1986598819 1.331530897e-38
0.3930163085 -0.0666808784 0.1911520362 1.331530897e-38
0.1275453418 -0.1063190773 0.08728452772 1.331530897e-38
0.3522543609 -0.1079808325 -0.1733650863 1.331530897e-38
0.1589564085 -0.07310650498 -0.1897209585 1.331530897e-38
0.2606962919 -0.07473759353 0.1885538399 1.331530897e-38
0.002325806301 -0.1043295786 0.05971264467 1.331530897e-38
0.4303156137 -0.1011587977 -0.08319912851 1.331530897e-38
-0.01857864112 -0.06218003854 -0.1859906614 1.331530897e-38
0.3467667699 -0.07813118398 0.1800874472 1.331530897e-38
0.0611705631 -0.1046997085 0.06751848012 1.331530897e-38
0.3883236349 -0.1039931551 -0.1202287674 1.331530897e-38
0.08427990973 -0.0677274093 -0.1837847978 1.331530897e-38
0.3052884042 -0.08609459549 0.1788342148 1.331530897e-38
0.04497776553 -0.08732751757 0.1649083495 1.331530897e-38
0.3182743788 -0.1104996577 -0.1074943095 1.331530897e-38
0.205036059 -0.0678717792 -0.1387199908 1.331530897e-38
0.189103052 -0.1094762683 0.02600198425 1.331530897e-38
-0.1785891503 -0.05543683842 0.04205654189 1.331530897e-38
0.3103504777 -0.1064084098 -0.01784244739 1.331530897e-38
-0.1057974175 -0.06904443353 -0.04624932632 1.331530897e-38
0.3397392929 -0.1135466993 0.06056009233 1.331530897e-38
0.0099161705 -0.06479096413 -0.05029516295 1.331530897e-38
0.1476869732 -0.1095788032 -0.02620309405 1.331530897e-38
0.02313636802 -0.07197447866 -0.189444527 1.404926846e-38
-0.1825488657 -0.09360470623 -0.199902609 1.404926846e-38
0.145574376 -0.09271124005 -0.1828978509 1.404926846e-38
-0.2778017521 -0.08406405151 -0.187427938 1.404926846e-38
0.1211569458 -0.004618749488 -0.1771624535 1.404926846e-38
-0.1546010524 0.01965086721 -0.1943342984 1.404926846e-38
0.3450377584 -0.09307605028 -0.1040137932 1.404926846e-38
-0.4521716833 -0.03373729438 -0.1818882376 1.404926846e-38
-0.1039782614 0.01246083528 -0.195465371 1.404926846e-38
-0.3450501859 0.06397543103 -0.1572773159 1.404926846e-38
0.190925017 -0.07755331695 -0.1586672813 1.404926846e-38
-0.3221753538 -0.05541950464 -0.1916068196 1.404926846e-38
0.01810538396 0.004850662779 -0.1839416325 1.404926846e-38
-0.1952396631 0.0290735811 -0.1898851544 1.404926846e-38
0.2751491666 -0.08456318825 -0.1145127192 1.404926846e-38
-0.3964468837 -0.03803506494 -0.1897740066 1.404926846e-38
-0.06031974405 0.001845010091 -0.1862126887 1.404926846e-38
-0.2980823517 0.05240896344 -0.1647732109 1.404926846e-38
0.2408295572 -0.08555363119 -0.1289954931 1.404926846e-38
-0.3402746022 -0.06192696467 -0.1872899681 1.404926846e-38
-0.02071446739 -0.001486148802 -0.1854869872 1.404926846e-38
-0.2501804233 0.04118715227 -0.1745636314 1.404926846e-38
0.06901695579 -0.0837765336 -0.1732349694 1.404926846e-38
-0.2226173729 -0.07725308836 -0.1907999516 1.404926846e-38
0.07886784524 0.008935104124 -0.1605823338 1.404926846e-38
-0.2289394438 0.03660619631 -0.1819982827 1.404926846e-38
-0.06043326482 -0.09860384464 -0.1743429154 1.404926846e-38
-0.2856360972 -0.006659131963 -0.1809860468 1.404926846e-38
-0.05875174329 0.06062441692 -0.1565521955 1.404926846e-38
-0.4049530625 0.06620841473 -0.1205078959 1.404926846e-38
-0.1193760261 -0.04753930867 -0.1589971483 1.404926846e-38
-0.2270339578 0.05970212817 -0.1537552178 1.404926846e-38
0.3472654521 0.001704877475 -0.1421415061 1.478322936e-38
-0.2334580868 -0.03027625941 -0.1410628557 1.478322936e-38
0.3045555055 -0.09980285913 -0.1922398359 1.478322936e-38
0.156030342 -0.0850898847 -0.1888097525 1.478322936e-38
0.3089676499 0.004529206548 -0.1530102342 1.478322936e-38
0.05679286271 -0.09073108435 -0.1921227425 1.478322936e-38
0.4448591769 -0.07509246469 -0.146900624 1.478322936e-38
0.2925996482 -0.07485099882 -0.1762824804 1.478322936e-38
0.4359399974 0.001022308716 -0.03859600797 1.478322936e-38
-0.3094853461 -0.03645314276 -0.1889529079 1.478322936e-38
0.3396341205 -0.04567988962 -0.1844348758 1.478322936e-38
0.1765688211 -0.07543125004 -0.1890449375 1.478322936e-38
0.326061964 0.02516749129 -0.08395692706 1.478322936e-38
-0.05410790816 -0.07241272926 -0.1802396029 1.478322936e-38
0.4217741191 -0.04394353926 -0.1770208031 1.478322936e-38
0.2522510588 -0.0742765516 -0.1759429127 1.478322936e-38
0.4052198231 0.01229321864 -0.05568894744 1.478322936e-38
-0.2076676786 -0.05329282582 -0.1876030564 1.478322936e-38
0.3921208382 -0.03894132003 -0.1783194095 1.478322936e-38
0.2132159472 -0.07421378046 -0.1766066551 1.478322936e-38
0.3700689375 0.02081186697 -0.06625184417 1.478322936e-38
-0.117743887 -0.0653591454 -0.1812369972 1.478322936e-38
0.2348077744 -0.0184870977 -0.1270766109 1.478322936e-38
0.1051817611 -0.01705615968 -0.1541959196 1.478322936e-38
0.2660071254 0.01356385183 -0.1053115726 1.478322936e-38
0.006218889728 -0.05572390556 -0.1505256593 1.478322936e-38
-0.07056260109 -0.08222678304 -0.08838090301 1.478322936e-38
-0.08067151904 0.02868884802 -0.09727087617 1.478322936e-38
0.2763711214 0.03407387435 -0.03636077046 1.478322936e-38
-0.2807415128 -0.01558001153 -0.1065923199 1.478322936e-38
-0.02612764947 -0.01419862267 -0.0294602178 1.478322936e-38
-0.173647657 -0.02151812613 -0.04837676883 1.478322936e-38
-0.08319696039 -0.08970756084 0.1836536974 1.551683013e-38
-0.3542100191 -0.0675221011 0.1917959899 1.551683013e-38
-0.2813846469 -0.1166609153 -0.1979427487 1.551683013e-38
-0.4035967886 -0.0730016008 -0.1871856898 1.551683013e-38
0.03762286529 -0.09622381628 0.1837595701 1.551683013e-38
-0.2834925354 0.006567271892 0.1906637102 1.551683013e-38
-0.1257278025 0.01010078844 0.1636371762 1.551683013e-38
-0.4704428613 0.01999738999 0.01772022434 1.551683013e-38
-0.09540899843 -0.08923389018 -0.1103856787 1.551683013e-38
-0.4677560925 0.03778325021 0.1164370924 1.551683013e-38
-0.2365234643 -0.08904152364 -0.1286731213 1.551683013e-38
-0.4638962448 -0.02111213654 -0.171123445 1.551683013e-38
0.1226605996 -0.06814913452 0.03752886131 1.551683013e-38
-0.3727422953 0.04738084227 0.1699139774 1.551683013e-38
-0.1895519048 -0.05160831288 0.01246699132 1.551683013e-38
-0.4763751924 0.01443477999 -0.04129821435 1.551683013e-38
-0.006278745364 -0.08371075243 -0.07660059631 1.551683013e-38
-0.4398292899 0.04934386536 0.1447183192 1.551683013e-38
-0.2102805823 -0.06432554126 -0.04681873694 1.551683013e-38
-0.471657455 0.001359365066 -0.1048132181 1.551683013e-38
0.07190477848 -0.06864979863 -0.03076889366 1.551683013e-38
-0.4050458372 0.05507580563 0.1596587747 1.551683013e-38
-0.2481432706 -0.01903791167 -0.08070231974 1.551683013e-38
-0.3457233012 -0.0887773782 -0.1507468969 1.551683013e-38
-0.1125154272 -0.09810056537 0.06881310046 1.551683013e-38
-0.2730903327 0.04049866274 0.05442206189 1.551683013e-38
-0.1374142319 0.1182576865 0.124432534 1.551683013e-38
-0.4220445156 -0.08731381595 -0.01106846984 1.551683013e-38
-0.2204363048 -0.03999463469 0.09082561731 1.551683013e-38
-0.3789630532 0.07170952857 0.01822530478 1.551683013e-38
-0.3055797815 0.09026458859 -0.1069144234 1.551683013e-38
-0.4032206833 0.01796319894 -0.08839445561 1.551683013e-38
-0.2691060603 -0.04735341296 -0.1709055305 1.625043089e-38
-0.3017658293 0.05180194974 -0.1687889844 1.625043089e-38
-0.3867600858 -0.09730617702 -0.1171645969 1.625043089e-38
-0.3913331032 0.06620357931 0.06724771112 1.625043089e-38
-0.176719144 -0.0003007650375 -0.1861940026 1.625043089e-38
-0.1644899547 0.1254681051 -0.1236076504 1.625043089e-38
-0.4657534361 -0.08133724332 0.0169478301 1.625043089e-38
-0.4841111302 -0.03089399263 0.1433501095 1.625043089e-38
-0.3833780587 -0.09748893231 -0.1847260296 1.625043089e-38
-0.4390417039 0.05661723763 -0.09965317696 1.625043089e-38
-0.4235908985 -0.08357280493 -0.09795045853 1.625043089e-38
-0.4432145655 0.05686062202 0.1065443829 1.625043089e-38
-0.2548550963 -0.08744280785 -0.1799450815 1.625043089e-38
-0.2884811461 0.07154039294 -0.1125175953 1.625043089e-38
-0.4574749172 -0.07664749771 -0.03516554832 1.625043089e-38
-0.470877707 -0.01541308779 0.1009716988 1.625043089e-38
-0.3284193873 -0.1007125825 -0.1794398576 1.625043089e-38
-0.3913105428 0.06190031767 -0.07199623436 1.625043089e-38
-0.445620507 -0.07894706726 -0.0627309829 1.625043089e-38
-0.465169698 0.02500604652 0.0878438279 1.625043089e-38
-0.2884384394 -0.09683948755 -0.1804229319 1.625043089e-38
-0.335449487 0.07402038574 -0.07735688239 1.625043089e-38
-0.3131029606 -0.05921480805 -0.1130705699 1.625043089e-38
-0.4457736611 0.06532973051 0.02037372068 1.625043089e-38
-0.1975646168 -0.06741129607 -0.1860851794 1.625043089e-38
-0.2062520981 0.07903578132 -0.1485925615 1.625043089e-38
-0.3627845943 0.06185388193 -0.1395819038 1.625043089e-38
-0.4693936408 0.0178998746 -0.0784259215 1.625043089e-38
-0.3238610029 -0.1044734418 -0.07038382441 1.625043089e-38
-0.4526596367 0.06923616678 -0.04488733411 1.625043089e-38
-0.209413752 0.09649094939 -0.08321080357 1.625043089e-38
-0.3843204379 0.06544104218 -0.03896750882 1.625043089e-38
0.1602899134 -0.113193281 -0.1269428581 1.698367293e-38
0.08576846123 0.09009678662 -0.1411160231 1.698367293e-38
0.2933607399 -0.1397199184 -0.1552966535 1.698367293e-38
-0.2157081515 0.002902345033 -0.1885165721 1.698367293e-38
-0.01257745177 -0.1097904071 -0.1462120563 1.698367293e-38
0.1405523568 0.02554519475 -0.1919554621 1.698367293e-38
0.1269333959 -0.1010427102 0.1475615054 1.698367293e-38
-0.4626182914 0.03418644518 -0.1363267154 1.698367293e-38
0.3414333463 -0.05390509218 -0.1894722581 1.698367293e-38
-0.10008993 0.1238641068 -0.09716099501 1.698367293e-38
0.2915771008 -0.1037172601 -0.0561497584 1.698367293e-38
-0.2656555772 -0.02234511264 -0.1733023971 1.698367293e-38
0.1155114099 -0.05704036728 -0.1796502322 1.698367293e-38
0.01946199127 0.09502345324 -0.145015806 1.698367293e-38
0.2403868139 -0.1042940691 0.1257055402 1.698367293e-38
-0.3840131164 -0.0003633666493 -0.1452440619 1.698367293e-38
0.2585631311 -0.04524490237 -0.1823840886 1.698367293e-38
-0.06141719222 0.1212457642 -0.1132198274 1.698367293e-38
0.2844425738 -0.1023146436 0.06132185459 1.698367293e-38
-0.308056742 -0.02249171957 -0.1579483449 1.698367293e-38
0.1941372305 -0.05046078935 -0.1842627078 1.698367293e-38
-0.01251428016 0.1131244451 -0.1297880411 1.698367293e-38
0.2366558462 -0.0983383432 -0.1189773381 1.698367293e-38
-0.1925107837 -0.07590147853 -0.1279663295 1.698367293e-38
0.06494312733 -0.1042821109 -0.131324932 1.698367293e-38
0.04089451581 -0.04115859792 -0.1582808346 1.698367293e-38
-0.07696598023 -0.08732013404 0.03563834354 1.698367293e-38
-0.1082599685 -0.09049114585 -0.1611601859 1.698367293e-38
0.06941721588 -0.104829669 -0.03817244992 1.698367293e-38
-0.03110202588 -0.08856077492 -0.0308274664 1.698367293e-38
0.1908647269 -0.08262622356 0.02412393503 1.698367293e-38
-0.201590091 -0.04245723411 -0.05878819153 1.698367293e-38
-0.01556692459 -0.1124600619 0.1759820282 1.771655483e-38
0.1536825001 -0.1108253747 -0.1058757603 1.771655483e-38
0.3491324186 -0.1086527929 0.1204641089 1.771655483e-38
0.3116571307 -0.1371200532 -0.189598754 1.771655483e-38
-0.1114208102 -0.1155491769 0.1705706418 1.771655483e-38
0.09481604397 -0.1059558615 -0.03144373372 1.771655483e-38
0.4441307783 -0.09906049818 -0.03581636399 1.771655483e-38
0.4469353259 -0.1014276892 -0.1530207098 1.771655483e-38
0.2874664664 -0.1164478362 0.1718885154 1.771655483e-38
0.2777631879 -0.1389687508 -0.1921935678 1.771655483e-38
0.314000994 -0.09933195263 -0.04142076895 1.771655483e-38
0.3442599475 -0.1191015765 -0.1896812022 1.771655483e-38
0.07245732099 -0.09890263528 0.1550607532 1.771655483e-38
0.2004205436 -0.09548314661 -0.1114999354 1.771655483e-38
0.3977444768 -0.097692132 -0.03768697381 1.771655483e-38
0.4055057764 -0.1041028723 -0.1709031761 1.771655483e-38
0.2226243913 -0.1033908874 0.1570516676 1.771655483e-38
0.2630898952 -0.1217698678 -0.1487150788 1.771655483e-38
0.3581781983 -0.09943012893 -0.03961485624 1.771655483e-38
0.3772573173 -0.1087868437 -0.1763779819 1.771655483e-38
0.1544381529 -0.1052064598 0.1518957615 1.771655483e-38
0.2318245173 -0.1104719564 -0.1319821328 1.771655483e-38
0.2853530347 -0.1052773148 0.03682831675 1.771655483e-38
0.2213479131 -0.05428311974 0.1038359106 1.771655483e-38
-0.05752586201 -0.07002817094 0.1014872938 1.771655483e-38
-0.09113094956 -0.0854287222 -0.01159458049 1.771655483e-38
0.222066462 -0.0483670868 0.03386748955 1.771655483e-38
0.3901349306 -0.1139071509 0.07735020667 1.771655483e-38
0.04947436601 -0.112392582 0.07615988702 1.771655483e-38
0.0157545805 -0.1079593524 -0.07546854764 1.771655483e-38
0.1236994117 -0.08288003504 0.03777973354 1.771655483e-38
0.1786486208 -0.100097619 0.04128710553 1.771655483e-38
-0.3273160458 0.07760742307 -0.07970137149 1.844943813e-38
-0.3660906553 -0.05367325991 -0.1278805137 1.844943813e-38
-0.4872598052 -0.07170014083 -0.02756955475 1.844943813e-38
-0.2049121559 0.125998944 -0.01112425607 1.844943813e-38
-0.2707180381 0.08418659866 0.03403549641 1.844943813e-38
-0.2928325832 -0.004717985634 -0.1497029662 1.844943813e-38
-0.4741608799 -0.02832685411 0.1229172274 1.844943813e-38
-0.316916585 -0.1410094649 -0.1787873209 1.844943813e-38
-0.3704877496 0.05645778403 0.08474437892 1.844943813e-38
-0.475571394 -0.04126482829 -0.1061203852 1.844943813e-38
-0.4842158854 -0.06286233664 0.005458092317 1.844943813e-38
-0.2387580276 -0.006735148374 -0.1244876236 1.844943813e-38
-0.3196711838 0.06784759462 -0.05102877319 1.844943813e-38
-0.3872389495 -0.0422764346 -0.1905822456 1.844943813e-38
-0.4832807183 -0.06400067359 0.07859198004 1.844943813e-38
-0.256187737 -0.1254274696 -0.1728888303 1.844943813e-38
-0.3407709897 0.0659904927 0.03697354347 1.844943813e-38
-0.4671455026 -0.04320862517 -0.1562273651 1.844943813e-38
-0.4844241738 -0.07103342563 0.04496501014 1.844943813e-38
-0.2329060584 -0.07372448593 -0.1551434547 1.844943813e-38
-0.3258082867 0.05904720724 -0.0033502304 1.844943813e-38
-0.4286416769 -0.05043660849 -0.1796245277 1.844943813e-38
-0.4104971588 -0.09038029611 0.06370101124 1.844943813e-38
-0.234789893 0.008050923236 -0.09037055075 1.844943813e-38
-0.2722715735 0.0429222621 -0.04286431149 1.844943813e-38
-0.33784917 -0.04336936399 -0.1786292344 1.844943813e-38
-0.250797987 0.0117093781 0.1139358506 1.844943813e-38
-0.3393597901 -0.02679000795 -0.09906345606 1.844943813e-38
-0.4114999771 0.05981882662 -0.02813784592 1.844943813e-38
-0.4202922583 -0.09333477914 -0.07831994444 1.844943813e-38
-0.3938905895 -0.0940541476 -0.04058000073 1.844943813e-38
-0.1289508939 -0.03339629993 -0.04975067452 1.844943813e-38
-0.3105196953 -0.02529851533 0.1897197962 1.91819627e-38
0.3223600686 -0.02099944279 0.1854747534 1.91819627e-38
0.1692133397 -0.04036513343 0.2000481337 1.91819627e-38
0.3835166097 0.01541855186 0.1223657429 1.91819627e-38
-0.2247860432 0.06338128448 0.1584699154 1.91819627e-38
0.2283028662 -0.04829980433 0.1348300874 1.91819627e-38
0.3394896686 -0.1240836307 0.1798695922 1.91819627e-38
0.491006881 -0.06049191207 0.02123675868 1.91819627e-38
0.08345314115 -0.01152382419 0.177200079 1.91819627e-38
0.4678028822 -0.057953123 0.1380765587 1.91819627e-38
0.1987780631 -0.06390305609 0.1973260641 1.91819627e-38
0.4215358496 0.00763167534 0.1055939794 1.91819627e-38
-0.1296153367 -0.03189689666 0.1912115514 1.91819627e-38
0.2894328833 -0.03793986514 0.1134938523 1.91819627e-38
0.2931128144 -0.1059184149 0.1780066788 1.91819627e-38
0.4784185886 -0.03149208426 0.06046273932 1.91819627e-38
0.03611498326 0.02558916062 0.1764213443 1.91819627e-38
0.4353646934 -0.03755925223 0.1564269364 1.91819627e-38
0.2563996911 -0.08737018704 0.1806717664 1.91819627e-38
0.4498493969 -0.004600954242 0.07771555334 1.91819627e-38
-0.034019541 0.01975628734 0.1780108809 1.91819627e-38
0.3633146286 -0.0396781303 0.1361735463 1.91819627e-38
0.1308879405 0.05323923007 0.103391014 1.91819627e-38
0.3416912854 0.02746545337 0.07117410004 1.91819627e-38
-0.08783496916 0.1002324 0.1388723105 1.91819627e-38
0.1011536419 -0.03026252612 -0.01268067025 1.91819627e-38
0.1830217093 0.05418604985 -0.004414931871 1.91819627e-38
0.4498152435 -0.001519112615 -0.004263435025 1.91819627e-38
0.275793463 0.04059638828 0.09615140408 1.91819627e-38
0.305247128 -0.03778020665 -0.1183969155 1.91819627e-38
-0.02690553851 0.02686413564 0.03996346891 1.91819627e-38
0.2997565269 -0.006840241607 -0.04930927232 1.91819627e-38
0.1012212932 -0.1076059043 -0.08885969222 1.991448586e-38
0.2451997101 -0.1095873713 0.1476074904 1.991448586e-38
0.1677540839 -0.1053361371 0.04547972232 1.991448586e-38
0.3312560916 -0.07860089839 0.1845564246 1.991448586e-38
0.01424066536 -0.1060708687 -0.1163737327 1.991448586e-38
0.2090632766 -0.05555061996 0.1347025782 1.991448586e-38
-0.134885937 -0.1040467247 -0.001945284544 1.991448586e-38
0.4613470435 -0.05798888579 0.1422538757 1.991448586e-38
0.3365709186 -0.1063449159 0.002262685215 1.991448586e-38
0.3617617488 0.01025812142 0.1077036858 1.991448586e-38
0.09394080937 -0.09767443687 0.01785850339 1.991448586e-38
0.3567462862 -0.01609879173 0.1853818297 1.991448586e-38
0.2201738358 -0.1051068678 0.03271317482 1.991448586e-38
0.2615840137 -0.03765773028 0.1343509853 1.991448586e-38
-0.04347822815 -0.09616921842 0.003055078676 1.991448586e-38
0.4242772162 -0.02250725217 0.1514667124 1.991448586e-38
0.299634248 -0.1056764945 0.01228976995 1.991448586e-38
0.3249930143 -0.005924036261 0.1053109393 1.991448586e-38
0.01410102472 -0.09453637153 0.009723587893 1.991448586e-38
0.3860655129 -0.009446071461 0.1719235927 1.991448586e-38
0.2565869093 -0.1049340218 0.02366355434 1.991448586e-38
0.295260042 -0.02308284119 0.1129360497 1.991448586e-38
0.1038701385 -0.07286532223 0.08574167639 1.991448586e-38
0.3036041558 -0.1092903838 0.1856174618 1.991448586e-38
0.1690827012 -0.09968273342 -0.055416096 1.991448586e-38
0.1648134589 -0.06935805827 0.1445694119 1.991448586e-38
-0.2089233249 -0.1043275967 0.006156545598 1.991448586e-38
0.4609575272 -0.02433354594 0.03495489061 1.991448586e-38
0.009549789131 -0.1096681207 0.1324810684 1.991448586e-38
0.3572191596 -0.1109534949 0.02503130585 1.991448586e-38
0.2457421124 -0.0782962814 -0.03335246444 1.991448586e-38
0.4092130065 -0.09640664607 0.02915145084 1.991448586e-38
0.360417515 -0.06132595241 -0.1219322458 2.06466517e-38
0.2693431079 0.01713225245 -0.1910780966 2.06466517e-38
0.4809598625 -0.06542196125 -0.06481622905 2.06466517e-38
0.006428734399 0.1150996983 -0.137154758 2.06466517e-38
0.3810065687 -0.01891165413 -0.1915292442 2.06466517e-38
0.2371170819 0.04228090495 -0.1657958925 2.06466517e-38
0.4708757401 -0.08036391437 0.1129326522 2.06466517e-38
0.1911788881 0.03707526624 -0.1561313421 2.06466517e-38
0.4674928784 -0.06480013579 -0.124113977 2.06466517e-38
0.3495050669 0.01844117604 -0.1665755361 2.06466517e-38
0.4863466024 -0.06853270531 -0.005643173587 2.06466517e-38
0.09269507229 0.08282607794 -0.14523682 2.06466517e-38
0.4109450281 -0.01500172075 -0.1717067212 2.06466517e-38
0.2778355479 0.03382217512 -0.1589376032 2.06466517e-38
0.4830254912 -0.0664255321 0.07206109166 2.06466517e-38
0.1535338908 0.05580561981 -0.1495123208 2.06466517e-38
0.454946667 -0.03616494685 -0.1394072771 2.06466517e-38
0.323892206 0.02784810774 -0.1630118191 2.06466517e-38
0.4884290695 -0.06934849173 0.03213481978 2.06466517e-38
0.1226425171 0.07431362569 -0.1469458342 2.06466517e-38
0.4341286719 -0.0269217398 -0.1599770784 2.06466517e-38
0.3011099696 0.03014544025 -0.1611229628 2.06466517e-38
0.4829142392 -0.04861356318 -0.08607260883 2.06466517e-38
0.05028805137 0.1053500995 -0.1429493278 2.06466517e-38
0.3373416364 -0.02189065889 -0.1258289814 2.06466517e-38
0.1902137995 -0.01775563881 -0.08766934276 2.06466517e-38
0.4734138846 -0.02048587985 -0.02103606984 2.06466517e-38
0.142118156 -0.008122112602 -0.111215204 2.06466517e-38
0.4042166471 0.01625017822 -0.04970311001 2.06466517e-38
0.2579173744 -0.06094973162 -0.1094013676 2.06466517e-38
0.2325524092 -0.1129112542 -0.05417075381 2.06466517e-38
-0.05407226458 0.09680938721 -0.1194504425 2.06466517e-38
-0.2810284793 0.08658730239 0.008530983701 2.137881613e-38
0.005497206468 0.1387530267 0.04407801479 2.137881613e-38
-0.2345839292 -0.03271270543 0.1741588861 2.137881613e-38
0.1926949173 0.047085803 -0.1132387072 2.137881613e-38
-0.2098405361 0.1265501082 0.02520802617 2.137881613e-38
-0.09008520842 0.1420994848 -0.002816349268 2.137881613e-38
-0.4401584566 -0.03394776955 0.1756172776 2.137881613e-38
-0.01736028492 0.1304457188 -0.005388341844 2.137881613e-38
-0.3733629584 0.06042347476 0.1300633252 2.137881613e-38
-0.1070284694 0.114237085 0.1137619168 2.137881613e-38
-0.2657493353 -0.07682999969 0.1938535571 2.137881613e-38
0.1068972573 0.09129983187 -0.05379318073 2.137881613e-38
-0.2593305111 0.0844983533 0.07263675332 2.137881613e-38
-0.0846920982 0.1162538826 0.03736517951 2.137881613e-38
-0.3587146103 -0.05555126444 0.1786335856 2.137881613e-38
0.0330902487 0.1211179271 -0.002265617019 2.137881613e-38
-0.3284160793 0.07002437115 0.10824202 2.137881613e-38
-0.06928348541 0.1116445661 0.1129530147 2.137881613e-38
-0.3163654208 -0.08126380295 0.1776127666 2.137881613e-38
0.08794059604 0.1123640835 -0.02034105547 2.137881613e-38
-0.2922716737 0.07766336948 0.08924076706 2.137881613e-38
-0.07457081974 0.1182722375 0.0725292787 2.137881613e-38
-0.2009540349 -0.05715770647 0.1430428326 2.137881613e-38
0.1653197259 0.08042165637 -0.05903714523 2.137881613e-38
-0.1856906116 0.1210638955 0.0972731486 2.137881613e-38
-0.1774870902 0.1008831859 -0.01480592228 2.137881613e-38
-0.4567418694 0.0163728632 0.1220536903 2.137881613e-38
-0.2018225491 0.1192959771 -0.096884422 2.137881613e-38
-0.3964047432 0.05861718953 -0.001578724594 2.137881613e-38
-0.2685682774 0.08522234112 -0.04985192046 2.137881613e-38
-0.3276326358 0.07300122827 0.01918658055 2.137881613e-38
-0.3194447458 0.0638050139 0.06869276613 2.137881613e-38
0.01995111629 0.1377125829 0.06195404753 2.211062324e-38
-0.1339086443 0.1408669651 -0.02019963413 2.211062324e-38
0.1352805048 0.0771086663 -0.06000808254 2.211062324e-38
-0.3356183469 0.07484900951 -0.01863335818 2.211062324e-38
0.01520141866 0.1384372562 0.01841715164 2.211062324e-38
-0.05781275406 0.1440474391 0.01598307863 2.211062324e-38
0.4182799459 -0.006235652603 -0.1671148986 2.211062324e-38
-0.4524385035 0.03292107955 0.1468162984 2.211062324e-38
0.2223218232 0.04277193174 0.03608736396 2.211062324e-38
-0.2123219967 0.1151628122 0.08619596809 2.211062324e-38
0.2716169357 0.03885145485 -0.1205431297 2.211062324e-38
-0.4114279151 0.06517615914 0.04076170176 2.211062324e-38
0.1022320464 0.1003063098 0.05268390477 2.211062324e-38
-0.1371367425 0.1193635538 0.03892735019 2.211062324e-38
0.3669675887 0.01540440693 -0.1401482671 2.211062324e-38
-0.4478574991 0.04842380434 0.08972884715 2.211062324e-38
0.176241219 0.04796075448 0.05614497513 2.211062324e-38
-0.1731911749 0.1275460273 0.07959340513 2.211062324e-38
0.3373388648 0.02387183346 -0.1257867962 2.211062324e-38
-0.430143714 0.0537247397 0.05722294375 2.211062324e-38
0.1382443756 0.08468984812 0.05379417911 2.211062324e-38
-0.1484577507 0.1307076663 0.06095796451 2.211062324e-38
0.1928938776 0.05550448224 -0.09075008333 2.211062324e-38
-0.3856068254 0.0619026944 -0.01632909477 2.211062324e-38
0.07532842457 0.1132349074 0.05421186611 2.211062324e-38
-0.06598262489 0.05893766508 0.1038120836 2.211062324e-38
0.1931300014 -0.02392837964 -0.1150765046 2.211062324e-38
-0.4318324327 0.06679169834 -0.02094213106 2.211062324e-38
0.05704826489 0.1150434986 -0.07750514895 2.211062324e-38
-0.2835715115 0.1094930023 -0.02439364605 2.211062324e-38
0.203036949 -0.04992852733 -0.0337680392 2.211062324e-38
-0.248388499 0.08505518734 0.09995471686 2.211062324e-38
0.3496479094 0.0001019937918 0.1711907834 2.284242894e-38
0.4557299614 -0.02663710527 0.03982312232 2.284242894e-38
0.2301807851 0.04628236592 0.09091430157 2.284242894e-38
0.2666010559 -0.01742618531 -0.1600215584 2.284242894e-38
0.4070278406 -0.0006180358469 0.126193285 2.284242894e-38
0.3119367063 0.03833369538 -0.0306998156 2.284242894e-38
0.04839537293 0.09671008587 0.1400808096 2.284242894e-38
0.3608233631 -0.10721495 -0.2038142234 2.284242894e-38
0.2341255397 0.04525890574 -0.1361501068 2.284242894e-38
0.450432688 -0.02330893278 -0.1240518391 2.284242894e-38
0.1789128333 0.05195168778 0.1205518097 2.284242894e-38
0.2951537669 -0.004484698642 -0.190600276 2.284242894e-38
0.2322658002 0.05057995021 0.00614795927 2.284242894e-38
0.3603516519 0.0312340185 -0.06854262948 2.284242894e-38
0.1080484837 0.07401677221 0.1330644041 2.284242894e-38
0.339600563 -0.07904670388 -0.190891996 2.284242894e-38
0.2315248251 0.04657675698 -0.08156809211 2.284242894e-38
0.4173568487 0.009528907016 -0.1085962653 2.284242894e-38
0.1414851993 0.06806460023 0.1308361441 2.284242894e-38
0.3127750456 -0.05159921199 -0.1840362102 2.284242894e-38
0.2379264235 0.0515178889 -0.03022331186 2.284242894e-38
0.3875378966 0.02114916593 -0.08903992921 2.284242894e-38
0.1798837334 0.04580446333 0.0724376142 2.284242894e-38
0.249115333 0.02969283424 -0.1720235497 2.284242894e-38
0.4136850536 0.01459250972 0.05051467195 2.284242894e-38
0.3243305981 0.03798119351 -0.0643164143 2.284242894e-38
0.1083765477 0.03137008846 0.05788939819 2.284242894e-38
0.3178488612 0.03361491486 0.041629605 2.284242894e-38
-0.006866943091 0.08375424892 0.1416374594 2.284242894e-38
0.4847190678 -0.05804568157 -0.0237486735 2.284242894e-38
0.1439504474 -0.006425821222 -0.02872119099 2.284242894e-38
0.2409460545 -0.00977304019 0.07956714183 2.284242894e-38
0.3766164482 -0.05536482856 -0.1898757815 2.348204041e-38
0.2848702073 -0.1464350671 -0.164388299 2.348204041e-38
-0.06892541796 -0.1149821132 -0.145349443 2.348204041e-38
0.2163147926 -0.01785475947 -0.1904996336 2.348204041e-38
0.4080998898 -0.03579229861 -0.183693096 2.348204041e-38
0.2603452206 -0.1330533028 -0.1821349263 2.348204041e-38
0.228223145 -0.1135564074 -0.189956665 2.348204041e-38
0.3413304985 -0.01833738387 -0.1903692633 2.348204041e-38
0.4825722277 -0.08492147923 -0.0703484565 2.348204041e-38
0.4017530084 -0.1112068072 -0.1554252058 2.348204041e-38
0.00581108965 -0.09870428592 -0.1246419773 2.348204041e-38
0.2507949471 -0.02676591091 -0.1838479787 2.348204041e-38
0.4498437345 -0.06409936398 -0.161842227 2.348204041e-38
0.3181737363 -0.1357125044 -0.1634534299 2.348204041e-38
0.1372853369 -0.1020219848 -0.1488143206 2.348204041e-38
0.3146056235 -0.02108912356 -0.175484851 2.348204041e-38
0.4724063575 -0.0756033808 -0.1010854095 2.348204041e-38
0.3750045896 -0.1193853021 -0.1526799351 2.348204041e-38
0.06966183335 -0.09892430156 -0.128806293 2.348204041e-38
0.2822991908 -0.02481846325 -0.1747651398 2.348204041e-38
0.4610728621 -0.06405145675 -0.1405854374 2.348204041e-38
0.3445328474 -0.1362873167 -0.1556340456 2.348204041e-38
-0.1351342499 -0.1045607924 -0.09668937325 2.348204041e-38
0.1573381722 -0.003773283912 -0.1429243684 2.348204041e-38
0.4348364472 -0.01959826984 -0.1570067108 2.348204041e-38
0.1879788786 -0.1031928137 -0.06929659098 2.348204041e-38
-0.05382127315 -0.04794584215 -0.03970351443 2.348204041e-38
-0.007274648175 -0.06522726268 0.07330813259 2.348204041e-38
0.3451222181 -0.05639645457 -0.1200945303 2.348204041e-38
0.2626801431 -0.1112616584 -0.03810828924 2.348204041e-38
-0.179243356 -0.08019497246 0.006205121521 2.348204041e-38
0.1401509792 -0.08564727753 -0.140100196 2.348204041e-38
-0.3544404805 -0.06302108616 -0.1754104793 2.347880341e-38
-0.2058773637 -0.1174514815 -0.1912413985 2.347880341e-38
-0.466268748 -0.09079475701 -0.1089603305 2.347880341e-38
0.1225629821 -0.1124577895 -0.1812100857 2.347880341e-38
-0.3321889341 -0.1105487421 -0.1825606078 2.347880341e-38
-0.1723564118 -0.1069259793 -0.1882390529 2.347880341e-38
-0.4689410627 0.03776653111 0.06114215404 2.347880341e-38
-0.1336861253 -0.1048840061 -0.179497242 2.347880341e-38
-0.3582522571 0.06253667176 -0.03582591563 2.347880341e-38
-0.3259699643 -0.1249573976 -0.1914070249 2.347880341e-38
-0.4866259098 -0.03800723329 -0.06851804256 2.347880341e-38
0.01671598107 -0.09948716313 -0.1862235814 2.347880341e-38
-0.3392226696 -0.0127854012 -0.1409476697 2.347880341e-38
-0.2351559997 -0.1203971207 -0.1862851381 2.347880341e-38
-0.4758351743 0.03150087968 0.0004948377027 2.347880341e-38
-0.07624487579 -0.09875831753 -0.1810131222 2.347880341e-38
-0.3462910652 0.04688160121 -0.07390952855 2.347880341e-38
-0.2985242009 -0.1286785901 -0.1852153838 2.347880341e-38
-0.4830892384 -0.009601633064 -0.0381812267 2.347880341e-38
-0.0235506855 -0.09520603716 -0.1777921319 2.347880341e-38
-0.3369865716 0.01424059831 -0.1251357347 2.347880341e-38
-0.2686550021 -0.1361474693 -0.1841191053 2.347880341e-38
-0.4567429423 -0.07309668511 -0.1610803008 2.347880341e-38
0.06421998888 -0.08211585879 -0.1044736803 2.347880341e-38
-0.3032266498 -0.040337421 -0.1361761242 2.347880341e-38
-0.2365226299 -0.1061075032 -0.1141696274 2.347880341e-38
-0.4665212333 0.01781544834 -0.131525293 2.347880341e-38
-0.2946121991 0.08694871515 0.078475371 2.347880341e-38
-0.3617101014 -0.09435343742 -0.007616968825 2.347880341e-38
-0.3143397272 -0.1053808853 -0.004129773937 2.347880341e-38
-0.3844328225 0.04031715542 0.07144347578 2.347880341e-38
-0.06631501019 -0.01439983677 0.02678246982 2.347880341e-38
0.2422852218 -0.07294789702 -0.1533523351 2.347520768e-38
-0.4701999128 -0.01115173288 -0.1251573861 2.347520768e-38
-0.09442766011 -0.106745027 -0.1904486716 2.347520768e-38
-0.2743437588 -0.028142225 -0.1928192079 2.347520768e-38
0.3413898945 -0.05005238578 -0.1853748262 2.347520768e-38
-0.4401713908 0.0005743652 -0.166388616 2.347520768e-38
-0.2728756964 -0.09745859355 -0.1887684166 2.347520768e-38
-0.40284428 -0.006970509887 -0.1920322627 2.347520768e-38
-0.05874246731 -0.1017854288 -0.1883481294 2.347520768e-38
-0.4676123261 0.03962996602 0.02823569253 2.347520768e-38
-0.1618056744 -0.105319798 -0.1815279126 2.347520768e-38
-0.3183311224 -0.006723150611 -0.1943646222 2.347520768e-38
0.1082464233 -0.09229592979 -0.1840974689 2.347520768e-38
-0.4650325775 0.03074681014 -0.1076335907 2.347520768e-38
-0.2271490246 -0.101974085 -0.1761257052 2.347520768e-38
-0.36518839 -0.002038250677 -0.185148254 2.347520768e-38
-0.009383060038 -0.09330788255 -0.1865759194 2.347520768e-38
-0.4654576778 0.04324640706 -0.0126676634 2.347520768e-38
-0.2035130262 -0.1079758033 -0.1765821278 2.347520768e-38
-0.3392109871 -0.004214781336 -0.186038956 2.347520768e-38
0.05793204904 -0.09385822713 -0.1873827577 2.347520768e-38
-0.4659193456 0.03378295153 -0.06942893565 2.347520768e-38
-0.1355183423 -0.09261999279 -0.1803376228 2.347520768e-38
-0.298853308 -0.02539145201 -0.1875913888 2.347520768e-38
0.1712392122 -0.07735177875 -0.1795195937 2.347520768e-38
-0.4631056488 -0.01489943638 -0.1524668038 2.347520768e-38
-0.1977240592 -0.06828480214 -0.1111008376 2.347520768e-38
-0.4152430594 -0.004214749672 -0.1753723323 2.347520768e-38
-0.1837094724 -0.05585548282 -0.04766284674 2.347520768e-38
-0.4873703718 -0.0416123867 -0.03725911677 2.347520768e-38
-0.07481925935 -0.0264142137 -0.07073450834 2.347520768e-38
-0.280633986 0.006860329304 -0.06805087626 2.347520768e-38
0.2929222286 -0.04537321255 0.1300401837 2.347161195e-38
0.4613343477 -0.04013736174 -0.09793196619 2.347161195e-38
0.3156304061 0.0302445218 0.09265272319 2.347161195e-38
0.162864387 0.03865638003 0.04348182306 2.347161195e-38
0.2280212343 -0.07146701217 0.1949312389 2.347161195e-38
0.4372977614 -0.05364012718 -0.1707133055 2.347161195e-38
0.4347687066 0.003442616668 0.0406200029 2.347161195e-38
0.3761339784 -0.03865745664 -0.1423020661 2.347161195e-38
0.4500044584 -0.04907657206 0.1666834056 2.347161195e-38
0.4780256748 -0.04500930384 0.08404559642 2.347161195e-38
0.3614205718 0.02856389061 0.09846005589 2.347161195e-38
0.2584380805 0.03602930158 -0.06313171983 2.347161195e-38
0.3054171205 -0.02710942365 0.1731024832 2.347161195e-38
0.4869890809 -0.04787825793 -0.0524013862 2.347161195e-38
0.4256165922 0.01082214154 0.08682764322 2.347161195e-38
0.3378300667 -0.01365169231 -0.1272530258 2.347161195e-38
0.3867637217 -0.05037295818 0.1674513221 2.347161195e-38
0.4881396294 -0.05460948497 0.04960514978 2.347161195e-38
0.4006685913 0.01884582266 0.09306649119 2.347161195e-38
0.303986311 0.01779027656 -0.1015176475 2.347161195e-38
0.3474302292 -0.04236447439 0.1674580276 2.347161195e-38
0.487921536 -0.05398013815 -0.003763928544 2.347161195e-38
0.2959661782 0.04277111962 0.01707536168 2.347161195e-38
0.1831025928 0.04604325071 -0.05899689719 2.347161195e-38
0.2527949512 -0.02069030516 0.1482890248 2.347161195e-38
0.2322970182 0.02813512646 0.04823055491 2.347161195e-38
0.4123466909 0.01930950023 -0.002166619292 2.347161195e-38
0.1791210473 0.05502117425 -0.1423879415 2.347161195e-38
0.3614850938 0.03517745435 -0.02724314481 2.347161195e-38
0.1680523008 -0.01911740191 0.1422142982 2.347161195e-38
0.367844522 0.01845367812 0.04958150908 2.347161195e-38
0.05981903523 -0.05610150471 0.03466484696 2.347161195e-38
-0.3819411695 -0.1048538983 0.1388856322 2.346801622e-38
-0.2324963659 0.1182010323 -0.06267343462 2.346801622e-38
-0.4940919876 -0.04330244288 0.06250696629 2.346801622e-38
-0.05733062327 0.1380091757 0.06789360195 2.346801622e-38
-0.4662851989 -0.08915419877 0.09301174432 2.346801622e-38
-0.2747148275 0.1049029827 -0.05935075134 2.346801622e-38
-0.4844864011 -0.03618236631 -0.128446579 2.346801622e-38
0.1426403224 0.06845116615 0.05805218592 2.346801622e-38
-0.2773855329 -0.1334142983 0.1791036129 2.346801622e-38
-0.1131574437 0.1235371679 0.05236822367 2.346801622e-38
-0.4941028655 -0.03177944571 0.005624935497 2.346801622e-38
-0.02620529011 0.1216454133 0.08585777134 2.346801622e-38
-0.4152662456 -0.08304142952 0.1215578541 2.346801622e-38
-0.2301597297 0.07561829686 -0.007900431752 2.346801622e-38
-0.4891090393 -0.04088627547 -0.08117941767 2.346801622e-38
0.09789281338 0.09613937885 0.05853797868 2.346801622e-38
-0.3114413917 -0.1240184233 0.1639277339 2.346801622e-38
-0.1048966646 0.1296294332 0.01273965463 2.346801622e-38
-0.4891556501 -0.04151232541 -0.04895378649 2.346801622e-38
0.04131540284 0.1218073666 0.06830411404 2.346801622e-38
-0.3295280039 -0.1141637564 0.1367961615 2.346801622e-38
-0.174598366 0.1244870648 0.007365346886 2.346801622e-38
-0.4826310277 -0.01894117892 0.02475682646 2.346801622e-38
-0.2109697908 -0.05160669237 0.16154854 2.346801622e-38
-0.4569250643 -0.08414025605 0.1216680035 2.346801622e-38
-0.3050230145 0.0577797927 0.01984794438 2.346801622e-38
-0.4787141681 0.01148243435 -0.03369612247 2.346801622e-38
-0.1475447267 -0.04103411362 0.1538833827 2.346801622e-38
-0.2380521595 -0.00408405764 0.04713540897 2.346801622e-38
-0.2176783085 0.1190577298 0.0698935017 2.346801622e-38
-0.4446233809 0.01589250937 0.04102126136 2.346801622e-38
-0.173156172 0.05132855847 0.08767803758 2.346801622e-38
0.1790195107 -0.02539454773 -0.1867463738 2.346406175e-38
0.02286402881 0.05743700638 -0.1743955165 2.346406175e-38
0.2732619643 -0.006721671205 -0.1926928163 2.346406175e-38
-0.1669405401 0.06002018228 -0.1670037657 2.346406175e-38
0.2275224328 0.006464585196 -0.1850366592 2.346406175e-38
0.05641188845 0.05518687889 -0.1763074845 2.346406175e-38
0.4380964935 -0.06712269038 -0.1816222519 2.346406175e-38
-0.3927038908 0.05974367261 -0.1591273397 2.346406175e-38
0.08510918915 0.05765733868 -0.1684165597 2.346406175e-38
-0.1419315487 0.02274009958 -0.1895342022 2.346406175e-38
0.3282039165 -0.0169732552 -0.1920842528 2.346406175e-38
-0.2310032845 0.05977616832 -0.1702441722 2.346406175e-38
0.1625050008 0.04460392147 -0.1666125208 2.346406175e-38
-0.05278012529 0.03222257271 -0.1814740896 2.346406175e-38
0.3962787986 -0.03454813361 -0.1852216274 2.346406175e-38
-0.3334781229 0.05442346632 -0.1593302041 2.346406175e-38
0.1129538119 0.0468207486 -0.1624295563 2.346406175e-38
-0.1106419861 0.02974374965 -0.1797665656 2.346406175e-38
0.3666477799 -0.02503656223 -0.1818795502 2.346406175e-38
-0.2728449404 0.05369952321 -0.1600402445 2.346406175e-38
0.1348618418 0.04644045606 -0.1643007547 2.346406175e-38
-0.07960059494 0.02926417626 -0.1820404977 2.346406175e-38
0.2455964088 -0.01596164331 -0.1860060096 2.346406175e-38
-0.1888348311 0.05993809178 -0.1667098254 2.346406175e-38
0.1916791946 0.04264545068 -0.1625021696 2.346406175e-38
-0.01002699416 0.04383646697 -0.1716374159 2.346406175e-38
0.2746120691 -0.07011865824 -0.1324944049 2.346406175e-38
-0.2957218289 -0.03955938667 -0.1326897293 2.346406175e-38
0.01587478817 -0.03908165917 -0.156099543 2.346406175e-38
-0.223828882 -0.03375494108 -0.1752114743 2.346406175e-38
-0.01034164522 0.005335995462 -0.1601033211 2.346406175e-38
-0.0757586807 0.03389976919 -0.102344431 2.346406175e-38
-0.1705891639 -0.08500175923 0.1934445351 2.346010729e-38
-0.1617650688 0.13390477 0.09719226509 2.346010729e-38
0.122444272 0.04840485752 -0.1589045823 2.346010729e-38
-0.2011357695 0.1101814061 -0.1351312995 2.346010729e-38
-0.3227011263 -0.03427640349 0.1554707587 2.346010729e-38
-0.02283229306 0.1301646829 0.1244893521 2.346010729e-38
0.3262628019 0.03045976162 0.03970999271 2.346010729e-38
-0.0133366324 0.1277282983 -0.09845217317 2.346010729e-38
0.2742392421 -0.08252013475 0.1921569705 2.346010729e-38
-0.03016740642 0.1310367584 -0.0349807106 2.346010729e-38
0.15730308 0.06642586738 -0.05441537872 2.346010729e-38
-0.1285751611 0.1131129563 -0.1306940168 2.346010729e-38
-0.02058624662 -0.07318183035 0.1706750691 2.346010729e-38
-0.02606783062 0.1274558306 0.07668590546 2.346010729e-38
0.2423699796 0.03589111567 -0.003391964361 2.346010729e-38
-0.02374552935 0.1179014817 -0.1218684539 2.346010729e-38
0.1490422338 -0.0798086971 0.1811572313 2.346010729e-38
-0.02067399584 0.1274469644 -0.0004585077695 2.346010729e-38
0.2053154707 0.05092174187 -0.02754016779 2.346010729e-38
-0.06567464769 0.1197723001 -0.1282231808 2.346010729e-38
0.00693224743 -0.08989042044 0.1868681163 2.346010729e-38
-0.02150703222 0.1306475997 0.04143984616 2.346010729e-38
0.1592690349 0.02840641141 -0.1314692199 2.346010729e-38
-0.2752612531 0.06095904857 -0.1393001676 2.346010729e-38
-0.2355582416 -0.0733891502 0.1615308672 2.346010729e-38
-0.03159800544 -0.001571907313 0.1343459934 2.346010729e-38
0.1405470967 0.0685711503 0.115908727 2.346010729e-38
-0.275513351 0.08796411008 0.05635940656 2.346010729e-38
0.2174931169 -0.03869345784 0.1050958633 2.346010729e-38
-0.1715396792 0.1368463635 0.02498240769 2.346010729e-38
0.1130273119 0.02653428726 0.06054844707 2.346010729e-38
-0.2495530248 0.1062617153 -0.02756473608 2.346010729e-38
0.4529142082 -0.1065971032 0.1320705712 2.345615283e-38
0.470998168 -0.1080609784 -0.004631080199 2.345615283e-38
0.06486793607 -0.09459295869 0.1145332977 2.345615283e-38
0.02866014279 0.1282520443 0.09596487135 2.345615283e-38
0.4564394057 -0.1106578112 0.06804822385 2.345615283e-38
0.3005257249 0.03885992989 0.122849144 2.345615283e-38
-0.28864187 -0.07085047662 0.1431166083 2.345615283e-38
0.1090681031 0.0951218605 -0.09037148207 2.345615283e-38
0.08440987021 -0.0811804831 0.1792178005 2.345615283e-38
0.4331571758 -0.004414484836 -0.06545046717 2.345615283e-38
-0.004794188309 -0.05106164142 0.1695462316 2.345615283e-38
0.04693612084 0.1249675155 0.05699495599 2.345615283e-38
0.3146581352 -0.1130263582 0.1233139411 2.345615283e-38
0.2772378623 0.04282285273 0.0736380592 2.345615283e-38
-0.1300728619 -0.06515848637 0.1616631001 2.345615283e-38
0.08480645716 0.1040865257 -0.03479189798 2.345615283e-38
0.1748744845 -0.09424092621 0.1571252644 2.345615283e-38
0.3824011981 0.02084838599 -0.01131903473 2.345615283e-38
-0.0701148808 -0.06916260719 0.1652738005 2.345615283e-38
0.0696818307 0.121225588 0.008431977592 2.345615283e-38
0.2612598836 -0.1132513136 0.1470190287 2.345615283e-38
0.3318834305 0.02778448164 0.03866907954 2.345615283e-38
-0.06331006438 -0.06630542874 0.08638626337 2.345615283e-38
0.1570702046 0.06289453804 0.03784413263 2.345615283e-38
0.3312855363 -0.1021047533 0.04185699299 2.345615283e-38
0.20159024 0.0438144356 0.1165666804 2.345615283e-38
-0.2002867311 -0.03467842937 0.0860529542 2.345615283e-38
0.2378596067 0.05292020366 -0.009174153209 2.345615283e-38
-0.2194579542 0.09887212515 0.06102932245 2.345615283e-38
0.2652230561 -0.01001884788 -0.1164883673 2.345615283e-38
-0.1168896332 -0.04659752175 0.01915364154 2.345615283e-38
0.04534931108 -0.08491189033 0.02051699348 2.345615283e-38
-0.04069976881 0.1230029091 -0.1167411804 2.345219836e-38
0.1941051483 0.04342184961 -0.08733832091 2.345219836e-38
-0.1337636858 0.1348366588 -0.09362141788 2.345219836e-38
0.3626457751 0.01672753692 -0.1000373363 2.345219836e-38
-0.04108985141 0.1372877806 -0.06724560261 2.345219836e-38
0.123120755 0.08224303275 -0.100707002 2.345219836e-38
-0.4071786702 0.07607629895 -0.09293566644 2.345219836e-38
0.4665257335 -0.05575718731 -0.04352041334 2.345219836e-38
0.1170842797 0.08204931766 -0.0506949164 2.345219836e-38
0.2825611532 0.03014642559 -0.0886990875 2.345219836e-38
-0.2115508318 0.06547375768 -0.07339356095 2.345219836e-38
0.3918764889 0.01587844454 -0.09109245241 2.345219836e-38
0.03241819888 0.1173890531 -0.08616956323 2.345219836e-38
0.173026517 0.04739676416 -0.1036484987 2.345219836e-38
-0.3404799402 0.06933388859 -0.1041366756 2.345219836e-38
0.4493602812 -0.01606487483 -0.06200551614 2.345219836e-38
0.08442758024 0.1019565985 -0.08165939897 2.345219836e-38
0.2505850196 0.03476665914 -0.09172174335 2.345219836e-38
-0.2897947133 0.06055131927 -0.09913092852 2.345219836e-38
0.4198934734 0.01008149702 -0.07344894111 2.345219836e-38
0.05973394215 0.1161251366 -0.09551214427 2.345219836e-38
0.2126585543 0.04140616953 -0.09877044708 2.345219836e-38
-0.1224013641 0.08940910548 -0.1416749805 2.345219836e-38
0.3290388584 0.02945214324 -0.09290999174 2.345219836e-38
0.002212908119 0.1266004145 -0.07878696918 2.345219836e-38
0.1504129171 0.07184910774 -0.08701949567 2.345219836e-38
-0.2281755954 0.05375548825 -0.03212163225 2.345219836e-38
0.3587992787 0.02970119007 0.009675424546 2.345219836e-38
-0.2259873599 0.07453861833 -0.1436018646 2.345219836e-38
0.3079665005 0.02936238237 -0.01580754481 2.345219836e-38
0.1795667857 -0.01768311858 0.0211997088 2.345219836e-38
0.2416896969 0.00493380148 -0.01687887497 2.345219836e-38
0.2864079773 -0.1073619053 0.1153838187 2.344788516e-38
-0.2682260573 -0.1302050203 0.1933928579 2.344788516e-38
0.01926017925 -0.1027123779 -0.03075922467 2.344788516e-38
0.09603339434 -0.1078438982 0.1694323868 2.344788516e-38
0.1960133612 -0.0947906971 0.1596719027 2.344788516e-38
-0.1985890865 -0.1012988016 0.1136308014 2.344788516e-38
-0.396091491 -0.09511175752 -0.01272092666 2.344788516e-38
0.2694039047 -0.1299344897 -0.197540015 2.344788516e-38
0.4374896288 0.0002257078886 -0.1148030609 2.344788516e-38
-0.4494214058 -0.08063192666 0.1507806927 2.344788516e-38
-0.147581324 -0.09925390035 -0.02779065259 2.344788516e-38
0.1228538603 -0.105140686 -0.04136697948 2.344788516e-38
0.2179740667 -0.06286180764 -0.1126746982 2.344788516e-38
-0.3077832758 -0.09294763952 0.09831329435 2.344788516e-38
-0.2931240201 -0.09689316154 -0.02275013551 2.344788516e-38
0.1688592136 -0.09722751379 -0.1689075828 2.344788516e-38
0.3527542949 -0.0240203198 -0.1149701625 2.344788516e-38
-0.3942883909 -0.09277842939 0.1277900487 2.344788516e-38
-0.2305785269 -0.09801070392 -0.0249245353 2.344788516e-38
0.1188242286 -0.09786387533 -0.1151564792 2.344788516e-38
0.2965987027 -0.04110225663 -0.1160557121 2.344788516e-38
-0.346996814 -0.09393548965 0.1132558286 2.344788516e-38
-0.04219770432 -0.1014896929 -0.0312092416 2.344788516e-38
0.09676305205 -0.09757143259 0.01124737691 2.344788516e-38
0.06548534334 -0.1056659371 0.08340842277 2.344788516e-38
-0.2415881753 -0.1035746485 0.07126826048 2.344788516e-38
-0.02468302287 -0.07350929826 0.03652725741 2.344788516e-38
0.2106542736 -0.1054823771 -0.008142135106 2.344788516e-38
-0.1543953866 -0.1067536324 0.04354122281 2.344788516e-38
-0.4432368577 -0.08991663903 0.01624214463 2.344788516e-38
0.03767257556 -0.08953619003 -0.1518693119 2.344788516e-38
-0.04837572575 -0.07974100113 0.1295088083 2.344788516e-38
0.08782088757 -0.06102405116 -0.1929210275 2.344357197e-38
0.3716053069 -0.09795105457 -0.1727254987 2.344357197e-38
0.04024222866 -0.02252418175 -0.1926483065 2.344357197e-38
0.1908985376 0.04869771749 -0.01180744451 2.344357197e-38
0.1182109565 -0.08778163046 -0.1816625744 2.344357197e-38
0.3405335844 -0.1054428592 -0.1883585751 2.344357197e-38
-0.3338469565 -0.001403926872 -0.1922279596 2.344357197e-38
0.3863607347 0.02001255192 0.01102931798 2.344357197e-38
0.3079789281 -0.1309725493 -0.1902770996 2.344357197e-38
0.4736289978 -0.09841996431 0.06684657186 2.344357197e-38
-0.1011039689 -0.005452012643 -0.1935455054 2.344357197e-38
0.2751251459 0.03982108459 -0.0008807925042 2.344357197e-38
0.2005474418 -0.1005180404 -0.1857540011 2.344357197e-38
0.423330605 -0.1020011753 -0.08479280025 2.344357197e-38
-0.2533591986 0.004361609463 -0.1870624125 2.344357197e-38
0.3460088372 0.02404031344 0.001590608153 2.344357197e-38
0.2662623227 -0.1236394197 -0.185360834 2.344357197e-38
0.4705234766 -0.09701275826 0.008755803108 2.344357197e-38
-0.1753183752 -0.002071191324 -0.1849659085 2.344357197e-38
0.3172480166 0.03017962351 -0.002946621506 2.344357197e-38
0.2365031391 -0.1129253283 -0.1856173426 2.344357197e-38
0.4516989291 -0.1048510671 -0.05328088626 2.344357197e-38
-0.03109411336 -0.03061951697 -0.1844521165 2.344357197e-38
0.288762331 0.02719768509 -0.113234356 2.344357197e-38
0.1574887633 -0.08883487433 -0.1834305972 2.344357197e-38
0.3532110751 -0.1070547178 -0.05833677948 2.344357197e-38
-0.1381276846 -0.08233208209 -0.1765380204 2.344357197e-38
0.2458468378 -0.04092912003 -0.1291939616 2.344357197e-38
-0.1502961516 0.0895935148 -0.1446287483 2.344357197e-38
0.4392852187 -0.1104205698 0.02261652239 2.344357197e-38
-0.01655390859 -0.1007787287 -0.1018671915 2.344357197e-38
0.132638216 0.02415217087 -0.01661974564 2.344357197e-38
-0.1507823914 0.02839797735 0.1717899442 2.343925737e-38
0.1078371406 0.06688646972 0.1572523117 2.343925737e-38
0.05940838158 0.06893558055 0.1574211717 2.343925737e-38
0.3916419446 -0.01399608981 0.1772064269 2.343925737e-38
-0.170802325 -0.01503353566 0.1831996888 2.343925737e-38
0.08004888147 0.06952504069 0.1582745165 2.343925737e-38
-0.1255582422 0.05661385879 0.1645130217 2.343925737e-38
0.4771898687 -0.0395754911 0.05922735855 2.343925737e-38
-0.3475601375 -0.0203799475 0.1789796054 2.343925737e-38
0.2677178979 0.04196507484 0.145315811 2.343925737e-38
-0.01652250998 0.06389500946 0.1603256464 2.343925737e-38
0.4139851332 0.001288420754 0.144055739 2.343925737e-38
-0.2233041376 -0.01930523664 0.1764011979 2.343925737e-38
0.1676131934 0.04992226139 0.1479170322 2.343925737e-38
-0.06974915415 0.06035555899 0.1623623669 2.343925737e-38
0.4677731395 -0.02843962237 0.09445422143 2.343925737e-38
