# .PCD v0.7 - Point Cloud Data file format
VERSION 0.7
FIELDS x y z rgb
SIZE 4 4 4 4
TYPE F F F F
COUNT 1 1 1 1
WIDTH 830
HEIGHT 1
VIEWPOINT 0 0 0 1 0 0 0
POINTS 830
DATA ascii
0.1573350728 -0.2740744352 -0.02612991259 5.225597518e-39
0.2410928756 -0.005068445113 -0.05559520423 5.962428276e-39
-0.03656803444 -0.1199069247 0.1301402599 5.962428276e-39
0.04717764258 -0.1462779194 0.2424539328 5.962428276e-39
0.07600462437 -0.1011252403 0.2303957641 5.962428276e-39
0.1950494647 -0.08509595692 0.279886663 5.962428276e-39
-0.1876713783 -0.1319486797 -0.05781809613 5.962428276e-39
-0.02560425363 -0.1498151124 -0.1285434663 5.962428276e-39
-0.1380875856 -0.1766674519 0.27979967 5.962428276e-39
0.2709365189 -0.0224542506 0.01943927445 5.962428276e-39
-0.1140794829 -0.1336139292 0.1157514006 5.962428276e-39
0.04026455805 -0.06906754524 0.1785700023 5.962428276e-39
-0.006992531475 -0.09803249687 0.2754410207 5.962428276e-39
0.263718158 -0.0440977402 0.06170031056 5.962428276e-39
-0.1354787499 -0.1523919851 0.1057797819 5.962428276e-39
0.03379295394 -0.09617425501 0.1519985944 5.962428276e-39
-0.03736769781 -0.1090311185 0.2532951236 5.962428276e-39
0.2603555322 -0.0415472798 0.06796941161 5.962428276e-39
-0.1283192337 -0.1629975885 0.10247989 5.962428276e-39
0.0289578028 -0.1090132892 0.1307197064 5.962428276e-39
-0.03432976082 -0.1120107993 0.2568874061 5.962428276e-39
0.1802861392 -0.06261499226 0.2608906627 5.962428276e-39
-0.205898881 -0.1881183833 -0.08294743299 5.962428276e-39
-0.022722736 -0.1459893286 -0.1238946244 5.962428276e-39
-0.127868399 -0.1911338866 0.2350715548 5.962428276e-39
0.2501525879 -0.0334613584 0.03249834105 5.962428276e-39
-0.07213643193 -0.1519659162 0.127163589 5.962428276e-39
0.005928074475 -0.1262455136 0.1641465425 5.962428276e-39
0.001150764059 -0.1154223233 0.24918437 5.962428276e-39
0.2542660236 -0.06783398986 0.1296540201 5.962428276e-39
-0.1905351579 -0.1613832861 0.07996147871 5.962428276e-39
0.04761870578 -0.09711714834 0.05642812699 5.962428276e-39
-0.07356774062 -0.1124340892 0.254398644 5.962428276e-39
0.345570147 -0.07786723226 -0.04056727141 6.698542971e-39
0.008656673133 0.1162191927 0.06242119521 6.698542971e-39
-0.0157126449 -0.1417961866 0.2846843004 6.698542971e-39
0.1043338776 -0.09599799663 0.1633851081 6.698542971e-39
0.121599108 0.07863108814 -0.01406524703 6.698542971e-39
-0.01429091301 0.178931728 -0.1214601025 6.698542971e-39
0.2276279032 -0.1662134081 0.2691702545 6.698542971e-39
0.02811190486 0.0462490432 -0.0983960256 6.698542971e-39
0.3079376519 -0.04831438139 -0.05124720931 6.698542971e-39
-0.02106010169 0.124513939 0.04666348174 6.698542971e-39
0.0868005529 -0.1140811071 0.2728644311 6.698542971e-39
0.06121598929 -0.02357648686 0.152434662 6.698542971e-39
0.2657294571 -0.04379593208 -0.03310057148 6.698542971e-39
-0.03373011947 0.1600533873 0.06988751888 6.698542971e-39
0.1190396845 -0.1248825267 0.2542751431 6.698542971e-39
0.02664282173 -0.01642290317 0.1087783501 6.698542971e-39
0.2592582405 -0.03854138777 -0.0262036752 6.698542971e-39
-0.0334193036 0.1748962104 0.07242514938 6.698542971e-39
0.0963556096 -0.1476378292 0.2672943771 6.698542971e-39
0.007198213134 -0.04038830474 0.07777666301 6.698542971e-39
0.09578753263 0.1028085202 -0.02294937521 6.698542971e-39
-0.04809926823 0.2199117541 -0.1236275658 6.698542971e-39
0.25651595 -0.1741933078 0.2394896299 6.698542971e-39
0.0262613073 0.0861787051 -0.1170333624 6.698542971e-39
0.2719305456 -0.06347112358 -0.01754988916 6.698542971e-39
-0.009304612875 0.1762202829 0.05902153626 6.698542971e-39
0.03006614372 -0.1654213369 0.2887113988 6.698542971e-39
0.008382665925 -0.07269996405 0.1342098266 6.698542971e-39
0.2422742248 -0.01172569301 -0.04337644204 6.698542971e-39
-0.1026355028 0.1536341161 0.0638525933 6.698542971e-39
0.1862662584 -0.1126899794 0.2405285984 6.698542971e-39
0.01771518216 0.04289203882 0.04093727842 6.698542971e-39
-0.3840666413 -0.1929495782 0.01011806447 7.434656265e-39
-0.2502580881 -0.2905531824 -0.004153548274 7.434656265e-39
-0.2272346765 -0.1664409935 0.0780486688 7.434656265e-39
-0.1375838071 -0.3408333659 -0.009741780348 7.434656265e-39
-0.2141101956 -0.1471801102 0.167029351 7.434656265e-39
-0.2358512282 -0.2824113369 -0.2355515361 7.434656265e-39
-0.2054559886 -0.3003823161 -0.06895799935 7.434656265e-39
0.04169630632 -0.3401063979 0.2512118816 7.434656265e-39
-0.3392266035 -0.1628671438 0.05949382484 7.434656265e-39
-0.2483887225 -0.2664466798 -0.06860857457 7.434656265e-39
-0.2378738821 -0.1287726164 0.05126776546 7.434656265e-39
-0.04900287092 -0.299485743 0.007339010481 7.434656265e-39
-0.2700430155 -0.1638213247 0.07388915867 7.434656265e-39
-0.243696779 -0.2867988944 -0.08233887702 7.434656265e-39
-0.2404048592 -0.1328445673 0.04906105995 7.434656265e-39
-0.04279769212 -0.3281629384 0.000626042427 7.434656265e-39
-0.2582464814 -0.1676502228 0.08061476797 7.434656265e-39
-0.2442141324 -0.3030334115 -0.07674349099 7.434656265e-39
-0.2229330391 -0.1531697214 0.05439924821 7.434656265e-39
-0.04405581951 -0.3843463659 0.02270149812 7.434656265e-39
-0.2007151693 -0.1071734205 0.1814872026 7.434656265e-39
-0.2075358033 -0.3164717257 -0.1989828348 7.434656265e-39
-0.2060623616 -0.2806937993 -0.0769463703 7.434656265e-39
0.07473500073 -0.3202284575 0.2109380811 7.434656265e-39
-0.2798873484 -0.1726948917 0.03461691737 7.434656265e-39
-0.2371674776 -0.3084426224 -0.04551772401 7.434656265e-39
-0.2033668756 -0.188361764 0.08620725572 7.434656265e-39
-0.07961207628 -0.4218918979 0.0197253339 7.434656265e-39
-0.2623131871 -0.1316633373 0.1321222335 7.434656265e-39
-0.2596026063 -0.2749619186 -0.138893649 7.434656265e-39
-0.2215833068 -0.1405834854 0.0190740265 7.434656265e-39
0.01624573953 -0.2716327906 0.008839772083 7.434656265e-39
-0.1635089815 0.01145488583 -0.09834459424 8.170410826e-39
-0.2009894699 -0.04218435287 -0.1123447567 8.170410826e-39
-0.06332178414 -0.07323752344 -0.1633990854 8.170410826e-39
0.02416201495 -0.06724774837 -0.3094953299 8.170410826e-39
0.123622641 -0.04610190913 -0.1664362252 8.170410826e-39
-0.2715847194 -0.1885626912 -0.009167473763 8.170410826e-39
0.1198879033 -0.1795613468 -0.06644804031 8.170410826e-39
-0.1960254163 -0.1356171221 -0.2179463208 8.170410826e-39
-0.05886125192 0.02241386846 -0.1222087815 8.170410826e-39
-0.2340194136 -0.0103495596 -0.0932912305 8.170410826e-39
-0.04263773933 -0.1270331144 -0.1162286028 8.170410826e-39
-0.0727339983 -0.01880017482 -0.3081521094 8.170410826e-39
-0.02314590663 0.01408817898 -0.1145418733 8.170410826e-39
-0.2153841406 -0.01122741867 -0.06707124412 8.170410826e-39
-0.06447864324 -0.1239004955 -0.107459031 8.170410826e-39
-0.09645648301 -0.03850100562 -0.2756102085 8.170410826e-39
-0.01300756261 0.004683463834 -0.1193832979 8.170410826e-39
-0.2094008029 -0.02509726956 -0.06605838984 8.170410826e-39
-0.07308244705 -0.1212090254 -0.1090845838 8.170410826e-39
-0.1044318452 -0.08252049983 -0.2679488957 8.170410826e-39
0.1432795674 -0.03120557778 -0.1670088321 8.170410826e-39
-0.2316545993 -0.203535676 0.03000444733 8.170410826e-39
0.1056352407 -0.1762168705 -0.09402124584 8.170410826e-39
-0.2204032987 -0.1459329575 -0.1698232889 8.170410826e-39
-0.05413389206 0.0007994322223 -0.1157570705 8.170410826e-39
-0.1879689395 -0.01729251072 -0.07203266025 8.170410826e-39
-0.07904767245 -0.09964032471 -0.08753699064 8.170410826e-39
-0.07833127677 -0.1208077818 -0.2735027075 8.170410826e-39
0.02797783725 0.02115423046 -0.1256851554 8.170410826e-39
-0.2616589069 -0.03580693528 -0.06440290064 8.170410826e-39
0.008584959432 -0.1084887907 -0.130611673 8.170410826e-39
-0.1290903986 -0.00708230678 -0.2657319009 8.170410826e-39
0.1309941709 -0.217653051 0.02887548693 8.906165387e-39
0.1308504343 -0.1103080139 0.2615382075 8.906165387e-39
0.1772873253 -0.1063756347 0.2105591595 8.906165387e-39
0.1471306086 -0.09776174277 0.1729135811 8.906165387e-39
0.02271610126 -0.2493720651 0.09036178887 8.906165387e-39
-0.08733414859 -0.07852444053 0.2655825913 8.906165387e-39
0.3172727227 -0.182807371 0.04713661224 8.906165387e-39
0.1545817107 -0.2789413035 0.1520153731 8.906165387e-39
0.09706860036 -0.2303205431 0.05753010884 8.906165387e-39
0.1154060885 -0.1197807789 0.2715457082 8.906165387e-39
0.2855512798 -0.1391296089 0.1547304392 8.906165387e-39
0.113240689 -0.08888743818 0.1865967065 8.906165387e-39
0.06036726013 -0.2617987692 0.05977351964 8.906165387e-39
0.1017432585 -0.1157007888 0.2561097741 8.906165387e-39
0.28826949 -0.1566513926 0.1496302336 8.906165387e-39
0.1191388965 -0.1210482344 0.1849642247 8.906165387e-39
0.05368300155 -0.2638945282 0.05089979619 8.906165387e-39
0.1053274348 -0.1145012602 0.2535752058 8.906165387e-39
0.2721726298 -0.1762485355 0.1710205376 8.906165387e-39
0.1248822585 -0.1767076999 0.2073928118 8.906165387e-39
-0.001851422479 -0.2407380193 0.1065275371 8.906165387e-39
-0.1108298898 -0.03933244199 0.2261106372 8.906165387e-39
0.3016747832 -0.1988751292 0.0352829285 8.906165387e-39
0.1601513326 -0.2731979787 0.15060094 8.906165387e-39
0.06752672046 -0.2639162242 0.04114224017 8.906165387e-39
0.1181373596 -0.122801967 0.2445212603 8.906165387e-39
0.2339191437 -0.176730901 0.1983638704 8.906165387e-39
0.1190793812 -0.1961572319 0.2210303247 8.906165387e-39
0.06627237052 -0.2432517856 0.08690899611 8.906165387e-39
0.0329130441 -0.09846382588 0.2601302862 8.906165387e-39
0.3133628666 -0.1589595377 0.1180988699 8.906165387e-39
0.1365202665 -0.1299882382 0.1829134673 8.906165387e-39
0.04671831056 -0.1479403526 -0.268944025 9.641561216e-39
0.05755277723 -0.2432859242 -0.258957088 9.641561216e-39
0.1565438807 -0.1105471104 -0.175602302 9.641561216e-39
0.08024366945 -0.07835754752 -0.2458087355 9.641561216e-39
-0.13398166 -0.1180621684 -0.3035176694 9.641561216e-39
0.2397325635 -0.3244268 -0.1254880577 9.641561216e-39
0.3287515342 -0.1991898566 0.0207115896 9.641561216e-39
0.1571923792 -0.2766838074 -0.1510324627 9.641561216e-39
0.0002329722047 -0.135735184 -0.3062540591 9.641561216e-39
0.07093258202 -0.2946510017 -0.2397389561 9.641561216e-39
0.1820417345 -0.123577483 -0.1309129298 9.641561216e-39
0.1473982632 -0.1230982989 -0.2536047995 9.641561216e-39
-0.0118290633 -0.1398216188 -0.2933662534 9.641561216e-39
0.04264441133 -0.3447749317 -0.1783733964 9.641561216e-39
0.2025687099 -0.1352637559 -0.1114167497 9.641561216e-39
0.1390364319 -0.1237540245 -0.2074671984 9.641561216e-39
-0.009635008872 -0.1371527016 -0.2892069221 9.641561216e-39
0.03653078526 -0.3654977977 -0.1638636589 9.641561216e-39
0.2013512999 -0.1579555273 -0.1225411966 9.641561216e-39
0.1405383795 -0.1668917835 -0.2213957906 9.641561216e-39
-0.1303872466 -0.06386531144 -0.2597985268 9.641561216e-39
0.2278435379 -0.3338758945 -0.0876584053 9.641561216e-39
0.2687456608 -0.2223548889 0.06415048242 9.641561216e-39
0.1884623468 -0.2489046454 -0.1363231838 9.641561216e-39
0.01480945665 -0.1520593762 -0.2919279337 9.641561216e-39
0.02933095023 -0.3577033877 -0.1783445179 9.641561216e-39
0.1620593071 -0.1570823342 -0.1330878437 9.641561216e-39
0.123459734 -0.1656402647 -0.2553700805 9.641561216e-39
-0.05711374059 -0.1179481074 -0.2931201756 9.641561216e-39
0.1168108433 -0.3575100303 -0.1694194078 9.641561216e-39
0.2636152804 -0.1372404099 -0.07553952187 9.641561216e-39
0.1659036726 -0.1374824047 -0.2093761563 9.641561216e-39
-0.02007234097 0.02608896978 -0.1068054214 1.037659831e-38
-0.2106696069 -0.1102176011 -0.1052369103 1.037659831e-38
-0.09630307555 -0.1776746362 -0.1690663099 1.037659831e-38
-0.01264661178 -0.1262276918 -0.2641944885 1.037659831e-38
0.1762948632 -0.09594737738 -0.1051010787 1.037659831e-38
-0.2606167793 -0.09006848186 0.1264544725 1.037659831e-38
-0.2833268046 -0.2489366233 0.002197947586 1.037659831e-38
-0.2089373916 -0.1612374932 -0.2190078199 1.037659831e-38
0.01373380516 0.02307102084 -0.1524919122 1.037659831e-38
-0.2094246447 -0.1204231754 -0.06517358869 1.037659831e-38
-0.1838213056 -0.1608204395 -0.1959658861 1.037659831e-38
-0.07952025533 -0.1440326869 -0.2476139516 1.037659831e-38
0.01672740653 0.02989733033 -0.1481036246 1.037659831e-38
-0.2055515647 -0.1239549518 -0.03617141396 1.037659831e-38
-0.2263598889 -0.1736512035 -0.1872748435 1.037659831e-38
-0.09070838988 -0.1412539482 -0.2232363224 1.037659831e-38
0.01831529289 0.0287314225 -0.1445044875 1.037659831e-38
-0.2019387335 -0.1354927719 -0.0334492065 1.037659831e-38
-0.214670524 -0.1991346925 -0.1761184931 1.037659831e-38
-0.09307870269 -0.163497135 -0.2217994928 1.037659831e-38
0.1764001101 -0.03092120588 -0.0949966386 1.037659831e-38
-0.2589982748 -0.08574010432 0.1388880312 1.037659831e-38
-0.2574489713 -0.2167272568 -0.006138605066 1.037659831e-38
-0.2231859714 -0.1413228959 -0.1630738825 1.037659831e-38
0.001677869121 0.03039428219 -0.1395879239 1.037659831e-38
-0.1926624924 -0.1388717294 -0.05545246229 1.037659831e-38
-0.1808598489 -0.2099498361 -0.1889968067 1.037659831e-38
-0.07708145678 -0.1930764765 -0.2388731986 1.037659831e-38
0.04936168343 0.01047048811 -0.1508517265 1.037659831e-38
-0.2498873472 -0.0871854201 0.01101005264 1.037659831e-38
-0.2439683676 -0.1822192818 -0.1496917307 1.037659831e-38
-0.1326423436 -0.1487537473 -0.2048958391 1.037659831e-38
0.2427470982 -0.0952976644 -0.04465261102 1.111163541e-38
0.1716336012 -0.07590731978 0.1303813905 1.111163541e-38
0.216155991 -0.1191030741 0.1180483773 1.111163541e-38
0.1863000691 -0.09646435827 -0.1626206934 1.111163541e-38
0.2689709663 -0.1227597594 -0.2005352527 1.111163541e-38
-0.03834016994 -0.04261786118 0.177908361 1.111163541e-38
0.2714402676 -0.1800721884 -0.01719455793 1.111163541e-38
0.04154346511 -0.3116046488 0.1098784283 1.111163541e-38
0.2801299989 -0.08117287606 -0.07945135236 1.111163541e-38
0.1364761293 -0.04914461821 0.1549144983 1.111163541e-38
0.2198647559 -0.1259016395 0.07248662412 1.111163541e-38
0.1608763337 -0.06943125278 -0.1324846596 1.111163541e-38
0.2502219379 -0.1004628986 -0.08259496093 1.111163541e-38
0.1050930545 -0.04316163063 0.1518827528 1.111163541e-38
0.2446317077 -0.1444402486 0.072245121 1.111163541e-38
0.1445947886 -0.09879290313 -0.08888090402 1.111163541e-38
0.243620649 -0.09901884198 -0.08186170459 1.111163541e-38
0.1101869568 -0.04096619412 0.1458149403 1.111163541e-38
0.2503793836 -0.155170843 0.07968365401 1.111163541e-38
0.1559160948 -0.1328313798 -0.06467922032 1.111163541e-38
0.2341422588 -0.1290467829 -0.1751432568 1.111163541e-38
-0.07724912465 -0.00733236596 0.1668272913 1.111163541e-38
0.2503219247 -0.2037418783 -0.03001260757 1.111163541e-38
0.03992347792 -0.2914580405 0.1431391686 1.111163541e-38
0.2405392677 -0.1018569469 -0.06705927104 1.111163541e-38
0.1345036477 -0.05231216177 0.1362317204 1.111163541e-38
0.238115862 -0.1562250406 0.09685821086 1.111163541e-38
0.1834587604 -0.1698658615 -0.09159071743 1.111163541e-38
0.2552758455 -0.09225208312 -0.1251289099 1.111163541e-38
0.03928850964 -0.02654581144 0.1778041571 1.111163541e-38
0.2803317308 -0.1610531658 0.0650466159 1.111163541e-38
0.1074071154 -0.1041550264 -0.03545994684 1.111163541e-38
-0.28276366 -0.1039585918 -0.0676176548 1.184631237e-38
-0.04717037082 -0.03000501357 -0.07911087573 1.184631237e-38
-0.04625047743 -0.1361994743 -0.1399958879 1.184631237e-38
-0.1954429448 -0.1718181521 -0.2040727437 1.184631237e-38
-0.3202475607 -0.09223595262 0.00816903729 1.184631237e-38
-0.1296491772 -0.007393762004 -0.0224388279 1.184631237e-38
-0.2511420846 -0.183648333 0.06419860572 1.184631237e-38
-0.2083965689 -0.09702070057 -0.1899354458 1.184631237e-38
-0.278988421 -0.04995702207 -0.05436001346 1.184631237e-38
-0.05741390586 -7.38427043e-05 -0.08176745474 1.184631237e-38
-0.1214748546 -0.07845301926 -0.1293590069 1.184631237e-38
-0.1413394511 -0.1685207337 -0.1760971844 1.184631237e-38
-0.2638159394 -0.07812018692 -0.05345693231 1.184631237e-38
-0.06459708512 0.01503530797 -0.08342184871 1.184631237e-38
-0.1507296264 -0.04152702168 -0.1376372129 1.184631237e-38
-0.1380612254 -0.1574060768 -0.1754218936 1.184631237e-38
-0.2610660493 -0.08964692801 -0.0456754677 1.184631237e-38
-0.0647854656 0.0177759137 -0.07950121164 1.184631237e-38
-0.1550715417 -0.06314454228 -0.1327580512 1.184631237e-38
-0.1336924434 -0.1739854068 -0.1747595966 1.184631237e-38
-0.2733268738 -0.1347703487 0.006220752373 1.184631237e-38
-0.1297538728 0.06201601401 -0.01278070081 1.184631237e-38
-0.2326119691 -0.1263262779 0.1150377318 1.184631237e-38
-0.2156472057 -0.0704472512 -0.1726393402 1.184631237e-38
-0.2467143685 -0.1116380021 -0.04470008984 1.184631237e-38
-0.04990026727 -0.003714499762 -0.06669285893 1.184631237e-38
-0.1351749748 -0.1123593971 -0.1770884693 1.184631237e-38
-0.1441090107 -0.2024389952 -0.1969029754 1.184631237e-38
-0.2892886698 -0.07216733694 -0.05532950908 1.184631237e-38
-0.09241041541 0.04210754111 -0.09155974537 1.184631237e-38
-0.1721149981 0.006076871883 -0.08260434121 1.184631237e-38
-0.1423363984 -0.1206664741 -0.1900695711 1.184631237e-38
-0.22311607 -0.151549384 -0.1708562672 1.258099074e-38
-0.114255473 -0.06214597821 0.003705596318 1.258099074e-38
-0.2883512676 -0.131584689 -0.05863888934 1.258099074e-38
-0.2642963827 -0.1053035557 -0.1580195725 1.258099074e-38
-0.01244155969 -0.2100088 -0.1754303277 1.258099074e-38
-0.1735686064 -0.06939088553 0.205307126 1.258099074e-38
-0.2196158171 -0.1819960326 -0.1177124903 1.258099074e-38
0.00789758563 -0.1378559172 -0.09269034863 1.258099074e-38
-0.2040627301 -0.1932643652 -0.1821046472 1.258099074e-38
-0.1452749819 -0.01490833238 0.06343657523 1.258099074e-38
-0.2752064764 -0.1058333442 -0.1282775253 1.258099074e-38
-0.3069870174 -0.09426599741 -0.1632977575 1.258099074e-38
-0.1796825528 -0.1921098232 -0.1788892597 1.258099074e-38
-0.14884305 -0.001033482724 0.07007939368 1.258099074e-38
-0.2664238214 -0.1004754379 -0.1203820258 1.258099074e-38
-0.2683225274 -0.1055781394 -0.1395029128 1.258099074e-38
-0.1788514704 -0.2068622261 -0.1795953959 1.258099074e-38
-0.1358423382 0.00105150009 0.06687386334 1.258099074e-38
-0.2569794953 -0.1286001801 -0.1118611917 1.258099074e-38
-0.2290727645 -0.1087983102 -0.1536655426 1.258099074e-38
0.01104219072 -0.2291892618 -0.1564891189 1.258099074e-38
-0.1927011609 -0.03931122646 0.1969657838 1.258099074e-38
-0.2383276522 -0.1327738613 -0.1256089211 1.258099074e-38
0.0005702524795 -0.132309854 -0.08365107328 1.258099074e-38
-0.2009905726 -0.2014449835 -0.1806922108 1.258099074e-38
-0.1193814501 -0.01325970143 0.03281718493 1.258099074e-38
-0.2771445215 -0.1473255754 -0.09576834738 1.258099074e-38
-0.2434568554 -0.1268535405 -0.1580785215 1.258099074e-38
-0.1418989003 -0.2011980116 -0.1826150715 1.258099074e-38
-0.1781160384 0.01255508326 0.1151770353 1.258099074e-38
-0.2542591393 -0.07786826044 -0.1240713075 1.258099074e-38
-0.2140404284 -0.08160343766 -0.1229626685 1.258099074e-38
0.238093853 -0.08732032776 -0.1785359085 1.331530897e-38
0.2354018837 -0.08032231033 0.04056535289 1.331530897e-38
0.1390266716 -0.1671248525 -0.05144675449 1.331530897e-38
0.1087495312 -0.1969025731 -0.1900325865 1.331530897e-38
0.03204644844 -0.08680303395 -0.0377541557 1.331530897e-38
0.2803084552 -0.1730491519 0.1628866494 1.331530897e-38
0.2620467246 -0.2622521222 0.01673982851 1.331530897e-38
-0.01529666688 -0.1421628892 -0.2965810597 1.331530897e-38
0.2096963376 -0.1080196574 -0.2159269601 1.331530897e-38
0.2684553862 -0.09161714464 0.05472719297 1.331530897e-38
0.1852780432 -0.1243872195 -0.02231696993 1.331530897e-38
0.1798624843 -0.0986874029 -0.2602636814 1.331530897e-38
0.1335050762 -0.1114413366 -0.2112812847 1.331530897e-38
0.2687542439 -0.09469397366 0.05795774981 1.331530897e-38
0.1924686283 -0.1410892457 -0.03920045123 1.331530897e-38
0.1486189365 -0.1222345755 -0.234754622 1.331530897e-38
0.1307539195 -0.1145685464 -0.2089167535 1.331530897e-38
0.2705864012 -0.09501781315 0.05558958277 1.331530897e-38
0.2035832256 -0.1835714728 -0.05014059693 1.331530897e-38
0.1370625645 -0.1451115012 -0.2243756801 1.331530897e-38
0.02676311135 -0.09094695002 -0.01251454093 1.331530897e-38
0.2577084899 -0.185587883 0.1737847328 1.331530897e-38
0.244163081 -0.2642903924 0.01425028779 1.331530897e-38
-0.08243278414 -0.1315915734 -0.2598333955 1.331530897e-38
0.165729776 -0.1052280515 -0.1976994872 1.331530897e-38
0.2522447705 -0.09169711173 0.05027932674 1.331530897e-38
0.2084164172 -0.1919665337 -0.05537767336 1.331530897e-38
0.1510211676 -0.1777090579 -0.2155863643 1.331530897e-38
0.09107425064 -0.1164739355 -0.2207492292 1.331530897e-38
0.2953468263 -0.1085837632 0.08317676932 1.331530897e-38
0.1844581515 -0.164432317 -0.03182271868 1.331530897e-38
0.09568320215 -0.09615194798 -0.2404692471 1.331530897e-38
-0.0161187537 -0.0753653869 0.1617020518 1.404926846e-38
-0.03710953891 -0.08056019247 0.2262533158 1.404926846e-38
0.02688726783 -0.03152927011 0.07078745216 1.404926846e-38
-0.2862585187 -0.08864501864 0.006586500909 1.404926846e-38
0.1641083807 -0.07157075405 0.2670581341 1.404926846e-38
0.1360055953 -0.2307195812 0.2764727175 1.404926846e-38
0.03962375224 0.3115262985 -0.006932788063 1.404926846e-38
-0.2040088922 -0.1940368116 0.1504244953 1.404926846e-38
0.04272577539 -0.03900940716 0.1850045621 1.404926846e-38
-0.02491826937 -0.09583599865 0.2672268748 1.404926846e-38
0.001104920637 0.02796812914 0.03582910076 1.404926846e-38
-0.3765584826 -0.06429366767 0.07630054653 1.404926846e-38
0.05459369346 -0.03804920241 0.180390507 1.404926846e-38
-0.02171075344 -0.1315162182 0.2473088056 1.404926846e-38
-0.004023634363 0.124790214 0.01854308508 1.404926846e-38
-0.3623051047 -0.07948258519 0.08352318406 1.404926846e-38
0.0477848798 -0.0400990285 0.1771989465 1.404926846e-38
-0.01291270275 -0.1416870803 0.2470583916 1.404926846e-38
0.01754044369 0.219552651 0.01380208414 1.404926846e-38
-0.3436377048 -0.1016349271 0.08257054538 1.404926846e-38
0.194147408 -0.03893342242 0.2345123738 1.404926846e-38
0.09012100846 -0.2585266829 0.2282489091 1.404926846e-38
0.05930045992 0.3538505733 -0.02961170487 1.404926846e-38
-0.1837684661 -0.1533179134 0.1476054043 1.404926846e-38
-0.002971655224 -0.06225289032 0.1719067097 1.404926846e-38
-0.02698633261 -0.1317161173 0.2326979339 1.404926846e-38
0.009664026089 0.15205805 0.0304755643 1.404926846e-38
-0.3342341781 -0.1094039008 0.05721409991 1.404926846e-38
0.1283434629 -0.02416963875 0.2017813623 1.404926846e-38
0.02428706549 -0.1559623033 0.256403327 1.404926846e-38
0.02690832317 0.2683683038 -0.001020297059 1.404926846e-38
-0.3552241027 -0.09799265116 0.1240816489 1.404926846e-38
-0.01773680374 -0.2141453177 -0.1744858772 1.478322936e-38
0.2812235951 -0.1015052423 -0.1525538862 1.478322936e-38
0.1283336282 -0.1093323603 -0.2706567943 1.478322936e-38
0.0883128196 -0.1273033172 -0.2334643006 1.478322936e-38
-0.2526418269 -0.1801716983 -0.1504374892 1.478322936e-38
0.08928140253 -0.2486824691 -0.06260808557 1.478322936e-38
-0.1039393619 -0.117974557 -0.2811894119 1.478322936e-38
0.2040386051 -0.1548167169 -0.2046296299 1.478322936e-38
-0.07213253528 -0.1917210966 -0.1834902465 1.478322936e-38
0.2754870653 -0.1027210727 -0.06212487817 1.478322936e-38
0.05440161377 -0.1221218109 -0.2864291072 1.478322936e-38
0.1438312382 -0.1309859157 -0.2623817027 1.478322936e-38
-0.09370687604 -0.1859588325 -0.178111434 1.478322936e-38
0.2636314332 -0.1150296926 -0.03890391812 1.478322936e-38
0.01999490708 -0.1346284747 -0.2733500004 1.478322936e-38
0.1674190909 -0.1511542648 -0.2175880224 1.478322936e-38
-0.08968766779 -0.1930391639 -0.1818246692 1.478322936e-38
0.2581362724 -0.1171575189 -0.03459114581 1.478322936e-38
0.01522082742 -0.1333133578 -0.2832714617 1.478322936e-38
0.1684290022 -0.1659567952 -0.2039617449 1.478322936e-38
-0.2504617274 -0.2113876939 -0.1248229817 1.478322936e-38
0.06316550821 -0.2374773175 -0.0635279566 1.478322936e-38
-0.1206281483 -0.1197911724 -0.2582333982 1.478322936e-38
0.2341882437 -0.1880648583 -0.1446519643 1.478322936e-38
-0.05780758709 -0.2048850507 -0.1799035519 1.478322936e-38
0.2484781295 -0.1099470109 -0.06913302094 1.478322936e-38
0.05951378867 -0.1427520812 -0.2994114459 1.478322936e-38
0.1513630748 -0.1777341366 -0.1945464313 1.478322936e-38
-0.166611433 -0.1600517631 -0.1758961827 1.478322936e-38
0.2420343012 -0.154237628 -0.02613202669 1.478322936e-38
-0.02240287885 -0.1286740601 -0.2576150596 1.478322936e-38
0.1851267517 -0.1411069632 -0.2329235971 1.478322936e-38
-0.02223298885 0.04909441993 0.07398635894 1.551683013e-38
0.1548016071 -0.06852323562 -0.1766069531 1.551683013e-38
-0.05767046288 -0.1461633742 0.01630349085 1.551683013e-38
0.1820714772 -0.02401294 -0.05163833499 1.551683013e-38
0.09668349475 0.03086175956 -0.01985547505 1.551683013e-38
0.2326791137 -0.04568919167 0.02449252829 1.551683013e-38
0.09305755049 -0.159146592 0.2252521366 1.551683013e-38
-0.03400704637 -0.00739051355 -0.1567990035 1.551683013e-38
0.0002870261669 0.06687694788 0.1085518748 1.551683013e-38
0.1794805527 -0.03807080537 -0.1397745013 1.551683013e-38
-0.05625870451 -0.2219600379 0.07724486291 1.551683013e-38
0.1343100667 0.01826396212 -0.1215261444 1.551683013e-38
0.02240443788 0.08116130531 0.1026511937 1.551683013e-38
0.1781153828 -0.04162497818 -0.1169612184 1.551683013e-38
-0.04832220078 -0.2317326814 0.08857821673 1.551683013e-38
0.1005874425 0.02020629309 -0.1296730638 1.551683013e-38
0.02530811355 0.07896029204 0.09856533259 1.551683013e-38
0.1800061613 -0.05043061823 -0.1172218397 1.551683013e-38
-0.01694427617 -0.1967957765 0.1049368083 1.551683013e-38
0.09020154923 0.012432307 -0.1330502033 1.551683013e-38
0.09509645402 0.0841396153 -0.00969996769 1.551683013e-38
0.2060308009 -0.03481457382 0.053263776 1.551683013e-38
0.09435950965 -0.1762813032 0.2010130584 1.551683013e-38
-0.04833833128 0.004828072619 -0.158042863 1.551683013e-38
0.01299371477 0.06979900599 0.09167728573 1.551683013e-38
0.1714044809 -0.08153451234 -0.1528652161 1.551683013e-38
-0.009474694729 -0.1859479547 0.06579544395 1.551683013e-38
0.1158497483 -0.0129175745 -0.1240145117 1.551683013e-38
0.04146074131 0.0845002532 0.09914049506 1.551683013e-38
0.2019076347 -0.02910755575 -0.06643211842 1.551683013e-38
-0.02772930823 -0.2217863053 0.1399754137 1.551683013e-38
0.05111514404 0.0438214913 -0.1487274468 1.551683013e-38
0.06137872115 -0.1279910952 0.2126437426 1.625043089e-38
-0.01435939595 -0.07890446484 0.1888774484 1.625043089e-38
0.1091222465 -0.115637891 0.2540189922 1.625043089e-38
0.006247543264 -0.08279178292 0.2631741166 1.625043089e-38
-0.09136377275 -0.2014509141 0.2418207973 1.625043089e-38
-0.2235991359 -0.02204644121 0.06900882721 1.625043089e-38
0.2003235221 -0.2072598338 0.2308723629 1.625043089e-38
-0.1865385324 -0.1464252621 0.2395382077 1.625043089e-38
0.03357819468 -0.1104845852 0.2083772421 1.625043089e-38
-0.06134944782 -0.01881108247 0.2172810882 1.625043089e-38
0.1354514658 -0.1421388239 0.2596665025 1.625043089e-38
-0.08843082935 -0.1124151796 0.3024764657 1.625043089e-38
0.02221131697 -0.1333941072 0.2010263205 1.625043089e-38
-0.1181163937 -0.01102054399 0.2059709132 1.625043089e-38
0.1382403076 -0.1716611683 0.253715694 1.625043089e-38
-0.1139391884 -0.1485467851 0.3008203208 1.625043089e-38
0.02181686647 -0.1410017908 0.2010485828 1.625043089e-38
-0.1143115982 -0.02134549804 0.2033658922 1.625043089e-38
0.1315118819 -0.1889541894 0.260301441 1.625043089e-38
-0.1285254508 -0.2075144947 0.3198251128 1.625043089e-38
-0.09895642847 -0.1982809603 0.1785069704 1.625043089e-38
-0.2454697937 0.004586547147 0.04527237639 1.625043089e-38
0.2094299346 -0.2390528172 0.2155563086 1.625043089e-38
-0.2469267845 -0.1504658312 0.2273228168 1.625043089e-38
0.03958580643 -0.1546035558 0.2025753856 1.625043089e-38
-0.05617594346 -0.0533435531 0.2030264586 1.625043089e-38
0.1271941662 -0.1756027192 0.2607257068 1.625043089e-38
-0.1234162226 -0.2367988378 0.3273752034 1.625043089e-38
0.003902191995 -0.1199197099 0.2081596553 1.625043089e-38
-0.188752383 0.01225897577 0.1862365305 1.625043089e-38
0.1576006413 -0.1856267303 0.2490881681 1.625043089e-38
-0.1425080746 -0.1071054935 0.2918388844 1.625043089e-38
-0.1942148507 -0.1629788876 0.1948106438 1.698367293e-38
-0.312458992 -0.1560471505 0.05271805078 1.698367293e-38
0.0005365758552 -0.1144408658 0.1466540098 1.698367293e-38
-0.271368295 -0.1159226149 0.08029156923 1.698367293e-38
-0.3023628891 -0.1656164527 0.1609718353 1.698367293e-38
-0.1719157994 -0.3108841181 0.152735725 1.698367293e-38
0.05971841142 -0.230452314 0.2878645062 1.698367293e-38
-0.2519250512 -0.245573163 -0.2014506459 1.698367293e-38
-0.2291103452 -0.1663456708 0.2023997158 1.698367293e-38
-0.2826449871 -0.2082760185 -0.007884443738 1.698367293e-38
0.0478794612 -0.08101569861 0.1830805093 1.698367293e-38
-0.3095840216 -0.1470495015 0.09126459062 1.698367293e-38
-0.2310692072 -0.1724807918 0.1934657246 1.698367293e-38
-0.25172773 -0.2280185521 -0.00455908291 1.698367293e-38
0.06934910268 -0.09019348025 0.1739565432 1.698367293e-38
-0.2965124547 -0.1731476784 0.05369343236 1.698367293e-38
-0.2289299816 -0.1809022874 0.1888204664 1.698367293e-38
-0.2443069369 -0.2357970029 0.004997830372 1.698367293e-38
0.06405734271 -0.1573426425 0.1501799673 1.698367293e-38
-0.2762354612 -0.1803006977 0.01144405454 1.698367293e-38
-0.29249686 -0.161973834 0.1266162544 1.698367293e-38
-0.1428684592 -0.3313076794 0.107201241 1.698367293e-38
0.1259889156 -0.1495562196 0.1992713213 1.698367293e-38
-0.2466825098 -0.2304705381 -0.2182588279 1.698367293e-38
-0.2178165913 -0.1793746799 0.188066572 1.698367293e-38
-0.2568186224 -0.223992452 0.0128606027 1.698367293e-38
0.02611540817 -0.2216947526 0.1361709982 1.698367293e-38
-0.2810539603 -0.1669932604 0.03714790568 1.698367293e-38
-0.262689054 -0.1596694738 0.1967431158 1.698367293e-38
-0.2325062901 -0.2407518923 0.01750716567 1.698367293e-38
0.1065220311 -0.06271737814 0.1780436188 1.698367293e-38
-0.2883308232 -0.1902826577 -0.03149756044 1.698367293e-38
0.1777492613 -0.1736075431 -0.223795414 1.771655483e-38
-0.1110704318 -0.251821667 -0.252586484 1.771655483e-38
-0.04588513449 -0.2080363929 -0.3244612515 1.771655483e-38
0.05073004961 -0.1976268739 -0.18983832 1.771655483e-38
0.2467499673 -0.1393045485 -0.1926167905 1.771655483e-38
-0.1653406918 -0.2114281952 -0.2201566845 1.771655483e-38
0.08238971978 -0.1667883545 -0.3243614137 1.771655483e-38
-0.1091683283 -0.2652632296 -0.2163892984 1.771655483e-38
0.1968599111 -0.2083582431 -0.2146983743 1.771655483e-38
-0.1640517861 -0.2346564382 -0.2158252001 1.771655483e-38
0.0265368931 -0.1424292475 -0.3098847866 1.771655483e-38
-0.03386775404 -0.1503885388 -0.2287074029 1.771655483e-38
0.1886142194 -0.2359107286 -0.1889710724 1.771655483e-38
-0.1593931019 -0.2709786296 -0.1621955484 1.771655483e-38
0.03388674557 -0.1457431465 -0.2725320458 1.771655483e-38
-0.05549564585 -0.1591400355 -0.1999036819 1.771655483e-38
0.1854568571 -0.2403017879 -0.1919778734 1.771655483e-38
-0.1515514404 -0.2786092162 -0.1548865885 1.771655483e-38
0.0192681253 -0.174069196 -0.2834613621 1.771655483e-38
-0.0496786423 -0.1916187108 -0.1842022091 1.771655483e-38
0.2525991201 -0.1697607636 -0.1336010247 1.771655483e-38
-0.2141898274 -0.1980081499 -0.1496034712 1.771655483e-38
0.08607417345 -0.1710321754 -0.2959564626 1.771655483e-38
-0.1490408778 -0.2966932058 -0.1375665665 1.771655483e-38
0.1755471081 -0.2548778951 -0.1915841997 1.771655483e-38
-0.1454186141 -0.2931301296 -0.1579881608 1.771655483e-38
-0.01723179966 -0.199543789 -0.2882473171 1.771655483e-38
-0.01688255928 -0.2156283557 -0.1864789426 1.771655483e-38
0.2073107064 -0.2157426775 -0.2020526826 1.771655483e-38
-0.1822891235 -0.2559115291 -0.185026437 1.771655483e-38
0.0561517179 -0.07630088925 -0.3004821241 1.771655483e-38
-0.08794785291 -0.1699050963 -0.1882073134 1.771655483e-38
0.3135305643 -0.1477802098 0.05561438575 1.844943813e-38
0.2150767595 -0.1015124023 0.1168968901 1.844943813e-38
0.1685370654 -0.2892570198 0.04740223289 1.844943813e-38
0.2486481816 -0.2438276261 0.1125875041 1.844943813e-38
0.2131162584 -0.1892205328 0.1630970985 1.844943813e-38
0.271609515 -0.09744579345 -0.062979877 1.844943813e-38
0.1837945282 -0.2622538805 -0.1604437232 1.844943813e-38
0.02519574948 -0.1504903138 0.2738191187 1.844943813e-38
0.3346469998 -0.1431506127 0.1154237986 1.844943813e-38
0.230686605 -0.06255408376 0.115834184 1.844943813e-38
0.1818722337 -0.2696068883 -0.01438608579 1.844943813e-38
0.1915657669 -0.1925133914 0.1738687307 1.844943813e-38
0.3093444705 -0.1360250115 0.1203541532 1.844943813e-38
0.2176860124 -0.05350211635 0.1136946157 1.844943813e-38
0.1830004305 -0.2641486824 -0.03917776048 1.844943813e-38
0.1525315791 -0.2009247839 0.1860174686 1.844943813e-38
0.3058961034 -0.1397752166 0.1205148995 1.844943813e-38
0.2057268322 -0.04664587602 0.1128978878 1.844943813e-38
0.196521163 -0.2818046212 -0.02706639841 1.844943813e-38
0.1501850784 -0.2281258255 0.1883751303 1.844943813e-38
0.2214171141 -0.193124339 0.1727357954 1.844943813e-38
0.2808514833 -0.1038548276 -0.06608144194 1.844943813e-38
0.1785243452 -0.2731981277 -0.1612872034 1.844943813e-38
-0.004214693792 -0.1628007889 0.243156746 1.844943813e-38
0.3025437593 -0.138653636 0.1019134 1.844943813e-38
0.1797032654 -0.06710571051 0.1236529946 1.844943813e-38
0.1948313266 -0.3214743435 0.004223329015 1.844943813e-38
0.2110838294 -0.2929013371 0.1807965338 1.844943813e-38
0.3089867532 -0.1467564702 0.1546872258 1.844943813e-38
0.2711872756 -0.04736929014 0.0876602158 1.844943813e-38
0.1902111918 -0.2346728146 -0.07230003923 1.844943813e-38
0.1122489497 -0.1596018225 0.2002438754 1.844943813e-38
0.07939004153 -0.1183961704 0.103947036 1.91819627e-38
0.03157262132 -0.007840964012 -0.007630868815 1.91819627e-38
0.09193433821 -0.08021599054 0.02568632923 1.91819627e-38
0.05412996188 -0.00228468678 0.09166043252 1.91819627e-38
0.02314251848 -0.002637052443 -0.04316754639 1.91819627e-38
-0.02173310891 0.0824322775 -0.05395051464 1.91819627e-38
0.194852531 -0.1932424009 0.2185441852 1.91819627e-38
0.002929418348 0.1255070716 -0.00609422382 1.91819627e-38
0.05486755446 -0.05094830692 0.1089733243 1.91819627e-38
0.01039230637 0.05596375838 -0.0312817432 1.91819627e-38
0.1647738218 -0.06505393982 0.1136007831 1.91819627e-38
0.02558479086 0.05663109571 0.07992224395 1.91819627e-38
0.03126429021 -0.07630726695 0.0970235765 1.91819627e-38
-0.01816020906 0.07439471036 -0.03670030087 1.91819627e-38
0.1717659831 -0.08114172518 0.1305619627 1.91819627e-38
0.02883571573 0.04622903839 0.05673740059 1.91819627e-38
0.03089516982 -0.07787486911 0.09448830783 1.91819627e-38
-0.008607756346 0.08889326453 -0.03418047726 1.91819627e-38
0.1678985059 -0.09568390995 0.1299331933 1.91819627e-38
0.04482010752 0.03932668641 0.04912590235 1.91819627e-38
0.01220424939 0.001424788497 -0.04496614635 1.91819627e-38
-0.06410753727 0.1675179154 -0.06304517388 1.91819627e-38
0.200186342 -0.2086136341 0.2344284207 1.91819627e-38
-0.01202211715 0.1494540721 -0.01531443466 1.91819627e-38
0.03384369984 -0.114667736 0.0972019434 1.91819627e-38
0.01126490533 0.07387094945 -0.02763440087 1.91819627e-38
0.1595030427 -0.09810634702 0.113228716 1.91819627e-38
0.04568124935 0.01721475832 0.05553865805 1.91819627e-38
0.0323619768 -0.01008951664 0.06708519906 1.91819627e-38
-0.05609918013 0.09229844809 -0.05761178955 1.91819627e-38
0.1841823161 -0.1001604423 0.1561654508 1.91819627e-38
-0.007656000089 0.09624422342 0.01321807038 1.91819627e-38
-0.1524455249 -0.06617647409 -0.1556808203 1.991448586e-38
-0.1455699801 -0.09649916738 -0.02611430734 1.991448586e-38
-0.03042971157 -0.1272488087 -0.06921037287 1.991448586e-38
-0.2726336718 -0.09256700426 -0.06944908947 1.991448586e-38
-0.06307142228 -0.1569552422 -0.177150771 1.991448586e-38
0.05253642797 0.05868593603 0.06427434832 1.991448586e-38
0.0001188218594 0.0281692557 0.01453638449 1.991448586e-38
-0.2666971385 -0.2308006883 -0.2083060741 1.991448586e-38
-0.1810180545 -0.08681434393 -0.177888602 1.991448586e-38
-0.09728393704 -0.05090229213 -0.03311454132 1.991448586e-38
-0.01624307223 -0.121251449 -0.08357332647 1.991448586e-38
-0.29428038 -0.1099702343 -0.194995597 1.991448586e-38
-0.1183980182 -0.1031945944 -0.1581512988 1.991448586e-38
-0.06257725507 -0.04655219987 -0.01073799003 1.991448586e-38
-0.02547096089 -0.1064057201 -0.07896848023 1.991448586e-38
-0.2940124273 -0.1344902366 -0.1836528778 1.991448586e-38
-0.1085385755 -0.1071507558 -0.1562919766 1.991448586e-38
-0.04806897044 -0.06005490571 -0.004676382523 1.991448586e-38
-0.01984873414 -0.1092958376 -0.06262024492 1.991448586e-38
-0.2890582383 -0.1464128047 -0.1745262146 1.991448586e-38
-0.03436366841 -0.1269086301 -0.1621430367 1.991448586e-38
0.04270159081 0.105975531 0.06464640051 1.991448586e-38
-0.001622690354 0.0286125876 0.006781891454 1.991448586e-38
-0.2774279416 -0.2570844591 -0.2247683406 1.991448586e-38
-0.0922075808 -0.09681690484 -0.1492674053 1.991448586e-38
-0.06288266182 -0.1313014627 -0.008590114303 1.991448586e-38
-0.0152314892 -0.1193281412 -0.05601489544 1.991448586e-38
-0.267113924 -0.1418573707 -0.1640990227 1.991448586e-38
-0.1525546312 -0.1058296338 -0.1724476516 1.991448586e-38
-0.04070797563 0.04536696896 0.00882534124 1.991448586e-38
-0.02865411341 -0.08966771513 -0.1010289788 1.991448586e-38
-0.305108875 -0.1545108408 -0.1867212653 1.991448586e-38
0.3115741611 -0.1236553639 -0.162684992 2.06466517e-38
0.07226175815 -0.01783542521 0.1080498397 2.06466517e-38
0.2249561846 -0.09415627271 0.1129768863 2.06466517e-38
0.2838253081 -0.0669445172 0.2020451427 2.06466517e-38
0.07815183699 -0.1463321149 -0.2350877672 2.06466517e-38
0.2471341491 -0.05085559562 -0.03714630753 2.06466517e-38
0.2909119427 -0.1338315606 -0.04057235271 2.06466517e-38
-0.003471621312 -0.1419988424 0.2519833446 2.06466517e-38
0.2828936577 -0.1026901305 -0.1978688985 2.06466517e-38
0.09862210602 -0.04897758365 0.08122324198 2.06466517e-38
0.2493713051 -0.1152070537 0.09467167407 2.06466517e-38
0.2341368794 -0.04947847873 0.211717397 2.06466517e-38
0.242791459 -0.1324077845 -0.1827864349 2.06466517e-38
0.1138272136 -0.06122528762 0.07618317008 2.06466517e-38
0.2465471029 -0.1438536644 0.08673156053 2.06466517e-38
0.1836044192 -0.07043682784 0.2177457064 2.06466517e-38
0.2393498421 -0.1428140849 -0.1809937656 2.06466517e-38
0.1160728335 -0.06514488161 0.07652468979 2.06466517e-38
0.2366013974 -0.1605596542 0.0869377479 2.06466517e-38
0.1623577923 -0.0960238874 0.2275983542 2.06466517e-38
0.01357448194 -0.1408168823 -0.2172273099 2.06466517e-38
0.2567867339 -0.06430803239 -0.04471233487 2.06466517e-38
0.2720549405 -0.1521199048 -0.02766557969 2.06466517e-38
-0.03795712069 -0.15249075 0.2469427437 2.06466517e-38
0.2507480681 -0.151353687 -0.1686712652 2.06466517e-38
0.09426183999 -0.06929766387 0.0978885591 2.06466517e-38
0.2274463177 -0.1663216501 0.09852713346 2.06466517e-38
0.1867417693 -0.1122313887 0.2358455658 2.06466517e-38
0.215844959 -0.1271629483 -0.2072673589 2.06466517e-38
0.1630550623 -0.04484202713 0.03206619248 2.06466517e-38
0.2706688643 -0.1268768758 0.05545116216 2.06466517e-38
0.1284295917 -0.06355471164 0.2157402784 2.06466517e-38
-0.00561788911 -0.08700607717 0.07363518327 2.137881613e-38
0.06277325004 0.01844288968 -0.02583829686 2.137881613e-38
0.05599663779 -0.1916873157 -0.01483592018 2.137881613e-38
0.1223039329 0.02621674165 -0.02623843029 2.137881613e-38
0.3104079068 -0.1105596051 0.006710648537 2.137881613e-38
-0.0997402519 -0.01549129281 0.003889924381 2.137881613e-38
-0.2177448422 -0.3510852456 0.06962973624 2.137881613e-38
-0.04054885358 0.2765947878 -0.03772960603 2.137881613e-38
0.08994191885 -0.06207683682 0.05533994362 2.137881613e-38
0.01559222769 -0.00307941949 -0.02458971366 2.137881613e-38
-0.06124943122 -0.1765213311 0.03437041491 2.137881613e-38
0.07873310894 0.157672748 -0.06439897418 2.137881613e-38
0.1470165402 -0.06570694596 0.0288827233 2.137881613e-38
0.01000294276 0.002846192336 -0.03361341357 2.137881613e-38
-0.1140986308 -0.2214832604 0.03578393534 2.137881613e-38
0.06910257787 0.1792514473 -0.06130632013 2.137881613e-38
0.1597506404 -0.06198915467 0.01997676305 2.137881613e-38
0.01671737432 0.007302094717 -0.03806447238 2.137881613e-38
-0.1256313622 -0.2676357329 0.01634092815 2.137881613e-38
0.05134816468 0.2412964255 -0.05961449444 2.137881613e-38
0.3026328087 -0.07026405632 0.02861586399 2.137881613e-38
-0.1613083482 -0.002565169707 -0.01709561795 2.137881613e-38
-0.2210062891 -0.3555779457 0.07928404212 2.137881613e-38
-0.0491944477 0.2585091293 -0.06275131553 2.137881613e-38
0.09235148132 -0.09237555414 0.02567947283 2.137881613e-38
0.03385274857 0.01112616342 -0.03023311868 2.137881613e-38
-0.04542504624 -0.2783120871 -0.03689482436 2.137881613e-38
0.03356006742 0.228919223 -0.04669991881 2.137881613e-38
0.2303237915 -0.0282683298 0.0147946123 2.137881613e-38
-0.01860827766 -0.002564394847 -0.03644945472 2.137881613e-38
-0.1672522724 -0.2412202954 0.04698810354 2.137881613e-38
0.01476638298 0.2124547511 -0.07266930491 2.137881613e-38
0.07692447305 -0.1404246092 0.2359616309 2.211062324e-38
0.2308906019 -0.2035809755 0.07826509327 2.211062324e-38
-0.03316101059 -0.1473327726 0.3269228041 2.211062324e-38
0.1622404903 -0.1337248534 0.2237681299 2.211062324e-38
0.1760115325 -0.1143412814 0.1711542457 2.211062324e-38
0.3036648631 -0.1338322163 0.06963799149 2.211062324e-38
0.05002503097 -0.1503700763 0.3166863322 2.211062324e-38
0.1441141814 -0.3068876863 0.001897571143 2.211062324e-38
0.144628644 -0.1411165744 0.2240444273 2.211062324e-38
0.2374677509 -0.1637055278 0.07392706722 2.211062324e-38
-0.03078389354 -0.1171012223 0.316718936 2.211062324e-38
0.2299269289 -0.2378371656 0.2148505598 2.211062324e-38
0.1389412582 -0.1475733966 0.1977308095 2.211062324e-38
0.2132771462 -0.1673986018 0.06377417594 2.211062324e-38
-0.03004317172 -0.132453531 0.288502574 2.211062324e-38
0.247168228 -0.2602763772 0.1922808439 2.211062324e-38
0.1342288703 -0.1431438625 0.186374709 2.211062324e-38
0.207147792 -0.1890873909 0.05996231735 2.211062324e-38
-0.01031535026 -0.1619776934 0.2940443754 2.211062324e-38
0.2410683781 -0.2803029716 0.1763216406 2.211062324e-38
0.1397542506 -0.1299408972 0.1369174123 2.211062324e-38
0.2640700638 -0.1297015399 0.049787689 2.211062324e-38
0.04960017279 -0.1677070707 0.2559809685 2.211062324e-38
0.146701932 -0.3158166111 -0.01651631668 2.211062324e-38
0.122209549 -0.1546708643 0.2067236453 2.211062324e-38
0.1967711151 -0.2214847654 0.06394664198 2.211062324e-38
-0.02380381711 -0.1846852452 0.3001437187 2.211062324e-38
0.2207693011 -0.2688016295 0.2000033557 2.211062324e-38
0.1578274816 -0.1471640617 0.1885830611 2.211062324e-38
0.2351881117 -0.147094503 0.07054326683 2.211062324e-38
0.002038453706 -0.1339205503 0.2894243002 2.211062324e-38
0.2602125704 -0.2743673921 0.1500164419 2.211062324e-38
0.1273615658 -0.09925246984 0.1834745705 2.284242894e-38
-0.04588196054 -0.01870102622 0.2370700538 2.284242894e-38
0.04707735032 -0.1556399018 0.3082485199 2.284242894e-38
0.1324948967 -0.194835797 0.2330264002 2.284242894e-38
0.2338691205 -0.1993141025 0.2029421777 2.284242894e-38
0.1053435355 -0.1067032889 0.1568949968 2.284242894e-38
-0.0490196012 -0.2263141125 0.2859470546 2.284242894e-38
-0.07245481014 -0.09508317709 0.2605548501 2.284242894e-38
0.1772783548 -0.1315694004 0.2467399538 2.284242894e-38
-0.01437674463 -0.0499558039 0.1968006939 2.284242894e-38
0.07396853715 -0.1487877071 0.3182829916 2.284242894e-38
0.0910866484 -0.05738604441 0.2933292687 2.284242894e-38
0.1801321059 -0.1474860907 0.2244450301 2.284242894e-38
-0.04745114222 -0.06041139364 0.1425567567 2.284242894e-38
0.06906566024 -0.1558749229 0.2997294962 2.284242894e-38
0.07137770951 -0.05920474604 0.2735293508 2.284242894e-38
0.172799781 -0.1423021704 0.2236557603 2.284242894e-38
-0.06598865986 -0.05127613619 0.1271145344 2.284242894e-38
0.05201498047 -0.1681785285 0.2999737263 2.284242894e-38
0.07416552305 -0.1067660898 0.2652641237 2.284242894e-38
0.2220447212 -0.2415515333 0.1679383814 2.284242894e-38
0.0455477573 -0.0961933881 0.09692203999 2.284242894e-38
-0.08628062904 -0.2215947211 0.2657541335 2.284242894e-38
-0.1404798627 -0.08726010472 0.148159802 2.284242894e-38
0.1542387754 -0.144780308 0.2073664069 2.284242894e-38
-0.07318798453 -0.03045360185 0.1149850637 2.284242894e-38
0.04569445178 -0.172967419 0.3009275794 2.284242894e-38
0.1110187992 -0.1835327744 0.2522310019 2.284242894e-38
0.2104176134 -0.1469046175 0.2379967272 2.284242894e-38
-0.01503469702 -0.08808656782 0.1673021466 2.284242894e-38
0.0561234504 -0.1598654389 0.3078809679 2.284242894e-38
0.00356570608 0.003511243034 0.2069079429 2.284242894e-38
-0.2103102505 -0.09397424012 0.07601403445 2.348204041e-38
-0.05190158635 -0.3321926892 -0.04178661853 2.348204041e-38
-0.2793161869 -0.2442554682 0.00880796928 2.348204041e-38
-0.2331623137 -0.2502977252 0.008028437383 2.348204041e-38
-0.1025780886 -0.1602944881 -0.235221833 2.348204041e-38
0.09954075515 -0.3229596615 -0.169660598 2.348204041e-38
-0.2354116589 -0.2058083266 0.1448016018 2.348204041e-38
-0.03778047487 -0.4018475711 -0.0514712967 2.348204041e-38
-0.1892911047 -0.06057197601 0.03737263009 2.348204041e-38
-0.004672865849 -0.2793415487 -0.0765177086 2.348204041e-38
-0.2693257034 -0.1690721959 0.04827833176 2.348204041e-38
-0.1917189956 -0.2576844692 0.006582837552 2.348204041e-38
-0.1972627193 -0.06574483961 0.01106877159 2.348204041e-38
0.0206836462 -0.2954531312 -0.06971805543 2.348204041e-38
-0.2679962218 -0.1488455683 0.06416375935 2.348204041e-38
-0.1662345231 -0.2775247991 0.001361944829 2.348204041e-38
-0.1947357357 -0.07237933576 0.01445010304 2.348204041e-38
0.01805872098 -0.311422497 -0.07205338031 2.348204041e-38
-0.2585163414 -0.192685917 0.06420351565 2.348204041e-38
-0.179070279 -0.3200558126 -0.003796583507 2.348204041e-38
-0.1384755224 -0.2302010357 -0.17456083 2.348204041e-38
0.1398558766 -0.3237570226 -0.1364778876 2.348204041e-38
-0.2217118144 -0.2073281407 0.1367103904 2.348204041e-38
-0.02069020085 -0.3982020617 -0.05884784088 2.348204041e-38
-0.192857191 -0.08207377046 0.04386812449 2.348204041e-38
-0.001663206494 -0.3475810289 -0.06249018013 2.348204041e-38
-0.2648356855 -0.2372867763 0.0541395098 2.348204041e-38
-0.2301117629 -0.3334641457 -0.0003972295381 2.348204041e-38
-0.2086867839 -0.05129897594 -0.03491302207 2.348204041e-38
0.05011916906 -0.2612697482 -0.08934884518 2.348204041e-38
-0.2657721639 -0.1215387434 0.07888183743 2.348204041e-38
-0.1211629882 -0.2686112523 -0.00535905268 2.348204041e-38
0.2266122252 -0.05657208338 0.000928716443 2.347880341e-38
0.3490649164 -0.095486857 -0.0563904345 2.347880341e-38
0.3032514155 -0.1533061564 0.04463104904 2.347880341e-38
0.2017959058 -0.1879881471 0.03661942109 2.347880341e-38
0.2454301417 -0.04272287712 0.1482387036 2.347880341e-38
0.246627748 -0.2489995807 -0.2199653983 2.347880341e-38
0.2596670687 -0.1958304346 -0.1259157211 2.347880341e-38
0.04295086116 -0.1297142357 0.1656585038 2.347880341e-38
0.2540392876 -0.05550000817 0.03234123066 2.347880341e-38
0.3350590169 -0.1312306076 -0.08712396026 2.347880341e-38
0.2847136855 -0.09300328791 -0.02128472179 2.347880341e-38
0.2530785501 -0.1513533741 0.110817261 2.347880341e-38
0.2447942644 -0.06382471323 0.05249603838 2.347880341e-38
0.3203033507 -0.1680373847 -0.0922171846 2.347880341e-38
0.2765282094 -0.1018553153 -0.03582908213 2.347880341e-38
0.2262694687 -0.159709841 0.1277821809 2.347880341e-38
0.2437725514 -0.06529550999 0.05710082129 2.347880341e-38
0.315220952 -0.181159839 -0.09143683314 2.347880341e-38
0.2645313442 -0.1189845726 -0.0226012785 2.347880341e-38
0.2338761091 -0.1803255081 0.1394917369 2.347880341e-38
0.2249053717 -0.04275474325 0.1577256024 2.347880341e-38
0.2194513977 -0.3047909141 -0.2005951107 2.347880341e-38
0.231990099 -0.2034433484 -0.1470505595 2.347880341e-38
0.01553371735 -0.1384846568 0.1712020934 2.347880341e-38
0.2310540974 -0.07672234625 0.03431849182 2.347880341e-38
0.3085194826 -0.1751452833 -0.07623311877 2.347880341e-38
0.2664382458 -0.1414924413 0.004501312505 2.347880341e-38
0.2504524291 -0.2255267352 0.1121165231 2.347880341e-38
0.262278229 -0.05140063167 0.08280754834 2.347880341e-38
