# .PCD v0.7 - Point Cloud Data file format
VERSION 0.7
FIELDS x y z rgb
SIZE 4 4 4 4
TYPE F F F F
COUNT 1 1 1 1
WIDTH 825
HEIGHT 1
VIEWPOINT 0 0 0 1 0 0 0
POINTS 825
DATA ascii
-0.03713240847 -0.3195887506 0.2783115506 2.277910146e-39
-0.2173130214 -0.2496444583 -0.1551309824 2.277910146e-39
-0.08258583397 -0.2940462232 0.0673411563 2.277910146e-39
-0.180399999 -0.1519172192 0.1241611913 2.277910146e-39
-0.1146614552 -0.2509773672 0.2511428297 2.277910146e-39
-0.226278916 -0.2646893859 -0.185268268 2.277910146e-39
-0.1745832115 0.1207029969 0.03308201581 2.277910146e-39
-0.2129040509 -0.1454658061 0.1648421288 2.277910146e-39
-0.1142833978 -0.219560042 0.2437836826 2.277910146e-39
-0.2904188633 -0.1354783624 -0.06851647794 2.277910146e-39
-0.1518275887 -0.1230980754 0.04556021467 2.277910146e-39
-0.1956892312 -0.126171425 0.1263220161 2.277910146e-39
-0.1427038759 -0.1719456315 0.2005599439 2.277910146e-39
-0.2383717448 -0.1000878066 -0.03303182498 2.277910146e-39
-0.2325019091 -0.1011863723 0.1900747716 2.277910146e-39
-0.1451976448 -0.1325324476 0.08579165488 2.277910146e-39
-0.1417056173 -0.1509684324 0.1805463135 2.277910146e-39
-0.1857772321 -0.06980689615 0.002254414372 2.277910146e-39
-0.1821963787 -0.1178919449 0.08832605183 2.277910146e-39
-0.2591549158 -0.0831483826 0.03171952441 2.277910146e-39
-0.1143509969 -0.1121740192 0.1275978833 2.277910146e-39
-0.2538741529 -0.08748776466 0.01447373535 2.277910146e-39
-0.1160434037 -0.1088247374 0.07837483287 2.277910146e-39
0.02531136014 -0.3217367232 0.0301383324 3.015101038e-39
0.06893067062 -0.3773620129 0.0900778994 3.015101038e-39
-0.07672125846 -0.3808187246 -0.1062683836 3.015101038e-39
0.00899059698 -0.2829191983 -0.161917299 3.015101038e-39
0.04852610454 -0.3249511123 0.03981630132 3.015101038e-39
0.1814881265 -0.2933193147 0.06056485325 3.015101038e-39
-0.2128198594 -0.3805049956 -0.1169529334 3.015101038e-39
-0.1412883401 -0.3310368955 -0.09906625748 3.015101038e-39
-0.1772450954 -0.3155393004 -0.08488679677 3.015101038e-39
-0.02962343581 -0.3624374866 -0.0005356668844 3.015101038e-39
-0.1991876662 -0.3418796062 -0.1411621273 3.015101038e-39
-0.06896170229 -0.3390643597 -0.1241573617 3.015101038e-39
8.390843868e-05 -0.293697536 -0.04395764694 3.015101038e-39
0.1273235232 -0.2494818121 0.03728215024 3.015101038e-39
-0.2331769913 -0.2830327749 -0.217251569 3.015101038e-39
-0.09524461627 -0.2733608484 -0.1435662657 3.015101038e-39
-0.1460764259 -0.1395134777 -0.08292126656 3.015101038e-39
0.02735997923 -0.1905239969 -0.03984737769 3.015101038e-39
-0.3014360666 -0.1249669567 -0.07794774324 3.015101038e-39
-0.1131445318 -0.1572355628 -0.1198032573 3.015101038e-39
-0.1547210068 -0.1254802644 -0.03672928736 3.015101038e-39
-0.01267540362 -0.147100091 -0.009732386097 3.015101038e-39
-0.2660180628 -0.09618106484 0.006918200757 3.015101038e-39
-0.02190807834 -0.09487500787 -0.1062738076 3.015101038e-39
-0.1278430074 -0.1170185581 0.01142972149 3.015101038e-39
0.1421608478 -0.1285711229 -0.02815178968 3.015101038e-39
-0.2787980735 -0.07464332134 0.004581165966 3.015101038e-39
0.01915094815 -0.09075751901 -0.1212639511 3.015101038e-39
-0.1981345117 -0.1310548633 -0.06502760202 3.015101038e-39
-0.08728034049 -0.1469132453 -0.07722786069 3.015101038e-39
-0.2784614563 -0.06834379584 -0.00991289597 3.015101038e-39
0.03571920469 -0.09059574455 0.01058474928 3.015101038e-39
0.009910624474 -0.2160957009 0.2024996877 3.75229193e-39
0.1172705814 -0.2517287731 -0.1055357158 3.75229193e-39
-0.2082454562 -0.2567946017 0.1469367892 3.75229193e-39
0.01243084669 -0.1882251203 0.09608183056 3.75229193e-39
-0.01493173093 -0.1744442284 0.1866531819 3.75229193e-39
-0.06503007561 -0.2616837323 0.02975424193 3.75229193e-39
-0.1275038272 -0.3269001842 0.08226364106 3.75229193e-39
0.1453630328 -0.2825515866 0.1015140414 3.75229193e-39
0.008251688443 -0.2081463337 0.2176705599 3.75229193e-39
0.2029882222 -0.2817602456 -0.05908957496 3.75229193e-39
-0.1864288151 -0.2410452217 0.1502015144 3.75229193e-39
0.1152549982 -0.2539435625 0.1726389825 3.75229193e-39
-0.06719567627 -0.1679190248 0.1990452409 3.75229193e-39
-0.1713071316 -0.2566877604 -0.03724988922 3.75229193e-39
-0.1860860884 -0.149003461 0.1180305257 3.75229193e-39
0.07225595415 -0.1577459127 0.1336633712 3.75229193e-39
-0.05349740759 -0.1727573276 0.2103709579 3.75229193e-39
-0.1906550676 -0.1565906703 -0.1075156778 3.75229193e-39
-0.09655423462 -0.07962328941 0.2102036923 3.75229193e-39
-0.07724647224 -0.1124088913 0.01956181973 3.75229193e-39
-0.0778427422 -0.08174986392 0.1840676963 3.75229193e-39
-0.1874568313 -0.1264852136 -0.002197902882 3.75229193e-39
-0.1757219434 -0.05375443771 0.1945369095 3.75229193e-39
-0.1029764637 -0.1087878868 0.07338570803 3.75229193e-39
-0.0007531343726 -0.09310944378 0.1390199065 3.75229193e-39
-0.2539280951 -0.1274130344 0.13756001 3.75229193e-39
-0.04637692496 -0.08074925095 0.1537707001 3.75229193e-39
-0.04263982177 -0.08512263745 0.05276088417 3.75229193e-39
-0.06352975219 -0.065594621 0.1385702193 3.75229193e-39
0.07782149315 -0.09543921053 0.0633508414 3.75229193e-39
-0.01781294495 -0.1110654622 0.08855567873 3.75229193e-39
-0.0265935827 -0.1037399918 0.05027480796 3.75229193e-39
-0.2173567861 -0.2294039726 -0.02913265489 4.48912409e-39
-0.02277944237 -0.1861633956 -0.03792266548 4.48912409e-39
-0.1403152943 -0.2421344966 -0.04596710205 4.48912409e-39
0.09891740233 -0.2035694718 -0.1361150742 4.48912409e-39
-0.1525834799 -0.1902555823 -0.09875836223 4.48912409e-39
-0.1275887638 -0.2728013396 -0.1319452971 4.48912409e-39
-0.2386644781 -0.314332366 0.0591253303 4.48912409e-39
-0.04541842267 -0.2262513787 -0.0532319583 4.48912409e-39
-0.2372562736 -0.2586759329 -0.05050533637 4.48912409e-39
-0.087009646 -0.2980230451 -0.06145069003 4.48912409e-39
-0.2069747597 -0.2524260879 -0.1070357114 4.48912409e-39
0.1320473552 -0.2074581236 -0.08863777667 4.48912409e-39
-0.2417321652 -0.2194057107 -0.1491007805 4.48912409e-39
-0.1779376268 -0.3037697971 -0.1480731666 4.48912409e-39
-0.2153317481 -0.2088104188 -0.04606588185 4.48912409e-39
0.06315132976 -0.1770122945 -0.04689545929 4.48912409e-39
-0.2398417741 -0.06191262603 -0.1568837464 4.48912409e-39
-0.1240638047 -0.1337639093 -0.08276347816 4.48912409e-39
-0.2599947751 -0.1335614622 -0.002282049274 4.48912409e-39
0.0288440492 -0.1247711182 -0.1479997933 4.48912409e-39
-0.237647444 -0.07700632513 -0.1288130283 4.48912409e-39
-0.08953785896 -0.1088022143 -0.03412409872 4.48912409e-39
0.01856117509 -0.07766001672 -0.02217099257 4.48912409e-39
0.08123337477 -0.08981516957 -0.1443534791 4.48912409e-39
-0.1345462799 -0.06893137097 -0.1909750402 4.48912409e-39
-0.1508395523 -0.08903170377 -0.088538073 4.48912409e-39
-0.1783665866 -0.05134541169 -0.02060946636 4.48912409e-39
-0.09010130912 -0.09695539623 -0.1687021106 4.48912409e-39
-0.1780627072 -0.1105676368 -0.1025180221 4.48912409e-39
-0.0005606673076 -0.1001363844 -0.02058861032 4.48912409e-39
-0.1606027335 -0.03890514001 -0.01386300661 4.48912409e-39
0.1165551096 -0.06761621684 -0.07235117257 4.48912409e-39
-0.08569277078 -0.2630081773 -0.1966774613 5.225597518e-39
0.1986095309 -0.4080749154 -0.0559438467 5.225597518e-39
-0.02676288038 -0.3574737012 -0.2198427022 5.225597518e-39
0.05715378374 -0.2703731656 -0.05733788013 5.225597518e-39
-0.07738786936 -0.1841950119 -0.2086446881 5.225597518e-39
0.07503699511 -0.3377514482 -0.08436797559 5.225597518e-39
-0.00378343137 -0.4053874612 -0.06465627998 5.225597518e-39
0.1584394276 -0.2784599066 -0.1150295064 5.225597518e-39
0.05416419357 -0.2489345521 -0.1931700855 5.225597518e-39
0.226885885 -0.3981763422 -0.07967022806 5.225597518e-39
0.002101351274 -0.3442029059 -0.1866241843 5.225597518e-39
0.04737733677 -0.3045460582 -0.1117228046 5.225597518e-39
-0.04711564258 -0.210474804 -0.2095318288 5.225597518e-39
0.1654012799 -0.2811642885 -0.1779688746 5.225597518e-39
0.03304812312 -0.3166734874 -0.1985822618 5.225597518e-39
-0.1819402426 -0.2083391845 -0.117631413 5.225597518e-39
-0.004605521448 -0.1556345522 -0.1965255141 5.225597518e-39
0.2133871019 -0.1642778665 -0.1652845442 5.225597518e-39
0.02711714804 -0.1273035854 -0.1603037715 5.225597518e-39
0.157579571 -0.1180230975 -0.05915055797 5.225597518e-39
-0.03218469396 -0.114114821 -0.1800163984 5.225597518e-39
0.1370380968 -0.09209145606 -0.1149376854 5.225597518e-39
-0.02557781339 -0.09512493014 -0.132862702 5.225597518e-39
0.1810140014 -0.08819775283 -0.06967224926 5.225597518e-39
-0.05972051993 -0.09570933133 -0.2136660814 5.225597518e-39
0.1133220568 -0.04511044174 -0.1503747106 5.225597518e-39
-0.08046942204 -0.07503953576 -0.1275836676 5.225597518e-39
0.2590452135 -0.1164919659 -0.0935709551 5.225597518e-39
0.07771378011 -0.07767205685 -0.1294928938 5.225597518e-39
0.09915179014 -0.08893091977 -0.02651795372 5.225597518e-39
-0.04424261302 -0.0769405216 -0.1583690643 5.225597518e-39
0.2176037431 -0.1150310859 -0.07630018145 5.225597518e-39
0.1938426346 -0.2260690331 -0.0148357721 5.962428276e-39
0.07718292624 -0.3091884255 -0.203166768 5.962428276e-39
0.2436374128 -0.2346190214 0.004212283529 5.962428276e-39
-0.1290801764 -0.2655296922 0.06400632858 5.962428276e-39
0.1341016293 -0.2344402373 -0.1002737358 5.962428276e-39
-0.01152017433 -0.2725710273 -0.1010723189 5.962428276e-39
0.212744087 -0.264949888 -0.1856927425 5.962428276e-39
-0.02103413269 -0.2440600097 -0.03926067799 5.962428276e-39
0.2878684103 -0.2610540092 -0.02660327591 5.962428276e-39
0.1010868177 -0.2000698745 -0.1377001107 5.962428276e-39
0.2347771376 -0.2090073973 -0.06945145875 5.962428276e-39
-0.1020350084 -0.2809648812 0.03947678953 5.962428276e-39
0.1683998257 -0.159349978 -0.0468666181 5.962428276e-39
0.04302056134 -0.2223545462 -0.120929122 5.962428276e-39
0.2157242 -0.2009123266 -0.15339908 5.962428276e-39
-0.1813255847 -0.1971801966 -0.01523449831 5.962428276e-39
0.2387634516 -0.1515049934 -0.01787330769 5.962428276e-39
0.1052521244 -0.2010329068 -0.08282406628 5.962428276e-39
0.2082444578 -0.132583335 -0.02131567709 5.962428276e-39
-0.03319101781 -0.1246292442 -0.0004582255788 5.962428276e-39
0.2569237351 -0.1104182526 -0.04412641004 5.962428276e-39
0.0966007188 -0.1324177533 -0.08659156412 5.962428276e-39
0.1684215218 -0.09081813693 -0.01789099909 5.962428276e-39
-0.1080781668 -0.1065756455 -0.08635402471 5.962428276e-39
0.1497699171 -0.1123089343 -0.06127197668 5.962428276e-39
0.006224566605 -0.06584679335 -0.07367607951 5.962428276e-39
0.112352334 -0.07347480208 -0.03064538166 5.962428276e-39
0.04021324962 -0.1099648401 -0.136678353 5.962428276e-39
0.2194290757 -0.1173101589 -0.03873052076 5.962428276e-39
0.1359735578 -0.05595328659 -0.02770169824 5.962428276e-39
0.1872071624 -0.04263703898 0.001756982878 5.962428276e-39
0.07133635879 -0.08718604594 -0.01355824992 5.962428276e-39
0.2159697115 -0.2939513028 0.05525962263 6.698542971e-39
0.05509499088 -0.2612066269 0.1576199085 6.698542971e-39
0.1271469295 -0.267840296 0.1879401654 6.698542971e-39
0.04294363409 -0.2757603526 0.1268850118 6.698542971e-39
0.1971573234 -0.2203442454 0.07969339937 6.698542971e-39
0.02504239418 -0.2412005067 0.1258561164 6.698542971e-39
0.2294690758 -0.2774354815 0.07846581936 6.698542971e-39
-0.04179077968 -0.3067066371 0.1421226859 6.698542971e-39
0.2364604324 -0.3477102518 0.04606951773 6.698542971e-39
0.1783531755 -0.231190607 0.2162854075 6.698542971e-39
0.1523909718 -0.2045159489 0.1700900346 6.698542971e-39
0.05149205029 -0.327929467 0.2089594156 6.698542971e-39
0.2477758974 -0.240981698 0.1234692857 6.698542971e-39
0.1829928309 -0.1375870854 0.2085421532 6.698542971e-39
0.1335669905 -0.09165560454 0.1504132599 6.698542971e-39
0.05818883702 -0.3328256607 0.1576323807 6.698542971e-39
0.2607129216 -0.2710537612 0.1272504926 6.698542971e-39
0.1936332136 -0.1273993254 0.1909039617 6.698542971e-39
0.1596010327 -0.1267865598 0.1442352235 6.698542971e-39
-0.04941666871 -0.1845600754 0.03124064952 6.698542971e-39
0.246490106 -0.1647880524 0.1130363122 6.698542971e-39
0.09759934247 -0.1052880287 0.1431915164 6.698542971e-39
0.1211766526 -0.1012730971 0.07378839701 6.698542971e-39
0.05560539663 -0.1115444377 0.08358283341 6.698542971e-39
0.2445860654 -0.04279673472 0.0978205204 6.698542971e-39
0.1337291449 -0.145475775 0.1097151488 6.698542971e-39
0.1494551301 -0.09523176402 0.02467940189 6.698542971e-39
0.04231782258 -0.1309882849 0.1083097011 6.698542971e-39
0.2365286052 -0.0899072513 0.04377279803 6.698542971e-39
0.03871474788 -0.2019269913 0.07282610983 6.698542971e-39
0.1460063905 -0.07587525249 0.03061757423 6.698542971e-39
0.06529613584 -0.1095784679 0.05280674249 6.698542971e-39
0.2562148869 -0.1853670329 0.02833269536 7.434656265e-39
-0.1094569787 -0.1006309763 -0.1440190971 7.434656265e-39
0.1440635026 -0.2227708548 -0.1513115764 7.434656265e-39
0.02406550013 -0.1783198118 0.05912975594 7.434656265e-39
0.1800381094 -0.1984518766 -0.06454674155 7.434656265e-39
0.004055190831 -0.2076277584 -0.1417174786 7.434656265e-39
0.2286676913 -0.3216201663 0.03464087099 7.434656265e-39
-0.1353031099 -0.2632501125 -0.04819172621 7.434656265e-39
0.2185718566 -0.3543467522 0.07508407533 7.434656265e-39
-0.1566314101 -0.3268744648 -0.1894577146 7.434656265e-39
0.1739501059 -0.2399763018 -0.03647150099 7.434656265e-39
-0.02710691281 -0.2622155845 0.02356283739 7.434656265e-39
0.20596762 -0.1980025619 0.04239345714 7.434656265e-39
-0.06153224036 -0.2765553594 -0.1926392913 7.434656265e-39
0.1446027011 -0.2144153863 -0.01135153696 7.434656265e-39
-0.1176006496 -0.2453228682 -0.01502343453 7.434656265e-39
0.2347662449 -0.1940647364 0.1369242519 7.434656265e-39
-0.1395788044 -0.1723407507 -0.1422388703 7.434656265e-39
0.1025424823 -0.1107346192 0.009546459652 7.434656265e-39
-0.009042146616 -0.1130236983 -0.02379317768 7.434656265e-39
0.2394898236 -0.1124742329 0.04771428928 7.434656265e-39
-0.1519968808 -0.04589613155 -0.101847209 7.434656265e-39
0.07965462655 -0.1136553586 0.02523714676 7.434656265e-39
0.2148081064 -0.071974352 -0.1313168854 7.434656265e-39
0.1507709473 -0.104957521 0.03238217533 7.434656265e-39
0.0126264235 -0.05084117875 -0.09339486808 7.434656265e-39
0.101391688 -0.08273071796 0.02744648233 7.434656265e-39
0.1635008901 -0.08292360604 -0.1153956652 7.434656265e-39
0.1074754447 -0.132281974 0.008899848908 7.434656265e-39
-0.1264901459 -0.07829718292 0.003669260303 7.434656265e-39
0.02650753409 -0.0442676954 0.07215494663 7.434656265e-39
0.1136857942 -0.02240574546 0.04031553492 7.434656265e-39
-0.1111518741 -0.2473084331 -0.1865644902 8.170410826e-39
-0.2145684361 -0.1491215229 -0.08066225052 8.170410826e-39
0.1104962677 -0.2610243261 -0.2227658182 8.170410826e-39
-0.1425107867 -0.2342758626 0.04353861883 8.170410826e-39
-0.1146421656 -0.1862744689 -0.1961715668 8.170410826e-39
-0.1101816595 -0.1469713598 -0.1517505497 8.170410826e-39
0.07428559661 -0.3312625587 -0.1896235943 8.170410826e-39
-0.2231203318 -0.3040903509 0.04142765701 8.170410826e-39
-0.02366456203 -0.2575478554 -0.1881835759 8.170410826e-39
-0.1945713311 -0.2325701863 -0.07840315253 8.170410826e-39
0.1364745945 -0.2585678697 -0.2283896953 8.170410826e-39
-0.2293517143 -0.3020605445 0.08281572908 8.170410826e-39
-0.1273095757 -0.2137515694 -0.1827798188 8.170410826e-39
-0.1855619848 -0.19476071 -0.1828440726 8.170410826e-39
0.1827922761 -0.2491879612 -0.1985962987 8.170410826e-39
-0.2497354746 -0.1878416091 0.1122549996 8.170410826e-39
-0.02832593769 -0.1769847274 -0.1589455158 8.170410826e-39
-0.157648012 -0.1398796588 -0.1014181525 8.170410826e-39
0.06043383107 -0.1332850754 -0.1545567364 8.170410826e-39
-0.170811817 -0.1309176981 0.01821077429 8.170410826e-39
-0.01481141057 -0.09044485539 -0.1442294568 8.170410826e-39
-0.1311061829 -0.02790171467 -0.0998853147 8.170410826e-39
-0.02919335663 -0.0384118408 -0.1205431446 8.170410826e-39
-0.1420529932 -0.07296537608 -0.0583217144 8.170410826e-39
-0.09823694825 -0.05047972128 -0.1945007294 8.170410826e-39
-0.02541230805 -0.1051222682 -0.06556328386 8.170410826e-39
-0.03223669901 -0.1054525003 -0.1070317328 8.170410826e-39
-0.1796675771 -0.05864064395 -0.07285009325 8.170410826e-39
0.05532414839 -0.09943509847 -0.05412366986 8.170410826e-39
-0.09314162284 -0.1580437571 0.04057787359 8.170410826e-39
0.09622114897 -0.06602531672 -0.044477202 8.170410826e-39
-0.0773332119 -0.007276939228 -0.01750577986 8.170410826e-39
-0.09735320508 -0.3360275328 -0.05022453889 8.906165387e-39
-0.1917806566 -0.3499749601 -0.137658298 8.906165387e-39
-0.09872105718 -0.3302042186 0.02450768836 8.906165387e-39
-0.2280627638 -0.2858622372 -0.01223100629 8.906165387e-39
-0.002777453745 -0.2699100077 -0.1707541049 8.906165387e-39
-0.0838226527 -0.2102859169 -0.1871440709 8.906165387e-39
-0.2029629201 -0.3489254415 0.06983496994 8.906165387e-39
-0.2508302927 -0.2973104417 -0.01570878364 8.906165387e-39
-0.1383716762 -0.3611549437 0.01255105063 8.906165387e-39
-0.2180946022 -0.3106832504 -0.1377872229 8.906165387e-39
-0.1742318869 -0.3492245376 0.08398704231 8.906165387e-39
-0.2315545678 -0.3066861331 -0.01799247414 8.906165387e-39
-0.09004591405 -0.2241673023 -0.1762292832 8.906165387e-39
-0.1180602014 -0.1747488528 -0.2201910466 8.906165387e-39
-0.1948755533 -0.2806319892 0.2052974403 8.906165387e-39
-0.2924219966 -0.2170527726 0.04793765768 8.906165387e-39
-0.142043978 -0.1105549484 -0.05350721627 8.906165387e-39
-0.2086095512 -0.1682015508 -0.1948654354 8.906165387e-39
-0.1273670793 -0.1707483083 0.1286230385 8.906165387e-39
-0.3007941544 -0.1316073835 -0.02518273331 8.906165387e-39
-0.09053851664 -0.1194997877 -0.04722716659 8.906165387e-39
-0.2438850999 -0.09031271189 -0.1780395359 8.906165387e-39
-0.08596263826 -0.1196090132 0.1187731698 8.906165387e-39
-0.1456914693 -0.03949689493 -0.08630952239 8.906165387e-39
0.02526051551 -0.1355113536 -0.06394792348 8.906165387e-39
-0.1401402354 -0.08658245951 -0.1954048574 8.906165387e-39
-0.1652361006 -0.09217226505 0.03660586849 8.906165387e-39
-0.2617348731 -0.05620482564 -0.1305663586 8.906165387e-39
-0.1315885782 -0.08644919842 -0.03091550805 8.906165387e-39
-0.2299069613 -0.1184360757 -0.02787959948 8.906165387e-39
-0.09802854806 -0.09977126122 -0.01746166497 8.906165387e-39
-0.1378012747 -0.04248832911 -0.08378622681 8.906165387e-39
0.06093058735 -0.2068497986 0.08750358224 9.641561216e-39
-0.008198554628 -0.3069707751 0.0944050476 9.641561216e-39
0.2044880688 -0.2428481132 0.05088341981 9.641561216e-39
0.125091359 -0.2530829608 0.1170105711 9.641561216e-39
0.01383273769 -0.2189759761 -0.04188754037 9.641561216e-39
-0.04363605753 -0.2586094737 0.2043383121 9.641561216e-39
0.267493099 -0.2319625616 0.003153254045 9.641561216e-39
0.1347913891 -0.3453577459 0.1359780133 9.641561216e-39
0.155067727 -0.1667749137 0.1046567932 9.641561216e-39
0.01400824636 -0.4273133278 0.1193211526 9.641561216e-39
0.2365574986 -0.2135166377 0.04799850285 9.641561216e-39
0.06484686583 -0.2792032361 0.2028013468 9.641561216e-39
0.09013327956 -0.2177329361 0.03406716883 9.641561216e-39
-0.1011096463 -0.3594630361 0.1776116192 9.641561216e-39
0.2794852853 -0.185038507 0.02913985029 9.641561216e-39
0.0468226485 -0.2097336948 0.2370707542 9.641561216e-39
0.1459570676 -0.1668248177 0.1133713126 9.641561216e-39
-0.134325847 -0.2002588809 0.1457553208 9.641561216e-39
0.138427645 -0.04610195011 0.03708242625 9.641561216e-39
0.08553891629 -0.1163442731 0.08248867095 9.641561216e-39
0.002280894434 -0.0999514088 0.0525569804 9.641561216e-39
-0.08998176455 -0.14787893 0.1988813281 9.641561216e-39
0.1266213059 -0.01109609101 0.06683519483 9.641561216e-39
0.1075593755 -0.08483537287 0.08325010538 9.641561216e-39
-0.09288336337 -0.07861977071 -0.01151147299 9.641561216e-39
-0.08312883228 -0.1191276014 0.2537454963 9.641561216e-39
-0.06214991957 -0.0236382857 -0.03191394359 9.641561216e-39
0.1940283626 -0.07969900221 0.03195979074 9.641561216e-39
0.04675741866 -0.03662973642 -0.04466892406 9.641561216e-39
0.00817868486 -0.06892520934 0.138648957 9.641561216e-39
-0.01454159897 -0.04108234867 0.02287237719 9.641561216e-39
0.1320438832 -0.02439177595 0.02551541105 9.641561216e-39
-0.238727808 -0.07775509357 -0.08265703917 1.037659831e-38
-0.1568156779 -0.1697584093 0.1525954008 1.037659831e-38
-0.06413449347 -0.3561004102 0.118888393 1.037659831e-38
0.03733763099 -0.1389375329 0.2200146466 1.037659831e-38
-0.1967773438 -0.1107687652 0.03295917809 1.037659831e-38
-0.1890452206 -0.1304948777 0.07277860492 1.037659831e-38
-0.01423855312 -0.3201037049 -0.006701581646 1.037659831e-38
0.07809016854 -0.2477852106 0.2460913509 1.037659831e-38
-0.1811169833 -0.1878356189 -0.1760084629 1.037659831e-38
-0.1684484184 -0.2239541411 0.1506232917 1.037659831e-38
-0.05944670737 -0.2864674926 0.07571250945 1.037659831e-38
0.0702059865 -0.1720420569 0.204274863 1.037659831e-38
-0.2494899482 -0.1736174524 -0.1012178212 1.037659831e-38
-0.2077082694 -0.14692536 0.09423178434 1.037659831e-38
-0.06742727757 -0.1672795266 -0.07290584594 1.037659831e-38
0.05211296678 -0.2305643409 0.2623525858 1.037659831e-38
-0.2669728398 -0.04563650861 -0.1289519817 1.037659831e-38
-0.2031357139 -0.1685209572 0.1030449644 1.037659831e-38
-0.0141820265 -0.02601575851 -0.03452213854 1.037659831e-38
0.1329400539 -0.14673841 0.1177189946 1.037659831e-38
-0.2501128614 -0.07873103768 -0.1042090729 1.037659831e-38
-0.1745416075 -0.1320790946 0.1133609265 1.037659831e-38
-0.1535580307 0.002592781326 -0.03308654577 1.037659831e-38
0.02271411195 -0.1003632843 0.1671982408 1.037659831e-38
-0.2110947073 -0.03784179315 0.001074756961 1.037659831e-38
-0.1551623642 -0.02138029598 0.07348307967 1.037659831e-38
-0.03410222381 -0.03857151046 -0.05575335771 1.037659831e-38
0.1316692978 -0.09801964462 0.1258321255 1.037659831e-38
-0.1925312728 -0.0208234638 -0.05970717967 1.037659831e-38
0.1323952973 -0.02899666689 0.05835049227 1.037659831e-38
-0.1592529863 -0.03798264638 -0.04970761389 1.037659831e-38
0.08497957885 -0.06433092803 0.06036408618 1.037659831e-38
0.02925676852 -0.1962362677 -0.2233234793 1.111163541e-38
-0.1595124453 -0.3407714665 -0.1313696802 1.111163541e-38
0.1070743799 -0.3837352097 -0.1709191948 1.111163541e-38
-0.1585801989 -0.206344828 -0.1469427943 1.111163541e-38
0.03186952323 -0.211522162 -0.190138042 1.111163541e-38
-0.02649101056 -0.2992595136 -0.1528587937 1.111163541e-38
0.2227383554 -0.2795377076 -0.1373270899 1.111163541e-38
-0.2472059429 -0.2140251547 -0.1086991876 1.111163541e-38
-0.1074582785 -0.2334615141 -0.2134378701 1.111163541e-38
-0.2314203829 -0.3163208663 -0.1454179883 1.111163541e-38
0.2001850009 -0.2521319687 -0.1939844787 1.111163541e-38
-0.1709172279 -0.2007552534 -0.196995914 1.111163541e-38
-0.02615811862 -0.212047711 -0.2303683609 1.111163541e-38
-0.1557049304 -0.3271109462 -0.2062391937 1.111163541e-38
0.2311457843 -0.2395034581 -0.1727524847 1.111163541e-38
-0.2040730566 -0.1065202802 -0.2451167107 1.111163541e-38
-0.1197576672 -0.1955119222 -0.2121115178 1.111163541e-38
-0.2328454703 -0.2571794391 -0.2152366042 1.111163541e-38
0.08206411451 -0.1365469247 -0.1685957611 1.111163541e-38
-0.1455014944 -0.2082073539 -0.1640857458 1.111163541e-38
-0.09658064693 -0.1255709827 -0.1630678922 1.111163541e-38
-0.2281811833 -0.1497595906 -0.1742131114 1.111163541e-38
0.03721444681 -0.1346204877 -0.1593726426 1.111163541e-38
-0.1725107878 -0.1160729304 -0.1603836268 1.111163541e-38
-0.05151272565 -0.1169915646 -0.1592682004 1.111163541e-38
-0.11945346 -0.1208165437 -0.1569731981 1.111163541e-38
0.05102802441 -0.07995051146 -0.1056415513 1.111163541e-38
-0.2599590421 -0.09485747665 -0.08481357247 1.111163541e-38
-0.06431119144 -0.1431643963 -0.1528701186 1.111163541e-38
-0.1276881546 -0.08656492829 -0.07751076669 1.111163541e-38
0.004974409938 -0.07571474463 -0.1559380144 1.111163541e-38
-0.07489483058 -0.10759148 -0.0718479082 1.111163541e-38
-0.1424802393 -0.1605298966 0.1091993526 1.184631237e-38
-0.001454188372 0.3220256269 -0.01731120981 1.184631237e-38
-0.1772921234 -0.2885456383 -0.002011093311 1.184631237e-38
-0.02129983529 0.1408338547 -0.01115583908 1.184631237e-38
-0.1269918233 -0.1671344787 0.0907382369 1.184631237e-38
-0.08450200409 0.3037799895 -0.005109943449 1.184631237e-38
-0.2117134184 -0.364852488 0.1189913079 1.184631237e-38
0.01346253511 0.2584122121 -0.009723282419 1.184631237e-38
-0.1748721302 -0.2210210115 0.1562227607 1.184631237e-38
-0.02309246361 0.2698155642 -0.01580735669 1.184631237e-38
-0.1973817945 -0.342030257 0.09929547459 1.184631237e-38
0.01483199 0.2243847102 -0.01881328598 1.184631237e-38
-0.1541040987 -0.1621326953 0.1541702598 1.184631237e-38
-0.1119735762 0.2796526253 0.00758279115 1.184631237e-38
-0.2756473124 -0.2603822649 0.1329059303 1.184631237e-38
-0.1378374994 0.08822408319 -0.03861990944 1.184631237e-38
-0.223496899 -0.03073219024 0.03771195561 1.184631237e-38
-0.1773881018 0.0771599412 -0.01177185588 1.184631237e-38
-0.2572292089 -0.08561166376 0.1016671807 1.184631237e-38
-0.08150503784 -0.07668501884 -0.05561918765 1.184631237e-38
-0.2121521384 -0.001225739135 0.1234839782 1.184631237e-38
-0.1258171201 -0.01763238572 0.02639365941 1.184631237e-38
-0.1907890737 -0.03416698053 -0.0938680619 1.184631237e-38
-0.05008273199 -0.06109837443 -0.03277852014 1.184631237e-38
-0.2086564749 -0.006754921284 0.05304379016 1.184631237e-38
0.001088767778 -0.03486530855 0.03801173717 1.184631237e-38
-0.1970828921 -0.03940379992 0.01801204681 1.184631237e-38
-0.05694543198 -0.006364438217 -0.02977017872 1.184631237e-38
-0.2013213336 -0.0392969735 0.04023959115 1.184631237e-38
-0.1418654472 -0.03987218067 0.03395404667 1.184631237e-38
-0.1758412421 -0.07557426393 -0.09862662107 1.184631237e-38
-0.01643325016 0.001329749008 -0.02208607085 1.184631237e-38
-0.1289279461 -0.1146088019 0.1057239771 1.258099074e-38
0.2125124633 -0.3246002197 0.1364476383 1.258099074e-38
-0.09377606958 -0.1639685035 0.1156426072 1.258099074e-38
-0.0144295888 -0.187002033 0.1398196518 1.258099074e-38
-0.03720965981 -0.1454438716 0.2269316316 1.258099074e-38
0.06008160859 -0.2955399156 0.1227700561 1.258099074e-38
-0.1933474392 -0.2633479238 0.07978581637 1.258099074e-38
-0.09966555238 -0.211076498 0.1721175313 1.258099074e-38
0.01559756137 -0.1666487902 0.1379504651 1.258099074e-38
0.247632578 -0.2582127452 0.1416910291 1.258099074e-38
-0.0934394449 -0.1032591313 0.1019497067 1.258099074e-38
-0.1011988595 -0.214093253 0.2771397233 1.258099074e-38
-0.07544113696 -0.1464647204 0.2398857623 1.258099074e-38
0.2059511989 -0.2229855657 0.1857246161 1.258099074e-38
-0.1715746224 -0.05882484466 0.107202895 1.258099074e-38
-0.1975712627 -0.1832532585 0.2205492407 1.258099074e-38
0.05464427918 -0.1227630153 0.06500348449 1.258099074e-38
0.2089413553 -0.206199497 0.1998483688 1.258099074e-38
-0.09311074764 -0.06665737182 0.1634411216 1.258099074e-38
-0.1159891859 -0.1260178089 0.1642152965 1.258099074e-38
0.03914154693 -0.07482407987 0.06840123236 1.258099074e-38
0.1544261277 -0.1254507452 0.1430900693 1.258099074e-38
-0.08864758164 -0.07612822205 0.1726341993 1.258099074e-38
0.01860423945 -0.07507394999 0.1668915302 1.258099074e-38
0.02474777959 -0.0922292769 0.1540650129 1.258099074e-38
0.1026054844 -0.1088674515 0.1282707453 1.258099074e-38
-0.08175761253 -0.08177985996 0.101857461 1.258099074e-38
0.05592485517 -0.08070842922 0.1373917758 1.258099074e-38
0.02302223444 -0.08197341859 0.04816846177 1.258099074e-38
0.1654658765 -0.09638854861 0.04839537665 1.258099074e-38
0.003734206082 -0.073600173 0.05453374237 1.258099074e-38
0.01871004701 -0.08315546066 0.06232890114 1.258099074e-38
-0.05360999703 -0.2941193581 -0.07684193552 1.331530897e-38
0.1897363514 -0.20279257 0.1381733418 1.331530897e-38
0.05091838911 -0.4008512795 0.1223349571 1.331530897e-38
0.2362568825 -0.2603577375 -0.02193408273 1.331530897e-38
0.1093673259 -0.2950531244 -0.08662583679 1.331530897e-38
0.01034029946 -0.1795978844 0.2036080062 1.331530897e-38
-0.1499886364 -0.3396577239 0.08159780502 1.331530897e-38
0.197862938 -0.2977517247 0.1579634249 1.331530897e-38
-0.09679985046 -0.2519101501 -0.1455613971 1.331530897e-38
0.1409385502 -0.2200170159 0.2078893334 1.331530897e-38
-0.01863777824 -0.3480092883 0.09888848662 1.331530897e-38
0.2206221372 -0.2673712373 0.06961487234 1.331530897e-38
0.04875373095 -0.2577757239 -0.07287988812 1.331530897e-38
0.07790349424 -0.1621161103 0.2429368049 1.331530897e-38
-0.07539524883 -0.2224406749 0.07907293737 1.331530897e-38
0.2041127533 -0.2384043038 0.1536648273 1.331530897e-38
0.02698747255 -0.1658553034 -0.1903443635 1.331530897e-38
0.1686823219 -0.1273012906 0.2204232067 1.331530897e-38
-0.005608045496 -0.09389086068 0.07112225145 1.331530897e-38
0.1919802427 -0.1335612386 0.07940116525 1.331530897e-38
0.02945601195 -0.1006481573 -0.1239542887 1.331530897e-38
0.1320103854 -0.1287202239 0.1706961542 1.331530897e-38
0.01740521193 -0.06474784017 0.1521976888 1.331530897e-38
0.1949323416 -0.08601178974 -0.01463486813 1.331530897e-38
0.1592976898 -0.1060718521 -0.101615116 1.331530897e-38
0.1157420203 -0.1374427825 0.04741572216 1.331530897e-38
-0.09941667318 -0.05110637844 0.0450476706 1.331530897e-38
0.2327168882 -0.1085833684 0.04644278064 1.331530897e-38
-0.06943527609 -0.08920358866 -0.04176119715 1.331530897e-38
0.1637707949 -0.2110731006 0.04453425109 1.331530897e-38
-0.01138650626 -0.1007381007 0.02154703625 1.331530897e-38
0.2118860185 -0.1010374725 -0.01496157888 1.331530897e-38
-0.06421994418 -0.160631299 -0.2064522207 1.404926846e-38
-0.1854932159 -0.3428331316 -0.1789844036 1.404926846e-38
0.1071960703 -0.225983724 -0.1722859442 1.404926846e-38
-0.106531471 -0.1896400154 -0.151410386 1.404926846e-38
-0.01442462392 -0.1198375374 -0.2124737501 1.404926846e-38
-0.08723957092 -0.3095425963 -0.1708606184 1.404926846e-38
0.226477012 -0.2070907056 -0.07573937625 1.404926846e-38
-0.176185742 -0.2968581319 -0.114075169 1.404926846e-38
-0.07698322088 -0.1404240131 -0.1792811006 1.404926846e-38
-0.2098778039 -0.3730169237 -0.1657382846 1.404926846e-38
0.1818332225 -0.2144347727 -0.1481167674 1.404926846e-38
-0.1364894509 -0.2459844947 -0.2103062123 1.404926846e-38
-0.02554373816 -0.1320045888 -0.202478081 1.404926846e-38
-0.1183666214 -0.3304472268 -0.2309132963 1.404926846e-38
0.2153214216 -0.1454085708 -0.1116424501 1.404926846e-38
-0.1917443722 -0.1759103537 -0.1596596688 1.404926846e-38
-0.1474599838 -0.0336018838 -0.1292593032 1.404926846e-38
-0.2036980987 -0.2530003488 -0.2231991142 1.404926846e-38
0.06589447707 -0.104161419 -0.1932188123 1.404926846e-38
-0.06704483181 -0.1232174933 -0.224300772 1.404926846e-38
-0.09432844818 -0.02407380193 -0.08709501475 1.404926846e-38
-0.1892985851 -0.1403359324 -0.20322752 1.404926846e-38
-0.007137382403 -0.08077420294 -0.1845689565 1.404926846e-38
-0.03733759001 -0.08747156709 -0.2213932723 1.404926846e-38
0.01382428966 -0.04823723808 -0.1151909232 1.404926846e-38
-0.09039840102 -0.09161561728 -0.1684790254 1.404926846e-38
-0.0006660892395 -0.07091924548 -0.1291428506 1.404926846e-38
0.07713060826 -0.1511422992 -0.1877865195 1.404926846e-38
-0.006637759041 -0.090858154 -0.08955827355 1.404926846e-38
-0.0909499228 -0.1222544834 -0.0963459909 1.404926846e-38
0.01309249271 -0.08008346707 -0.09285371751 1.404926846e-38
-0.03804097697 -0.07452841103 -0.1176092178 1.404926846e-38
0.214480713 -0.2380748391 0.009357864968 1.478322936e-38
-0.05155463517 -0.3233726323 -0.1249478757 1.478322936e-38
0.2155133188 -0.1639056057 -0.1228472516 1.478322936e-38
0.1651165336 -0.2577427328 -0.05347081646 1.478322936e-38
0.1245348006 -0.1745745391 -0.1083784327 1.478322936e-38
0.09647644311 -0.2663576603 -0.0551927872 1.478322936e-38
0.2146281451 -0.2293860912 0.03514477983 1.478322936e-38
0.1438912898 -0.288456291 -0.1157901213 1.478322936e-38
0.2134226859 -0.1940560341 0.03161870688 1.478322936e-38
0.02697845735 -0.3257858753 -0.1539636403 1.478322936e-38
0.2311992347 -0.1526082456 -0.1144489497 1.478322936e-38
0.1924660802 -0.2512484789 -0.152777642 1.478322936e-38
0.1540842652 -0.1579948962 -0.009557180107 1.478322936e-38
0.0741417408 -0.2860633135 -0.1202026829 1.478322936e-38
0.2462110966 -0.1307508647 -0.1491098106 1.478322936e-38
0.1718508154 -0.2297517061 -0.1366897374 1.478322936e-38
0.08861649781 -0.1838308722 0.004314887337 1.478322936e-38
0.04480436072 -0.2515822351 -0.08069486916 1.478322936e-38
0.1692792326 -0.06364085525 -0.05691352859 1.478322936e-38
0.07340423763 -0.129512161 -0.1303986609 1.478322936e-38
0.0237638317 -0.1291496158 -0.0522274375 1.478322936e-38
-0.09039972723 -0.1336130351 -0.1101641431 1.478322936e-38
0.08800490201 -0.06768876314 -0.1490020752 1.478322936e-38
0.1449180096 -0.0353952162 -0.04251325503 1.478322936e-38
-0.04805835709 -0.1174536273 -0.1858568341 1.478322936e-38
0.02999054268 -0.09814016521 -0.08220068365 1.478322936e-38
0.1928070188 -0.03815341741 -0.04415082932 1.478322936e-38
0.08965879679 -0.05892195553 -0.04622255266 1.478322936e-38
0.06421627104 -0.06597497314 -0.08531945944 1.478322936e-38
-0.1078524813 -0.05330336094 -0.05917422846 1.478322936e-38
0.1220024899 -0.01969439723 -0.03432320058 1.478322936e-38
0.03911170363 -0.01843351685 -0.08183401078 1.478322936e-38
-0.0203740187 -0.2917102575 0.03518045694 1.551683013e-38
-0.2261978686 -0.1267562509 0.1220223159 1.551683013e-38
-0.2159435898 -0.2639803886 -0.1438516974 1.551683013e-38
-0.1283011436 -0.2043365389 -0.04528590292 1.551683013e-38
0.03690394387 -0.1762603521 0.1468926519 1.551683013e-38
-0.1870628148 -0.2133358568 0.1790288538 1.551683013e-38
-0.03284491599 -0.225869 -0.009857096709 1.551683013e-38
-0.1093187705 -0.0691036284 0.01304410771 1.551683013e-38
-0.02794962935 -0.2622434795 -0.08421771973 1.551683013e-38
-0.2361199558 -0.249203831 0.06239645183 1.551683013e-38
-0.1583162993 -0.2386105359 -0.1199295744 1.551683013e-38
-0.1213204563 -0.1424495578 -0.01671418548 1.551683013e-38
-0.05244476348 -0.1770157665 0.1013262123 1.551683013e-38
-0.2493536472 -0.1596443504 0.2007231116 1.551683013e-38
-0.1494157016 -0.2206178457 -0.01900561713 1.551683013e-38
-0.2072303444 0.1221361309 0.04436962679 1.551683013e-38
-0.1615081578 -0.1429601759 -0.09710597992 1.551683013e-38
-0.2296272814 -0.1210767031 0.1964672506 1.551683013e-38
-0.1615395993 -0.07565363497 -0.01059553213 1.551683013e-38
-0.2793405652 -0.04261248186 -0.03779386729 1.551683013e-38
-0.08663608134 -0.1316013485 -0.01618300937 1.551683013e-38
-0.2331027836 -0.08694449067 0.1064549461 1.551683013e-38
-0.224933967 0.0773197636 -0.0470857732 1.551683013e-38
-0.2535505295 -0.06293436885 -0.0492140688 1.551683013e-38
-0.03038643301 -0.1043470278 0.1017180905 1.551683013e-38
-0.1455184519 -0.03267601132 0.03546122834 1.551683013e-38
-0.03563535959 -0.05546654388 0.07053197175 1.551683013e-38
-0.1611866504 -0.04424091801 0.07700373977 1.551683013e-38
-0.06937853992 -0.1115569919 -0.02832588367 1.551683013e-38
-0.1671555042 0.005258303136 0.005539662205 1.551683013e-38
-0.1963526309 -0.05849479884 -0.0148133561 1.551683013e-38
-0.1746939719 -0.009361909702 0.009913361631 1.551683013e-38
-0.2328677475 -0.1848366857 -0.07649813592 1.625043089e-38
-0.2822415829 -0.03387866542 -0.06975905597 1.625043089e-38
-0.2090435177 -0.3243180215 -0.1474750489 1.625043089e-38
-0.2527867258 -0.1554330438 0.03907193989 1.625043089e-38
-0.1536246687 -0.1736288518 -0.1261298954 1.625043089e-38
-0.1803506315 -0.0923601985 -0.1509514749 1.625043089e-38
-0.2644934058 -0.3254330456 -0.02171624266 1.625043089e-38
-0.2387263775 -0.1574768871 0.08301255852 1.625043089e-38
-0.2670580745 -0.1990363449 -0.0372771658 1.625043089e-38
-0.2099250704 -0.164289549 -0.03820626065 1.625043089e-38
-0.2310853451 -0.3033816814 -0.1151140407 1.625043089e-38
-0.2493324876 -0.1681798398 0.05520951375 1.625043089e-38
-0.2173655629 -0.1146111935 -0.1513693631 1.625043089e-38
-0.2044893354 -0.05184220523 -0.1751311868 1.625043089e-38
-0.2625799775 -0.2596466243 -0.07939784974 1.625043089e-38
-0.2697462142 0.002398206852 0.1015787274 1.625043089e-38
-0.2535160184 -0.002346094232 -0.09973437339 1.625043089e-38
-0.2246256918 -0.04654561728 -0.09222538024 1.625043089e-38
-0.2584224641 -0.1143931448 -0.07908737659 1.625043089e-38
-0.2346220315 -0.1049059033 0.01076556835 1.625043089e-38
-0.2250324637 -0.0900092274 -0.1141559184 1.625043089e-38
-0.2482672483 -0.07686792314 -0.07237466425 1.625043089e-38
-0.1486383826 -0.04155999795 -0.1004698724 1.625043089e-38
-0.2006246895 -0.08052518964 -0.02221643738 1.625043089e-38
-0.1926739663 -0.1036140025 -0.1199367642 1.625043089e-38
-0.1992789209 -0.02688197047 -0.08744242787 1.625043089e-38
-0.2035229504 -0.06933636963 -0.09888335317 1.625043089e-38
-0.1231514961 -0.1297132522 -0.08955500275 1.625043089e-38
-0.2044605613 -0.1256271452 -0.05364275351 1.625043089e-38
-0.1981245428 -0.07667023689 0.004028015304 1.625043089e-38
-0.1563843936 -0.03512818739 -0.03005059622 1.625043089e-38
-0.1849539578 -0.07262390107 -0.03226071224 1.625043089e-38
0.04488743097 -0.2880345881 -0.1372580081 1.698367293e-38
-0.04408223182 -0.17995359 -0.1919517666 1.698367293e-38
0.08817112446 -0.3690759838 -0.1377484202 1.698367293e-38
-0.1450575441 -0.1562741995 -0.1268459111 1.698367293e-38
-0.031350445 -0.1863881648 -0.09990025312 1.698367293e-38
-0.03452141583 -0.1956022531 -0.2328954786 1.698367293e-38
-0.05663641915 -0.3379742205 0.01311475877 1.698367293e-38
-0.225962162 -0.1253483444 -0.09911432862 1.698367293e-38
0.0931724906 -0.2085250318 -0.185386613 1.698367293e-38
-0.1268842518 -0.2185349017 -0.1967953742 1.698367293e-38
0.07190743089 -0.3654448688 -0.1234980449 1.698367293e-38
-0.2261033207 -0.1649000198 -0.1514746249 1.698367293e-38
-0.004070602357 -0.1719841659 -0.1984636337 1.698367293e-38
-0.1382254064 -0.1707794964 -0.2601889372 1.698367293e-38
0.003959143534 -0.2970226705 -0.05021167919 1.698367293e-38
-0.2660259306 -0.1206419393 -0.1035449654 1.698367293e-38
0.162204504 -0.1644379646 -0.1935628355 1.698367293e-38
-0.1425448209 -0.1062132195 -0.2069934756 1.698367293e-38
0.04680801556 -0.1524115801 -0.03568008915 1.698367293e-38
-0.1703536958 -0.09789648652 -0.09550159425 1.698367293e-38
0.113869518 -0.08841048926 -0.1445453465 1.698367293e-38
-0.09161924571 -0.09108562768 -0.1699195951 1.698367293e-38
0.1010167748 -0.1369158775 -0.04769385979 1.698367293e-38
-0.04574564844 -0.08699318767 -0.1829722226 1.698367293e-38
0.003203157568 -0.07973153889 -0.1156252995 1.698367293e-38
-0.009568279609 -0.06394338608 -0.1448208094 1.698367293e-38
-0.03747180104 -0.0864341855 0.06347108632 1.698367293e-38
0.02406647988 -0.08976130933 -0.1388806105 1.698367293e-38
0.07627499849 -0.09107662737 -0.06591612846 1.698367293e-38
-0.06338073313 -0.04714131355 -0.01716757938 1.698367293e-38
0.06158930063 -0.08910388499 -0.003831710434 1.698367293e-38
-0.06700104475 -0.06336677819 -0.06047038361 1.698367293e-38
0.05427148938 -0.1910303235 0.1153195947 1.771655483e-38
0.1631133258 -0.2243734151 -0.1536282599 1.771655483e-38
0.2532272339 -0.3142783046 0.06137818098 1.771655483e-38
0.1071850583 -0.3441446722 -0.04957145825 1.771655483e-38
-0.1189461499 -0.1895193309 0.1814077049 1.771655483e-38
0.05086868256 -0.1789331585 -0.009437131695 1.771655483e-38
0.2122883946 -0.3159109056 0.03906783089 1.771655483e-38
0.1606127918 -0.2538496256 -0.1274392009 1.771655483e-38
0.1426129639 -0.1761410385 0.1405093074 1.771655483e-38
0.1363555938 -0.2548149526 -0.1594556123 1.771655483e-38
0.237549156 -0.3342219889 0.128883943 1.771655483e-38
0.161636591 -0.2683817148 -0.1015915349 1.771655483e-38
-0.08257453889 -0.1806793362 0.2002029866 1.771655483e-38
0.1669791192 -0.1844511777 -0.1379290074 1.771655483e-38
0.2301980406 -0.3011675775 0.10462863 1.771655483e-38
0.1144038737 -0.1447851211 -0.09794647247 1.771655483e-38
-0.02835842408 -0.1265023053 0.1527841389 1.771655483e-38
0.05077067763 -0.1634162515 -0.1103037447 1.771655483e-38
0.2266289741 -0.1401965171 0.09258173406 1.771655483e-38
0.03377862647 -0.1081713885 0.0329885073 1.771655483e-38
-0.1456217021 -0.08951210976 0.1493322998 1.771655483e-38
-0.05016456172 -0.1240177751 -0.01551911049 1.771655483e-38
0.1732125133 -0.03579408303 0.1484484971 1.771655483e-38
-0.05833400041 -0.03910316899 0.08930421621 1.771655483e-38
-0.2062160969 -0.07572066039 0.1866474748 1.771655483e-38
-0.1352582872 -0.05301376432 0.1786362678 1.771655483e-38
0.1306375116 -0.08566232026 0.03812534362 1.771655483e-38
0.0673527047 -0.1118053421 -0.01915587485 1.771655483e-38
0.1266088933 -0.1346563995 0.1193337068 1.771655483e-38
0.1087402701 -0.1117385775 -0.114782244 1.771655483e-38
0.1271339804 -0.08064759523 -0.006390320603 1.771655483e-38
0.06805083156 -0.09649718553 0.02425732277 1.771655483e-38
-0.2547297776 -0.176867947 0.03051788919 1.844943813e-38
-0.1822284609 -0.1429114044 0.01556790713 1.844943813e-38
-0.1800065935 -0.3425863683 -0.1056344435 1.844943813e-38
-0.1183189228 -0.1619278193 -0.02443018928 1.844943813e-38
-0.1996623129 -0.214995265 0.007957559079 1.844943813e-38
-0.1904198676 -0.2045997977 0.1187940165 1.844943813e-38
-0.1965359151 -0.3652405143 -0.09543890506 1.844943813e-38
-0.1529373825 -0.2532365918 0.0004878490872 1.844943813e-38
-0.2726813853 -0.197960645 0.05801784247 1.844943813e-38
-0.1940436363 -0.1940947175 0.05542882532 1.844943813e-38
-0.1814548075 -0.3654874265 -0.1223742068 1.844943813e-38
-0.1523348838 -0.2619993687 -0.08356457204 1.844943813e-38
-0.1937390566 -0.1927043498 0.02422581427 1.844943813e-38
-0.1847199947 -0.2116240412 0.09015543014 1.844943813e-38
-0.177997306 -0.3241392672 -0.1294270009 1.844943813e-38
-0.2150450945 -0.1312355995 -0.1494432688 1.844943813e-38
-0.2316629291 0.07576964051 0.08463601023 1.844943813e-38
-0.1669876724 -0.1404088885 0.03549416363 1.844943813e-38
-0.2595665157 -0.119878985 -0.02298397385 1.844943813e-38
-0.1545360535 -0.10631565 -0.1216209978 1.844943813e-38
-0.2139193863 0.03308921307 0.01848788001 1.844943813e-38
-0.2657591105 -0.1383024305 -0.04138865322 1.844943813e-38
-0.2337372899 -0.08826913685 -0.08019681275 1.844943813e-38
-0.1036298722 -0.02161245234 -0.0395572558 1.844943813e-38
-0.1919128299 0.02026632056 0.003826048225 1.844943813e-38
-0.1743292958 -0.08003780991 -0.04435080662 1.844943813e-38
-0.2384044826 -0.01295977551 0.05008807406 1.844943813e-38
-0.1274228096 -0.05854278058 0.02235034294 1.844943813e-38
-0.2173299193 -0.04809835926 -0.03896177188 1.844943813e-38
-0.2024470121 -0.1286831349 -0.05880176276 1.844943813e-38
-0.2414215654 -0.01537220553 -0.01978798397 1.844943813e-38
-0.1016502008 -0.04707511514 -0.03133531287 1.844943813e-38
-0.1005896851 -0.1939447671 0.2186959386 1.91819627e-38
0.1952561438 -0.2443960756 -0.02365894057 1.91819627e-38
0.1226168722 -0.2586108446 0.2234416902 1.91819627e-38
0.1902335584 -0.267632097 0.04189652577 1.91819627e-38
-0.05292454734 -0.2079277039 0.2032038867 1.91819627e-38
-0.0150546236 -0.155152902 -0.08611335605 1.91819627e-38
0.175649941 -0.3314927816 0.162527442 1.91819627e-38
0.2186023593 -0.3583070934 -0.009022288956 1.91819627e-38
0.06148058549 -0.2175828964 0.1877015978 1.91819627e-38
0.1876908988 -0.2851369679 -0.04907083511 1.91819627e-38
0.1455878466 -0.259146601 0.2465386242 1.91819627e-38
0.2295040339 -0.3132366538 0.02054108866 1.91819627e-38
-0.09696932882 -0.2234376669 0.251771003 1.91819627e-38
0.03036504053 -0.2148817927 -0.05939425901 1.91819627e-38
0.187923044 -0.2325101942 0.2286703438 1.91819627e-38
0.1471056789 -0.3194588721 0.004746103194 1.91819627e-38
-0.1161349937 -0.1863341779 0.1430577338 1.91819627e-38
-0.01787594333 -0.1680996567 -0.08273765445 1.91819627e-38
0.07104082406 -0.1008354649 0.1290938109 1.91819627e-38
0.2357695699 -0.1258205473 -0.004817329347 1.91819627e-38
-0.08663594723 -0.1541681737 0.1341848075 1.91819627e-38
0.0285442546 -0.1018521339 -0.0955856815 1.91819627e-38
0.07680922002 -0.01773974486 0.06766977906 1.91819627e-38
0.1830088347 -0.05444892496 0.08984312415 1.91819627e-38
-0.06105288863 -0.125118494 0.1291712821 1.91819627e-38
-0.09865804017 -0.06295654178 -0.0597406514 1.91819627e-38
-0.001301794546 -0.06043678522 0.1018365398 1.91819627e-38
0.2458281964 -0.09745054692 0.0107456781 1.91819627e-38
0.07392056286 -0.1133760959 0.05853630602 1.91819627e-38
0.1325028241 -0.05274746567 -0.04730900005 1.91819627e-38
-0.01589828916 -0.07923765481 0.09822953492 1.91819627e-38
0.2184786797 -0.04527402669 -0.02350116521 1.91819627e-38
-0.001530355541 -0.3234377205 -0.009781376459 1.991448586e-38
0.2530088723 -0.2259316444 0.08375118673 1.991448586e-38
0.08775552362 -0.3391309083 0.04712565243 1.991448586e-38
0.2068465799 -0.3035021722 0.07257890701 1.991448586e-38
0.02009415627 -0.3068236709 -0.07165470719 1.991448586e-38
0.2458148897 -0.2342353016 -0.0127874054 1.991448586e-38
-0.1890634298 -0.2888686061 0.009453156963 1.991448586e-38
0.2121196091 -0.25510934 0.1384506971 1.991448586e-38
0.09261129051 -0.3855493367 0.01377071533 1.991448586e-38
0.2280608416 -0.2148976177 0.1017757878 1.991448586e-38
0.03951987624 -0.283215642 0.01266025938 1.991448586e-38
0.2121532112 -0.2759656012 0.114459075 1.991448586e-38
-0.06800413877 -0.3263489604 -0.02023816109 1.991448586e-38
0.2119282931 -0.2013094425 0.04935730994 1.991448586e-38
-0.155152902 -0.2248377502 0.0557401292 1.991448586e-38
0.2102270275 -0.277285099 0.1460329294 1.991448586e-38
0.2084469199 -0.171940729 -0.07392669469 1.991448586e-38
0.1795185059 -0.2257784009 0.07797607034 1.991448586e-38
-0.01897767372 -0.1211999208 0.04056895152 1.991448586e-38
0.2340888828 -0.1253394634 0.1087421179 1.991448586e-38
0.1482855082 -0.1329810023 0.01754760928 1.991448586e-38
0.1362490654 -0.0983684212 0.1147031933 1.991448586e-38
0.06501960009 -0.1084581539 0.136915639 1.991448586e-38
0.1189314947 -0.08277335763 0.1070050001 1.991448586e-38
0.0586790517 -0.1526957899 -0.006084888708 1.991448586e-38
0.1216738224 -0.1065278351 0.07669400424 1.991448586e-38
-0.02098209038 -0.07866155356 0.04712253064 1.991448586e-38
0.2924444079 -0.09423928708 0.03985858709 1.991448586e-38
0.08315356076 -0.1358791888 0.06764157861 1.991448586e-38
0.2213906646 -0.1150691062 0.05566038191 1.991448586e-38
0.2165633738 -0.07753012329 0.002043624409 1.991448586e-38
0.2144693583 -0.1019349396 0.05905303732 1.991448586e-38
0.2268641889 -0.2309754938 -0.05179075152 2.06466517e-38
0.02703043818 -0.2247789055 -0.1825928092 2.06466517e-38
0.269343555 -0.2746660113 -0.02795013599 2.06466517e-38
0.07590443641 -0.2383790314 -0.2085693032 2.06466517e-38
0.1210982874 -0.2246581167 -0.1097673923 2.06466517e-38
-0.05126589909 -0.1669447124 -0.2110057026 2.06466517e-38
0.2888674736 -0.2943930626 0.03342024237 2.06466517e-38
0.1396574378 -0.3227631748 -0.1546656191 2.06466517e-38
0.233950302 -0.2301876545 -0.05654570088 2.06466517e-38
0.06913790107 -0.2344218791 -0.1977446079 2.06466517e-38
0.3150459826 -0.3076108992 0.02007018216 2.06466517e-38
0.1173286885 -0.260927707 -0.2342661768 2.06466517e-38
0.1872315258 -0.2119630426 -0.1031100377 2.06466517e-38
-0.003972315695 -0.2003423125 -0.2615029216 2.06466517e-38
0.3132104874 -0.2297684401 0.03746120632 2.06466517e-38
0.2004087567 -0.315756619 -0.2058141679 2.06466517e-38
0.2473154664 -0.1718909293 -0.1116968021 2.06466517e-38
-0.08800383657 -0.1194304004 -0.1530022323 2.06466517e-38
0.3052707016 -0.1733116359 -0.01855701208 2.06466517e-38
0.07285340875 -0.1732025892 -0.1042983457 2.06466517e-38
0.1936226636 -0.06983527541 -0.09451216459 2.06466517e-38
0.0001895427704 -0.1177815497 -0.1197428033 2.06466517e-38
0.2494322062 -0.05686206743 -0.05330682173 2.06466517e-38
-0.07580368966 -0.07635113597 -0.2432661504 2.06466517e-38
0.1991699338 -0.08156788349 -0.07986615598 2.06466517e-38
-0.02704036981 -0.08588795364 -0.09970208257 2.06466517e-38
0.2174189687 -0.1007013619 -0.005812132265 2.06466517e-38
0.05660557747 -0.1035728678 -0.1588406116 2.06466517e-38
0.1828963459 -0.09620855749 -0.001212670817 2.06466517e-38
0.1803679615 -0.2032099813 -0.07806400955 2.06466517e-38
0.2063985169 -0.0892496556 -0.02655631118 2.06466517e-38
0.1106141508 -0.06529772282 -0.05067650601 2.06466517e-38
-0.2374773771 -0.1673496366 0.09802606702 2.137881613e-38
-0.02529674396 0.03942170367 0.06685626507 2.137881613e-38
