# .PCD v0.7 - Point Cloud Data file format
VERSION 0.7
FIELDS x y z rgb
SIZE 4 4 4 4
TYPE F F F F
COUNT 1 1 1 1
WIDTH 805
HEIGHT 1
VIEWPOINT 0 0 0 1 0 0 0
POINTS 805
DATA ascii
0.1534694433 -0.04614566267 0.03741432354 6.490113838e-41
0.1859248132 -0.068452999 -0.04465029761 6.490113838e-41
0.3134275675 -0.05649257824 0.02693222649 6.490113838e-41
0.2168752253 -0.06580652297 -0.03546111658 6.490113838e-41
0.1034188271 -0.04364500567 0.03840044886 6.490113838e-41
0.004564044997 -0.0826203078 -0.05990411341 6.490113838e-41
-0.0243125502 -0.0783848688 -0.01377065573 8.028094954e-40
-0.0006867869524 -0.0690400824 -0.1869726181 8.028094954e-40
-0.1407574117 -0.06230558455 0.01542925462 8.028094954e-40
0.1417510659 -0.07999435067 -0.03173938394 8.028094954e-40
-0.02756289579 -0.0710895136 0.0132701816 8.028094954e-40
-0.1255571246 -0.06330335885 -0.09373161942 8.028094954e-40
-0.2374284118 -0.03865080699 0.03229694068 8.028094954e-40
0.0365389362 -0.07175951451 0.02220476605 8.028094954e-40
-0.1438027769 -0.0481027253 0.04961277544 8.028094954e-40
0.02631263249 -0.0835076347 -0.01756731421 8.028094954e-40
-0.2616840005 -0.04398906603 0.02240249887 8.028094954e-40
0.0836859867 -0.08369787782 0.01499621291 8.028094954e-40
-0.1074756756 -0.07124929875 0.04299267381 8.028094954e-40
0.0218111258 -0.07027039677 -0.03999679163 8.028094954e-40
-0.2217808068 -0.05242438242 0.02755246311 8.028094954e-40
0.1688512564 -0.07349394262 -0.008785319515 8.028094954e-40
-0.08442407101 -0.06680068374 0.03733691946 8.028094954e-40
-0.07733710855 -0.07670207322 0.009789643809 8.028094954e-40
-0.2577041984 -0.03824675083 0.02935899794 8.028094954e-40
0.08161189407 -0.07706915587 0.004953600932 8.028094954e-40
-0.1153536513 -0.07280958444 0.03748507798 8.028094954e-40
0.01559841726 -0.07578900456 -0.01066814829 8.028094954e-40
-0.1818083078 -0.06085625663 0.02513024211 8.028094954e-40
0.1721942574 -0.07740359753 0.003308325075 8.028094954e-40
-0.06216370314 -0.07227481902 0.06489069015 8.028094954e-40
-0.07409425825 -0.06169681251 -0.03394594043 8.028094954e-40
-0.2355802208 -0.05206694454 0.03779421747 8.028094954e-40
0.03991176933 -0.09112154692 0.03812011331 8.028094954e-40
-0.1284177452 -0.06628719717 0.05640985444 8.028094954e-40
-3.137439489e-05 -0.08180049062 0.008197865449 8.028094954e-40
-0.09380411357 -0.09280639887 0.02786194719 8.028094954e-40
0.276496917 -0.07807414234 0.03775771335 8.028094954e-40
0.02911341563 -0.05525664985 -0.09970255941 1.540360521e-39
-0.04431297258 -0.06896486133 -0.1873046011 1.540360521e-39
-0.06501749903 -0.04824749008 -0.2075147033 1.540360521e-39
0.02754949033 -0.006548616569 0.0007775126141 1.540360521e-39
-0.06458264589 -0.05361946672 -0.1228847057 1.540360521e-39
-0.1051764339 -0.01602321863 0.1229602471 1.540360521e-39
-0.07187215239 -0.07995936275 -0.00333082932 1.540360521e-39
-0.2133559287 -0.001376285334 0.02159052715 1.540360521e-39
0.009527610615 -0.0752286166 -0.02955804765 1.540360521e-39
-0.1790258437 -0.04862522334 -0.04610573873 1.540360521e-39
-0.1061006486 -0.07967661321 -0.02510021813 1.540360521e-39
-0.1408645958 -0.01211166009 0.02901000716 1.540360521e-39
0.006495511159 -0.05430506542 -0.06166470423 1.540360521e-39
-0.188934356 -0.05436687171 -0.04193356261 1.540360521e-39
-0.05683052167 -0.07522238046 -0.02714156359 1.540360521e-39
-0.1388857216 -0.002629095223 0.008476248011 1.540360521e-39
-0.09321137518 -0.04060249403 -0.1019257605 1.540360521e-39
-0.08585977554 -0.02901544794 0.0165763218 1.540360521e-39
0.004925680347 -0.08709222078 0.01127450075 1.540360521e-39
-0.2416270226 -0.02510866895 0.007760309149 1.540360521e-39
-0.02174609713 -0.06356415153 -0.0471415706 1.540360521e-39
-0.2048477083 -0.04945112765 -0.04264386743 1.540360521e-39
-0.07478343695 -0.07340546697 -0.03900457174 1.540360521e-39
-0.05262573436 -0.006983993575 0.008271549828 1.540360521e-39
-0.0407024771 -0.06156038493 -0.1142059788 1.540360521e-39
-0.04565757141 -0.03376950324 0.07205937803 1.540360521e-39
-0.03556426615 -0.08921279758 -0.02911071293 1.540360521e-39
-0.2349880487 -0.01519217435 0.03340880945 1.540360521e-39
-0.02135017142 -0.05733025819 -0.04334615171 1.540360521e-39
-0.2190945745 -0.01209296193 -0.02964739129 1.540360521e-39
-0.01027022675 -0.08382744342 -0.03999292478 1.540360521e-39
-0.07910103351 -0.02827151492 -0.02329226211 1.540360521e-39
-0.1557798237 -0.09181990474 -0.005521420389 2.277910146e-39
0.004793145228 -0.06276002526 0.2139356285 2.277910146e-39
-0.1809481531 -0.01787452772 0.002154667396 2.277910146e-39
-0.03635634854 -0.05846099928 0.1284431666 2.277910146e-39
-0.1305973232 -0.08608084917 0.01901696809 2.277910146e-39
-0.09333958477 -0.06001252681 0.1759983599 2.277910146e-39
-0.2772004306 0.001390068792 -0.01397576276 2.277910146e-39
-0.1245375276 -0.05142122135 0.0293472819 2.277910146e-39
-0.2162975967 -0.0636683479 0.0003640325449 2.277910146e-39
-0.04198694974 -0.0581388697 0.1557240337 2.277910146e-39
-0.3253771961 0.006901512388 -0.001555051305 2.277910146e-39
-0.1082778648 -0.06628661603 0.04131442308 2.277910146e-39
-0.2003678232 -0.06679046154 0.005910790525 2.277910146e-39
-0.0203181114 -0.05345294997 0.1389989108 2.277910146e-39
-0.2444938421 -0.05313559622 -0.008286096156 2.277910146e-39
-0.08577315509 -0.06133916229 0.04083577543 2.277910146e-39
-0.1585008949 -0.06987019628 0.01375937741 2.277910146e-39
-0.08730231225 -0.05703673884 0.09276116639 2.277910146e-39
-0.2824536264 -0.05204331502 0.008308100514 2.277910146e-39
-0.1612608135 -0.06844692677 0.03015717305 2.277910146e-39
-0.1909242272 -0.06899499148 0.0007411435945 2.277910146e-39
-0.04673290253 -0.05490567535 0.1093286648 2.277910146e-39
-0.2338128835 -0.05748291686 -0.01632818021 2.277910146e-39
-0.06746685505 -0.05737774819 0.07100192457 2.277910146e-39
-0.1478643715 -0.09187476337 0.02228063717 2.277910146e-39
-0.06573211402 -0.05520281196 0.1389818937 2.277910146e-39
-0.3031825721 -0.06103862822 0.006954206619 2.277910146e-39
-0.1572971046 -0.08465471119 0.03161616251 2.277910146e-39
-0.246265322 -0.08344680071 0.01939103566 2.277910146e-39
-0.06978863478 -0.06613758951 0.05201233551 2.277910146e-39
-0.3091446459 -0.07675851882 -0.005376803223 2.277910146e-39
-0.0970858559 -0.06617955118 0.04315286875 2.277910146e-39
-0.01483123004 -0.06327360123 0.08887687325 3.015101038e-39
0.1795492023 -0.09599508345 0.0184026584 3.015101038e-39
-0.1393824965 -0.07145906985 -0.02296879701 3.015101038e-39
0.0187688414 -0.06875814497 -0.08458668739 3.015101038e-39
-0.04795155302 -0.04965167865 0.08627245575 3.015101038e-39
0.2236032933 -0.08033818752 -0.0007930396241 3.015101038e-39
-0.2727686465 -0.05661297217 0.008398395032 3.015101038e-39
-0.03388687968 -0.042055998 -0.1537452787 3.015101038e-39
-0.1858629882 -0.06781451404 0.0313805975 3.015101038e-39
0.1111771092 -0.07009905577 -0.01976532117 3.015101038e-39
-0.2921336889 -0.06081859022 -0.01201253012 3.015101038e-39
-0.05473839492 -0.06953568757 -0.1038302481 3.015101038e-39
-0.1803037971 -0.07566612959 0.04307053611 3.015101038e-39
0.1096057072 -0.0761468187 -0.01980991662 3.015101038e-39
-0.2772770524 -0.06268747151 0.00410901662 3.015101038e-39
-0.04850367829 -0.08255586028 -0.01859599538 3.015101038e-39
-0.1612200886 -0.07304232568 0.04961578175 3.015101038e-39
0.1769669652 -0.08524712175 -0.01035446208 3.015101038e-39
-0.3332067728 -0.05871388316 -0.004019045271 3.015101038e-39
-0.0895492062 -0.08957470953 -0.03240893781 3.015101038e-39
-0.1715161651 -0.08640237898 0.04296353459 3.015101038e-39
0.07896085829 -0.08012959361 -0.01945804246 3.015101038e-39
-0.2849147022 -0.07144924998 0.005173502956 3.015101038e-39
0.005106591154 -0.0698082149 -0.007528833579 3.015101038e-39
-0.1189059541 -0.05739526823 0.05304293334 3.015101038e-39
0.2187227905 -0.08530913293 -0.003133733757 3.015101038e-39
-0.3403394222 -0.06521277875 -0.002087172819 3.015101038e-39
-0.07775206864 -0.08601843566 -0.05017605424 3.015101038e-39
-0.2041037381 -0.0938257128 0.02545989677 3.015101038e-39
0.02095093951 -0.09175439179 -0.02362651937 3.015101038e-39
-0.3030165136 -0.07365690172 0.009834062308 3.015101038e-39
0.04082368314 -0.08080046624 0.04678609967 3.015101038e-39
-0.05799083039 -0.04442136362 0.3410562873 3.75229193e-39
-0.04804024845 -0.05542729795 0.1889003217 3.75229193e-39
-0.0715283826 -0.04485430196 0.3360280097 3.75229193e-39
-0.05182136595 -0.05855582282 0.06348012388 3.75229193e-39
-0.06761214137 -0.04698670283 0.1818937212 3.75229193e-39
-0.09121888876 -0.06597846001 0.1686248183 3.75229193e-39
-0.06501927227 -0.0465301685 0.2335369289 3.75229193e-39
-0.0317103602 -0.06468266249 -0.08037159592 3.75229193e-39
-0.04665451497 -0.05155560374 0.1735190898 3.75229193e-39
-0.07436048239 -0.05979183689 0.07760430872 3.75229193e-39
-0.09514359385 -0.05009845272 0.2257182896 3.75229193e-39
-0.03188050911 -0.07357172668 -0.0910794884 3.75229193e-39
-0.06588009 -0.05520667881 0.1307421029 3.75229193e-39
-0.09013874829 -0.06742992997 0.07384898514 3.75229193e-39
-0.0779883489 -0.07320450991 0.1608597338 3.75229193e-39
-0.02872872911 -0.08436563611 -0.04700686783 3.75229193e-39
-0.02463456243 -0.06447540969 0.06294604391 3.75229193e-39
-0.1011651456 -0.08000603318 0.0706243813 3.75229193e-39
-0.113633275 -0.08069132268 0.06028589606 3.75229193e-39
0.004394026008 -0.06803499162 -0.05542797968 3.75229193e-39
-0.05702670664 -0.05022966862 0.1365981549 3.75229193e-39
-0.07875590026 -0.07306822389 0.04369655997 3.75229193e-39
-0.07111988217 -0.07637236267 0.1380562782 3.75229193e-39
-0.02399809286 -0.09089647979 -0.0006239264621 3.75229193e-39
0.03306789696 -0.05088831857 0.08352229744 3.75229193e-39
-0.07155556977 -0.08440482616 0.1011691093 3.75229193e-39
-0.02091546729 -0.06576959044 0.1424741298 3.75229193e-39
0.01431646757 -0.07155192643 -0.05945928022 3.75229193e-39
-0.01619075239 -0.04928885773 0.07005449384 3.75229193e-39
-0.01888530329 -0.09868936241 -0.006842685398 3.75229193e-39
0.0006855725078 -0.08191266656 0.0448756218 3.75229193e-39
0.01136242133 -0.09459940344 -0.006155338604 3.75229193e-39
-0.1295113564 -0.05583710223 -0.04292912409 4.48912409e-39
0.003762301989 -0.1157945022 -0.03383745626 4.48912409e-39
-0.2185827792 0.02086697146 0.001004665741 4.48912409e-39
0.2526745796 -0.0600666143 -0.03755159304 4.48912409e-39
-0.1260910481 -0.04887988418 -0.07396407425 4.48912409e-39
-0.08205846697 -0.06773196906 -0.005355753936 4.48912409e-39
-0.3396675885 0.05319081992 -0.01205168758 4.48912409e-39
0.08810175955 -0.05725565553 -0.04173446447 4.48912409e-39
-0.208494693 -0.04213600233 -0.0476068072 4.48912409e-39
-0.01709290221 -0.1071723774 -0.05547926202 4.48912409e-39
-0.3505268693 0.05226991698 -0.006526165176 4.48912409e-39
0.1246585846 -0.05811912566 -0.04331638664 4.48912409e-39
-0.2007226199 -0.04003444314 -0.04853273183 4.48912409e-39
-0.03521766141 -0.09490078688 -0.04833287001 4.48912409e-39
-0.2759277523 0.0167656932 0.008830295876 4.48912409e-39
0.2706955373 -0.05483742058 -0.03611151129 4.48912409e-39
-0.1687459648 -0.04920143262 -0.0499577038 4.48912409e-39
-0.08388797194 -0.06939036399 -0.04509774595 4.48912409e-39
-0.2927524745 0.00497899577 -0.002903904067 4.48912409e-39
0.1131957173 -0.06052895263 -0.04239176959 4.48912409e-39
-0.2008533627 -0.04080076143 -0.05086741224 4.48912409e-39
-0.03402131796 -0.09555479139 -0.04749527574 4.48912409e-39
-0.250955373 0.005113616586 0.01107024588 4.48912409e-39
0.2931591272 -0.05436208844 -0.03710659221 4.48912409e-39
-0.1491684616 -0.04953253269 -0.07433442771 4.48912409e-39
-0.07071013749 -0.0702335462 -0.03083631583 4.48912409e-39
-0.2918793261 0.01606892981 -0.01169736963 4.48912409e-39
0.08448555321 -0.06988243759 -0.04853857681 4.48912409e-39
-0.2481330633 -0.05241509899 -0.04751850665 4.48912409e-39
-0.05206857249 -0.082692191 -0.03652111813 4.48912409e-39
-0.2199212015 -0.007906912826 0.01437261049 4.48912409e-39
0.1783707887 -0.06460193545 -0.04717978835 4.48912409e-39
-0.1132461354 -0.05645961687 -0.3327423334 5.225597518e-39
0.07078391314 -0.07111559063 -0.0670318529 5.225597518e-39
-0.09378359467 -0.05204904452 -0.2131244689 5.225597518e-39
0.1627501249 -0.08401373774 -0.05001118407 5.225597518e-39
-0.1309726685 -0.06066646054 -0.3224101067 5.225597518e-39
-0.01658347249 -0.07162202895 -0.08464339375 5.225597518e-39
-0.02639325708 -0.04229728132 -0.08118949831 5.225597518e-39
0.33781147 -0.07269383222 0.01577583142 5.225597518e-39
-0.03214168921 -0.04958060384 -0.2300213873 5.225597518e-39
0.1289447248 -0.08136105537 -0.009828355163 5.225597518e-39
-0.01334361546 -0.05161658302 -0.0870846808 5.225597518e-39
0.295882374 -0.09691725671 0.0283704102 5.225597518e-39
-0.0394051373 -0.06552119553 -0.1593429446 5.225597518e-39
0.1508246958 -0.08093576133 -0.017608447 5.225597518e-39
-0.03994173184 -0.06191906705 -0.07666195929 5.225597518e-39
0.3226214647 -0.08043021709 0.001103356015 5.225597518e-39
-0.1108308434 -0.05601376668 -0.2000981122 5.225597518e-39
0.068406865 -0.09382676333 -0.02940399945 5.225597518e-39
-0.002503762487 -0.0595725812 -0.02253313363 5.225597518e-39
0.3767648041 -0.08437860012 0.004192849156 5.225597518e-39
-0.0441467464 -0.05888454989 -0.1386123449 5.225597518e-39
0.1623081565 -0.09209304303 -0.003634660272 5.225597518e-39
-0.03192183375 -0.0691319555 -0.0702476576 5.225597518e-39
0.2450043261 -0.07639751583 -0.007673619781 5.225597518e-39
-0.06128858775 -0.06553519517 -0.1813490242 5.225597518e-39
0.0480346866 -0.07196161896 -0.06149655208 5.225597518e-39
0.0253011547 -0.0511738658 -0.04054431245 5.225597518e-39
0.3455093801 -0.09243221581 0.009481205605 5.225597518e-39
-0.002698251046 -0.05052074045 -0.09239574522 5.225597518e-39
0.1956343651 -0.1054555848 -0.01596038043 5.225597518e-39
0.008824693039 -0.08452168107 -0.07782776654 5.225597518e-39
0.2667315006 -0.08051998168 -0.02445829846 5.225597518e-39
0.2716688216 -0.03159886226 -0.03505474702 5.962428276e-39
0.1494014412 -0.05101857707 -0.04585296288 5.962428276e-39
0.1347429603 -0.04302160814 0.007644191384 5.962428276e-39
-0.03130762652 -0.08033855259 0.005470314529 5.962428276e-39
0.2379858047 -0.03656231239 -0.03862894699 5.962428276e-39
0.04983724654 -0.06560990959 -0.0669727549 5.962428276e-39
0.3330561817 -0.02268991806 0.02330737747 5.962428276e-39
0.1962259412 -0.0557391867 0.02586968988 5.962428276e-39
0.3550569415 -0.06778705865 -0.01917673275 5.962428276e-39
0.2388962954 -0.0195560921 -0.0331973657 5.962428276e-39
0.3436975777 -0.02868942916 0.02622061409 5.962428276e-39
0.1456366181 -0.07484877855 0.03652683645 5.962428276e-39
0.3386241794 -0.06474904716 -0.02452784032 5.962428276e-39
0.2176521868 -0.03645089641 -0.0390823558 5.962428276e-39
0.2837782502 -0.02132407576 0.02294290438 5.962428276e-39
0.1333251595 -0.06970532238 0.03030801378 5.962428276e-39
0.2716013193 -0.04396768659 -0.03230429068 5.962428276e-39
0.1528136283 -0.045195207 -0.03806851059 5.962428276e-39
0.301571101 -0.0267227143 -0.002403172664 5.962428276e-39
0.1817226261 -0.07653445005 0.03909820691 5.962428276e-39
0.3238241374 -0.06637088954 -0.02551045269 5.962428276e-39
0.2290312797 -0.03491379693 -0.03650346398 5.962428276e-39
0.253960222 -0.01986260898 0.01997266337 5.962428276e-39
0.05720195919 -0.07731615752 0.0262303967 5.962428276e-39
0.2612318397 -0.04480210692 -0.03545340896 5.962428276e-39
0.106296055 -0.04327883571 -0.04074526578 5.962428276e-39
0.2798748016 -0.02290891111 0.003972237464 5.962428276e-39
0.1904081404 -0.0647123158 0.03828081489 5.962428276e-39
0.3442079723 -0.06910263002 -0.02841860428 5.962428276e-39
0.2111710459 -0.0425917469 -0.03314961866 5.962428276e-39
0.2051172256 -0.01978079043 -0.0005169808283 5.962428276e-39
0.01411075331 -0.08972814679 0.02010296658 5.962428276e-39
0.2348935306 -0.08280933648 -0.003135477193 6.698542971e-39
0.05531048775 -0.07568836212 0.1034546569 6.698542971e-39
0.07060453296 -0.06179892644 0.009309737943 6.698542971e-39
-0.05202773958 -0.09468540549 0.05626860633 6.698542971e-39
0.2815467417 -0.07557791471 -0.001029118546 6.698542971e-39
0.06310480833 -0.07985789329 0.05492454395 6.698542971e-39
0.2140618116 -0.04770928621 0.01404309366 6.698542971e-39
-0.2039749175 -0.06204046309 0.008374003693 6.698542971e-39
0.3322999775 -0.07212127745 -0.006498886272 6.698542971e-39
-0.03851554915 -0.07747848332 0.004251126666 6.698542971e-39
0.2163280249 -0.04735483602 0.02930435166 6.698542971e-39
-0.1710626334 -0.078438133 -0.01355916634 6.698542971e-39
0.3194058239 -0.06511794776 -0.002149146516 6.698542971e-39
-0.04465213418 -0.08023031056 0.00835354533 6.698542971e-39
0.1765408516 -0.05632100254 -0.003680763999 6.698542971e-39
-0.1180113778 -0.07389591634 -0.008019364439 6.698542971e-39
0.2991617024 -0.06081431359 0.003959933296 6.698542971e-39
0.03649700806 -0.08760366589 -0.001622481737 6.698542971e-39
0.1994044185 -0.06604462117 0.00903557986 6.698542971e-39
-0.1862783283 -0.07616530359 0.005539732985 6.698542971e-39
0.314489603 -0.08200535178 -0.01192085631 6.698542971e-39
-0.02225060016 -0.08670280874 -0.007366702892 6.698542971e-39
0.1604374945 -0.0663369 -0.01814905182 6.698542971e-39
-0.07562878728 -0.09275982529 -0.03447280824 6.698542971e-39
0.2892358899 -0.06817629933 0.0121780578 6.698542971e-39
0.07023038715 -0.08495053649 0.02355688065 6.698542971e-39
0.1986245662 -0.08482613415 0.03352034092 6.698542971e-39
-0.2082433105 -0.08453478664 -0.01654774882 6.698542971e-39
0.3260284662 -0.05957892165 0.007165249903 6.698542971e-39
0.02767428197 -0.1031108871 -0.02450771071 6.698542971e-39
0.1283016056 -0.06903956085 -0.02039633878 6.698542971e-39
0.05858834088 -0.09715779126 -0.01532095019 6.698542971e-39
0.2430256605 -0.0695116967 0.03202168643 7.434656265e-39
-0.03203155845 -0.003455945523 0.01588197611 7.434656265e-39
0.07780136168 -0.07857453078 0.02076978236 7.434656265e-39
0.143274799 -0.0688528195 -0.03607537597 7.434656265e-39
0.2072796375 -0.07095509768 -0.01915036701 7.434656265e-39
-0.0006569063989 -0.02501489222 -0.03258327022 7.434656265e-39
0.1843321323 -0.06651631743 -9.38102603e-05 7.434656265e-39
0.02763589472 -0.05824037641 -0.03287997469 7.434656265e-39
0.3073979318 -0.08558581024 -0.006224015262 7.434656265e-39
-0.1410101652 0.004921651911 0.001066840836 7.434656265e-39
0.1757476479 -0.07387491316 0.009016500786 7.434656265e-39
0.0481691286 -0.08204957098 -0.02707110345 7.434656265e-39
0.2922737002 -0.07345563918 -0.01967995614 7.434656265e-39
-0.1414808482 -0.001553027541 0.005114063621 7.434656265e-39
0.09993104637 -0.05817293748 0.01914536208 7.434656265e-39
0.09621634334 -0.06692196429 -0.02375593781 7.434656265e-39
0.1846524775 -0.04419818893 -0.02650018781 7.434656265e-39
-0.06129588559 -0.02536908723 -0.03360657394 7.434656265e-39
0.1582312286 -0.06027520075 -0.0006684212713 7.434656265e-39
0.02700434625 -0.06475638598 -0.02715323865 7.434656265e-39
0.2716284394 -0.07128249109 -0.02531243302 7.434656265e-39
-0.1611491889 -0.005882102065 -0.01036971901 7.434656265e-39
0.09031223506 -0.07042061538 0.02414700389 7.434656265e-39
0.1234789789 -0.06162089109 -0.03542745113 7.434656265e-39
0.1965317428 -0.05845559388 -0.01028606482 7.434656265e-39
-0.0260897316 -0.02496439777 -0.03710304201 7.434656265e-39
0.1802051812 -0.07568859309 -0.01603398845 7.434656265e-39
0.02626010403 -0.08962052315 -0.02654276043 7.434656265e-39
0.204054296 -0.04729755968 -0.01257559657 7.434656265e-39
-0.1584178954 -0.02303037606 -0.02554444969 7.434656265e-39
0.05662649125 -0.08891266584 0.04930527136 7.434656265e-39
0.1652685851 -0.07082629949 0.0512691699 7.434656265e-39
-0.03975137323 -0.06265529245 -0.1318614334 8.170410826e-39
-0.0136566069 -0.008303741924 0.0009759512614 8.170410826e-39
-0.03189969063 -0.05281787366 -0.1190477014 8.170410826e-39
-0.100843735 -0.004627891351 0.01592693664 8.170410826e-39
-0.0346566923 -0.06071558967 -0.05486885831 8.170410826e-39
0.04259543493 0.001306115882 -0.00384013704 8.170410826e-39
0.1366328448 -0.01627705619 -0.03459502384 8.170410826e-39
-0.2359501421 -0.00539014861 0.02576325648 8.170410826e-39
0.03925139457 -0.04275442287 -0.06054280698 8.170410826e-39
-0.04249513149 0.003794048447 0.01273519266 8.170410826e-39
0.1377859563 -0.03181675822 -0.0346798338 8.170410826e-39
-0.174267754 -0.01002598461 0.02738790587 8.170410826e-39
0.03227327392 -0.05567645282 -0.05227558687 8.170410826e-39
-0.03366605565 -0.006941143889 0.0134918252 8.170410826e-39
0.1091372669 -0.04041570798 -0.04268481582 8.170410826e-39
-0.1505582631 0.0004264227755 0.01794515923 8.170410826e-39
-0.02905655466 -0.05023229495 -0.02409926802 8.170410826e-39
0.01572087035 -0.01056998689 0.009747278877 8.170410826e-39
0.1435558945 -0.04659383371 -0.03298075497 8.170410826e-39
-0.1683637351 -0.008968109265 0.02884070762 8.170410826e-39
0.03380652517 -0.064039886 -0.03986275196 8.170410826e-39
-0.03815088794 -0.007885229774 0.0142015731 8.170410826e-39
0.08109790832 -0.06203807145 -0.0604759343 8.170410826e-39
-0.1286117733 -0.004919981118 0.01837974228 8.170410826e-39
-0.01093031373 -0.04410227388 -0.04936669394 8.170410826e-39
0.02654420584 -0.005391918123 0.002317565959 8.170410826e-39
0.1258451492 -0.04767115042 -0.04273061827 8.170410826e-39
-0.2143865824 -0.008798960596 0.03135133907 8.170410826e-39
0.060845498 -0.05348162726 -0.04513012618 8.170410826e-39
-0.03292690217 -0.02328055911 0.01036981586 8.170410826e-39
0.1160859466 -0.03106433153 -0.04056196287 8.170410826e-39
-0.07983472198 -0.00888061244 0.02665254846 8.170410826e-39
0.04286695644 -0.0597477816 -0.09128347784 8.906165387e-39
-0.03655193374 -0.07343289256 -0.04394266009 8.906165387e-39
-0.08767902106 -0.05130920187 -0.03909972683 8.906165387e-39
-0.1335761398 -0.04502930865 -0.01775882766 8.906165387e-39
0.01522155665 -0.05690206587 -0.08719158173 8.906165387e-39
-0.08399061859 -0.02570076473 -0.1089299545 8.906165387e-39
-0.2147480845 -0.06409873813 0.001277937787 8.906165387e-39
-0.3299119174 -0.04764174297 0.0117534725 8.906165387e-39
-0.03796411306 -0.05443165451 -0.03943474963 8.906165387e-39
-0.2216463387 -0.04158053547 -0.0713487491 8.906165387e-39
-0.2264098674 -0.07153024524 -0.009949413128 8.906165387e-39
-0.3434599042 -0.0610730648 0.01322262362 8.906165387e-39
-0.06982880831 -0.07593858242 -0.05418789387 8.906165387e-39
-0.1928878427 -0.040625453 -0.06290261447 8.906165387e-39
-0.1571305245 -0.06572292 -0.01656361297 8.906165387e-39
-0.2983748317 -0.05223967135 -0.01289046276 8.906165387e-39
-0.06063758954 -0.06338199228 -0.05492659286 8.906165387e-39
-0.1634868085 -0.04012254626 -0.06202636659 8.906165387e-39
-0.2270015925 -0.07967860252 -0.01471805107 8.906165387e-39
-0.3623672128 -0.04554022476 -0.005565165076 8.906165387e-39
-0.06056163833 -0.07632918656 -0.04955529794 8.906165387e-39
-0.2046392709 -0.04132605344 -0.06267429888 8.906165387e-39
-0.1003288031 -0.07717479765 0.002750192303 8.906165387e-39
-0.2349685282 -0.05096949264 -0.03824687377 8.906165387e-39
-0.001223690226 -0.07087399811 -0.06871911138 8.906165387e-39
-0.125725463 -0.03229311109 -0.09917365015 8.906165387e-39
-0.19233872 -0.08100275695 0.007961275987 8.906165387e-39
-0.3779389262 -0.056461595 -0.002490846906 8.906165387e-39
-0.05706649646 -0.09623113275 -0.0258987844 8.906165387e-39
-0.2227211595 -0.06894109398 -0.04664771631 8.906165387e-39
-0.05849524215 -0.09539999813 0.01651647314 8.906165387e-39
-0.1743191034 -0.04332451522 -0.04425624013 8.906165387e-39
-0.09744946659 -0.005562187172 0.008981523104 9.641561216e-39
-0.03364725783 -0.04054677114 0.2527557313 9.641561216e-39
0.03466477245 -0.001755214878 0.008462420665 9.641561216e-39
0.1793136299 -0.02754621208 0.0112129068 9.641561216e-39
-0.1195093989 -0.009966583923 -0.007044318132 9.641561216e-39
-0.04799872637 -0.04418951645 0.2876682878 9.641561216e-39
0.132929191 -0.006575680804 -0.0140381027 9.641561216e-39
0.3588338494 -0.002596065635 -0.00293958839 9.641561216e-39
-0.01043992583 0.01768726483 -0.01739864238 9.641561216e-39
0.0210596323 -0.04234934226 0.1659739166 9.641561216e-39
0.14569287 -0.005902136676 -0.00623079529 9.641561216e-39
0.3378076553 -0.006952448748 -0.00861256849 9.641561216e-39
-0.002739199204 0.004927790258 -0.01021729596 9.641561216e-39
-0.01283119246 -0.0560683459 0.1565882862 9.641561216e-39
0.0952501297 -0.01018843334 -0.01771033928 9.641561216e-39
0.3127992749 -0.01150181424 0.003403918818 9.641561216e-39
-0.07761771977 -0.007861340418 -0.01076455601 9.641561216e-39
-0.07538323849 -0.05569327995 0.129894048 9.641561216e-39
0.114978388 -0.01120388228 -0.01425218955 9.641561216e-39
0.3480842113 -0.03219244629 -0.008185591549 9.641561216e-39
-0.02210482024 -0.01160362083 -0.0017563086 9.641561216e-39
-0.01543458924 -0.0579617247 0.1121003777 9.641561216e-39
0.07266823202 -0.01537239552 -0.01700207591 9.641561216e-39
0.2661988139 -0.009465098381 0.011125925 9.641561216e-39
-0.06241975725 -0.0103443265 0.009630247951 9.641561216e-39
-0.07006629556 -0.06259515136 0.1564031392 9.641561216e-39
0.1297696829 0.002747518476 -0.0006711034803 9.641561216e-39
0.352668494 -0.01932334714 -0.01312631927 9.641561216e-39
-0.002371247159 -0.009634157643 -0.001613853965 9.641561216e-39
0.01217139792 -0.05748958141 0.05585661903 9.641561216e-39
-0.007576290984 -0.01040118281 -0.008327946998 9.641561216e-39
0.2140433788 -0.002075433964 0.02067993768 9.641561216e-39
-0.1889431179 -0.003108640434 -0.02613624185 1.037659831e-38
0.07079651207 -0.01216652524 0.03640404344 1.037659831e-38
-0.1137333736 -0.03180536255 -0.03377883136 1.037659831e-38
0.1726356745 -0.05322268233 0.04415127635 1.037659831e-38
-0.1252901256 -0.01929766312 0.03988612443 1.037659831e-38
-0.02898457274 -0.007000063546 0.02375926636 1.037659831e-38
0.003123020753 -0.02671949752 -0.03253015503 1.037659831e-38
0.3706187308 -0.01521340385 0.02991181985 1.037659831e-38
-0.317383498 0.05468292162 -0.02163984627 1.037659831e-38
0.1284309477 -0.005799973384 0.03374354541 1.037659831e-38
0.001222180552 -0.02499610931 -0.0332742855 1.037659831e-38
0.3335026503 -0.02572639287 0.03355967626 1.037659831e-38
-0.2445636988 0.01520418189 -0.0265187677 1.037659831e-38
0.08318308741 -0.0145407645 0.03110940568 1.037659831e-38
-0.07028959692 -0.02544081956 -0.03323530778 1.037659831e-38
0.3027798235 -0.02344219014 0.03264980763 1.037659831e-38
-0.1744803041 -0.0175214801 0.0337838605 1.037659831e-38
0.0316516906 -0.005663006566 0.01938624494 1.037659831e-38
-0.03289317712 -0.008234895766 -0.03097746335 1.037659831e-38
0.3477794826 -0.03146196902 0.0344870314 1.037659831e-38
-0.2390841097 0.05087652057 -0.03332812712 1.037659831e-38
0.09283624589 -0.01305285469 0.02776580676 1.037659831e-38
-0.08248481899 -0.02515491471 -0.03329420835 1.037659831e-38
0.222505942 -0.03810979053 0.03974144906 1.037659831e-38
-0.1486107409 -0.01173868496 0.02911954187 1.037659831e-38
-0.005878237542 -0.006032825913 0.01069086883 1.037659831e-38
-0.01214888506 -0.01082752086 -0.0311792139 1.037659831e-38
0.3527273238 -0.04573985562 0.03520034999 1.037659831e-38
-0.2573831975 0.03313406929 -0.007595277391 1.037659831e-38
0.09086275101 -0.02081826515 0.03696465865 1.037659831e-38
-0.1339961141 -0.03205855936 -0.03625454381 1.037659831e-38
0.1931723505 -0.02544122189 0.03484324738 1.037659831e-38
-0.06693319976 -0.05382917821 -0.3077377975 1.111163541e-38
-0.03500613198 -0.04949083179 -0.1556909531 1.111163541e-38
0.0473661907 -0.0809353292 -0.1199056655 1.111163541e-38
-0.1752947271 -0.07152240723 -0.06138329953 1.111163541e-38
-0.03588654473 -0.05998988077 -0.227641657 1.111163541e-38
-0.07276215404 -0.03825921193 -0.08038549125 1.111163541e-38
0.1389165819 -0.05758909881 0.003401832655 1.111163541e-38
-0.3110316992 0.003333206056 -0.01586953737 1.111163541e-38
-0.04864058271 -0.05191229284 -0.272470355 1.111163541e-38
-0.1708689481 -0.01676034369 -0.04917774722 1.111163541e-38
0.1378607303 -0.06915675104 0.007252387237 1.111163541e-38
-0.327162683 -0.02497118711 -0.01923022978 1.111163541e-38
-0.0440069437 -0.05183837563 -0.1843205839 1.111163541e-38
-0.1613623947 -0.01359218825 -0.04117200151 1.111163541e-38
0.126013726 -0.08463042974 -0.005774090998 1.111163541e-38
-0.2743187547 -0.01703966036 -0.009433511645 1.111163541e-38
-0.009260151535 -0.04971868917 -0.1231543198 1.111163541e-38
-0.07428000122 -0.05171043053 -0.05205281079 1.111163541e-38
0.1633362472 -0.07360103726 0.01367637143 1.111163541e-38
-0.3150339425 -0.02621406876 -0.007609280292 1.111163541e-38
-0.04264491051 -0.05009977892 -0.1482619047 1.111163541e-38
-0.1732424647 -0.01332391147 -0.02861083858 1.111163541e-38
0.1222532019 -0.0881395191 -0.0102135269 1.111163541e-38
-0.2240986228 -0.02610140294 -0.01567901298 1.111163541e-38
-0.008015779778 -0.0547234267 -0.1249767244 1.111163541e-38
-0.04305638 -0.03277150169 -0.06548587978 1.111163541e-38
0.151677683 -0.09029840678 0.001080035698 1.111163541e-38
-0.3562684655 -0.0251065474 -0.01093281433 1.111163541e-38
-0.003578140866 -0.05180270225 -0.09935160726 1.111163541e-38
-0.1261486411 -0.04123230278 -0.03204754367 1.111163541e-38
0.09809185565 -0.07312957942 -0.04708403349 1.111163541e-38
-0.1711445302 -0.03547656536 -0.01791570149 1.111163541e-38
-0.2758927643 -0.03116250969 -0.01691615395 1.184631237e-38
0.02311920375 -0.03453606367 0.0004087872512 1.184631237e-38
-0.3072243631 0.05536454543 -0.007009422872 1.184631237e-38
-0.003462271066 -0.03046895377 -0.04054795578 1.184631237e-38
-0.1787823588 -0.04486420006 -0.0388353318 1.184631237e-38
-0.09016805887 -0.0188867636 0.03576787934 1.184631237e-38
-0.3764230311 0.03977520764 0.03349535167 1.184631237e-38
-0.2185564041 -0.01927932538 -0.05015157908 1.184631237e-38
-0.2904639244 -0.04742864147 0.01824509166 1.184631237e-38
-0.2404745072 0.004929174669 0.03744100407 1.184631237e-38
-0.3856339157 0.0387974754 0.05250189453 1.184631237e-38
-0.1337865293 -0.03033270501 -0.05463073775 1.184631237e-38
-0.2834096551 -0.04850904644 0.01084851008 1.184631237e-38
-0.2106038779 -0.01805282198 0.04357141629 1.184631237e-38
-0.3637083173 0.0273388885 -0.01130820066 1.184631237e-38
-0.09274093807 -0.03195377812 -0.0484322682 1.184631237e-38
-0.2051829547 -0.0490154326 -0.02937689424 1.184631237e-38
-0.1344250739 -0.03603530675 0.04112279415 1.184631237e-38
-0.3376974463 0.01497800369 0.004951108713 1.184631237e-38
-0.1628932506 -0.03720782325 -0.05005501583 1.184631237e-38
-0.2855713367 -0.05513706058 0.01671848074 1.184631237e-38
-0.2273438722 -0.02140653878 0.04379065707 1.184631237e-38
-0.3310685754 -0.002445424674 -0.02018946595 1.184631237e-38
-0.05889856815 -0.0376814045 -0.04369299859 1.184631237e-38
-0.1944769919 -0.02869574912 -0.009431175888 1.184631237e-38
-0.1390809864 -0.02665731497 0.04359000176 1.184631237e-38
-0.330773443 -0.03045403771 -0.00991921965 1.184631237e-38
-0.174968943 -0.0216118414 -0.04896579683 1.184631237e-38
-0.2777935565 -0.02569863573 0.02322902903 1.184631237e-38
-0.1993057132 -0.03363999352 0.0463918373 1.184631237e-38
-0.2536322773 -0.02931848168 -0.02866375633 1.184631237e-38
0.03358671069 -0.03739132732 -0.03975248337 1.184631237e-38
-0.05816141516 -0.05093657598 0.252294898 1.258099074e-38
0.1106798947 -0.07706554979 0.06627923995 1.258099074e-38
-0.04683102667 -0.05271818489 0.1918813288 1.258099074e-38
-0.06449317932 -0.06059680879 0.2788352966 1.258099074e-38
-0.0309147872 -0.06407143921 0.2248151451 1.258099074e-38
0.1203435436 -0.007609600667 0.03297151253 1.258099074e-38
-0.06107127294 -0.05937458947 0.05175563321 1.258099074e-38
0.0192087274 -0.03413712978 0.1168884262 1.258099074e-38
0.004785791971 -0.06174486503 0.05144999921 1.258099074e-38
0.1716780663 -0.001360899885 0.02374260128 1.258099074e-38
-0.06906338781 -0.06032150611 0.08506351709 1.258099074e-38
-0.02105262503 -0.0538556464 0.1863414943 1.258099074e-38
0.009676557034 -0.06398241222 0.05207424611 1.258099074e-38
0.1778330058 0.002979143057 0.02508675307 1.258099074e-38
-0.03206120059 -0.06262297928 0.05134490505 1.258099074e-38
-0.07290898263 -0.05248250812 0.1647275835 1.258099074e-38
0.02572936378 -0.07457724214 0.04977399111 1.258099074e-38
0.1531074643 -0.02878746577 0.04197955132 1.258099074e-38
-0.1153071076 -0.07978538424 0.03482048959 1.258099074e-38
-0.113093093 -0.06287500262 0.08811914921 1.258099074e-38
0.00610585371 -0.0688604787 0.05175561085 1.258099074e-38
0.1965566576 -0.001692606369 0.02400030755 1.258099074e-38
-0.03636780009 -0.06693968922 0.08416949958 1.258099074e-38
-0.04300527647 -0.0518732965 0.187180534 1.258099074e-38
0.05372614413 -0.05842819065 0.05489881337 1.258099074e-38
0.1731206179 -0.02040614747 0.04386512935 1.258099074e-38
-0.08316800743 -0.06344172359 0.04446533695 1.258099074e-38
-0.01813335903 -0.05215739086 0.07735674828 1.258099074e-38
0.03929652646 -0.03519107401 0.05952520669 1.258099074e-38
0.2212954462 -0.03675873578 0.03965453804 1.258099074e-38
0.001428640448 -0.05897596851 0.05080401525 1.258099074e-38
-0.08582787961 -0.08506257087 0.02304350585 1.258099074e-38
0.01819107495 -0.0688039884 -0.1084254608 1.331530897e-38
0.1865451187 -0.08815898746 0.004774407484 1.331530897e-38
0.07434523106 -0.03333903104 0.04654727876 1.331530897e-38
0.2382470816 -0.07522555441 -0.02296408266 1.331530897e-38
0.05717761442 -0.0659975782 -0.05823986977 1.331530897e-38
0.07601759583 -0.06706246734 0.05458653718 1.331530897e-38
-0.129514426 -0.01652704179 0.03120074607 1.331530897e-38
0.4102426171 -0.06193512306 -0.01600342616 1.331530897e-38
-0.05767387897 -0.06291687489 -0.1030024737 1.331530897e-38
0.2790164649 -0.06662094593 0.01976558194 1.331530897e-38
-0.07534337789 -0.02512277849 0.03202249855 1.331530897e-38
0.3968762755 -0.07633521408 -0.009893086739 1.331530897e-38
-0.05005251244 -0.05378666148 -0.08260158449 1.331530897e-38
0.240218088 -0.07843413204 0.008804898709 1.331530897e-38
-0.01266086288 -0.01599836908 0.03080542758 1.331530897e-38
0.3693009019 -0.07339447737 -0.00542500522 1.331530897e-38
0.0195009876 -0.05483736843 -0.03687460721 1.331530897e-38
0.153271094 -0.07124670595 0.01578006335 1.331530897e-38
-0.1143853441 -0.01681957394 0.0340616107 1.331530897e-38
0.405501008 -0.0719287917 -0.01189128868 1.331530897e-38
-0.0446388945 -0.06035193056 -0.07672044635 1.331530897e-38
0.2335281521 -0.09163621068 0.004041374195 1.331530897e-38
0.0440700464 -0.02677791193 0.03376880288 1.331530897e-38
0.3193480372 -0.06821949035 -0.01099416241 1.331530897e-38
0.04541400075 -0.0571738109 -0.07906602323 1.331530897e-38
0.1337413937 -0.08159636706 0.02028385922 1.331530897e-38
-0.1144590378 -0.03582942858 0.03579328954 1.331530897e-38
0.405967921 -0.07253138721 -0.008227095939 1.331530897e-38
-0.04148296267 -0.06034296006 -0.06446609646 1.331530897e-38
0.2120478153 -0.08721940964 0.01123842224 1.331530897e-38
0.05831471086 -0.0480523333 0.0438984409 1.331530897e-38
0.217461884 -0.07198687643 -0.04445814341 1.331530897e-38
-0.07502856106 -0.0508107394 -0.2433334142 1.404926846e-38
-0.08399312943 -0.04768035561 -0.3425575495 1.404926846e-38
-0.01261610631 -0.05681444332 -0.1226106137 1.404926846e-38
-0.08526258171 -0.05368705839 -0.3261727393 1.404926846e-38
-0.03353305534 -0.04294371605 -0.1770906895 1.404926846e-38
-0.0555094555 -0.06012325361 -0.258906126 1.404926846e-38
0.0006033554091 -0.05518681929 -0.05953358114 1.404926846e-38
-0.09883712977 -0.04381610453 -0.2594315708 1.404926846e-38
-0.05840346962 -0.03712038696 -0.1214518771 1.404926846e-38
-0.07124920934 -0.05978504941 -0.2175431997 1.404926846e-38
0.0184753444 -0.05790350586 -0.06908157468 1.404926846e-38
-0.08200773597 -0.05549122393 -0.2138310522 1.404926846e-38
-0.07946807146 -0.04233757406 -0.1028780192 1.404926846e-38
-0.04418419302 -0.05745347962 -0.1584102362 1.404926846e-38
3.453344107e-05 -0.0611596033 -0.05957904458 1.404926846e-38
-0.0868665576 -0.05318143591 -0.2148168385 1.404926846e-38
-0.03361131996 -0.05682925135 -0.1038113087 1.404926846e-38
-0.04151784629 -0.06776712835 -0.1589211822 1.404926846e-38
-0.001245177584 -0.05723617226 -0.03139188141 1.404926846e-38
-0.1135481969 -0.06228231639 -0.1095586866 1.404926846e-38
-0.06636623293 -0.05158903077 -0.07711571455 1.404926846e-38
-0.05783101916 -0.06237007678 -0.1170260608 1.404926846e-38
0.004766800441 -0.06821907312 -0.06011714414 1.404926846e-38
-0.06420657784 -0.06035033241 -0.2089360803 1.404926846e-38
-0.001394598745 -0.0575799793 -0.1241224706 1.404926846e-38
-0.03669087589 -0.06122560054 -0.1742439121 1.404926846e-38
0.02799621038 -0.07223017514 -0.04204531759 1.404926846e-38
-0.08479870111 -0.06379409879 -0.1075248942 1.404926846e-38
-0.05688409135 -0.03117403015 -0.06116982549 1.404926846e-38
-0.1191691682 -0.04817094654 -0.05140787363 1.404926846e-38
0.03939606249 -0.07637358457 -0.05253112316 1.404926846e-38
-0.0751915127 -0.05693131313 -0.06031752005 1.404926846e-38
-0.07222442329 -0.05117862299 -0.2131144255 1.478322936e-38
-0.06715455651 -0.01525895298 -0.04194079712 1.478322936e-38
0.1874064505 -0.02549628355 -0.03807907924 1.478322936e-38
0.09270578623 -0.007246911526 -0.01956235617 1.478322936e-38
-0.1182891354 -0.052552782 -0.2707235217 1.478322936e-38
-0.09119325131 -0.02510035969 -0.03817334399 1.478322936e-38
0.270092845 -0.02264257893 -0.03529768065 1.478322936e-38
-0.03510991111 0.004042782355 -0.0213061776 1.478322936e-38
-0.01195263583 -0.03858152404 -0.06846639514 1.478322936e-38
-0.1847012937 -0.003095408436 -0.03840741888 1.478322936e-38
0.2697524726 -0.02596552297 -0.0369146578 1.478322936e-38
-0.006639844738 -0.004132381175 -0.02581459284 1.478322936e-38
-0.01838083565 -0.04047131911 -0.04601411894 1.478322936e-38
-0.2028869838 -0.01561397035 -0.0321146436 1.478322936e-38
0.2302092463 -0.01559791155 -0.03257700428 1.478322936e-38
0.01125362702 0.005009572022 -0.01370693557 1.478322936e-38
-0.1005427763 -0.04224514589 -0.1220998168 1.478322936e-38
-0.1620909572 -0.02106959 -0.03489680588 1.478322936e-38
0.2679075301 -0.01577392593 -0.03200630099 1.478322936e-38
-0.07917438447 0.006670510396 -0.01219853573 1.478322936e-38
-0.04732923582 -0.03255494311 -0.04148627818 1.478322936e-38
-0.2200569808 -0.01784991845 -0.03222473711 1.478322936e-38
0.1859122664 -0.01951217279 -0.03488114104 1.478322936e-38
0.08112809062 -0.004033424426 -0.02572182007 1.478322936e-38
-0.03391169012 -0.04634141922 -0.1172002628 1.478322936e-38
-0.1125473529 -0.02344605513 -0.03821237758 1.478322936e-38
0.255610764 -0.02957761846 -0.03891372308 1.478322936e-38
-0.03994191065 -0.01011995692 -0.02550549433 1.478322936e-38
-0.02315010689 -0.01513496693 -0.0291829817 1.478322936e-38
-0.2217498422 -0.02180945687 -0.0340493843 1.478322936e-38
0.1449082643 -0.01904040575 -0.03421904519 1.478322936e-38
-0.01877421141 -0.00574368611 -0.005234923679 1.478322936e-38
0.05364414677 -0.06356365979 0.05774808675 1.551683013e-38
-0.247957319 0.006957098376 0.009073217399 1.551683013e-38
-0.2189456075 -0.0419498235 0.04765876383 1.551683013e-38
-0.3528592885 0.05676910281 -0.03901188448 1.551683013e-38
0.0285960976 -0.06976292282 0.1100822538 1.551683013e-38
-0.1111578569 -0.002649844857 -0.00291776564 1.551683013e-38
-0.08150874823 -0.01805496775 0.04236078635 1.551683013e-38
-0.3582283556 0.07145409286 -0.01181610394 1.551683013e-38
-0.03074404038 -0.02508751489 0.008952344768 1.551683013e-38
-0.3273780048 0.03349481896 0.006622489542 1.551683013e-38
-0.1334059089 -0.02765921503 0.04159572721 1.551683013e-38
-0.3831080794 0.03654893488 0.007605744991 1.551683013e-38
-0.0668829456 -0.07512999326 0.02450373024 1.551683013e-38
-0.3234498501 0.03152494505 -6.123259664e-05 1.551683013e-38
-0.2052627802 -0.03124115616 0.04091824591 1.551683013e-38
-0.4096307158 0.1057886258 -0.02119717561 1.551683013e-38
0.01234380808 -0.05827698857 0.06189516932 1.551683013e-38
-0.1581429392 -0.01251124125 -0.008873356506 1.551683013e-38
-0.1571328342 -0.04826064408 0.04521933943 1.551683013e-38
-0.372053951 0.04930181429 0.0362059772 1.551683013e-38
-0.07830388099 -0.09742095321 0.01713847741 1.551683013e-38
-0.3120200634 0.0238258522 -0.003026640043 1.551683013e-38
-0.222147122 -0.04768468812 0.04439279437 1.551683013e-38
-0.3972811401 0.08582359552 -0.05851005763 1.551683013e-38
0.01946243644 -0.062674582 0.04554775357 1.551683013e-38
-0.177693367 0.007118864916 -0.004783392884 1.551683013e-38
-0.1184941307 -0.05164512619 0.04992223531 1.551683013e-38
-0.4139087796 -0.0152811436 0.01741378009 1.551683013e-38
-0.06772214919 -0.09718989581 -0.00145935535 1.551683013e-38
-0.2840352356 -0.01732621528 0.0003745034046 1.551683013e-38
-0.2455910593 -0.03622771055 0.02803431638 1.551683013e-38
-0.2885034084 0.0208648257 -0.004910001066 1.551683013e-38
-0.3037268817 -0.03714975715 -0.01967397891 1.625043089e-38
-0.3283849657 0.03649223223 -0.001759877428 1.625043089e-38
-0.1885835528 -0.01716995612 -0.04857219011 1.625043089e-38
-0.2759022713 0.03122055344 -0.0005242302432 1.625043089e-38
-0.1928897351 -0.02818736434 -0.07070215791 1.625043089e-38
-0.2969297171 0.005386784673 -0.008863880299 1.625043089e-38
-0.3364048004 -0.03534349799 -0.007967966609 1.625043089e-38
-0.3939396441 0.03590450436 0.004308577161 1.625043089e-38
-0.2850017548 -0.02937688492 -0.005740184803 1.625043089e-38
-0.3416957259 0.06406342238 0.01272807084 1.625043089e-38
-0.3578927219 -0.03350854665 0.009535798803 1.625043089e-38
-0.3766999245 0.0103569217 0.007078521885 1.625043089e-38
-0.2565725148 -0.05036436394 -0.0223838836 1.625043089e-38
-0.3094252348 0.03075245582 -0.00505345501 1.625043089e-38
-0.3017843068 -0.02847741358 -0.02243257873 1.625043089e-38
-0.3905377984 0.05026510358 0.006517958827 1.625043089e-38
-0.208055988 -0.03628720343 -0.05804651231 1.625043089e-38
-0.2873581052 0.01943508536 -0.01009783801 1.625043089e-38
-0.3614492416 -0.04665520787 -0.01652400941 1.625043089e-38
-0.3619254827 -0.001874239766 0.02557275072 1.625043089e-38
-0.2386931479 -0.04255290702 -0.02114124037 1.625043089e-38
-0.3125201762 0.02358409949 -5.698949099e-05 1.625043089e-38
-0.2626937032 -0.03408285975 -0.02867801301 1.625043089e-38
-0.3792730868 0.1009166539 -0.01025699265 1.625043089e-38
-0.2221857011 -0.03411583602 -0.05568878353 1.625043089e-38
-0.3136371076 0.03257285804 -0.005568409339 1.625043089e-38
-0.3449883759 -0.05311022699 0.001565633924 1.625043089e-38
-0.3882988989 0.004071833566 0.008319163695 1.625043089e-38
-0.2598862946 -0.08286254108 -0.0362878181 1.625043089e-38
-0.2484840602 -0.04040994868 -0.02205094881 1.625043089e-38
-0.2028373927 -0.02424612269 -0.02723984979 1.625043089e-38
-0.2430061847 -0.02375568077 -0.01632202417 1.625043089e-38
0.02529159188 -0.06273122877 -0.03591559455 1.698367293e-38
-0.05321733281 -0.0586871244 -0.2093447298 1.698367293e-38
-0.002331893425 -0.07383900881 0.03384401277 1.698367293e-38
-0.1265278757 -0.05048087239 -0.3131274283 1.698367293e-38
-0.09675357491 -0.07796289027 -0.03037434444 1.698367293e-38
-0.03622095659 -0.05539011955 -0.1430890262 1.698367293e-38
-0.07650917023 -0.06055877358 0.04273998365 1.698367293e-38
-0.06911911815 -0.0450008586 -0.1558898091 1.698367293e-38
0.08672086895 -0.06947770715 -0.0376377143 1.698367293e-38
-0.08123803139 -0.06073856354 -0.1121336445 1.698367293e-38
-0.04975584149 -0.06070201471 0.06180796027 1.698367293e-38
-0.06777502596 -0.05872142687 -0.1711884737 1.698367293e-38
0.07378105819 -0.06294305623 -0.03145730868 1.698367293e-38
-0.06306923181 -0.04438715428 -0.07062774152 1.698367293e-38
0.05342069268 -0.0592494458 0.02341481671 1.698367293e-38
-0.07637128234 -0.05018533766 -0.1238720044 1.698367293e-38
-0.09269084781 -0.06658150256 -0.0274206493 1.698367293e-38
-0.01272189524 -0.03751762584 -0.0372508131 1.698367293e-38
-0.04759350792 -0.07538794726 0.03002657183 1.698367293e-38
-0.1612210721 -0.03900989145 -0.05356574059 1.698367293e-38
0.08475186676 -0.08304592967 -0.02087663673 1.698367293e-38
-0.06054342166 -0.03137487546 -0.03528756276 1.698367293e-38
0.07931163162 -0.06286276132 0.0401092656 1.698367293e-38
-0.06302025914 -0.05881908163 -0.1728184223 1.698367293e-38
-0.01703282446 -0.07557506859 -0.03973377496 1.698367293e-38
0.004786529113 -0.03013969027 -0.07859634608 1.698367293e-38
-0.0478907153 -0.1023519561 0.03723137826 1.698367293e-38
-0.07947013527 -0.05810036138 -0.09894143045 1.698367293e-38
0.1058462635 -0.07938047498 -0.03200897574 1.698367293e-38
-0.03049641475 -0.01079750527 -0.01284793857 1.698367293e-38
0.1187545285 -0.09676429629 0.01454700716 1.698367293e-38
-0.1325844526 -0.03494326398 -0.0438493453 1.698367293e-38
-0.03884100914 -0.05608519539 0.2971254289 1.771655483e-38
-0.0303534288 -0.04604682699 0.2285213917 1.771655483e-38
0.1802788079 -0.07735420018 -0.02225400321 1.771655483e-38
-0.01424275897 -0.07236114144 0.03953071684 1.771655483e-38
-0.1217830256 -0.05035595223 0.3111647069 1.771655483e-38
-0.1437746584 -0.06236386672 0.219520092 1.771655483e-38
0.318974793 -0.04864211008 -0.02979954146 1.771655483e-38
0.2298682481 -0.07240862399 -0.003168158699 1.771655483e-38
0.0737811029 -0.05497848243 0.117912516 1.771655483e-38
-0.06170194224 -0.07439617068 0.0610271059 1.771655483e-38
0.3353637755 -0.05315160379 -0.03144109249 1.771655483e-38
0.1955383718 -0.09587364644 -0.002946301131 1.771655483e-38
-0.001659391797 -0.06671758741 0.1301488578 1.771655483e-38
-0.05859383568 -0.07646332681 0.03606940433 1.771655483e-38
0.23890692 -0.05949725956 -0.03193409741 1.771655483e-38
0.11886812 -0.0884610638 -0.006504395511 1.771655483e-38
-0.1205926389 -0.05960774049 0.1754469573 1.771655483e-38
-0.07935438305 -0.08144643903 0.05979416892 1.771655483e-38
0.3053790033 -0.07324127108 -0.03340282664 1.771655483e-38
0.173528567 -0.09326377511 -0.01204751618 1.771655483e-38
-0.009884959087 -0.07452789694 0.1311069429 1.771655483e-38
-0.06618362665 -0.08527158946 0.01282689814 1.771655483e-38
0.2082046568 -0.07696726173 -0.02878663689 1.771655483e-38
0.07368787378 -0.09459125996 -0.01479814202 1.771655483e-38
-0.06981727481 -0.06380351633 0.1987460256 1.771655483e-38
-0.113038294 -0.06439203769 0.137001276 1.771655483e-38
0.2690245211 -0.06369055063 -0.03216380253 1.771655483e-38
0.3192820251 -0.08780953288 0.02401087433 1.771655483e-38
-0.006119770929 -0.07895775139 0.07058773935 1.771655483e-38
-0.007258123718 -0.1018691286 -0.03730692714 1.771655483e-38
0.1763535738 -0.08675123006 -0.03378732502 1.771655483e-38
0.05608972535 -0.06946160644 0.07755760103 1.771655483e-38
-0.337590307 0.07042758912 0.005834304728 1.844943813e-38
-0.2301440686 -0.05707795173 -0.02083691396 1.844943813e-38
-0.2454593182 0.01946960203 -0.00155942014 1.844943813e-38
-0.0548003912 -0.04532731697 -0.01441456378 1.844943813e-38
-0.3021911681 0.03831364587 -0.001872909837 1.844943813e-38
-0.1467186213 -0.04167114943 -0.05482011288 1.844943813e-38
-0.3563024402 0.03955253959 -0.003640635638 1.844943813e-38
-0.223429963 -0.04175389186 -0.04403674603 1.844943813e-38
-0.3845371306 0.06319663674 0.008365867659 1.844943813e-38
-0.2594792247 -0.02777360752 -0.04178664833 1.844943813e-38
-0.3660590649 0.04293755069 0.0001606047153 1.844943813e-38
-0.2313944101 -0.05008507147 -0.04793655872 1.844943813e-38
-0.3528330326 0.06366833299 0.008126497269 1.844943813e-38
-0.2489277571 -0.02699397504 -0.04463898763 1.844943813e-38
-0.3268022537 0.02702158689 -0.01125806663 1.844943813e-38
-0.2050735801 -0.04223560542 -0.05089428276 1.844943813e-38
-0.3406464458 0.04466050863 0.0007054804591 1.844943813e-38
-0.1804571152 -0.03189560026 -0.05952082574 1.844943813e-38
-0.3582777977 0.02503951825 -0.006979501341 1.844943813e-38
-0.2528352737 -0.04776817188 -0.04425842315 1.844943813e-38
-0.3506278396 0.05312440544 0.005487118848 1.844943813e-38
-0.2584554255 -0.03127583861 -0.04631000012 1.844943813e-38
-0.3292392492 0.001249849098 -0.008019289933 1.844943813e-38
-0.1483293325 -0.04790180549 -0.05442657322 1.844943813e-38
-0.291724503 0.01291025989 0.01234041061 1.844943813e-38
-0.1657481492 -0.02441770211 -0.04895741865 1.844943813e-38
-0.3595693111 -0.005895643029 -0.00224937126 1.844943813e-38
-0.2570718527 -0.05441336706 -0.04035691544 1.844943813e-38
-0.3198016286 0.0227018334 0.01177985128 1.844943813e-38
-0.2640846372 -0.06945674866 -0.04410650954 1.844943813e-38
-0.3404391408 -0.02440546453 -0.0263054762 1.844943813e-38
