# .PCD v0.7 - Point Cloud Data file format
VERSION 0.7
FIELDS x y z rgb
SIZE 4 4 4 4
TYPE F F F F
COUNT 1 1 1 1
WIDTH 810
HEIGHT 1
VIEWPOINT 0 0 0 1 0 0 0
POINTS 810
DATA ascii
-0.05820326507 -0.4315474629 -0.09105651081 1.404926846e-38
0.0529175438 -0.4348837137 -0.07092318684 1.404926846e-38
-0.04202913865 -0.4115579426 -0.1101463512 1.404926846e-38
0.02517272532 -0.3991817832 -0.05335440859 1.404926846e-38
-0.06064945459 -0.4267299771 -0.09043664485 1.404926846e-38
0.03756048158 -0.4097642303 -0.05085097253 1.404926846e-38
-0.05172462016 -0.3779170513 -0.07130552828 1.404926846e-38
0.03391111642 -0.3722480237 -0.04712129384 1.404926846e-38
-0.01770353876 -0.4084042907 -0.08285705745 1.404926846e-38
0.03514566645 -0.3909942806 -0.05126908049 1.404926846e-38
-0.03245843202 -0.371532023 -0.06480312347 1.404926846e-38
0.05200220272 -0.3572459817 -0.05030151457 1.404926846e-38
0.01196437608 -0.3673122525 -0.07392468303 1.404926846e-38
0.07706408203 -0.4222037494 0.0164279379 1.478322936e-38
0.04256768897 -0.4702224135 -0.09952384979 1.478322936e-38
0.1251484454 -0.4552610517 -0.05966049433 1.478322936e-38
0.09843114763 -0.4456430674 -0.04100941122 1.478322936e-38
0.05563265458 -0.4274888635 -0.01347403601 1.478322936e-38
0.1035510302 -0.4977385998 -0.08587811887 1.478322936e-38
0.1019161642 -0.4605405331 0.00908737164 1.478322936e-38
0.1055270955 -0.4739948809 -0.06373910606 1.478322936e-38
0.107482031 -0.4271064401 0.0161790736 1.478322936e-38
0.0745723024 -0.4786037207 -0.09739995748 1.478322936e-38
0.09968046099 -0.4052545726 0.006487159524 1.478322936e-38
0.1045336723 -0.4520615041 -0.06246066466 1.478322936e-38
0.08786862344 -0.4056017697 0.01821739599 1.478322936e-38
0.04252157733 -0.4654299915 -0.1170588434 1.478322936e-38
0.09247416258 -0.3805782795 0.0112372674 1.478322936e-38
0.05131905153 -0.4316832423 -0.07813044637 1.478322936e-38
0.07269571722 -0.3990237415 0.02420558222 1.478322936e-38
0.030218428 -0.4573448002 -0.09301813692 1.478322936e-38
0.07042266428 -0.3818652332 0.01541463379 1.478322936e-38
0.05298408121 -0.4151978195 -0.07617754489 1.478322936e-38
0.05912158638 -0.3923449516 0.02540250309 1.478322936e-38
0.01182888448 -0.4405658543 -0.06132818013 1.478322936e-38
0.09350913018 -0.3251840174 0.01892474107 1.478322936e-38
0.02825698256 -0.4084447026 -0.07683249563 1.478322936e-38
0.04018052667 -0.3904253244 0.02660842799 1.478322936e-38
-0.01038126647 -0.4222032428 -0.05522947013 1.478322936e-38
0.08878488839 -0.3257057369 0.02756961435 1.478322936e-38
-0.01546445861 -0.3774679005 -0.06800694764 1.478322936e-38
0.04298356175 -0.401383251 0.02802314609 1.478322936e-38
-8.475780487e-05 -0.4240910113 -0.06920084357 1.478322936e-38
0.07453969866 -0.3450980783 0.007257564925 1.478322936e-38
0.01631308161 -0.3220430315 -0.04447682947 1.478322936e-38
-0.01207619347 0.3011660576 -0.01078105625 1.551683013e-38
0.002580115339 0.474532038 -0.000862631714 1.551683013e-38
-0.01004160009 0.4054032564 -0.008293159306 1.551683013e-38
-0.01549602672 0.4900096357 -0.03501337767 1.551683013e-38
-0.00620498741 0.2449429482 0.01345463656 1.551683013e-38
0.03679086268 0.4757317007 0.02090378664 1.551683013e-38
-0.02249610052 0.4694944322 -0.02140262164 1.551683013e-38
-0.0156622529 0.4979459941 -0.01774624735 1.551683013e-38
0.005849980284 0.1993127763 -0.02177111991 1.551683013e-38
0.01871096157 0.4753678739 0.0187776871 1.551683013e-38
-0.0002964138985 0.08676321059 0.004106613807 1.551683013e-38
0.01037608087 0.4941897094 0.003475447185 1.551683013e-38
0.01888944581 -0.1795775294 -0.01524442434 1.551683013e-38
0.01203279197 0.4815472066 0.003276105504 1.551683013e-38
-0.003060703864 -0.2752473354 -0.01039905194 1.551683013e-38
0.02826551534 0.4800159037 0.00777117908 1.551683013e-38
0.03838056698 -0.1899639219 -0.0231272988 1.551683013e-38
0.009792655706 0.4275189638 -0.004996958654 1.551683013e-38
-0.01393914875 -0.1462849975 0.002637022641 1.551683013e-38
0.02047006972 0.4753200114 0.002720352961 1.551683013e-38
0.03212687001 -0.2530804873 -0.02697341517 1.551683013e-38
0.009799017571 0.2987580597 -0.01107952092 1.551683013e-38
-0.003067811718 -0.1083220541 0.00365481386 1.551683013e-38
0.02433312871 0.4756633639 0.002521785209 1.551683013e-38
0.02369380556 -0.2747814059 -0.02199203521 1.551683013e-38
0.01956941746 0.2914524674 -0.01778474264 1.551683013e-38
-0.01012715325 0.1151366234 0.005630217493 1.551683013e-38
0.01071695145 0.4682499766 0.002232059836 1.551683013e-38
0.01038361993 -0.07961849868 -0.0007481201319 1.551683013e-38
0.004533706699 0.4344814122 -0.01223056111 1.551683013e-38
-0.02962505259 -0.1603107899 -0.006814437453 1.551683013e-38
0.0004291683144 0.4657518864 -0.00499664573 1.551683013e-38
-0.04983660579 -0.4182879329 -0.05699229613 1.625043089e-38
-0.006896192674 -0.2953742146 0.01767218113 1.625043089e-38
-0.07757010311 -0.414470911 -0.02081667446 1.625043089e-38
-0.05883409083 -0.3976065814 0.04894673079 1.625043089e-38
-0.02449551411 -0.4003722668 -0.08152738959 1.625043089e-38
-0.01412039995 -0.3017046154 0.002907707589 1.625043089e-38
-0.07043547928 -0.4339208901 -0.0122134313 1.625043089e-38
-0.02478507534 -0.4036625922 0.04120148346 1.625043089e-38
-0.06236139312 -0.4302540123 -0.06280945987 1.625043089e-38
-0.0007921604556 -0.3042200506 0.02892594598 1.625043089e-38
-0.1293172836 -0.4280149639 -0.04102730751 1.625043089e-38
-0.05612241849 -0.3996217847 0.04237277433 1.625043089e-38
-0.06704699993 -0.4025310278 -0.05708970875 1.625043089e-38
-0.01534198504 -0.3170459867 0.04212300852 1.625043089e-38
-0.109323971 -0.4011874199 -0.001137583982 1.625043089e-38
-0.07901997119 -0.3432476223 0.0537830852 1.625043089e-38
-0.06898288429 -0.3985687196 -0.0481111221 1.625043089e-38
-0.02715687081 -0.2847592533 0.03932274878 1.625043089e-38
-0.08411446959 -0.4008724391 -0.004490673076 1.625043089e-38
-0.06691867858 -0.3289613426 0.04162262753 1.625043089e-38
-0.07001829892 -0.386277616 -0.03494574875 1.625043089e-38
-0.0281189736 -0.2814532518 0.03999677673 1.625043089e-38
-0.1080637351 -0.4039970934 -0.007091217209 1.625043089e-38
-0.08050570637 -0.349255681 0.0127428947 1.625043089e-38
-0.08245555311 -0.3810475767 -0.03353828564 1.625043089e-38
-0.04733497277 -0.2962089479 0.0403187871 1.625043089e-38
-0.0913322866 -0.3868228197 0.007733190898 1.625043089e-38
-0.03956256062 -0.3168561161 0.02705061436 1.625043089e-38
-0.07153502852 -0.3658987582 -0.009776921012 1.625043089e-38
-0.01721349172 -0.2928303182 0.04396399111 1.625043089e-38
-0.06381835043 -0.3181914985 2.700090408e-05 1.625043089e-38
-0.04262323678 -0.2723522484 0.03130007908 1.625043089e-38
0.03795269132 -0.4572612047 -0.01986827701 1.698367293e-38
-0.004536657128 -0.4858218431 -0.04469359666 1.698367293e-38
-0.06606113911 -0.4258818924 0.0002169460058 1.698367293e-38
0.07732847333 -0.4959443808 -0.05905230343 1.698367293e-38
0.08382573724 -0.4881936908 -0.007318127435 1.698367293e-38
0.005004215054 -0.4687314332 -0.06897177547 1.698367293e-38
-0.003216493875 -0.4565419555 0.02745432965 1.698367293e-38
0.08263383806 -0.4977350533 -0.07708223909 1.698367293e-38
0.06479658186 -0.4870328605 -0.005429408047 1.698367293e-38
-0.06005901098 -0.473220855 -0.05792593211 1.698367293e-38
-0.07895044982 -0.4442825019 0.0147542078 1.698367293e-38
0.08452765644 -0.4859455824 -0.09545142949 1.698367293e-38
0.08847437799 -0.4699666202 -0.03733851761 1.698367293e-38
-0.0507802926 -0.4958539903 -0.07894179225 1.698367293e-38
-0.09975563735 -0.4377167523 0.01447716542 1.698367293e-38
0.06426364928 -0.4564453959 -0.08077859879 1.698367293e-38
0.08788947016 -0.4485673308 -0.04973503947 1.698367293e-38
0.001303537982 -0.4923388362 -0.07224644721 1.698367293e-38
-0.008589622565 -0.4576382935 0.01166539639 1.698367293e-38
0.04531443119 -0.4242259264 -0.0554475598 1.698367293e-38
0.0727211982 -0.4567483366 -0.01854546741 1.698367293e-38
-0.01039820723 -0.4682076871 -0.04875759035 1.698367293e-38
-0.01427522209 -0.4657489061 0.01108097378 1.698367293e-38
0.05040109903 -0.4245880544 -0.06336164474 1.698367293e-38
0.06101025268 -0.4439835548 -0.0100096399 1.698367293e-38
-0.007280340418 -0.4507793784 -0.03684278578 1.698367293e-38
-0.001382096671 -0.4755665362 0.0150606418 1.698367293e-38
0.04612929374 -0.3669120669 -0.0488393642 1.698367293e-38
0.05858718231 -0.452139765 -0.006982346997 1.698367293e-38
-0.006352696568 -0.4337523878 -0.04822434112 1.698367293e-38
-0.01878410205 -0.4023649395 -0.02374884859 1.698367293e-38
0.03701950982 -0.3935700059 -0.0423230119 1.698367293e-38
0.06363517791 -0.4803908467 0.06098978221 1.771655483e-38
0.04557127878 -0.4515100121 -0.06178393587 1.771655483e-38
0.1085407138 -0.4952737987 0.07950396836 1.771655483e-38
0.08871488273 -0.4794820249 -0.03266130388 1.771655483e-38
0.03304799646 -0.4913925231 0.1076369062 1.771655483e-38
0.07058850676 -0.4585610032 -0.07611711323 1.771655483e-38
0.02823814936 -0.4952228963 0.112875782 1.771655483e-38
0.0981759429 -0.4874183536 -0.04150959849 1.771655483e-38
0.08918803185 -0.4890235662 0.1159364581 1.771655483e-38
0.09052916616 -0.4796646833 -0.0734692812 1.771655483e-38
0.08124610037 -0.4883770049 0.1299780607 1.771655483e-38
0.1208021641 -0.4747644067 -0.06060482189 1.771655483e-38
0.06374876946 -0.4871736169 0.08401736617 1.771655483e-38
0.0780518502 -0.4557138979 -0.08245611936 1.771655483e-38
0.0593887642 -0.4944150448 0.08037791401 1.771655483e-38
0.05600844324 -0.4478127956 -0.04878716916 1.771655483e-38
0.04924163595 -0.4918804169 0.07083319128 1.771655483e-38
0.05069639906 -0.4300497174 -0.08523956686 1.771655483e-38
0.07429408282 -0.4958202839 0.04564571008 1.771655483e-38
0.02832390368 -0.452242285 -0.03213167936 1.771655483e-38
0.05353616551 -0.4898637235 0.06012417004 1.771655483e-38
0.0184085425 -0.4312858284 -0.07343283296 1.771655483e-38
0.05630004406 -0.4813163579 0.04417549074 1.771655483e-38
0.01875281334 -0.4436319768 -0.04069219902 1.771655483e-38
0.04218172655 -0.4906329215 0.06717861444 1.771655483e-38
-0.0138181299 -0.4246063232 -0.06727901101 1.771655483e-38
0.03160896152 -0.4915847778 0.05883932114 1.771655483e-38
0.01852510497 -0.4471892416 -0.06714496762 1.771655483e-38
0.06077867001 -0.4709673524 0.05291808769 1.771655483e-38
0.01417606696 -0.3919820487 -0.05754718184 1.771655483e-38
0.06803800911 -0.4831525981 0.007790612988 1.771655483e-38
0.03957370296 -0.4453308582 -0.05278047919 1.771655483e-38
0.0003760605759 -0.1959267259 0.01011949498 1.844943813e-38
-0.06145004183 -0.4479682744 0.05863664672 1.844943813e-38
-0.01789101772 -0.3457984626 -0.02455681004 1.844943813e-38
-0.0819324702 -0.4818243682 -0.005229842849 1.844943813e-38
-0.007114573382 -0.2411660105 -0.009642808698 1.844943813e-38
-0.07439344376 -0.4865508974 0.06411617249 1.844943813e-38
-0.01570249163 -0.3711712062 -0.02599325776 1.844943813e-38
-0.08482760191 -0.4858675003 0.02498032339 1.844943813e-38
-0.005815768149 -0.2092217058 0.009098144248 1.844943813e-38
-0.07832865417 -0.4850402772 0.05939073861 1.844943813e-38
-0.05060758069 -0.4571087658 -0.06790422648 1.844943813e-38
-0.1173206866 -0.4717364609 0.03018848971 1.844943813e-38
-0.01543764304 -0.3482046127 -0.03497679532 1.844943813e-38
-0.06300274283 -0.4726136923 0.09736852348 1.844943813e-38
-0.03291669115 -0.4320368171 -0.05143337697 1.844943813e-38
-0.07797060162 -0.4271402955 0.03859186545 1.844943813e-38
-0.001049905666 -0.3512403965 -0.04740260169 1.844943813e-38
-0.05973314121 -0.456446588 0.09734998643 1.844943813e-38
-0.01443758141 -0.4019984007 -0.04725509509 1.844943813e-38
-0.06151859462 -0.4165143967 0.01335304603 1.844943813e-38
-0.008609380573 -0.3929314315 -0.07041353732 1.844943813e-38
-0.05649179965 -0.4233961403 0.07234366238 1.844943813e-38
-0.02187467739 -0.3933438957 -0.04758246616 1.844943813e-38
-0.07035946101 -0.4099217355 0.01648160629 1.844943813e-38
-0.01647810452 -0.3970952928 -0.06955876201 1.844943813e-38
-0.06089966372 -0.3975622654 0.05604659393 1.844943813e-38
-0.005374066997 -0.3314604163 -0.01828235015 1.844943813e-38
-0.04659166187 -0.360214442 0.01975413412 1.844943813e-38
-0.001812277245 -0.3276602328 -0.03300007433 1.844943813e-38
-0.02499254979 -0.3763046265 0.05305476114 1.844943813e-38
-0.003923932556 -0.3374775052 -0.04052470252 1.844943813e-38
-0.02334149741 -0.3420554399 0.004262511153 1.844943813e-38
0.02105561085 -0.4158289433 0.009849021211 1.91819627e-38
-0.02256314456 -0.06452727318 -0.02229526639 1.91819627e-38
0.01444312371 -0.3546428084 0.01363878325 1.91819627e-38
0.02665808797 -0.3871973157 -0.009457335807 1.91819627e-38
0.03747297823 -0.4413559735 0.03225595877 1.91819627e-38
-0.02244952135 0.1958650649 -0.00663749082 1.91819627e-38
-0.0155441165 -0.2759786546 -0.01311597973 1.91819627e-38
0.03490063921 -0.417496413 -0.03011641838 1.91819627e-38
0.06390373409 -0.4604709744 0.03661139682 1.91819627e-38
0.009299442172 0.2416827232 -0.004752778914 1.91819627e-38
0.03141772747 -0.3900890946 0.02552595362 1.91819627e-38
0.07540334761 -0.4544261694 -0.02452788875 1.91819627e-38
0.05638805404 -0.4661150277 0.08797092736 1.91819627e-38
0.02972723544 -0.3565763831 -0.01157820597 1.91819627e-38
0.06187273189 -0.3828980625 0.04245051742 1.91819627e-38
0.0980424583 -0.4450922906 -0.01341417432 1.91819627e-38
0.06466318667 -0.4486364722 0.06142741069 1.91819627e-38
0.06423141807 -0.3867040575 -0.02604991756 1.91819627e-38
0.05358358473 -0.3660493195 0.024867801 1.91819627e-38
0.07542987168 -0.3940031528 -0.01874663867 1.91819627e-38
0.06580031663 -0.4334192574 0.06164654344 1.91819627e-38
0.05472173542 -0.3490225077 -0.02003501356 1.91819627e-38
0.05509527773 -0.3511878848 0.02598264068 1.91819627e-38
0.07764940709 -0.3980506361 -0.02240433358 1.91819627e-38
0.06396877021 -0.4270397723 0.05220784992 1.91819627e-38
0.01928754896 -0.2919490337 -0.01291017048 1.91819627e-38
0.06552363932 -0.3583728373 0.005170954857 1.91819627e-38
0.06354853511 -0.3667375147 -0.03109455295 1.91819627e-38
0.0595754683 -0.4133937955 0.03857778758 1.91819627e-38
0.00410812255 -0.2772313654 -0.01077166293 1.91819627e-38
0.02455502376 -0.328547895 0.0211998485 1.91819627e-38
0.04295359924 -0.3034930825 -0.01088665612 1.91819627e-38
-0.04208857566 -0.4703319371 -0.03232049569 1.991448586e-38
0.04877785221 -0.4439072311 0.06859914958 1.991448586e-38
-0.02034888417 -0.4766350091 0.08470703661 1.991448586e-38
0.06008952856 -0.499281019 0.07411237806 1.991448586e-38
-0.07252024859 -0.4911153913 -0.09003840387 1.991448586e-38
0.07659039646 -0.4669586718 0.0321851857 1.991448586e-38
-0.03188439459 -0.4911993444 0.0977267921 1.991448586e-38
0.05106050521 -0.4667022824 0.1207935512 1.991448586e-38
-0.05495800078 -0.4804983139 -0.05243939161 1.991448586e-38
0.06900148839 -0.4616240263 0.1252579093 1.991448586e-38
-0.02366482466 -0.4651745558 0.07962076366 1.991448586e-38
0.07040434331 -0.4747926891 0.1011167467 1.991448586e-38
-0.05372878164 -0.4587708712 -0.05440818891 1.991448586e-38
0.06621458381 -0.467977792 0.1013882309 1.991448586e-38
-0.02702414058 -0.444552362 0.07531307638 1.991448586e-38
0.06330937147 -0.4746676981 0.0916775763 1.991448586e-38
0.006469859742 -0.4584190249 -0.03933393955 1.991448586e-38
0.07680847496 -0.4566300809 0.07178794593 1.991448586e-38
-0.002075177385 -0.4264318645 0.07111925632 1.991448586e-38
0.05340533704 -0.4562535882 0.05511249974 1.991448586e-38
0.01150501426 -0.4411143064 -0.03005800024 1.991448586e-38
0.08341591805 -0.4566943645 0.06314088404 1.991448586e-38
0.01043348107 -0.4326757491 0.08553087711 1.991448586e-38
0.05917861313 -0.4436454773 0.0447242111 1.991448586e-38
-0.003809880698 -0.4205857217 -0.005675225053 1.991448586e-38
0.101750277 -0.4399109185 0.04970777407 1.991448586e-38
-0.02845377289 -0.4303920865 0.06102045625 1.991448586e-38
0.05270635709 -0.4207411408 0.05882998183 1.991448586e-38
-0.03504366428 -0.4325680435 0.01650317758 1.991448586e-38
0.06806119531 -0.4431632757 0.04649313912 1.991448586e-38
0.005179351661 -0.4088256657 0.08338256925 1.991448586e-38
0.05811875686 -0.4536985159 0.04438010976 1.991448586e-38
0.05128334835 -0.3650896549 -0.008625918999 2.06466517e-38
0.0009740886162 -0.2032005787 -0.02034642547 2.06466517e-38
0.07224105299 -0.454924643 0.03172959387 2.06466517e-38
-0.003112663748 -0.4056328237 -0.07571918517 2.06466517e-38
0.03052802756 -0.3770527542 -0.008209967986 2.06466517e-38
0.01486010198 -0.2572948039 -0.02387061156 2.06466517e-38
0.07592416555 -0.4237969518 0.0361793451 2.06466517e-38
0.01070156042 -0.3643173277 -0.06294748932 2.06466517e-38
0.06294613332 -0.3995044231 -0.01574938931 2.06466517e-38
0.008589741774 -0.1663604081 -0.009614439681 2.06466517e-38
0.07398899645 -0.4606838226 0.0656113103 2.06466517e-38
-0.009756807238 -0.4523039162 -0.09585975856 2.06466517e-38
0.06792254746 -0.4210955799 0.01966123283 2.06466517e-38
0.03887186944 -0.4007002711 -0.03445797786 2.06466517e-38
0.08534750342 -0.4633885622 0.07081225514 2.06466517e-38
-0.02775794826 -0.4471592307 -0.09239986539 2.06466517e-38
0.07619328052 -0.486169517 0.04626614973 2.06466517e-38
0.05848063156 -0.4322922528 -0.04869354889 2.06466517e-38
0.06122962385 -0.441731751 0.04971861467 2.06466517e-38
-0.03904245049 -0.3892094195 -0.05488522723 2.06466517e-38
0.08804875612 -0.4748508334 0.04771115258 2.06466517e-38
0.08548674732 -0.4240905046 -0.01899346337 2.06466517e-38
0.08250404894 -0.4260870516 0.0310077332 2.06466517e-38
-0.06451436132 -0.4156317413 -0.05189167336 2.06466517e-38
0.1024385914 -0.4677899778 0.05406761542 2.06466517e-38
0.07017824799 -0.432961762 -0.01633357257 2.06466517e-38
0.06448499113 -0.3964313865 0.02453061379 2.06466517e-38
-0.02699522302 -0.3738617897 -0.03371511027 2.06466517e-38
0.08491273224 -0.434592545 0.05047831684 2.06466517e-38
0.04195287079 -0.3948795795 -0.02652483247 2.06466517e-38
0.07150167972 -0.4200044572 0.01672836021 2.06466517e-38
-0.006650438998 -0.3051199615 -0.03847928345 2.06466517e-38
0.008705813438 0.1228818893 0.004748815205 2.137881613e-38
0.003060204675 0.286113888 0.008263709024 2.137881613e-38
0.02899956889 -0.07499857992 -0.002471903805 2.137881613e-38
-0.0263571851 0.4824684262 -0.03206945956 2.137881613e-38
0.003257620847 0.1532175094 -0.0007967909914 2.137881613e-38
0.007039132528 0.2739792168 0.01339490339 2.137881613e-38
0.002778619761 -0.06080421805 -0.003193374956 2.137881613e-38
-5.652755499e-05 0.4787404835 -0.03695590422 2.137881613e-38
0.006422818638 0.01405753754 -0.01279688068 2.137881613e-38
-0.004923691507 0.3692204356 0.009141460992 2.137881613e-38
0.004289273173 -0.325923562 -0.04286604747 2.137881613e-38
0.003119577887 0.4787004888 -0.01582214423 2.137881613e-38
0.006698403973 -0.2036557049 0.001890429878 2.137881613e-38
0.01121213194 0.2628732622 0.009287032299 2.137881613e-38
-0.0232942272 -0.3714750707 -0.01622464135 2.137881613e-38
0.006149557419 0.4716266394 0.009324820712 2.137881613e-38
0.006561378948 -0.2599995434 -0.006834310945 2.137881613e-38
0.01584869437 0.1356444061 0.007773380727 2.137881613e-38
0.000401623518 -0.3346985579 -0.01854712889 2.137881613e-38
0.008109928109 0.4761962593 0.003967815544 2.137881613e-38
-0.00995068904 -0.2672822177 -0.03057610244 2.137881613e-38
0.008669442497 0.06423282623 0.0114187235 2.137881613e-38
-0.01043431554 -0.3165581822 -0.01453453768 2.137881613e-38
0.01533995941 0.4658910632 0.003419467947 2.137881613e-38
-0.008420759812 -0.1982338727 -0.03409875557 2.137881613e-38
0.0072019496 0.0559931621 0.01103692781 2.137881613e-38
-0.001828683307 -0.2360209227 -0.009161540307 2.137881613e-38
0.006486354861 0.4261703789 0.00952368509 2.137881613e-38
-0.002101507736 -0.1737501323 -0.01486726105 2.137881613e-38
0.009282099083 0.1075398177 0.007535523735 2.137881613e-38
-0.003560356563 -0.2258774489 0.002127703745 2.137881613e-38
-0.0004842281051 0.4236316085 0.00629037898 2.137881613e-38
0.005516614765 0.05632539093 -0.004703872371 2.211062324e-38
-0.0119392788 0.4176656604 -0.003686459735 2.211062324e-38
0.01787724532 0.07739241421 -0.00699291518 2.211062324e-38
0.006275489461 0.4047192633 -0.02508051693 2.211062324e-38
9.656697512e-05 0.09449949861 -0.00333576533 2.211062324e-38
-0.01308543049 0.4210259318 -0.008062690496 2.211062324e-38
0.006452359259 0.1957328618 -0.0003053098917 2.211062324e-38
-0.01571916975 0.4651574492 -0.01614291035 2.211062324e-38
0.003379883477 0.1030476093 -0.008170151152 2.211062324e-38
-0.03334928676 0.4631129503 -0.01528244372 2.211062324e-38
-0.002262409544 -0.1060147062 -0.00201935228 2.211062324e-38
-0.003777188016 0.4278461039 -0.005539027043 2.211062324e-38
0.00336592854 0.02538716607 -0.007176294457 2.211062324e-38
-0.01567806676 0.4164035916 -0.009290657006 2.211062324e-38
-0.0112297358 -0.257809937 0.01937824488 2.211062324e-38
-0.0001737773418 0.3008923829 0.003588625696 2.211062324e-38
0.005562821869 -0.07473863661 -0.006269900128 2.211062324e-38
0.01655952446 0.323233813 0.007297731005 2.211062324e-38
-0.005946692545 -0.1928174794 0.0002539344132 2.211062324e-38
-0.0003672167368 0.198812604 0.004545797128 2.211062324e-38
0.01128186844 -0.07985562086 -0.007178084459 2.211062324e-38
0.003883118741 0.2442967147 0.007385483012 2.211062324e-38
0.008988995105 -0.1908394843 0.0009706371347 2.211062324e-38
0.0007081030635 0.1982547939 0.008276193403 2.211062324e-38
0.01436035708 -0.06320837885 -0.005733725149 2.211062324e-38
-0.003222387284 0.2351197004 0.005781219341 2.211062324e-38
0.01032030489 -0.1302925795 -0.0001568999141 2.211062324e-38
0.01582617871 0.1769142002 0.01148657128 2.211062324e-38
0.01716955379 -0.05004611239 -0.009859831072 2.211062324e-38
-0.003504112829 0.2860218883 0.01301113702 2.211062324e-38
-0.002878367435 -0.1405749619 -0.00313788373 2.211062324e-38
0.02613370307 0.1348229498 0.003020838136 2.211062324e-38
0.002510825405 -0.2969398499 0.03898676857 2.284242894e-38
0.01210447121 -0.3256621659 -0.0008850803133 2.284242894e-38
-0.004402504768 0.2418214679 0.02906059846 2.284242894e-38
0.03213652968 -0.3973942995 -0.0280171968 2.284242894e-38
-0.007428226527 -0.3341154456 0.03610072657 2.284242894e-38
0.02889735065 -0.3433463871 -0.01679653302 2.284242894e-38
0.000179335475 0.361901015 0.01966853812 2.284242894e-38
0.02151420154 -0.4090328217 -0.005597942509 2.284242894e-38
-0.0007726846379 -0.3641718924 0.03335640952 2.284242894e-38
0.03237498552 -0.317961812 -0.03522343561 2.284242894e-38
0.008172077127 -0.1212479323 0.02007844113 2.284242894e-38
0.0819785893 -0.4341617227 -0.06702084094 2.284242894e-38
-0.01256796066 -0.429692775 0.07835608721 2.284242894e-38
0.03460167348 -0.4113404155 -0.04052089527 2.284242894e-38
0.00829932373 -0.3660455942 0.05991986766 2.284242894e-38
0.09996265918 -0.4285085201 -0.04252257198 2.284242894e-38
-0.02663947456 -0.4291801155 0.08389113098 2.284242894e-38
0.05614562705 -0.3811155558 -0.01905516908 2.284242894e-38
0.01747046039 -0.3033818901 0.03401683271 2.284242894e-38
0.07598821074 -0.3985305429 -0.01264724508 2.284242894e-38
-0.02510889992 -0.3914093375 0.0692403242 2.284242894e-38
0.05299802125 -0.3540437818 -0.01158876251 2.284242894e-38
0.01382574253 -0.1878080964 0.01604513265 2.284242894e-38
0.08300232887 -0.3914315701 -0.01781207323 2.284242894e-38
-0.01733714901 -0.3672763109 0.05592311174 2.284242894e-38
0.04963644221 -0.3400892615 -0.02550823055 2.284242894e-38
-0.0222612042 0.02048984542 -0.0136824986 2.284242894e-38
0.06970388442 -0.3636880219 -0.003958182409 2.284242894e-38
-0.02737615816 -0.3417277038 0.05044714734 2.284242894e-38
0.03428603336 -0.3304575384 -0.02512670681 2.284242894e-38
0.0148197813 -0.2772470713 0.03089205362 2.284242894e-38
0.04481967539 -0.3394008577 0.004052300006 2.284242894e-38
-0.001815436292 -0.430090487 -0.06818528473 2.348204041e-38
0.03817174211 -0.4883646667 -0.06649068743 2.348204041e-38
-0.02166762017 -0.3927071989 -0.008447386324 2.348204041e-38
0.01689319499 -0.4795587361 -0.1033387333 2.348204041e-38
0.04682619497 -0.3667327166 -0.05014479533 2.348204041e-38
0.00912027061 -0.508274436 -0.09890797734 2.348204041e-38
0.005246263463 -0.4363149405 -0.06789769977 2.348204041e-38
0.01992432028 -0.4963374138 -0.1328620017 2.348204041e-38
0.03114878386 -0.4535749853 -0.08440624177 2.348204041e-38
0.07648541778 -0.5062799454 -0.09122629464 2.348204041e-38
-0.01639780961 -0.4363728464 -0.06821420044 2.348204041e-38
0.02124700509 -0.4749773741 -0.1124904379 2.348204041e-38
0.05631010607 -0.4105545282 -0.07559026033 2.348204041e-38
0.04156732187 -0.4894692302 -0.09831980616 2.348204041e-38
-0.02814123407 -0.4026830494 -0.06676349789 2.348204041e-38
0.03511423245 -0.4299758077 -0.08064752072 2.348204041e-38
0.0425689891 -0.4126912653 -0.06408685446 2.348204041e-38
0.04813082144 -0.4789015055 -0.06106585637 2.348204041e-38
-0.02039470151 -0.37747401 -0.0376216732 2.348204041e-38
0.02134473436 -0.4152597487 -0.06552470475 2.348204041e-38
0.02046886273 -0.3873061836 -0.02652892657 2.348204041e-38
0.06218129769 -0.4354014993 -0.06502946466 2.348204041e-38
-0.03387061134 -0.3568093479 -0.03040315211 2.348204041e-38
0.005451178178 -0.4062035978 -0.06127618626 2.348204041e-38
0.04350444674 -0.3672952354 -0.006444990635 2.348204041e-38
0.07002936304 -0.4022288322 -0.0478855148 2.348204041e-38
-0.04009962454 -0.3036073148 -0.01619693451 2.348204041e-38
0.02943691798 -0.3792568743 -0.06251973659 2.348204041e-38
-0.002955711214 -0.3829714954 -0.002828873694 2.348204041e-38
0.06451642513 -0.405482471 -0.05458825454 2.348204041e-38
-0.02849948406 -0.2955858111 -0.03872053698 2.348204041e-38
0.02988442965 -0.3132259548 -0.04342337325 2.348204041e-38
-0.07369796932 -0.4835150242 0.0446819216 2.347880341e-38
-0.05211503059 -0.4925029874 -0.07174361497 2.347880341e-38
-0.1056714877 -0.4847612679 -0.03149614856 2.347880341e-38
-0.0273397658 -0.4906758368 -0.04922254756 2.347880341e-38
-0.1001143754 -0.4707856476 0.008331731893 2.347880341e-38
-0.07286284864 -0.4928503931 -0.04656519741 2.347880341e-38
-0.113382861 -0.4936634302 -0.02726436406 2.347880341e-38
-0.08423408866 -0.48707214 -0.04876635969 2.347880341e-38
-0.1135619283 -0.4834450185 0.03528573364 2.347880341e-38
-0.03298537806 -0.4873585403 -0.1035100818 2.347880341e-38
-0.1327884495 -0.4821247756 -0.01704348996 2.347880341e-38
-0.08715171367 -0.4885857999 -0.06671199203 2.347880341e-38
-0.08892480284 -0.4649513066 0.02538274229 2.347880341e-38
-0.04264473543 -0.4871699214 -0.1008787751 2.347880341e-38
-0.0743901208 -0.4777106643 0.03336329386 2.347880341e-38
-0.03943030536 -0.4911684096 -0.08835234493 2.347880341e-38
-0.08749838918 -0.4587932825 0.04143378511 2.347880341e-38
-0.02519184723 -0.4917895496 -0.07355893403 2.347880341e-38
-0.05183196068 -0.4771498144 0.03695693612 2.347880341e-38
-0.03081227466 -0.4940592349 -0.06767309457 2.347880341e-38
-0.07618052512 -0.466117233 0.04771742597 2.347880341e-38
-0.01444929093 -0.4830047786 -0.05312582478 2.347880341e-38
-0.06399080157 -0.4669565856 0.02017528191 2.347880341e-38
-0.04997496679 -0.4973163307 -0.03827446327 2.347880341e-38
-0.07788973302 -0.4672401547 0.03751124814 2.347880341e-38
-0.007541617844 -0.4805364013 -0.05220174417 2.347880341e-38
-0.04492566362 -0.4779395163 0.02683588117 2.347880341e-38
-0.06072144583 -0.4458475709 -0.05324584246 2.347880341e-38
-0.04258701578 -0.4583805799 0.04341367632 2.347880341e-38
0.01989278011 -0.4865961671 -0.05882544816 2.347880341e-38
-0.04275582358 -0.4743848741 0.0512858592 2.347880341e-38
-0.005217161961 -0.4928717911 -0.03993147984 2.347880341e-38
-0.03254487365 -0.4423850775 -0.07727948576 2.347520768e-38
-0.01627912372 -0.2430017143 0.004782565869 2.347520768e-38
-0.00774965575 -0.3787299395 -0.02549034916 2.347520768e-38
-0.04852001742 -0.4412929714 -0.02810031734 2.347520768e-38
-0.01267362293 -0.4875242412 -0.101929985 2.347520768e-38
-0.01211153343 -0.1547011733 0.009099187329 2.347520768e-38
0.006869774312 -0.334382385 -0.001878676587 2.347520768e-38
-0.09069380164 -0.4649904072 -0.01494077407 2.347520768e-38
-0.04846608266 -0.4771128893 -0.1140262187 2.347520768e-38
-0.01510549895 -0.1556249261 0.01760986261 2.347520768e-38
-0.04709076881 -0.4188249409 -0.08500202 2.347520768e-38
-0.09996795654 -0.4370399415 -0.006433010567 2.347520768e-38
-0.03140115738 -0.4487818182 -0.1076620743 2.347520768e-38
-0.02973372675 -0.3651284873 0.03951526433 2.347520768e-38
-0.04448066652 -0.3863004446 -0.08271812648 2.347520768e-38
-0.06227447093 -0.3664106429 0.02746848948 2.347520768e-38
-0.01649913937 -0.4231459498 -0.08827956766 2.347520768e-38
-0.07791946083 -0.4187593758 0.01392968837 2.347520768e-38
-0.03300598636 -0.3671941757 -0.05205038935 2.347520768e-38
-0.05048782751 -0.3758881986 0.0007314382819 2.347520768e-38
-0.0004814415879 -0.4201010764 -0.07903054357 2.347520768e-38
-0.07679970562 -0.4018037915 0.01204947941 2.347520768e-38
-0.03469252959 -0.3684639931 -0.0460409075 2.347520768e-38
-0.07840953022 -0.3946761489 -0.004208733793 2.347520768e-38
0.03049731441 -0.4045452476 -0.05418990552 2.347520768e-38
-0.06720809639 -0.3986534178 0.02597979642 2.347520768e-38
-0.01651081815 -0.3467495739 -0.03150317445 2.347520768e-38
-0.03923403844 -0.3630054295 0.02538594417 2.347520768e-38
0.006786629558 -0.4027533829 -0.04132120684 2.347520768e-38
-0.0389627777 -0.3511194587 0.02852668613 2.347520768e-38
-0.01761955954 -0.3126462996 -0.02022738568 2.347520768e-38
-0.006532903761 -0.3311669827 0.009943380952 2.347520768e-38
0.0103627909 -0.4359225929 -0.05661537498 2.347161195e-38
0.06096981093 -0.4406104684 0.001150001772 2.347161195e-38
0.001864133053 -0.2327619642 -0.01698738523 2.347161195e-38
0.03966286778 -0.4756217897 0.06891675293 2.347161195e-38
-0.03049003519 -0.4463356733 -0.08609489352 2.347161195e-38
0.04830042645 -0.4625792205 -0.003580818884 2.347161195e-38
0.003650231753 -0.07952939719 -0.008654465899 2.347161195e-38
0.09976324439 -0.502417326 0.04360603914 2.347161195e-38
-0.01198127121 -0.4640581608 -0.08287703246 2.347161195e-38
0.0494000949 -0.4022194743 0.03049600124 2.347161195e-38
0.003954509273 -0.4102453887 -0.04297737032 2.347161195e-38
0.07119489461 -0.4636360109 0.08534566313 2.347161195e-38
-0.00101491774 -0.4369284511 -0.1047611833 2.347161195e-38
0.07672277093 -0.4326625764 -0.0215320345 2.347161195e-38
0.01597067527 -0.3830863833 -0.08430566639 2.347161195e-38
0.03928648308 -0.4180165827 0.07824480534 2.347161195e-38
-0.002579698106 -0.4123049676 -0.07526943088 2.347161195e-38
0.06909688562 -0.4004640579 -0.06237206236 2.347161195e-38
0.02850998007 -0.3592478931 -0.04806051031 2.347161195e-38
0.03313933685 -0.4112863839 0.04411425814 2.347161195e-38
0.004412443843 -0.3933411241 -0.07264983654 2.347161195e-38
0.04912374169 -0.3737866282 -0.07003992796 2.347161195e-38
0.03311643004 -0.3484780192 -0.02313761041 2.347161195e-38
0.02967454679 -0.4212606251 0.03078262322 2.347161195e-38
0.001046284684 -0.3752408922 -0.07452929765 2.347161195e-38
0.03110660985 -0.3718111217 -0.06243479252 2.347161195e-38
0.01823568903 -0.3517491519 -0.02580793388 2.347161195e-38
0.03430007026 -0.375841856 0.02621546201 2.347161195e-38
0.01869319193 -0.3561084867 -0.06965002418 2.347161195e-38
0.01912594587 -0.3479605615 -0.04158322886 2.347161195e-38
0.02746723965 -0.2933853269 0.005016032606 2.347161195e-38
-0.00153483334 -0.3393266797 0.04487225041 2.347161195e-38
-0.01870189793 -0.382937938 -0.003165547503 2.346801622e-38
0.007051514927 0.02600893751 -0.003198225284 2.346801622e-38
-0.02400459349 -0.3054206371 0.015557345 2.346801622e-38
-0.001879801624 0.4559879601 0.001409946941 2.346801622e-38
-0.04103180394 -0.4240208268 -0.03164417669 2.346801622e-38
0.001623137388 -0.1247209162 -0.007668151055 2.346801622e-38
-0.009122394025 -0.1672071666 -0.004031144548 2.346801622e-38
-0.007149693556 0.4139733911 0.01136586256 2.346801622e-38
-0.04863812774 -0.4333287776 0.01345851179 2.346801622e-38
0.001798687386 0.2611629069 0.004901593551 2.346801622e-38
-0.05109317228 -0.3796250522 -0.002666467102 2.346801622e-38
0.001351184328 0.3032929003 -0.004619773943 2.346801622e-38
-0.06762221456 -0.4215798676 -0.02160929516 2.346801622e-38
-0.002970597241 -0.1509645283 0.009395889007 2.346801622e-38
-0.0602202937 -0.3728877008 0.001507400302 2.346801622e-38
0.002405735664 0.2231733054 -0.00183705776 2.346801622e-38
-0.05741715804 -0.4079130888 -0.04101162404 2.346801622e-38
0.005270611029 -0.2777586877 0.01160401199 2.346801622e-38
-0.04259997234 -0.3561530709 -0.009000266902 2.346801622e-38
0.001694536069 0.2686622143 0.001613734756 2.346801622e-38
-0.06921049207 -0.3996886015 -0.03788211942 2.346801622e-38
-0.008218274452 -0.2758150101 0.00835983362 2.346801622e-38
-0.05908906087 -0.3358816803 -0.004900788888 2.346801622e-38
0.003617568873 0.1455656439 0.004746818449 2.346801622e-38
-0.06743773818 -0.3859636486 -0.04200188443 2.346801622e-38
-0.01493486017 -0.2872239351 0.01210782398 2.346801622e-38
-0.0386906527 -0.307448566 -0.007341476623 2.346801622e-38
0.009394637309 0.03368140385 0.009664920159 2.346801622e-38
-0.03867705911 -0.3662448823 -0.02870809287 2.346801622e-38
0.005250375718 -0.2271624655 0.01472116448 2.346801622e-38
-0.0304588303 -0.3028792441 -0.009374582209 2.346801622e-38
0.01812617108 0.2557133436 -0.00661868602 2.346801622e-38
-0.009935568087 0.3616904616 -0.00632209098 2.346406175e-38
-0.01474844478 0.391949743 -0.005501885433 2.346406175e-38
0.002962896368 0.2785899937 -0.003066604724 2.346406175e-38
-0.06834983081 0.4778538048 -0.01867390797 2.346406175e-38
0.005731943529 0.3992301524 0.000456586451 2.346406175e-38
-0.005194908939 0.3992176056 0.006614096928 2.346406175e-38
0.01711615175 0.3722294271 -0.008589607663 2.346406175e-38
-0.05987007543 0.477016449 -0.02693960071 2.346406175e-38
-0.003540610895 0.4418078959 0.001122608315 2.346406175e-38
-0.03102275729 0.4251380265 -0.01905773766 2.346406175e-38
-0.007607251406 0.1657969505 -0.009448843077 2.346406175e-38
-0.03462196514 0.4757051766 -0.001291244524 2.346406175e-38
0.0004273866944 0.2472682893 -0.007664083503 2.346406175e-38
-0.008695339784 0.3713594377 -0.002365599619 2.346406175e-38
0.006743523292 -0.03313108906 -0.005405492615 2.346406175e-38
-0.004877399188 0.4151495695 -0.0009880062426 2.346406175e-38
-0.0006587597309 0.00737865828 -0.003370853374 2.346406175e-38
-0.002528120996 0.2386858463 -0.004005783238 2.346406175e-38
0.005700286943 0.1199968606 0.002817116678 2.346406175e-38
-0.006532000843 0.353546977 -0.00560887251 2.346406175e-38
0.006297479849 -0.06691592187 -0.002383391606 2.346406175e-38
0.001038109534 0.2276078016 -0.002997642616 2.346406175e-38
0.005873909686 0.1225776747 -0.0001684874296 2.346406175e-38
-0.002512398409 0.3530284762 0.0002127438784 2.346406175e-38
0.01498148125 -0.08873095363 -0.003534957999 2.346406175e-38
-0.001932056039 0.2501523197 -0.004863775335 2.346406175e-38
0.005044986494 0.2069540173 -0.0003150105476 2.346406175e-38
-0.004014529288 0.2852218449 -0.001664577401 2.346406175e-38
0.003569469554 -0.01561231352 -0.002661534818 2.346406175e-38
0.00617973553 0.2893523574 -0.009347196668 2.346406175e-38
-0.0005166632473 0.09675689787 0.00593474973 2.346406175e-38
0.004034183454 0.296530664 -0.01585054211 2.346406175e-38
-0.005585340317 0.1262291372 -0.009875125252 2.346010729e-38
-0.0155945057 0.4881948829 0.01596259326 2.346010729e-38
-0.02520067059 0.418279171 -0.01171115786 2.346010729e-38
-0.01198695414 0.4959802926 -0.04050217196 2.346010729e-38
-0.006525070872 0.2234059125 0.003739085281 2.346010729e-38
-0.02933942713 0.4961701035 -0.002343239728 2.346010729e-38
-0.007019512355 0.4465642273 -0.01224696729 2.346010729e-38
0.02966523729 0.4735008478 -0.01264733635 2.346010729e-38
0.003969417419 0.241568923 0.005028591957 2.346010729e-38
-0.01303428039 0.4935385287 0.01174677163 2.346010729e-38
0.0005880258395 0.26773718 0.0006293551414 2.346010729e-38
-0.0008470549365 0.4754557014 -0.01211184356 2.346010729e-38
0.001673441497 -0.09940613061 0.003600506345 2.346010729e-38
-0.02439712361 0.4895516336 -0.003580208402 2.346010729e-38
0.005098714959 -0.07142103463 -0.00993531011 2.346010729e-38
0.0002650951501 0.486525476 -0.01314629242 2.346010729e-38
0.009632256813 -0.2336001992 -0.008089435287 2.346010729e-38
-0.004136365838 0.4005301595 -0.001524974359 2.346010729e-38
0.01096987911 -0.02551702037 -0.004116215277 2.346010729e-38
-0.01504721586 0.4793843329 -0.02072755992 2.346010729e-38
0.02360539883 -0.2703487277 0.002435954986 2.346010729e-38
0.01148111187 0.3587099314 0.003987011965 2.346010729e-38
0.0159171205 -0.01284905616 -0.0009583362262 2.346010729e-38
0.002146195387 0.4617606699 -0.01842946559 2.346010729e-38
0.03118878044 -0.2471223623 0.0009921422461 2.346010729e-38
0.0119613912 0.3613526225 0.001708996715 2.346010729e-38
0.01564902812 0.01996634714 -0.002974748146 2.346010729e-38
0.01039935369 0.441339761 -0.01156276837 2.346010729e-38
0.02099304646 -0.2072327882 -0.003212288721 2.346010729e-38
0.002004096517 0.4530112147 -0.008996182121 2.346010729e-38
-0.002765022218 -0.07823167741 -0.008352637291 2.346010729e-38
-0.0126952054 0.4832328856 -0.01789212041 2.346010729e-38
0.04007980973 -0.4687101841 0.07665904611 2.345615283e-38
0.008199428208 -0.4047120512 0.019629132 2.345615283e-38
0.002495291177 -0.4379191995 0.08609963953 2.345615283e-38
-0.01189020835 -0.4117974937 0.0818451494 2.345615283e-38
0.07735382766 -0.4807479382 0.04477796331 2.345615283e-38
0.01714235917 -0.3200380802 0.01234783418 2.345615283e-38
0.001631854568 -0.4650771916 0.08558265865 2.345615283e-38
0.00409836648 -0.4223402441 0.04872881249 2.345615283e-38
0.08800206333 -0.4950906038 0.07953805476 2.345615283e-38
0.02196113765 -0.2917880118 0.001944073825 2.345615283e-38
-0.008818889968 -0.4473658204 0.1317228377 2.345615283e-38
0.008173319511 -0.3947486579 0.01453041472 2.345615283e-38
0.06222036108 -0.4822587669 0.09039980173 2.345615283e-38
0.006670370698 -0.380456537 -0.02733882144 2.345615283e-38
-0.07659693807 -0.4289978743 0.0910365358 2.345615283e-38
0.0175102856 -0.3295513988 -0.02977228723 2.345615283e-38
0.0553040579 -0.4613309503 0.101345405 2.345615283e-38
-0.001526030479 -0.3679394126 -0.04641247913 2.345615283e-38
-0.06469164044 -0.4047190249 0.05980059877 2.345615283e-38
0.01772765443 -0.3515433073 0.01123365108 2.345615283e-38
0.06142925099 -0.4329859018 0.0968554467 2.345615283e-38
0.00379526848 -0.3540625572 -0.04545748606 2.345615283e-38
-0.07767354697 -0.4207831323 0.07038944215 2.345615283e-38
0.0168739669 -0.3754223287 0.006466955878 2.345615283e-38
0.0632301271 -0.4168773592 0.09028874338 2.345615283e-38
-0.002651890041 -0.3436850309 -0.04404080659 2.345615283e-38
-0.06497649103 -0.4264806211 0.06374581158 2.345615283e-38
0.0167356506 -0.344825685 -0.0248940587 2.345615283e-38
0.009672369808 -0.427785188 0.09210962057 2.345615283e-38
-0.001195486053 -0.3283695579 -0.03345497325 2.345615283e-38
-0.05782717094 -0.3512672484 0.04408964515 2.345615283e-38
0.0266796127 -0.3108887672 0.04036728293 2.345615283e-38
0.002153341193 -0.2552159429 0.009041077457 2.345219836e-38
0.0001030936837 -0.2788186967 -0.02153066732 2.345219836e-38
-0.003930045757 0.3029234409 0.01451571379 2.345219836e-38
-0.01668295823 -0.2556450069 -0.02643839456 2.345219836e-38
-0.01526913233 -0.2418648899 0.01689881831 2.345219836e-38
0.01476675179 -0.2038404197 -0.01126391813 2.345219836e-38
-0.01930646971 0.3552731574 0.01138541847 2.345219836e-38
-0.009002580307 -0.2615911067 -0.01974374056 2.345219836e-38
-0.002642886247 -0.302621007 0.01243434101 2.345219836e-38
0.01779776998 -0.04715316743 -0.02569332905 2.345219836e-38
-0.01421327144 0.1079036817 0.0153077282 2.345219836e-38
-0.002963143168 -0.4058721066 -0.04211755842 2.345219836e-38
-0.009572269395 -0.3833459318 0.02581716143 2.345219836e-38
0.01179280225 -0.3941904902 -0.02879191004 2.345219836e-38
-0.009155959822 -0.2777551413 0.01661509089 2.345219836e-38
-0.02928531356 -0.4160101116 -0.04366766661 2.345219836e-38
-0.01183240395 -0.4016094208 0.03509378433 2.345219836e-38
0.01631586812 -0.3792832196 -0.01129435375 2.345219836e-38
0.005048623309 -0.2064190954 0.003989504185 2.345219836e-38
-0.0204282701 -0.3660820425 -0.03448497131 2.345219836e-38
-0.008670548908 -0.3688575327 0.02741452865 2.345219836e-38
0.01221464947 -0.3393481076 -0.002305458765 2.345219836e-38
-0.004158160184 -0.05474584922 -0.001742405933 2.345219836e-38
-0.00104533846 -0.3646080792 -0.0286590755 2.345219836e-38
-0.007095068693 -0.3253250122 0.0210909415 2.345219836e-38
0.007348174229 -0.2748985291 -0.0007805226487 2.345219836e-38
-0.01258905418 0.1534123719 -0.0030318629 2.345219836e-38
0.00152372825 -0.3703893721 -0.02533474006 2.345219836e-38
-0.007852076553 -0.331728369 0.009024419822 2.345219836e-38
0.002768770326 -0.279810369 0.001876553171 2.345219836e-38
0.009005240165 -0.243359834 -0.004429333843 2.345219836e-38
0.006261024624 -0.2548531294 -0.02005676553 2.345219836e-38
-0.01422644686 -0.428216815 0.04301738739 2.344788516e-38
-0.01378778741 0.377679646 0.004964150488 2.344788516e-38
-0.04369690269 -0.3474449515 0.01653425582 2.344788516e-38
0.01079636347 0.114157334 -0.003729376476 2.344788516e-38
-0.02448410727 -0.4075889885 0.0384032242 2.344788516e-38
-0.01507139299 0.4352686405 0.0188801419 2.344788516e-38
-0.0231860429 -0.03347790614 0.002136316616 2.344788516e-38
0.008858087473 0.1220903322 -0.008256691508 2.344788516e-38
-0.0444031246 -0.4512653947 0.06364412606 2.344788516e-38
-0.01324752159 0.4539453685 0.01128839795 2.344788516e-38
-0.09724202752 -0.4083109796 0.03768619895 2.344788516e-38
0.0128437262 -0.3751641512 0.06270549446 2.344788516e-38
-0.04968394339 -0.4231899381 0.07077753544 2.344788516e-38
0.003160671098 0.1847581714 0.007572934497 2.344788516e-38
-0.1125876755 -0.3674599528 0.003224652261 2.344788516e-38
0.01136111468 -0.3667077422 0.1014931947 2.344788516e-38
-0.06985831261 -0.4309289455 0.06000554189 2.344788516e-38
-0.0007857957971 -0.2491624951 0.01744837873 2.344788516e-38
-0.04538121447 -0.3467743695 -0.002066679997 2.344788516e-38
0.0101706814 -0.3194537163 0.03057404794 2.344788516e-38
-0.09282024205 -0.4092261195 0.02983504348 2.344788516e-38
-0.002434045775 -0.3432740271 0.02027122863 2.344788516e-38
-0.06149377674 -0.3464260101 -0.009954384528 2.344788516e-38
0.006043376401 -0.317355752 0.03539692611 2.344788516e-38
-0.1035541147 -0.3739780188 0.0152429603 2.344788516e-38
-0.00130736758 -0.3219462633 0.01704354584 2.344788516e-38
-0.05008267239 -0.3680075109 -0.01263832394 2.344788516e-38
0.002586753806 -0.269837141 0.01910066418 2.344788516e-38
-0.06003880873 -0.386267662 0.02325193956 2.344788516e-38
0.006410612259 -0.1470398605 0.005829115398 2.344788516e-38
-0.03380912542 -0.2886625528 -0.00667986786 2.344788516e-38
0.01091057807 -0.1092548892 0.006959486287 2.344788516e-38
-0.009355048649 -0.4733242691 -0.09310885519 2.344357197e-38
0.06263507158 -0.4961283207 0.001231133356 2.344357197e-38
-0.06960413605 -0.4635041356 -0.08339893073 2.344357197e-38
0.06979200244 -0.4713841677 -0.01270316727 2.344357197e-38
-0.03381080553 -0.4661680162 -0.1122056544 2.344357197e-38
0.07234440744 -0.5078932047 -0.005527812522 2.344357197e-38
-0.06496150792 -0.4972159266 -0.07805749774 2.344357197e-38
0.07223480195 -0.4834683537 -0.05032846332 2.344357197e-38
-0.008779270574 -0.4812785089 -0.1111643538 2.344357197e-38
0.1132108271 -0.4614247978 0.04516151547 2.344357197e-38
-0.06714165211 -0.4540615082 -0.1194404215 2.344357197e-38
0.1023629159 -0.4629102349 -0.05733865872 2.344357197e-38
-0.01659593359 -0.4510505199 -0.11599195 2.344357197e-38
0.07555060834 -0.4409510791 -0.04028248042 2.344357197e-38
-0.05222938582 -0.4323549867 -0.1070185304 2.344357197e-38
0.1232255176 -0.4192895591 -0.0374039337 2.344357197e-38
-0.01491184998 -0.43267259 -0.09815715253 2.344357197e-38
0.07308091968 -0.4197640419 -0.07140210271 2.344357197e-38
-0.04367291927 -0.4253204167 -0.08476287872 2.344357197e-38
0.100750953 -0.4175931811 -0.001404731534 2.344357197e-38
-0.03817870468 -0.4162425101 -0.09191805124 2.344357197e-38
0.06596472859 -0.3789946735 -0.06340221316 2.344357197e-38
-0.0287042819 -0.4036453366 -0.07604542375 2.344357197e-38
0.1149316803 -0.4175843298 -0.02439826727 2.344357197e-38
-0.04796377197 -0.397431314 -0.07194896787 2.344357197e-38
0.06093301624 -0.3615549505 -0.05279871076 2.344357197e-38
-0.03485743701 -0.4170067012 -0.05971648917 2.344357197e-38
0.08423656225 -0.3871257007 -0.02529577538 2.344357197e-38
-0.04033775255 -0.3947083354 -0.06436171383 2.344357197e-38
0.07346017659 -0.3777088225 -0.03678857163 2.344357197e-38
-0.002120089252 -0.3904618025 -0.08325685561 2.344357197e-38
0.06683614105 -0.3513256907 -0.0282842312 2.344357197e-38
0.0008847152349 -0.4319068789 0.08445504308 2.343925737e-38
0.05042405054 -0.4730424583 0.001978022279 2.343925737e-38
-0.008217428811 -0.4498232603 0.06753998995 2.343925737e-38
0.09334213287 -0.4781300426 0.01088668592 2.343925737e-38
-0.01387348026 -0.4546978772 0.07587207854 2.343925737e-38
0.09958528727 -0.5064380765 0.01983038336 2.343925737e-38
-0.02063808031 -0.4703570902 0.03762031347 2.343925737e-38
0.1084292382 -0.4909212589 0.01235957071 2.343925737e-38
0.005723473616 -0.4789102674 0.08944764733 2.343925737e-38
0.09077442437 -0.4523881972 -0.003662569914 2.343925737e-38
-0.02607918344 -0.4206566513 0.09199162573 2.343925737e-38
0.1192860305 -0.4675808847 0.03886311874 2.343925737e-38
-0.03312783688 -0.4504672885 0.08328967541 2.343925737e-38
0.1011217758 -0.4828759432 0.03345806152 2.343925737e-38
0.0005476921215 -0.4113495648 0.1091113314 2.343925737e-38
0.0742868036 -0.4200764298 0.04479521886 2.343925737e-38
-0.05718398467 -0.4219636619 0.07242823392 2.343925737e-38
0.07229469717 -0.4727295935 0.07013802975 2.343925737e-38
-0.006082433742 -0.3977744877 0.08901945502 2.343925737e-38
0.04726587236 -0.3750954866 -0.006066963077 2.343925737e-38
-0.05359372124 -0.4141017199 0.07781591266 2.343925737e-38
0.05229082331 -0.4434477389 0.05398150533 2.343925737e-38
-0.01972218789 -0.3739750087 0.06888252497 2.343925737e-38
0.07158456743 -0.413087219 -0.002091777278 2.343925737e-38
-0.06662370265 -0.400196135 0.07739076018 2.343925737e-38
0.04761873558 -0.4260286391 0.01846143976 2.343925737e-38
0.007840048522 -0.3853557408 0.06059298664 2.343925737e-38
0.04573971033 -0.3681480885 -0.01735776663 2.343925737e-38
-0.06222561002 -0.4075026512 0.07235170156 2.343925737e-38
0.06524090469 -0.4156111181 0.02306564711 2.343925737e-38
0.002764221746 -0.3514848351 0.04445507377 2.343925737e-38
0.04342275858 -0.3587338626 -0.009884810075 2.343925737e-38
-0.06939724833 -0.4689441323 0.07275462896 2.343458544e-38
-0.01252917945 -0.4832075834 0.07681123167 2.343458544e-38
-0.111072354 -0.468522042 0.01356539316 2.343458544e-38
-0.008941099048 -0.4860186577 0.1092818454 2.343458544e-38
-0.0535164997 -0.4636715949 0.05653050542 2.343458544e-38
-0.01968914643 -0.4670651257 0.1009684429 2.343458544e-38
-0.1134236678 -0.4921113253 -0.0003187060356 2.343458544e-38
-0.008642205037 -0.4883745611 0.136759147 2.343458544e-38
-0.08393950015 -0.4773377776 0.09160068631 2.343458544e-38
-0.0113770375 -0.5085026026 0.1004689932 2.343458544e-38
-0.1343568116 -0.4862081707 0.009800775908 2.343458544e-38
0.01060811151 -0.4566469491 0.1135986745 2.343458544e-38
-0.1013389528 -0.4353249967 0.04728076607 2.343458544e-38
-0.04279409349 -0.4656176269 0.1071748435 2.343458544e-38
-0.1137549877 -0.4560682178 -0.008324699476 2.343458544e-38
0.002671786817 -0.4344704151 0.09751256555 2.343458544e-38
-0.09596951306 -0.4297958314 0.02888597734 2.343458544e-38
-0.0616630353 -0.4403519928 0.1006359011 2.343458544e-38
-0.08179682493 -0.4741654098 0.008390975185 2.343458544e-38
0.01875849627 -0.433513552 0.0774019286 2.343458544e-38
-0.09117212147 -0.4380756021 0.01514220703 2.343458544e-38
-0.06320803612 -0.4227231145 0.1007506102 2.343458544e-38
-0.08685282618 -0.4704872072 0.006395968143 2.343458544e-38
0.01112646144 -0.4168647826 0.06907215714 2.343458544e-38
-0.08865701407 -0.4404244125 0.01340808067 2.343458544e-38
-0.05703652278 -0.3997052014 0.07986535877 2.343458544e-38
-0.08294647932 -0.4753022492 0.001994353952 2.343458544e-38
-0.0433196649 -0.3851762712 0.08039947599 2.343458544e-38
-0.06941083819 -0.4510985613 0.00204312522 2.343458544e-38
