# .PCD v0.7 - Point Cloud Data file format
VERSION 0.7
FIELDS x y z rgb
SIZE 4 4 4 4
TYPE F F F F
COUNT 1 1 1 1
WIDTH 826
HEIGHT 1
VIEWPOINT 0 0 0 1 0 0 0
POINTS 826
DATA ascii
0.243331641 -0.1090944335 -0.1522158086 1.111163541e-38
-0.2256696224 -0.003916563932 -0.1851097047 1.111163541e-38
0.2533292174 -0.0304874368 -0.1963459402 1.111163541e-38
-0.05859028548 -0.07535350323 -0.1969173998 1.111163541e-38
0.4265196919 -0.1112273559 -0.1154407561 1.111163541e-38
-0.4403358698 0.03413468227 -0.1388900429 1.111163541e-38
0.02239745669 -0.01903910376 -0.1912254691 1.111163541e-38
-0.2105392367 -0.04973144829 -0.1889889985 1.111163541e-38
0.2926060259 -0.1034237221 -0.1467384994 1.111163541e-38
-0.2984771729 0.01604822278 -0.1785093397 1.111163541e-38
0.1992184669 -0.03937558085 -0.1827722788 1.111163541e-38
-0.09665173292 -0.04006873071 -0.1848777384 1.111163541e-38
0.3762272596 -0.09708224237 -0.1109484807 1.111163541e-38
-0.406188935 0.003129576333 -0.15575625 1.111163541e-38
0.06752417982 -0.02781710401 -0.1751508117 1.111163541e-38
-0.1739858687 -0.04346343502 -0.1768961251 1.111163541e-38
0.3244022727 -0.09976534545 -0.1302356422 1.111163541e-38
-0.3443740606 0.01875326596 -0.1717295647 1.111163541e-38
0.1148759723 -0.02710780129 -0.186185658 1.111163541e-38
-0.1438758671 -0.05140499026 -0.1859059632 1.111163541e-38
0.1776428372 -0.1043742001 -0.1224351749 1.111163541e-38
-0.2590685785 0.006909975782 -0.1592734754 1.111163541e-38
0.1507767588 -0.0118518509 -0.1813171208 1.111163541e-38
-0.1017290503 -0.09164951742 -0.1772789657 1.111163541e-38
0.1157440171 -0.09956369549 -0.08558730036 1.111163541e-38
-0.3615089953 -0.08680354804 -0.1470850557 1.111163541e-38
-0.01635869592 -0.06109675765 -0.1348210722 1.111163541e-38
-0.288849771 -0.07755146921 -0.164917767 1.111163541e-38
0.06922816485 -0.08376828581 -0.09621640295 1.111163541e-38
-0.2028057277 -0.08266188949 -0.1309361756 1.111163541e-38
-0.2406385839 0.08408880234 0.1203909889 1.184631237e-38
-0.06504997611 0.1252153665 0.01137734298 1.184631237e-38
-0.4793812931 -0.03632183746 -0.07899655402 1.184631237e-38
0.08769470453 0.04554737732 -0.1649591029 1.184631237e-38
-0.145192802 0.1152986288 0.1311784983 1.184631237e-38
-0.1359568685 0.128412053 0.007555664983 1.184631237e-38
-0.457921803 -0.03343956172 0.1479558051 1.184631237e-38
-0.2690871656 0.03120313585 -0.1749011278 1.184631237e-38
-0.3920140266 0.04348488897 0.1424052864 1.184631237e-38
-0.3510500193 0.04119929671 0.0171829313 1.184631237e-38
-0.4784049988 -0.03467364237 -0.0200830251 1.184631237e-38
-0.07130101323 0.03255173564 -0.1661875993 1.184631237e-38
-0.288189292 0.0627681613 0.1196326166 1.184631237e-38
-0.2006150633 0.09161167592 0.01059931703 1.184631237e-38
-0.4698741138 -0.03833824769 0.0951596573 1.184631237e-38
-0.1951265037 -0.01490610652 -0.1610774696 1.184631237e-38
-0.3729477823 0.03774925694 0.09535522014 1.184631237e-38
-0.2736080289 0.00969901029 0.02895169891 1.184631237e-38
-0.4749345183 -0.04034667462 0.03360930085 1.184631237e-38
-0.131040886 0.005325386301 -0.163802281 1.184631237e-38
-0.3360901475 0.05507254228 0.09420930594 1.184631237e-38
-0.2201162577 0.002969047753 0.03016810119 1.184631237e-38
-0.4190287888 0.02648029476 -0.1487671137 1.184631237e-38
0.008723692968 0.0343266055 -0.1631477922 1.184631237e-38
-0.1819099635 0.05701243132 0.1452849507 1.184631237e-38
-0.05239666626 -0.01973509789 0.07742454857 1.184631237e-38
-0.4276628792 0.009217955172 -0.06366440654 1.184631237e-38
-0.153669402 -0.07407610863 -0.05781105533 1.184631237e-38
-0.3243497312 -0.002914867597 0.151205793 1.184631237e-38
-0.2947134078 -0.02485949174 0.05496883392 1.184631237e-38
-0.3042350709 -0.04287384823 -0.08300340921 1.184631237e-38
-0.002372394549 -0.0146861542 -0.05757437646 1.184631237e-38
0.2732091248 -0.01262631174 0.1727739424 1.258099074e-38
0.3404115438 -0.02718130685 0.1887107342 1.258099074e-38
0.06697067618 0.1123921722 0.09235272557 1.258099074e-38
0.2539184391 -0.05435805395 0.1905951649 1.258099074e-38
0.3151830137 0.03475895524 0.1545109749 1.258099074e-38
0.2086600363 -0.1078214198 0.191828236 1.258099074e-38
-0.1065126359 0.1221297532 0.1010026485 1.258099074e-38
-0.2778776884 -0.01798169874 0.1825680435 1.258099074e-38
0.1144878641 0.09196851403 0.08571954817 1.258099074e-38
0.4105921686 -0.1062360927 0.1719692945 1.258099074e-38
0.03824988008 0.117158629 0.09409172833 1.258099074e-38
0.1081798002 -0.00863054581 0.1670461744 1.258099074e-38
0.2577362359 0.04316522926 0.1079495996 1.258099074e-38
0.2836575508 -0.1264337003 0.1859276146 1.258099074e-38
-0.05111707747 0.1092122346 0.09187325835 1.258099074e-38
-0.07816212624 -0.002477573697 0.1818809211 1.258099074e-38
0.1617549658 0.06461105496 0.07856093347 1.258099074e-38
0.3745710254 -0.1055611148 0.1749204695 1.258099074e-38
-0.01281428989 0.1082971618 0.09156130254 1.258099074e-38
0.01756070368 -0.08953190595 0.1627521366 1.258099074e-38
0.1970619857 0.05452743545 0.07701642066 1.258099074e-38
0.3148332834 -0.1164240539 0.1878608614 1.258099074e-38
0.07450953126 0.03125411645 0.1432236284 1.258099074e-38
0.1287762374 0.0181217473 0.1549981982 1.258099074e-38
0.1931171119 0.04019293934 0.151944384 1.258099074e-38
0.1387691945 -0.08968099207 0.14780505 1.258099074e-38
-0.1827190071 0.02170907147 0.09742862731 1.258099074e-38
-0.2044203579 -0.03073911183 0.1408779472 1.258099074e-38
0.03045524284 0.02202094346 0.1402831823 1.258099074e-38
0.2569549978 -0.0682959035 0.1034279987 1.258099074e-38
-0.05744807422 -0.05428557843 0.1261788309 1.258099074e-38
-0.1450686306 -0.09528887272 0.07719288766 1.258099074e-38
0.04800002649 -0.1082859337 -0.0866073966 1.331530897e-38
0.2410372645 -0.1247524545 0.1375099421 1.331530897e-38
0.2039752305 -0.1130908504 0.09789645672 1.331530897e-38
0.265812695 -0.1055921838 -0.1876752526 1.331530897e-38
0.2103897631 -0.1234137788 -0.09373924136 1.331530897e-38
0.1616275609 -0.1127926782 0.1789382696 1.331530897e-38
-0.08905745298 -0.1071090996 0.0534151867 1.331530897e-38
0.4592094421 -0.1094069779 -0.0242520161 1.331530897e-38
-0.1035410836 -0.07356773317 -0.1779849231 1.331530897e-38
0.3838288486 -0.08835095167 0.1756939292 1.331530897e-38
0.1304299235 -0.1088266969 0.08026545495 1.331530897e-38
0.3477494419 -0.1092112288 -0.1596344411 1.331530897e-38
0.1573806554 -0.07451804727 -0.1832408756 1.331530897e-38
0.2605619133 -0.08668138832 0.1736038476 1.331530897e-38
-0.004950386006 -0.1060306206 0.05653952435 1.331530897e-38
0.4284903407 -0.1032457054 -0.07571469992 1.331530897e-38
-0.00271104346 -0.05940428749 -0.1694791019 1.331530897e-38
0.3378197551 -0.08819710463 0.1675657332 1.331530897e-38
0.04388572276 -0.1069023758 0.06998042762 1.331530897e-38
0.3789486587 -0.104280889 -0.1145225838 1.331530897e-38
0.06520140171 -0.06749845296 -0.1782168299 1.331530897e-38
0.2805850804 -0.09262694418 0.1784344316 1.331530897e-38
0.05770114809 -0.08345311135 0.1443077624 1.331530897e-38
0.2985079288 -0.09076782316 -0.08421218395 1.331530897e-38
0.1819665581 -0.05811645463 -0.1221859232 1.331530897e-38
0.1756456047 -0.09728969634 0.02137858234 1.331530897e-38
-0.1613201946 -0.04687864333 0.03539027646 1.331530897e-38
0.338803798 -0.1000738293 -0.0102503961 1.331530897e-38
-0.0615263693 -0.09941013157 -0.08810839802 1.331530897e-38
0.3346477449 -0.1073661447 0.05316311494 1.331530897e-38
0.05238231272 -0.06718615443 0.00488418201 1.331530897e-38
0.1705445796 -0.09351445735 -0.03099475801 1.331530897e-38
0.02691225335 -0.07219427824 -0.178107664 1.404926846e-38
-0.1771301925 -0.09932137281 -0.1854881793 1.404926846e-38
0.1327330023 -0.09240560234 -0.1656046361 1.404926846e-38
-0.2755303383 -0.08018153161 -0.1821489781 1.404926846e-38
0.1252708733 0.004410950933 -0.1764888763 1.404926846e-38
-0.148981303 0.01765939035 -0.1876527667 1.404926846e-38
0.3311756849 -0.09453810751 -0.09213115275 1.404926846e-38
-0.4334656298 -0.04428943619 -0.1746115535 1.404926846e-38
-0.09336878359 0.00879423786 -0.1890824586 1.404926846e-38
-0.3157243133 0.05622255057 -0.1568260789 1.404926846e-38
0.1765640676 -0.08720570803 -0.1385369003 1.404926846e-38
-0.3098873198 -0.06584947556 -0.183539927 1.404926846e-38
0.0248467885 0.006082152016 -0.184137851 1.404926846e-38
-0.1963154376 0.02801640704 -0.1760546416 1.404926846e-38
0.2481725067 -0.0971057564 -0.0908870399 1.404926846e-38
-0.3940264881 -0.04655920342 -0.1829523295 1.404926846e-38
-0.05897392333 0.001741749351 -0.1804761589 1.404926846e-38
-0.2920658588 0.05041344464 -0.1600079238 1.404926846e-38
0.2124557793 -0.08889007568 -0.1180445924 1.404926846e-38
-0.334952414 -0.06023574993 -0.1856899559 1.404926846e-38
-0.01718605496 -0.0001638159156 -0.1879972219 1.404926846e-38
-0.2534498274 0.03618842363 -0.1761100739 1.404926846e-38
0.0728014037 -0.08342497051 -0.1617621034 1.404926846e-38
-0.1807150096 -0.07338196784 -0.1587430686 1.404926846e-38
0.07651736587 0.006828659214 -0.1331740022 1.404926846e-38
-0.2238711268 0.03498649225 -0.1781605035 1.404926846e-38
-0.02086116187 -0.084584333 -0.1553903073 1.404926846e-38
-0.2962962687 -0.0336410366 -0.1678727269 1.404926846e-38
-0.04130097851 0.01204388123 -0.1169689 1.404926846e-38
-0.4230018854 0.007826222107 -0.1281962842 1.404926846e-38
-0.05191452056 -0.06152303517 -0.1664455235 1.404926846e-38
-0.2069048733 -0.07011444867 -0.1081445366 1.404926846e-38
0.3396623135 -0.004682179075 -0.1338031143 1.478322936e-38
-0.2141256481 -0.03063239343 -0.1320898682 1.478322936e-38
0.3008274436 -0.08684333414 -0.1814860255 1.478322936e-38
0.1534285694 -0.07752523571 -0.1841766536 1.478322936e-38
0.2951856256 0.006922425237 -0.141934067 1.478322936e-38
0.05526392162 -0.08647798747 -0.1848360002 1.478322936e-38
0.4377327561 -0.07978682965 -0.1362897307 1.478322936e-38
0.2880017459 -0.07436474413 -0.1654712409 1.478322936e-38
0.428632915 0.0001032799482 -0.04046738893 1.478322936e-38
-0.3002768755 -0.03842960671 -0.1798952967 1.478322936e-38
0.3344411552 -0.03558192402 -0.1633809805 1.478322936e-38
0.1759467125 -0.07854436338 -0.1787976623 1.478322936e-38
0.3289206326 0.0255888626 -0.07423232496 1.478322936e-38
-0.05048561469 -0.07227313519 -0.168082431 1.478322936e-38
0.4165982008 -0.04876087606 -0.1597751826 1.478322936e-38
0.2447102219 -0.06582880765 -0.1666304171 1.478322936e-38
0.4032370448 0.01247271989 -0.05143237859 1.478322936e-38
-0.2014997751 -0.05446187407 -0.1688170433 1.478322936e-38
0.3627061248 -0.02989153191 -0.1620480716 1.478322936e-38
0.2002054006 -0.0788910538 -0.1702586263 1.478322936e-38
0.3609705269 0.01225375105 -0.06926310807 1.478322936e-38
-0.1049370021 -0.06304910779 -0.1732148826 1.478322936e-38
0.2258223593 -0.01775510982 -0.1160217375 1.478322936e-38
0.07122790068 0.01060123555 -0.1330479383 1.478322936e-38
0.2599743009 0.0173151698 -0.1111047342 1.478322936e-38
0.008695040829 -0.05148053542 -0.1442444175 1.478322936e-38
0.03013050929 -0.04857857525 -0.09774268419 1.478322936e-38
-0.04891846329 -0.007075400092 -0.1012914553 1.478322936e-38
0.3028031588 0.02882756852 -0.03205273673 1.478322936e-38
-0.2558378279 -0.01133112516 -0.1073345765 1.478322936e-38
0.05681876466 -0.02811781317 -0.03789968416 1.478322936e-38
-0.06502058357 -0.02305032313 -0.03398521617 1.478322936e-38
-0.06830446422 -0.08262867481 0.1734036505 1.551683013e-38
-0.3447344601 -0.0653540343 0.1824532747 1.551683013e-38
-0.2707402408 -0.1118637025 -0.1787579656 1.551683013e-38
-0.3978791833 -0.06763569266 -0.1804646999 1.551683013e-38
0.03263896331 -0.09305240959 0.1835255623 1.551683013e-38
-0.2722176015 0.006049373187 0.1834115833 1.551683013e-38
-0.1262672246 0.001441492583 0.1575642079 1.551683013e-38
-0.4731277227 0.007250792813 0.01423223503 1.551683013e-38
-0.08955142647 -0.09251710027 -0.1132326797 1.551683013e-38
-0.4646744132 0.0314168334 0.1178225726 1.551683013e-38
-0.2221887708 -0.09949288517 -0.1247452497 1.551683013e-38
-0.4658834636 -0.02156273462 -0.1534045786 1.551683013e-38
0.09669099003 -0.07115250081 0.04553169757 1.551683013e-38
-0.3643049598 0.04502401128 0.1635112166 1.551683013e-38
-0.1934540123 -0.06469171494 -0.00616838783 1.551683013e-38
-0.4786625206 0.01014740951 -0.02839502133 1.551683013e-38
-0.02926373668 -0.09128257632 -0.07365394384 1.551683013e-38
-0.4344118237 0.04479712993 0.1400105953 1.551683013e-38
-0.1958770305 -0.06963115931 -0.05316843465 1.551683013e-38
-0.473116219 -0.001857993891 -0.1009559706 1.551683013e-38
0.02107317187 -0.08017782122 -0.03668617457 1.551683013e-38
-0.3883577585 0.05025182664 0.1585128009 1.551683013e-38
-0.242437467 -0.01459333301 -0.04418722168 1.551683013e-38
-0.3434752822 -0.08412003517 -0.145308733 1.551683013e-38
-0.1073231921 -0.09247237444 0.07185321301 1.551683013e-38
-0.2663926482 0.04250634834 0.06860738248 1.551683013e-38
-0.151934132 0.03092201427 0.1034423336 1.551683013e-38
-0.4182495773 -0.0633469969 0.007766914088 1.551683013e-38
-0.09555686265 -0.04945631325 0.02448721603 1.551683013e-38
-0.3950000107 -0.01333910786 0.05289065093 1.551683013e-38
-0.3043665588 -0.01357658207 -0.08540359139 1.551683013e-38
-0.4139950871 -0.03701313958 -0.06521060318 1.551683013e-38
-0.2620700002 -0.05181819573 -0.1462410092 1.625043089e-38
-0.2858979702 0.0436023362 -0.1583826393 1.625043089e-38
-0.3854126632 -0.09559395909 -0.1125319898 1.625043089e-38
-0.3899232745 0.06208267063 0.06729153544 1.625043089e-38
-0.1710994244 0.003175270278 -0.1835559756 1.625043089e-38
-0.1518124193 0.1227643937 -0.1153846979 1.625043089e-38
-0.4610341787 -0.0870128274 0.007448364049 1.625043089e-38
-0.4775532484 -0.02986128256 0.1388949752 1.625043089e-38
-0.3732940257 -0.1026942879 -0.1731618494 1.625043089e-38
-0.4176754057 0.04750002176 -0.08969572186 1.625043089e-38
-0.4126453698 -0.08594460785 -0.08240260929 1.625043089e-38
-0.4387525916 0.05135805905 0.09929231554 1.625043089e-38
-0.2478601485 -0.08976587653 -0.1724930108 1.625043089e-38
-0.2685109377 0.07646022737 -0.1021558046 1.625043089e-38
-0.4588759243 -0.08171157539 -0.03635576367 1.625043089e-38
-0.4625968039 -0.01623583958 0.1017644256 1.625043089e-38
-0.3216186464 -0.1026848778 -0.1648794562 1.625043089e-38
-0.3846630752 0.04698453471 -0.0671383515 1.625043089e-38
-0.4332560599 -0.08130569756 -0.05497552454 1.625043089e-38
-0.4561851025 0.02582155354 0.07542699575 1.625043089e-38
-0.2857154012 -0.0992603898 -0.1730258465 1.625043089e-38
-0.3326979578 0.06077422202 -0.0532043986 1.625043089e-38
-0.3044850528 -0.05654040352 -0.1087008193 1.625043089e-38
-0.4305926859 0.05088406429 0.02237083018 1.625043089e-38
-0.2009842992 -0.06649042666 -0.1737744659 1.625043089e-38
-0.2070745379 0.06081743166 -0.1493230164 1.625043089e-38
-0.375893563 0.01723331958 -0.1321314275 1.625043089e-38
-0.4606496096 -0.01221762132 -0.01689667441 1.625043089e-38
-0.3381573558 -0.09858562797 -0.08382062614 1.625043089e-38
-0.449093312 0.0340654403 -0.05731002614 1.625043089e-38
-0.2231464386 -0.01841366664 -0.09901596606 1.625043089e-38
-0.3506383896 0.001186306938 -0.009307331406 1.625043089e-38
0.1589543074 -0.1152708083 -0.1207671762 1.698367293e-38
0.08331201226 0.08808016032 -0.139981389 1.698367293e-38
0.299235642 -0.1387783885 -0.1417453587 1.698367293e-38
-0.2064235657 0.0006724706618 -0.1845543981 1.698367293e-38
-0.01669354551 -0.1134519204 -0.1461255699 1.698367293e-38
0.1337616444 0.02393636294 -0.1859789193 1.698367293e-38
0.1179971397 -0.09758237749 0.1486736983 1.698367293e-38
-0.4445749819 0.02840199322 -0.1402923465 1.698367293e-38
0.3361071944 -0.06476851553 -0.1787312627 1.698367293e-38
-0.09795375168 0.130421102 -0.09254397452 1.698367293e-38
0.2908983827 -0.1076756492 -0.03492444009 1.698367293e-38
-0.2521834373 -0.01560294908 -0.1700422764 1.698367293e-38
0.1117892861 -0.05737892166 -0.1788389683 1.698367293e-38
0.01720041223 0.0962426737 -0.1389539093 1.698367293e-38
0.2231286019 -0.1089007929 0.1284101158 1.698367293e-38
-0.3737311661 0.007154102437 -0.1469714046 1.698367293e-38
0.2325004935 -0.04631604254 -0.1659450829 1.698367293e-38
-0.06811983138 0.1096582264 -0.1194368377 1.698367293e-38
0.2594291866 -0.1050291583 0.04346289113 1.698367293e-38
-0.3063028455 -0.0122607071 -0.1548263282 1.698367293e-38
0.1791118234 -0.0520696491 -0.1738683581 1.698367293e-38
-0.03359704465 0.08177825809 -0.1446636468 1.698367293e-38
0.2298506796 -0.0987387225 -0.09772546589 1.698367293e-38
-0.1786950529 -0.08004061878 -0.1221988946 1.698367293e-38
0.06534235179 -0.1009760275 -0.1284747273 1.698367293e-38
0.03741775453 -0.05246284232 -0.1587965488 1.698367293e-38
-0.03338851407 -0.06875900179 0.05793953314 1.698367293e-38
-0.08675718307 -0.07704500854 -0.1380268037 1.698367293e-38
0.1105811149 -0.06916687638 -0.05229740217 1.698367293e-38
-0.04436098784 -0.04967144132 -0.02285922691 1.698367293e-38
0.168274343 -0.08838184923 -0.006998827215 1.698367293e-38
-0.1624300927 -0.05377356336 -0.04773107544 1.698367293e-38
-0.03488404676 -0.1083209515 0.1694366634 1.771655483e-38
0.1437715292 -0.1077338904 -0.09682747722 1.771655483e-38
0.3488759398 -0.106660217 0.1163039207 1.771655483e-38
0.3080926538 -0.1347857863 -0.1805219948 1.771655483e-38
-0.1189268231 -0.1141793057 0.1680025756 1.771655483e-38
0.08658246696 -0.1058839783 -0.02229393274 1.771655483e-38
0.4329995811 -0.1001979932 -0.03699635342 1.771655483e-38
0.444524765 -0.09988652915 -0.1447232664 1.771655483e-38
0.2671615481 -0.1251146793 0.1583631933 1.771655483e-38
0.2783694565 -0.1382714212 -0.1767654717 1.771655483e-38
0.3093858063 -0.1069721133 -0.0426684618 1.771655483e-38
0.3475739956 -0.1178058833 -0.1722539961 1.771655483e-38
0.06320041418 -0.1006341875 0.1433790922 1.771655483e-38
0.1966189444 -0.1014993563 -0.1092659757 1.771655483e-38
0.3881722093 -0.09641499072 -0.03792334348 1.771655483e-38
0.4020066857 -0.1061060354 -0.1620038003 1.771655483e-38
0.1976229399 -0.09627301246 0.1474029124 1.771655483e-38
0.2568828762 -0.1191644147 -0.145353511 1.771655483e-38
0.3466271162 -0.09861858934 -0.03998399153 1.771655483e-38
0.3721009493 -0.1087455302 -0.1724780649 1.771655483e-38
0.1251169592 -0.1017049104 0.1454443485 1.771655483e-38
0.2260191292 -0.1063069776 -0.1328771412 1.771655483e-38
0.2842198312 -0.1005668491 0.03909504786 1.771655483e-38
0.2048788816 -0.05504915863 0.1145577207 1.771655483e-38
-0.07537058741 -0.07714280486 0.09347821027 1.771655483e-38
-0.09905400127 -0.07324493676 0.004602135159 1.771655483e-38
0.2367009223 -0.03402666748 0.04083172977 1.771655483e-38
0.3786430359 -0.08215998858 0.08179490268 1.771655483e-38
0.05711962283 -0.07850319147 0.0898841694 1.771655483e-38
-0.01175809838 -0.09738802165 -0.0657883808 1.771655483e-38
0.1515676677 -0.07313276082 0.0188426245 1.771655483e-38
0.1090435311 -0.0691762045 0.08373495936 1.771655483e-38
-0.3110144436 0.06800845265 -0.07349137962 1.844943813e-38
-0.3620065749 -0.05744735897 -0.1229488626 1.844943813e-38
-0.4874874353 -0.07481481135 -0.0248123128 1.844943813e-38
-0.2007540166 0.1236760393 -0.01295865048 1.844943813e-38
-0.2467236072 0.08304645866 0.0329740867 1.844943813e-38
-0.2845140696 -0.01350906305 -0.1454110295 1.844943813e-38
-0.4729999304 -0.04733673856 0.1156129092 1.844943813e-38
-0.3148897886 -0.1400425732 -0.1781265289 1.844943813e-38
-0.3674953282 0.04711028934 0.08304039389 1.844943813e-38
-0.4659114778 -0.05852219835 -0.09906432033 1.844943813e-38
-0.4789407253 -0.07775651664 0.006756724324 1.844943813e-38
-0.2311302871 -0.02175589837 -0.1298141778 1.844943813e-38
-0.3236886561 0.05058756098 -0.04892401025 1.844943813e-38
-0.3893390596 -0.05004117265 -0.1828144342 1.844943813e-38
-0.4778395295 -0.0742873773 0.0837777853 1.844943813e-38
-0.2719676197 -0.1228669137 -0.1675460637 1.844943813e-38
-0.336166501 0.03956524655 0.03255107999 1.844943813e-38
-0.467866838 -0.05216122419 -0.1508913636 1.844943813e-38
-0.4819022119 -0.0740763694 0.04688640311 1.844943813e-38
-0.2340444773 -0.05848605931 -0.1557552367 1.844943813e-38
-0.3287719488 0.04881167039 -0.003682254115 1.844943813e-38
-0.4223658442 -0.05617762357 -0.1805049628 1.844943813e-38
-0.4096466303 -0.09105582535 0.06039741263 1.844943813e-38
-0.2252185792 -0.003585323226 -0.08935169131 1.844943813e-38
-0.261570245 0.03593361005 -0.04786868393 1.844943813e-38
-0.3409732282 -0.04255124554 -0.1751974523 1.844943813e-38
-0.2921140492 -0.01569696516 0.1106089354 1.844943813e-38
-0.3341737092 -0.03318013996 -0.1010870412 1.844943813e-38
-0.3874355257 -0.02274062671 0.0130683789 1.844943813e-38
-0.4407100677 -0.07346659899 -0.07570767403 1.844943813e-38
-0.3914292157 -0.08423928171 -0.02990887687 1.844943813e-38
-0.1131674573 -0.03070810623 -0.04639063403 1.844943813e-38
-0.2929279506 -0.0130517669 0.1847338825 1.91819627e-38
0.3200035095 -0.02038175613 0.1769510657 1.91819627e-38
0.1548837721 -0.04907805845 0.1894971728 1.91819627e-38
0.3833048642 0.01617920771 0.117162399 1.91819627e-38
-0.2093082219 0.07315646857 0.1514168233 1.91819627e-38
0.2258059382 -0.05019763485 0.1270320863 1.91819627e-38
0.33055529 -0.1230942458 0.1714325249 1.91819627e-38
0.4941478968 -0.06130352244 0.01662983187 1.91819627e-38
0.08764147013 0.003603070276 0.16722624 1.91819627e-38
0.4646355212 -0.0627835393 0.1300763041 1.91819627e-38
0.191375047 -0.06875379384 0.1912523955 1.91819627e-38
0.4256792367 0.004919608589 0.09525813162 1.91819627e-38
-0.09857265651 -0.0009805854643 0.1795649827 1.91819627e-38
0.2950692773 -0.04614857957 0.09623569995 1.91819627e-38
0.2924129665 -0.1064689234 0.1603166312 1.91819627e-38
0.4782691896 -0.03310385346 0.05583522841 1.91819627e-38
0.0223832 0.03475138545 0.1600465775 1.91819627e-38
0.436586827 -0.04086382687 0.1467346549 1.91819627e-38
0.2388056219 -0.08581390977 0.1769070625 1.91819627e-38
0.4426790476 -0.0114787994 0.07813381404 1.91819627e-38
-0.05940777063 0.02006868459 0.1666994393 1.91819627e-38
0.3404012024 -0.04619837552 0.1163462326 1.91819627e-38
0.1183130518 0.05080838501 0.09606157988 1.91819627e-38
0.3321238458 0.02757951617 0.05448796973 1.91819627e-38
-0.1155071855 0.0718690753 0.1289496869 1.91819627e-38
0.03325947374 -0.04436480254 -0.03701125085 1.91819627e-38
0.2022309899 0.0630312264 0.0301321242 1.91819627e-38
0.4625833035 -0.004333811812 0.01083815843 1.91819627e-38
0.2336389869 0.03299771622 0.1112622246 1.91819627e-38
0.3014868796 -0.0395517461 -0.1125253141 1.91819627e-38
0.05116186291 0.01035188418 0.05618040264 1.91819627e-38
0.3138681352 0.003905187128 -0.02487761527 1.91819627e-38
0.09330660105 -0.1070531383 -0.08506397158 1.991448586e-38
0.2448544204 -0.09888840467 0.1403137445 1.991448586e-38
0.168382436 -0.1016283035 0.04700499773 1.991448586e-38
0.3287680447 -0.06198630854 0.1766825169 1.991448586e-38
0.02220037766 -0.1028836444 -0.1125804856 1.991448586e-38
0.2070952952 -0.05255160481 0.1295327991 1.991448586e-38
-0.1290166229 -0.09725292772 0.004974607378 1.991448586e-38
0.4619524479 -0.04922265932 0.1300904602 1.991448586e-38
0.3219200075 -0.1056501344 0.006465643179 1.991448586e-38
0.3471621275 0.002248927951 0.09878465533 1.991448586e-38
0.08221019804 -0.09663902223 0.02640032768 1.991448586e-38
0.3583506346 -0.02191766165 0.1752987504 1.991448586e-38
0.2190635204 -0.1042707041 0.03336775675 1.991448586e-38
0.2660193145 -0.0437554121 0.1304050982 1.991448586e-38
-0.0491046831 -0.09831964225 0.004530197475 1.991448586e-38
0.4295692146 -0.02233309671 0.138865754 1.991448586e-38
0.2937714458 -0.1016016752 0.01565809734 1.991448586e-38
0.3253456056 -0.004875051323 0.09580333531 1.991448586e-38
0.009079258889 -0.08973760903 0.01107385941 1.991448586e-38
0.3815374374 -0.01434276998 0.1648398191 1.991448586e-38
0.2514063716 -0.1019766852 0.02631324157 1.991448586e-38
0.2897384167 -0.02213475294 0.1185132563 1.991448586e-38
0.1137062237 -0.07961666584 0.08377156407 1.991448586e-38
0.2921628058 -0.07823447883 0.1700097471 1.991448586e-38
0.1419644207 -0.09264811128 -0.064568609 1.991448586e-38
0.1611829996 -0.05643539131 0.1400514841 1.991448586e-38
-0.2146067172 -0.09446050972 0.009361850098 1.991448586e-38
0.4478849769 -0.01993311942 0.04441242293 1.991448586e-38
0.0607447885 -0.08681230247 0.09812768549 1.991448586e-38
0.3508859575 -0.1014944911 0.03649494052 1.991448586e-38
0.2122180164 -0.07476207614 -0.04503182694 1.991448586e-38
0.3858103454 -0.06335794926 0.03757606074 1.991448586e-38
0.351862222 -0.06514807045 -0.111784637 2.06466517e-38
0.2652286589 0.01350391936 -0.1843427569 2.06466517e-38
0.4796928167 -0.0612048097 -0.06217433885 2.06466517e-38
0.006561200134 0.1138548106 -0.1363590509 2.06466517e-38
0.3758144975 -0.02210376225 -0.184001863 2.06466517e-38
0.2351710349 0.04060697556 -0.1583804637 2.06466517e-38
0.4712005854 -0.076632604 0.1032932997 2.06466517e-38
0.1866757721 0.04225209728 -0.1562721729 2.06466517e-38
0.4617371857 -0.06721583754 -0.1234163865 2.06466517e-38
0.3430627882 -0.002450725762 -0.1650050282 2.06466517e-38
0.4869794846 -0.07624915242 -0.01045622583 2.06466517e-38
0.09340791404 0.08249873668 -0.1446253657 2.06466517e-38
0.4124147594 -0.01589497365 -0.171092391 2.06466517e-38
0.2747142017 0.02950577624 -0.1570508331 2.06466517e-38
0.4811552465 -0.06341397017 0.06416037679 2.06466517e-38
0.1483801752 0.05257520452 -0.1481928825 2.06466517e-38
0.4499771595 -0.03571314737 -0.1341038495 2.06466517e-38
0.3236014545 0.01727397554 -0.1618245095 2.06466517e-38
0.4851993322 -0.07302012295 0.02509826794 2.06466517e-38
0.1167814434 0.06740588695 -0.146277234 2.06466517e-38
0.432603389 -0.02686888538 -0.1611717939 2.06466517e-38
0.2873556316 0.02386100031 -0.1603423953 2.06466517e-38
0.4716347754 -0.05436855555 -0.08328980953 2.06466517e-38
0.03783283755 0.09990673512 -0.1396706998 2.06466517e-38
0.3271178007 -0.02195270732 -0.1240322217 2.06466517e-38
0.1672919095 -0.01068851631 -0.08353229612 2.06466517e-38
0.476064682 -0.006382427178 -0.02070298046 2.06466517e-38
0.1293098181 -0.023116583 -0.09568239003 2.06466517e-38
0.4115125835 0.01443708967 -0.04657312855 2.06466517e-38
0.247878775 -0.0375600569 -0.1097711623 2.06466517e-38
0.2823429704 -0.07252379507 -0.04904815182 2.06466517e-38
0.03475765884 -0.04342106357 -0.06977138668 2.06466517e-38
-0.2638840377 0.08472585678 0.01074507646 2.137881613e-38
0.006626717746 0.132284075 0.04419683293 2.137881613e-38
-0.2291392088 -0.03798928112 0.1694099158 2.137881613e-38
0.1948304772 0.04868335277 -0.110631071 2.137881613e-38
-0.1979622245 0.1231282502 0.02711048163 2.137881613e-38
-0.08503809571 0.1354156584 0.0008408201975 2.137881613e-38
-0.424107343 -0.07182379067 0.1753355116 2.137881613e-38
-0.01777745411 0.1375286728 -0.003268196713 2.137881613e-38
-0.3549916446 0.0620540604 0.1237815544 2.137881613e-38
-0.1027928963 0.1151873097 0.1217768267 2.137881613e-38
-0.2698972523 -0.09249842167 0.1712313592 2.137881613e-38
0.1109365374 0.1013863459 -0.04259578884 2.137881613e-38
-0.2561194003 0.06240340322 0.07914123684 2.137881613e-38
-0.08104018867 0.1227567717 0.0431772992 2.137881613e-38
-0.3534643948 -0.08615141362 0.163910225 2.137881613e-38
0.03499566764 0.1195014194 0.0006210468127 2.137881613e-38
-0.308390677 0.03617397323 0.09795177728 2.137881613e-38
-0.06705915928 0.08501619101 0.1124072447 2.137881613e-38
-0.3047099411 -0.09013915807 0.17600739 2.137881613e-38
0.08350389451 0.1066758558 -0.02264876664 2.137881613e-38
-0.2849632502 0.07894597203 0.08809275925 2.137881613e-38
-0.0669901371 0.04881635308 0.07625374198 2.137881613e-38
-0.2092758715 -0.05469229445 0.1455957443 2.137881613e-38
0.1575920284 0.036011599 -0.07067890465 2.137881613e-38
-0.1666340381 0.0869095698 0.1108472869 2.137881613e-38
-0.1382307708 -0.01332246698 -0.00773861818 2.137881613e-38
-0.4520818293 -0.005180923268 0.1116268188 2.137881613e-38
-0.01385036204 0.024950644 -0.05416947976 2.137881613e-38
-0.3471170664 -0.03217344731 0.0464540869 2.137881613e-38
-0.1568433344 -0.03783322126 0.04000850022 2.137881613e-38
-0.2689444125 -0.0427316539 0.04333328828 2.137881613e-38
0.05474237725 -0.019594023 -0.02551627904 2.137881613e-38
0.02035691962 0.1358243823 0.06049221009 2.211062324e-38
-0.1292468756 0.1342878342 -0.01938193478 2.211062324e-38
0.1320134103 0.07961525023 -0.05851651728 2.211062324e-38
-0.3340043128 0.07104593515 -0.01634270512 2.211062324e-38
0.01679670066 0.1367390603 0.01681737602 2.211062324e-38
-0.05041120946 0.1432106346 0.03015673161 2.211062324e-38
0.4240604639 -0.009206571616 -0.1606801897 2.211062324e-38
-0.4564218521 0.01480331179 0.1382020563 2.211062324e-38
0.2167612612 0.04159702733 0.03452502564 2.211062324e-38
-0.1987280995 0.1224167645 0.08132815361 2.211062324e-38
0.2733416259 0.03633695841 -0.1149042249 2.211062324e-38
-0.4052438736 0.05968789756 0.0365835838 2.211062324e-38
0.1037873626 0.1029824913 0.04923456907 2.211062324e-38
-0.1326541007 0.1178207099 0.03947434947 2.211062324e-38
0.3709525764 0.01575405151 -0.1332974434 2.211062324e-38
-0.4464992285 0.03321532533 0.09655018151 2.211062324e-38
0.174094066 0.04174723849 0.05493740365 2.211062324e-38
-0.1676371396 0.08581263572 0.08923601359 2.211062324e-38
0.3185317516 0.0248875618 -0.12773256 2.211062324e-38
-0.4233012795 0.05593338981 0.05458529666 2.211062324e-38
0.1293842345 0.05388780683 0.05801109225 2.211062324e-38
-0.1581049263 0.06097980216 0.07529327273 2.211062324e-38
0.1796554178 0.03282213956 -0.08966875821 2.211062324e-38
-0.374348253 0.04337961972 -0.008737313561 2.211062324e-38
0.05633356795 0.09399793297 0.05835890397 2.211062324e-38
-0.06334376335 0.02471914887 0.1100580692 2.211062324e-38
0.2090980858 -0.0322268866 -0.1213386506 2.211062324e-38
-0.4403156936 -0.001039325842 -0.01563062146 2.211062324e-38
0.1030892506 0.0619235523 -0.03105274215 2.211062324e-38
-0.2613289952 -0.01688473299 0.02899279073 2.211062324e-38
0.2104168683 -0.03875893727 -0.03779513016 2.211062324e-38
-0.303865701 -0.004973996431 0.06390336901 2.211062324e-38
0.333283931 -0.01213963516 0.173358053 2.284242894e-38
0.4530679584 -0.03516024351 0.04301927984 2.284242894e-38
0.2263269573 0.04809223115 0.08667548746 2.284242894e-38
0.2586021125 -0.02438765392 -0.158533752 2.284242894e-38
0.4020777941 0.006916158367 0.1203837097 2.284242894e-38
0.3037979603 0.03716521338 -0.03040125035 2.284242894e-38
0.04743837938 0.09833084047 0.1311599463 2.284242894e-38
0.352106452 -0.1098399758 -0.1879020035 2.284242894e-38
0.2259952575 0.03955803812 -0.1363264024 2.284242894e-38
0.4511044323 -0.02998457849 -0.1107584313 2.284242894e-38
0.1728564203 0.05524202436 0.1133148074 2.284242894e-38
0.2995418012 -0.01156542636 -0.1789059341 2.284242894e-38
0.2304201722 0.04999826103 0.0072968686 2.284242894e-38
0.3572643995 0.02460630611 -0.07151197642 2.284242894e-38
0.09936647117 0.07812020183 0.128659755 2.284242894e-38
0.3388167322 -0.08081719279 -0.1711184382 2.284242894e-38
0.2269405276 0.04516400024 -0.06955610961 2.284242894e-38
0.4141269922 0.0066873217 -0.1054008901 2.284242894e-38
0.123136051 0.0631512329 0.1209391281 2.284242894e-38
0.3210670054 -0.03551056981 -0.1770896018 2.284242894e-38
0.2261180431 0.04538057372 -0.03340489417 2.284242894e-38
0.3779088259 0.02025714703 -0.08583658189 2.284242894e-38
0.1668027192 0.0426327996 0.065926902 2.284242894e-38
0.2174042463 0.01952955686 -0.1775396913 2.284242894e-38
0.3981089294 0.01950362697 0.03416328132 2.284242894e-38
0.3172111511 0.03331217915 -0.06189033017 2.284242894e-38
0.1033455655 0.03145430237 0.06661013514 2.284242894e-38
0.3298953474 0.03719153628 0.02811161987 2.284242894e-38
0.06450153887 0.02328334935 -0.05044116452 2.284242894e-38
0.4773409367 -0.03346231952 -0.02877406403 2.284242894e-38
0.1401551813 -0.00098234287 -0.03405886889 2.284242894e-38
0.224419713 -0.02318316139 0.05356912687 2.284242894e-38
0.3766078353 -0.04781006277 -0.1828831434 2.348204041e-38
0.2776894867 -0.1467412412 -0.1468627155 2.348204041e-38
-0.07272551209 -0.1115924641 -0.1295166463 2.348204041e-38
0.2084644288 -0.02382103354 -0.1775823087 2.348204041e-38
0.4070770741 -0.02878273092 -0.1778213829 2.348204041e-38
0.2608647346 -0.129460603 -0.1767722964 2.348204041e-38
0.2143450528 -0.1134973913 -0.1751872003 2.348204041e-38
0.336275965 -0.0228705015 -0.1742048562 2.348204041e-38
0.4841932058 -0.07750927657 -0.06403947622 2.348204041e-38
0.3811528683 -0.1149719208 -0.1327836514 2.348204041e-38
-0.004966218024 -0.1036020741 -0.111192055 2.348204041e-38
0.2545627654 -0.03310197592 -0.1721869409 2.348204041e-38
0.4483628571 -0.06074438989 -0.1576726288 2.348204041e-38
0.3175434768 -0.1432819963 -0.1498765647 2.348204041e-38
0.1076209992 -0.09926253557 -0.1241385415 2.348204041e-38
0.3103999197 -0.02250918373 -0.1443111748 2.348204041e-38
0.4705025256 -0.06126277894 -0.08527535945 2.348204041e-38
0.3620002866 -0.1167226285 -0.1296439022 2.348204041e-38
0.03864564374 -0.1046520248 -0.1237602606 2.348204041e-38
0.2757299244 -0.03098284267 -0.1610347629 2.348204041e-38
0.4584762454 -0.05623368546 -0.1255336106 2.348204041e-38
0.3357070684 -0.120810248 -0.1437187642 2.348204041e-38
-0.1313877702 -0.103540875 -0.08690482378 2.348204041e-38
0.07625113428 -0.02508496866 0.01395266131 2.348204041e-38
0.4236661792 -0.001771999523 -0.1492811292 2.348204041e-38
0.1604224592 -0.09383189678 -0.0268957112 2.348204041e-38
-0.04114852846 -0.02836607769 -0.02399298362 2.348204041e-38
0.04975583404 -0.03744085133 0.07869236916 2.348204041e-38
0.380224824 -0.0423713997 -0.09644970298 2.348204041e-38
0.2444056571 -0.08745054901 -0.008708659559 2.348204041e-38
-0.1270916164 -0.07223282009 -0.008462703787 2.348204041e-38
0.0783451125 -0.05844384804 -0.08213935792 2.348204041e-38
-0.3424770534 -0.05579876155 -0.1641013622 2.347880341e-38
-0.200627774 -0.1169663146 -0.1837246418 2.347880341e-38
-0.4631832838 -0.09421502054 -0.1022940427 2.347880341e-38
0.1238991842 -0.110052824 -0.1779582947 2.347880341e-38
-0.3151251674 -0.09174519032 -0.1730327904 2.347880341e-38
-0.1686101407 -0.108769618 -0.178393811 2.347880341e-38
-0.4663167 0.01195844635 0.06866397709 2.347880341e-38
-0.127634719 -0.1097688079 -0.1764957905 2.347880341e-38
-0.3577767015 0.06148106977 -0.03010636941 2.347880341e-38
-0.3243575096 -0.1380401552 -0.1867094636 2.347880341e-38
-0.4831630886 -0.05523043871 -0.07098325342 2.347880341e-38
0.01314230543 -0.09880954027 -0.1778237671 2.347880341e-38
-0.3359135985 -0.0129921874 -0.1292805821 2.347880341e-38
-0.2411238253 -0.1314679235 -0.1776657552 2.347880341e-38
-0.4737842083 0.002526903758 0.02042800561 2.347880341e-38
-0.06851878017 -0.09795308113 -0.1725099981 2.347880341e-38
-0.3470066786 0.04132556543 -0.06748221815 2.347880341e-38
-0.2960024476 -0.1312828064 -0.1706336439 2.347880341e-38
-0.480561614 -0.01635530777 -0.03483414277 2.347880341e-38
-0.02942330204 -0.09782176465 -0.1770938337 2.347880341e-38
-0.337512821 0.0164311789 -0.1111724079 2.347880341e-38
-0.2654787004 -0.1368307918 -0.1811479181 2.347880341e-38
-0.4493483901 -0.08273753524 -0.1582333297 2.347880341e-38
0.06041794643 -0.08067084849 -0.01223503053 2.347880341e-38
-0.3003905714 -0.04652719945 -0.1080696955 2.347880341e-38
-0.2329285741 -0.1017006338 -0.08460025489 2.347880341e-38
-0.4748361111 0.006024183705 -0.1327318698 2.347880341e-38
-0.1177291647 -0.09412720054 0.02900811657 2.347880341e-38
-0.3718725145 -0.08173685521 -0.009082276374 2.347880341e-38
-0.3242120743 -0.09825924784 -0.0013193778 2.347880341e-38
-0.400807023 -0.05504688621 0.02842855081 2.347880341e-38
0.05166521668 -0.06657836586 0.03239965066 2.347880341e-38
0.2431704849 -0.07254080474 -0.1398049742 2.347520768e-38
-0.4690527618 -0.01554303616 -0.1221683621 2.347520768e-38
-0.08586295694 -0.1092053801 -0.1796556711 2.347520768e-38
-0.265925169 -0.02812385559 -0.1859480441 2.347520768e-38
0.348780781 -0.04575849324 -0.1757568866 2.347520768e-38
-0.4367974102 -0.004569169134 -0.1632576138 2.347520768e-38
-0.2594319582 -0.1018003225 -0.1736988872 2.347520768e-38
-0.3963679075 -0.01339240838 -0.1808620542 2.347520768e-38
-0.0457114242 -0.09808248281 -0.180193916 2.347520768e-38
-0.4658786058 0.02870200947 0.02137634903 2.347520768e-38
-0.1632820964 -0.1091523394 -0.1742561758 2.347520768e-38
-0.3182713985 -0.01221337728 -0.1871549189 2.347520768e-38
0.1127676815 -0.09205948561 -0.1785343736 2.347520768e-38
-0.4657990336 0.02155248262 -0.1043525115 2.347520768e-38
-0.2243432701 -0.1060260087 -0.1754447371 2.347520768e-38
-0.3641844392 -0.01519237552 -0.1749460548 2.347520768e-38
0.0005700736656 -0.0867819339 -0.1715481728 2.347520768e-38
-0.469604522 0.02749198116 -0.02496306412 2.347520768e-38
-0.1948734969 -0.1024136841 -0.1784534901 2.347520768e-38
-0.3414393961 -0.00766463764 -0.1842821687 2.347520768e-38
0.04506751895 -0.08919979632 -0.182309106 2.347520768e-38
-0.4668827951 0.0232012663 -0.08643559366 2.347520768e-38
-0.1319604814 -0.09394590557 -0.1725264639 2.347520768e-38
-0.2904667854 -0.03689246252 -0.1724575609 2.347520768e-38
0.1611551791 -0.0784124434 -0.1508310139 2.347520768e-38
-0.4617476761 -0.02190102637 -0.1524033993 2.347520768e-38
-0.1825364828 -0.0607878305 -0.096313335 2.347520768e-38
-0.4115028381 -0.01248883363 -0.1699453294 2.347520768e-38
-0.08826716244 -0.06673479825 -0.08291949332 2.347520768e-38
-0.4830510914 -0.03942549229 -0.03956507519 2.347520768e-38
-0.01430330519 -0.05295497179 -0.08103345335 2.347520768e-38
-0.2154060453 -0.01810753904 -0.04346206039 2.347520768e-38
0.2852028906 -0.04256567359 0.1185318828 2.347161195e-38
0.4617027938 -0.0378235206 -0.09268498421 2.347161195e-38
0.3127467334 0.02881846018 0.09197596461 2.347161195e-38
0.1630821526 0.03614848852 0.04709942639 2.347161195e-38
0.2252672762 -0.076729469 0.1879872084 2.347161195e-38
0.4331142902 -0.05584523454 -0.1649959236 2.347161195e-38
0.4356397986 0.006787799299 0.04469138756 2.347161195e-38
0.3707546592 -0.04562272504 -0.1396523863 2.347161195e-38
0.4410701692 -0.050635878 0.15799281 2.347161195e-38
0.4803440273 -0.04918177426 0.08319246769 2.347161195e-38
0.3599394858 0.02922478691 0.09861620516 2.347161195e-38
0.2577137947 0.03803655878 -0.05691128969 2.347161195e-38
0.3074344993 -0.03273248672 0.1595565975 2.347161195e-38
0.4871492088 -0.04702305049 -0.04995176569 2.347161195e-38
0.4335438907 0.01042590477 0.09080647677 2.347161195e-38
0.3306297362 -0.03162094578 -0.1186047792 2.347161195e-38
0.3852559626 -0.05070000514 0.1575964838 2.347161195e-38
0.4872568846 -0.04949310422 0.04338173568 2.347161195e-38
0.39053002 0.02114512771 0.09193465859 2.347161195e-38
0.2921063602 0.02472341619 -0.07734677941 2.347161195e-38
0.3426885307 -0.04132591933 0.1605352014 2.347161195e-38
0.4848357141 -0.04662500694 -0.01236264408 2.347161195e-38
0.2940291762 0.04008713365 0.019461032 2.347161195e-38
0.1536334157 0.03997646272 -0.0569135882 2.347161195e-38
0.2455096245 -0.0180498343 0.1444337517 2.347161195e-38
0.1484972537 0.001150339376 0.09239506721 2.347161195e-38
0.4198867679 0.03006031364 -0.001347378478 2.347161195e-38
0.2405034602 0.04475931078 -0.1243649498 2.347161195e-38
0.3636143506 0.03873834014 -0.01962734573 2.347161195e-38
0.1641613543 -0.03397300467 0.1268242002 2.347161195e-38
0.3570871055 0.01514512673 0.04482892901 2.347161195e-38
0.04942338914 -0.03070832603 0.03669089079 2.347161195e-38
-0.3660960793 -0.1030001417 0.1235145852 2.346801622e-38
-0.2243858129 0.1183464751 -0.06119369715 2.346801622e-38
-0.4925205708 -0.04590495676 0.06144613773 2.346801622e-38
-0.05472147465 0.1342116445 0.06643112004 2.346801622e-38
-0.4614456296 -0.08670662344 0.08755858988 2.346801622e-38
-0.2565043271 0.09471928328 -0.06573583931 2.346801622e-38
-0.4800579548 -0.04822703078 -0.1214009523 2.346801622e-38
0.1482364535 0.07275362313 0.05246444419 2.346801622e-38
-0.2457052618 -0.1308981031 0.1563525498 2.346801622e-38
-0.0875570029 0.1259812713 0.03876344115 2.346801622e-38
-0.4893329442 -0.04549512267 0.007113828324 2.346801622e-38
-0.01414132491 0.1226423532 0.07610414177 2.346801622e-38
-0.3982318044 -0.08751633018 0.1118715703 2.346801622e-38
-0.211311087 0.06759350002 -0.01032883488 2.346801622e-38
-0.4840382338 -0.04963532835 -0.07838481665 2.346801622e-38
0.1032268256 0.09146407992 0.05376890302 2.346801622e-38
-0.2963347733 -0.1183085442 0.1426708251 2.346801622e-38
-0.1089911163 0.106913425 0.005761395674 2.346801622e-38
-0.4869409502 -0.0506885536 -0.0411478132 2.346801622e-38
0.03301421553 0.1083141342 0.06962676346 2.346801622e-38
-0.3268191516 -0.1100757867 0.1301269978 2.346801622e-38
-0.196428597 0.06912238896 0.00706522353 2.346801622e-38
-0.479886651 -0.02490966208 0.02222343348 2.346801622e-38
-0.1812261045 -0.048590675 0.1300252676 2.346801622e-38
-0.4617790282 -0.07537061721 0.1202634349 2.346801622e-38
-0.3051551282 0.01803359017 0.01532661077 2.346801622e-38
-0.479662329 -0.004738384858 -0.03469257429 2.346801622e-38
-0.01628362946 -0.05484319106 0.06136935204 2.346801622e-38
-0.2536776066 -0.0605337657 0.0840048641 2.346801622e-38
-0.2077845633 0.00558929285 0.06776418537 2.346801622e-38
-0.469979316 -0.03492446989 0.06811277568 2.346801622e-38
-0.0931012854 -0.01401256677 0.027837459 2.346801622e-38
0.1709753573 -0.03021369874 -0.182129845 2.346406175e-38
0.01871513762 0.05371685699 -0.1696235389 2.346406175e-38
0.2664951682 -0.004306779709 -0.1836781353 2.346406175e-38
-0.166071564 0.05836996436 -0.1635893136 2.346406175e-38
0.2209802717 0.004820620641 -0.1821373254 2.346406175e-38
0.05057126656 0.05099946633 -0.1711451113 2.346406175e-38
0.4196809232 -0.06036417559 -0.1673225164 2.346406175e-38
-0.3796065152 0.05479026586 -0.1528894156 2.346406175e-38
0.08398533612 0.05003779754 -0.1568192691 2.346406175e-38
-0.1389879584 0.02326298133 -0.1812120676 2.346406175e-38
0.3235396147 -0.02043356933 -0.1818397939 2.346406175e-38
-0.2265000194 0.05636512488 -0.1623191386 2.346406175e-38
0.1544344127 0.04153588787 -0.1618343294 2.346406175e-38
-0.0553618297 0.02782245725 -0.1739458144 2.346406175e-38
0.3827743232 -0.03859276697 -0.1731962115 2.346406175e-38
-0.3309524655 0.05082368851 -0.1499086171 2.346406175e-38
0.1091884822 0.03862197325 -0.1536408812 2.346406175e-38
-0.1111103147 0.02687957883 -0.1757753342 2.346406175e-38
0.3461606205 -0.02771322988 -0.1746561676 2.346406175e-38
-0.2636979222 0.05455311015 -0.1587394327 2.346406175e-38
0.1286221594 0.0339422971 -0.1528455615 2.346406175e-38
-0.08189671487 0.01990174502 -0.1781570464 2.346406175e-38
0.2357315123 -0.02973948233 -0.1732362211 2.346406175e-38
-0.1739591211 0.04950953275 -0.160001412 2.346406175e-38
0.1793870926 0.03629989922 -0.1572582871 2.346406175e-38
-0.01967371255 0.0199869629 -0.1633851826 2.346406175e-38
0.2865836024 -0.05180492625 -0.1254452914 2.346406175e-38
-0.2734950483 -0.05789476261 -0.1297045797 2.346406175e-38
0.02617056854 -0.0277592428 -0.1470796317 2.346406175e-38
-0.2143424153 -0.0347545594 -0.1750144511 2.346406175e-38
0.0687135756 -0.02157780901 -0.1371984333 2.346406175e-38
-0.05049506947 -0.03853268549 -0.08711829782 2.346406175e-38
-0.1525238603 -0.08972942829 0.1788803637 2.346010729e-38
-0.1525700539 0.1268610656 0.08465320617 2.346010729e-38
0.1207282916 0.06054777279 -0.1427837461 2.346010729e-38
-0.1986135244 0.1087191179 -0.1341298074 2.346010729e-38
-0.2834725976 -0.03855579719 0.1395681649 2.346010729e-38
-0.01942654513 0.1301116794 0.1244182587 2.346010729e-38
0.3056010306 0.03331642225 0.0422552824 2.346010729e-38
-0.01304694917 0.1306396574 -0.09589760751 2.346010729e-38
0.2680960298 -0.0718145445 0.1814469248 2.346010729e-38
-0.02309971675 0.1289609522 -0.04324029386 2.346010729e-38
0.1566747725 0.062012095 -0.0538197346 2.346010729e-38
-0.1248549223 0.114186503 -0.1296173036 2.346010729e-38
-0.009617510252 -0.07479017228 0.1646788716 2.346010729e-38
-0.02147061005 0.1133205369 0.06882674247 2.346010729e-38
0.25613451 0.03814462572 0.001324962941 2.346010729e-38
-0.02119521424 0.1019675881 -0.1113339663 2.346010729e-38
0.1295928657 -0.06930178404 0.1615104079 2.346010729e-38
-0.01792223006 0.1003916562 -0.01775357686 2.346010729e-38
0.1883600056 0.04973830283 -0.02799858525 2.346010729e-38
-0.1011937186 0.07317692041 -0.1310086101 2.346010729e-38
-0.0004386265937 -0.07946424931 0.1700610369 2.346010729e-38
-0.03409480676 0.03350342438 0.01509928703 2.346010729e-38
0.1456710547 0.03201647848 -0.1249435768 2.346010729e-38
-0.2608545125 0.04139916226 -0.1485529393 2.346010729e-38
-0.2187693268 -0.06657803059 0.1600303352 2.346010729e-38
-0.02498218976 -0.06454385817 0.1055368558 2.346010729e-38
0.1648929119 0.06955910474 0.1131145731 2.346010729e-38
-0.1957499385 -0.04354465008 -0.03440625593 2.346010729e-38
0.2090175897 -0.03973773122 0.1117037833 2.346010729e-38
-0.1071845815 0.01102636755 -0.04904193804 2.346010729e-38
0.1048191115 0.01960227638 0.02979560755 2.346010729e-38
-0.2508518696 -0.01732295379 -0.04271751642 2.346010729e-38
0.4464916885 -0.1028487533 0.1265719384 2.345615283e-38
0.4654613137 -0.1061410308 -0.005214137491 2.345615283e-38
0.06703374535 -0.09499355406 0.1143384576 2.345615283e-38
0.02781871147 0.126258269 0.09617529809 2.345615283e-38
0.450707376 -0.1046110243 0.06199322268 2.345615283e-38
0.3064565957 0.03088404052 0.1094752103 2.345615283e-38
-0.269643724 -0.08452767134 0.1494603604 2.345615283e-38
0.1109481901 0.1017975062 -0.0892829448 2.345615283e-38
0.07790041715 -0.09030977637 0.166463837 2.345615283e-38
0.4282176793 -0.003243479645 -0.05685702711 2.345615283e-38
0.001978305401 -0.07838875055 0.1643537581 2.345615283e-38
0.05087884143 0.1239359081 0.04831484333 2.345615283e-38
0.3162243962 -0.1156514585 0.1238341555 2.345615283e-38
0.2817570865 0.03107761778 0.06136898324 2.345615283e-38
-0.1431375742 -0.07415820658 0.1492930502 2.345615283e-38
0.0857758224 0.1006003469 -0.03931891173 2.345615283e-38
0.171460256 -0.09266930819 0.1439136565 2.345615283e-38
0.3815104365 0.01240191702 -0.01479434315 2.345615283e-38
-0.07636439055 -0.07491540909 0.1655528694 2.345615283e-38
0.06431269646 0.1092923135 0.0104384264 2.345615283e-38
0.2299831212 -0.1038889736 0.1390974373 2.345615283e-38
0.3216976225 0.01660198532 0.03918063268 2.345615283e-38
-0.06121074036 -0.0629138425 0.08849442005 2.345615283e-38
0.1608914882 0.05555105209 0.03546931967 2.345615283e-38
0.3232857287 -0.08761571348 0.0446668081 2.345615283e-38
0.2008803934 0.04138121381 0.1067025289 2.345615283e-38
-0.2151419371 -0.04941591248 0.08495604992 2.345615283e-38
0.2478523403 0.05154844001 -0.01784296893 2.345615283e-38
-0.07906953245 -0.002072107745 0.06586070359 2.345615283e-38
0.2479952723 -0.007072338369 -0.1018624902 2.345615283e-38
-0.06033947319 -0.0457419157 0.03052984551 2.345615283e-38
0.1458943188 -0.03484032676 0.03416844085 2.345615283e-38
-0.03414187953 0.1171413958 -0.1093426272 2.345219836e-38
0.1947957575 0.03966668248 -0.08548003435 2.345219836e-38
-0.1228516102 0.1320293397 -0.09688255191 2.345219836e-38
0.3627377152 0.01723577455 -0.1020561606 2.345219836e-38
-0.03764941543 0.1385329813 -0.06895783544 2.345219836e-38
0.1180781126 0.08265291154 -0.1009620279 2.345219836e-38
-0.3940957785 0.06781761348 -0.0914330557 2.345219836e-38
0.4634357691 -0.05804437026 -0.04318511486 2.345219836e-38
0.1173349172 0.08320587128 -0.05232072994 2.345219836e-38
0.2745176554 0.02282408997 -0.0872849077 2.345219836e-38
-0.1909255087 0.09672681242 -0.08969659358 2.345219836e-38
0.3907341361 0.01036796812 -0.08715976775 2.345219836e-38
0.03246543556 0.1202948466 -0.08801782131 2.345219836e-38
0.1754334718 0.04084390029 -0.101783447 2.345219836e-38
-0.3329135478 0.0503272675 -0.1018056646 2.345219836e-38
0.4472819865 -0.01676807925 -0.05622623116 2.345219836e-38
0.0848320201 0.09338690341 -0.07897277921 2.345219836e-38
0.2453805059 0.02758778818 -0.08912538737 2.345219836e-38
-0.2830841839 0.06171039492 -0.09774964303 2.345219836e-38
0.4151877761 0.0003193318844 -0.07012301683 2.345219836e-38
0.05752822757 0.1039054841 -0.09013745189 2.345219836e-38
0.2059819251 0.03378149867 -0.09663947672 2.345219836e-38
-0.1372068226 0.06719963253 -0.1341467947 2.345219836e-38
0.3171308935 0.02958747931 -0.08430957049 2.345219836e-38
-0.008620805107 0.1077040881 -0.06630988419 2.345219836e-38
0.1506986022 0.05753209069 -0.07509764284 2.345219836e-38
-0.2128894329 0.05114811286 -0.0329188332 2.345219836e-38
0.377879858 0.03571639955 -0.007883400656 2.345219836e-38
