# .PCD v0.7 - Point Cloud Data file format
VERSION 0.7
FIELDS x y z rgb
SIZE 4 4 4 4
TYPE F F F F
COUNT 1 1 1 1
WIDTH 827
HEIGHT 1
VIEWPOINT 0 0 0 1 0 0 0
POINTS 827
DATA ascii
0.002079372061 -0.0888723731 -0.2265363634 3.015101038e-39
-0.1003478393 -0.1307525039 -0.3719871342 3.015101038e-39
0.1031213179 -0.04951394349 -0.1648543477 3.015101038e-39
-0.01430299971 -0.07077983767 -0.4666577578 3.015101038e-39
0.08622359484 -0.1097354516 -0.115294598 3.015101038e-39
0.1088091135 -0.1136051193 -0.08815921098 3.015101038e-39
-0.09065262973 -0.09865018725 -0.3094038367 3.015101038e-39
-0.09244517982 -0.1569581181 -0.463314414 3.015101038e-39
0.03565756232 -0.1587687731 -0.202162236 3.015101038e-39
-0.08043022454 -0.1551402509 -0.3694036305 3.015101038e-39
-0.004432179965 -0.1241514683 -0.1003395692 3.015101038e-39
0.01830129884 -0.1231172755 -0.4218640327 3.015101038e-39
0.07004334033 -0.137798816 -0.1455280632 3.015101038e-39
-0.0002281889319 -0.1129508764 -0.01501530781 3.015101038e-39
-0.09366924316 -0.1062848419 -0.2255547941 3.015101038e-39
-0.0688418299 -0.1263008565 -0.4191918671 3.015101038e-39
0.04426330701 -0.1285558641 -0.2159728855 3.015101038e-39
-0.07027532905 -0.1478450149 -0.1881843507 3.015101038e-39
-0.01987556927 -0.1273214668 -0.0671184808 3.015101038e-39
0.03761303797 -0.05715506896 -0.4036029279 3.015101038e-39
0.08597813547 -0.1079373807 -0.219124496 3.015101038e-39
0.01805281453 -0.06419831514 -0.03619777039 3.015101038e-39
0.03976364061 -0.09268540144 -0.0287071541 3.015101038e-39
0.07338802516 -0.05593153089 -0.405811578 3.015101038e-39
0.0710414052 -0.05127755925 -0.3142301142 3.015101038e-39
0.03639524058 0.002348344075 -0.2339823693 3.015101038e-39
0.09631619602 -0.08425854146 -0.0776636079 3.015101038e-39
-0.03768260777 -0.07894055545 -0.354571104 3.015101038e-39
-0.1161822602 -0.06856298447 -0.3230944574 3.015101038e-39
-0.1369595975 -0.04657799751 -0.4148816764 3.015101038e-39
-0.025243029 -0.05092094466 -0.2360108048 3.015101038e-39
-0.08970471472 -0.09737677872 -0.2955262661 3.015101038e-39
0.08111018687 -0.122764051 0.4845268428 3.75229193e-39
0.1211062744 0.07401640713 0.2864218056 3.75229193e-39
0.0624361746 0.0636292547 0.4970244765 3.75229193e-39
0.1213170141 -0.1088852584 0.471860081 3.75229193e-39
-0.03867067769 -0.0562774688 0.4936761856 3.75229193e-39
0.1285664737 0.1548048556 0.4584245384 3.75229193e-39
-0.08733931184 -0.05617639422 0.4969810843 3.75229193e-39
0.08868030459 -0.002461529104 0.3451750278 3.75229193e-39
0.1001452729 -0.09619644284 0.496927321 3.75229193e-39
0.07683631778 0.06871881336 0.1964339763 3.75229193e-39
-0.02950398996 0.02840930037 0.4918699265 3.75229193e-39
0.05086503923 -0.0689201951 0.2920188606 3.75229193e-39
0.01658362895 -0.1172984093 0.4934881926 3.75229193e-39
0.07768142223 0.09713882953 0.3326110542 3.75229193e-39
-0.08601909876 0.07583425194 0.4950624108 3.75229193e-39
0.1225089207 -0.03745855391 0.2731045187 3.75229193e-39
0.05807385594 -0.07758517563 0.487893194 3.75229193e-39
0.09964200109 0.06687987596 0.2490783781 3.75229193e-39
0.04161260277 0.09978496283 0.4927858114 3.75229193e-39
0.1004755571 -0.08112915605 0.413209945 3.75229193e-39
-0.09054813534 -0.1011462584 0.4877233207 3.75229193e-39
0.1038711965 0.06604795903 0.3597527444 3.75229193e-39
0.0009634640883 -0.008017394692 0.4911409616 3.75229193e-39
0.0932739228 -0.01089306269 0.4864670932 3.75229193e-39
-0.07312823832 -0.03779513389 0.494686842 3.75229193e-39
0.1082675382 0.01740642078 0.3651174903 3.75229193e-39
-0.05298824981 -0.04541998729 0.4902925193 3.75229193e-39
0.1063684747 0.01908335462 0.4873161018 3.75229193e-39
-0.02526791394 -0.03227831423 0.4948000014 3.75229193e-39
0.1327723563 0.005437938962 0.4505900741 3.75229193e-39
0.03732663766 -0.02299356088 0.4892048538 3.75229193e-39
0.06334529072 0.005031226669 0.4066172242 3.75229193e-39
0.07116612047 0.1374575496 -0.02883495204 4.48912409e-39
0.1020049602 0.1253765076 0.3939907253 4.48912409e-39
0.09929868579 0.1174033284 -0.2308782935 4.48912409e-39
0.08548495173 -0.06807413697 0.03841784596 4.48912409e-39
0.07216954976 0.1574089825 -0.1759090573 4.48912409e-39
0.1087458208 0.1280831993 0.1419323534 4.48912409e-39
0.06343735009 0.08176957071 -0.4356639981 4.48912409e-39
0.08822342753 -0.1001961827 0.3387255073 4.48912409e-39
-0.0009082441684 0.1448279917 -0.03705486655 4.48912409e-39
0.01748970523 0.1619216353 0.4035725594 4.48912409e-39
-0.003785498906 0.01583038643 -0.2922392786 4.48912409e-39
0.07888723165 -0.08878625184 0.03011506423 4.48912409e-39
0.04961127788 0.1401982307 -0.1057589203 4.48912409e-39
0.07209897786 0.1307127327 0.2275064588 4.48912409e-39
-0.0148175573 0.03617789596 -0.3176554143 4.48912409e-39
0.1153810918 -0.1226760969 0.2015679628 4.48912409e-39
-0.01590840332 0.110668011 -0.05205324292 4.48912409e-39
0.06655377895 0.1152053177 0.2878854573 4.48912409e-39
0.04070269316 0.01642889902 -0.2774215341 4.48912409e-39
0.1044409201 -0.09712761641 -0.05699967965 4.48912409e-39
-0.06141640618 0.1250872016 -0.2133671641 4.48912409e-39
0.04908007383 0.08562795818 0.1318674386 4.48912409e-39
0.04908552393 0.01420876849 -0.2271995544 4.48912409e-39
0.02842404693 -0.089422822 -0.05108521879 4.48912409e-39
-0.07200152427 0.01484820619 -0.1560834497 4.48912409e-39
0.1014985368 0.02140349336 0.2734542787 4.48912409e-39
-0.03833597153 -0.005013826303 -0.2300571352 4.48912409e-39
-0.01920876838 -0.06932611018 0.03546237573 4.48912409e-39
-0.09640880674 -0.07868295908 -0.07652519643 4.48912409e-39
0.06829989702 -0.04944348335 0.2233210504 4.48912409e-39
-0.1199656725 0.001582531841 -0.05305915698 4.48912409e-39
-0.085607104 0.09526579082 0.09546624869 4.48912409e-39
0.04915681854 0.1310270876 -0.4895035923 5.225597518e-39
0.1139747426 -0.1422359645 -0.4672331512 5.225597518e-39
0.06567213684 0.0296508316 -0.4901895225 5.225597518e-39
-0.1043699756 -0.1833789796 -0.4607031345 5.225597518e-39
-0.1285136044 0.1167683452 -0.4907613099 5.225597518e-39
0.03211884201 -0.1270255148 -0.474499315 5.225597518e-39
0.07032753527 -0.07064459473 -0.4848164618 5.225597518e-39
-0.1163236946 0.006530996878 -0.4723051488 5.225597518e-39
0.09577358514 0.1219212338 -0.4862342477 5.225597518e-39
0.1220402643 -0.1518712193 -0.4206211865 5.225597518e-39
0.03994239122 -0.01432332769 -0.4821877182 5.225597518e-39
-0.07772597671 -0.08738519251 -0.4031175673 5.225597518e-39
-0.02274255082 0.1325948983 -0.4917693436 5.225597518e-39
0.05984319374 -0.1204013601 -0.4372529685 5.225597518e-39
0.09026857466 -0.04827840999 -0.4826392829 5.225597518e-39
-0.1052020118 -0.01152739301 -0.3990208209 5.225597518e-39
0.06441467255 0.07038702071 -0.4895545244 5.225597518e-39
0.09579236805 -0.108845979 -0.2899622321 5.225597518e-39
0.08786531538 0.03015607968 -0.4856752753 5.225597518e-39
-0.07605142891 -0.1016291752 -0.388233453 5.225597518e-39
-0.06635524333 0.06429303437 -0.4904563725 5.225597518e-39
0.02879965864 -0.120511286 -0.4115619659 5.225597518e-39
0.07327904552 -0.0100378301 -0.4868215919 5.225597518e-39
-0.01721647196 -0.06905007362 -0.3876343966 5.225597518e-39
-0.03404961899 0.001864371472 -0.486721158 5.225597518e-39
-0.02020249516 -0.1107352078 -0.3947045803 5.225597518e-39
-0.09613090754 -0.03456946835 -0.4807142913 5.225597518e-39
-0.001514076022 -0.03039205447 -0.4172700047 5.225597518e-39
0.06481076777 -0.07005433738 -0.483899802 5.225597518e-39
-0.06589733064 -0.05919388682 -0.4675433636 5.225597518e-39
-0.0207222458 -0.0283475183 -0.4812325537 5.225597518e-39
0.1098655984 -0.06846634299 -0.3370361626 5.225597518e-39
0.105685547 -0.1290898025 0.1110966429 5.962428276e-39
0.02262723818 0.1340949237 -0.4145607352 5.962428276e-39
0.116846174 0.1302418113 -0.01167486422 5.962428276e-39
0.06139807776 0.135338366 0.1945085078 5.962428276e-39
-0.04491201043 -0.1037294641 -0.04114362597 5.962428276e-39
-0.03108637966 0.1507963836 -0.2601396441 5.962428276e-39
0.0641181469 0.1195019633 -0.2633714378 5.962428276e-39
0.02605273947 0.1476589441 -0.07926035672 5.962428276e-39
0.07931878418 -0.1297111511 0.1224249825 5.962428276e-39
0.08345463127 0.1645297557 -0.3852091432 5.962428276e-39
0.06099765375 0.002847485011 -0.136939168 5.962428276e-39
0.01501768455 0.1406309009 -0.005891750567 5.962428276e-39
-0.001983029069 -0.1419087201 0.02210210823 5.962428276e-39
-0.01989306323 0.1397093534 -0.2740370631 5.962428276e-39
0.09282431006 -0.0008330864948 -0.1850571036 5.962428276e-39
-0.02292377502 0.1463454068 -0.09248280525 5.962428276e-39
0.07085257769 -0.1111080572 0.1199158654 5.962428276e-39
0.005092144478 0.07283080369 -0.2670763731 5.962428276e-39
0.07185057551 -0.001207552268 -0.1752892435 5.962428276e-39
-0.02502776869 0.04823732004 -0.05846507475 5.962428276e-39
-0.09985145926 -0.1377548128 0.04372202978 5.962428276e-39
0.002307708841 0.07574488968 -0.1766847372 5.962428276e-39
0.08731637895 -0.01691181585 -0.2446489483 5.962428276e-39
-0.07995197922 0.01494297944 -0.2165776193 5.962428276e-39
-0.03238300979 -0.01011701394 0.1425334662 5.962428276e-39
0.05766806751 0.02375878952 -0.04589592665 5.962428276e-39
0.02990685217 -0.06861250848 -0.1709421426 5.962428276e-39
-0.1110093296 -0.002812020481 -0.3524672687 5.962428276e-39
0.0949844867 -0.0579248108 0.07103092968 5.962428276e-39
-0.05436291918 -0.05357531086 -0.2022660822 5.962428276e-39
0.09422729909 -0.0325653106 0.02667549625 5.962428276e-39
0.05820479244 -0.03963218257 -0.05963666737 5.962428276e-39
-0.006573195104 -0.05057904124 0.486656934 6.698542971e-39
0.1312144548 -0.05393684283 0.4819797277 6.698542971e-39
0.04066094384 0.05609374121 0.4931490719 6.698542971e-39
0.0875140503 -0.09655678272 0.4870569408 6.698542971e-39
0.09085984528 0.07561288029 0.4823977649 6.698542971e-39
0.1250769347 0.02608936466 0.4709917903 6.698542971e-39
-0.06840576977 0.1336859763 0.4808312356 6.698542971e-39
0.09616343677 -0.1768588871 0.4712171555 6.698542971e-39
0.01405420713 -0.06284458935 0.4688223898 6.698542971e-39
0.1112755686 -0.1023870856 0.4688272774 6.698542971e-39
0.007342162076 0.05868069082 0.4799262583 6.698542971e-39
0.05916775391 -0.1602047235 0.4414302409 6.698542971e-39
0.0911115557 0.02680989727 0.4788582027 6.698542971e-39
0.08762993664 -0.05929427221 0.4507454336 6.698542971e-39
-0.01164254081 0.1038253456 0.4467241168 6.698542971e-39
0.07872899622 -0.165752545 0.3880838156 6.698542971e-39
0.08136478812 -0.01865149848 0.4778341949 6.698542971e-39
0.101163663 -0.08747898042 0.3923649192 6.698542971e-39
-0.02841278352 0.003291341709 0.3915739655 6.698542971e-39
0.06707920134 -0.1252108216 0.434342593 6.698542971e-39
0.09310854971 0.06019945815 0.4739628434 6.698542971e-39
0.1078014895 -0.008250302635 0.4149896204 6.698542971e-39
-0.0838733241 0.01058965083 0.3872695267 6.698542971e-39
0.03544659913 -0.1139918864 0.4700914621 6.698542971e-39
0.05269233882 0.03308593109 0.4834187925 6.698542971e-39
0.1292673349 -0.0395710133 0.431940347 6.698542971e-39
-0.08104711771 -0.02029451728 0.4427063465 6.698542971e-39
0.0004220753617 -0.08104912192 0.4888056815 6.698542971e-39
-0.07743477821 -0.0946617201 0.4760282934 6.698542971e-39
0.07517176121 -0.1154908314 0.4612183273 6.698542971e-39
0.02133617736 -0.04793959111 0.4551251531 6.698542971e-39
0.05853578821 -0.05480838567 0.3962130249 6.698542971e-39
0.08418606222 -0.07760105282 0.2121011764 7.434656265e-39
0.1045376733 0.1277975142 -0.2252377421 7.434656265e-39
0.1196885407 0.1222952232 -0.467782259 7.434656265e-39
0.08506270498 0.1345061213 0.1875116974 7.434656265e-39
0.1065691486 -0.0589409098 -0.1564503461 7.434656265e-39
0.1440764964 0.1087567732 -0.06824916601 7.434656265e-39
0.08458533883 -0.005182862282 -0.2457635105 7.434656265e-39
0.04169454426 0.1617365479 -0.05802027881 7.434656265e-39
0.08939686418 -0.09204940498 0.3465181887 7.434656265e-39
-0.00937892776 0.1740879416 -0.2449448854 7.434656265e-39
-0.004702721722 0.003378391499 -0.3513650596 7.434656265e-39
0.04331538454 0.1339518875 0.07208785415 7.434656265e-39
0.08772647381 -0.09430795163 0.0577221103 7.434656265e-39
0.0838445574 0.133830905 -0.1307956278 7.434656265e-39
0.04973626509 -0.002537266584 -0.3061392009 7.434656265e-39
0.03481628746 0.1070082486 -0.004082560074 7.434656265e-39
0.10802228 -0.08876167983 0.2221157551 7.434656265e-39
0.07872932404 0.1235117391 -0.1378095597 7.434656265e-39
-0.008855109103 0.03403359652 -0.3617110252 7.434656265e-39
0.05690397695 0.03708647937 0.1213303208 7.434656265e-39
0.1052361429 -0.1083071753 -0.0337854065 7.434656265e-39
0.1053767279 0.0843641907 -0.07268022001 7.434656265e-39
0.08454812318 -0.009808726609 -0.2711398005 7.434656265e-39
0.1088785827 0.01057690568 0.03454715014 7.434656265e-39
0.14374201 -0.06434045732 0.109180741 7.434656265e-39
0.02104195766 0.01596633159 -0.07305730134 7.434656265e-39
0.1091754436 -0.09328147769 -0.1152539775 7.434656265e-39
0.07287731022 0.00461783167 -0.01295003202 7.434656265e-39
0.0562556833 -0.1141033247 0.1129810214 7.434656265e-39
-0.09641642869 -0.002689723857 0.05976039916 7.434656265e-39
0.03274270892 -0.08351883292 0.1912203729 7.434656265e-39
-0.06060367078 -0.004381095991 -0.1455302238 7.434656265e-39
0.1036992744 0.1280331016 -0.1574203819 8.170410826e-39
0.01675481722 0.156361565 -0.2977069616 8.170410826e-39
0.114092201 0.1239734516 -0.27685377 8.170410826e-39
0.01221367717 0.06451332569 0.1412409544 8.170410826e-39
-0.1049388349 0.1000399441 -0.1103528291 8.170410826e-39
-0.1225054488 0.1367245615 -0.211265102 8.170410826e-39
0.0935735628 0.03346914425 -0.4833016098 8.170410826e-39
-0.08214041591 0.1671600491 0.3416894674 8.170410826e-39
0.07485798746 0.03147875145 -0.1417050064 8.170410826e-39
0.08918233216 0.1647422612 -0.2245467901 8.170410826e-39
0.08528497815 0.07522025704 -0.3912964463 8.170410826e-39
-0.002489019651 0.08779657632 0.169709906 8.170410826e-39
0.008282532915 0.1258985549 -0.03856220096 8.170410826e-39
0.04550055042 0.1816931665 -0.198010087 8.170410826e-39
0.1026053578 0.03191090375 -0.4429064095 8.170410826e-39
-0.1125572026 0.08246805519 0.2678245604 8.170410826e-39
0.09015695006 0.03994026035 -0.1008092761 8.170410826e-39
0.04289153218 0.136360541 -0.1944334358 8.170410826e-39
0.09530649334 0.02537178621 -0.2625117302 8.170410826e-39
-0.08427228034 0.009460312314 0.0798008889 8.170410826e-39
-0.04267199337 -0.02934407443 0.003250334179 8.170410826e-39
-0.02280507237 0.1108590737 -0.1514458507 8.170410826e-39
0.05359831825 0.003879825585 -0.3025587201 8.170410826e-39
-0.08634676039 -0.02597702667 0.01146365423 8.170410826e-39
0.07040885836 -0.004125530832 -0.08821632713 8.170410826e-39
0.06910017878 -0.003888129257 0.0004946514382 8.170410826e-39
-0.1081810296 -0.002434468595 -0.3830573261 8.170410826e-39
0.01725675166 -0.06721804291 0.06129098684 8.170410826e-39
0.09588389844 -0.01706947759 -0.3431319892 8.170410826e-39
-0.06400220841 -0.03954589739 0.1807814538 8.170410826e-39
0.0131060658 -0.00827259291 -0.2198728621 8.170410826e-39
-0.08149617165 -0.01399513241 -0.2226449847 8.170410826e-39
-0.1203735545 -0.05959927663 0.2223350704 8.906165387e-39
-0.09532557428 0.07586569339 -0.2443459332 8.906165387e-39
-0.02118556947 -0.1431453377 0.07991363108 8.906165387e-39
-0.04774000123 0.1490696818 -0.4665596783 8.906165387e-39
-0.0859766379 -0.03984002396 -0.08566835523 8.906165387e-39
-0.03202077746 -0.128487885 -0.07040813565 8.906165387e-39
-0.1118652299 -0.1205033287 0.4011554718 8.906165387e-39
-0.07411195338 0.156618461 -0.2347430587 8.906165387e-39
-0.08502575755 -0.08837255836 0.2535249591 8.906165387e-39
-0.09562336653 -0.008505593985 -0.2191099972 8.906165387e-39
-0.01312787272 -0.1180582494 0.2208182812 8.906165387e-39
-0.03170665354 0.09803248942 -0.338429749 8.906165387e-39
-0.1100657657 -0.02167165652 -0.02735124342 8.906165387e-39
-0.01974650472 -0.1428503543 -0.1303239018 8.906165387e-39
-0.05448200926 -0.09726145118 0.3174846172 8.906165387e-39
-0.095213525 0.09352615476 -0.2760159671 8.906165387e-39
-0.1125539988 -0.04284372926 0.07584322244 8.906165387e-39
-0.04424151033 -0.1503117085 -0.1685299128 8.906165387e-39
-0.03468325734 -0.1280400753 0.0681861937 8.906165387e-39
-0.01838904805 0.09155346453 -0.388853848 8.906165387e-39
-0.1207690984 -0.003387274221 -0.05007809401 8.906165387e-39
-0.05469981954 -0.1191003844 -0.07619331032 8.906165387e-39
-0.03393919021 -0.1162200868 0.05069096759 8.906165387e-39
-0.03128834069 -0.06066375226 -0.2582304776 8.906165387e-39
-0.1294320375 -0.04760146514 0.0333802253 8.906165387e-39
-0.06978084892 0.07523436099 -0.2312431186 8.906165387e-39
-0.07715880126 -0.1003795862 0.1207083538 8.906165387e-39
-0.07637533545 -0.1040031612 -0.03104398213 8.906165387e-39
-0.10633827 -0.06253127009 0.302629739 8.906165387e-39
-0.1340127587 0.07309057564 -0.08014331013 8.906165387e-39
-0.1047045216 0.0006884037284 0.1497638226 8.906165387e-39
-0.1055108607 -0.04841578752 -0.3118455112 8.906165387e-39
0.1178420931 0.1457540393 0.2695693076 9.641561216e-39
-0.07394950092 0.1442897767 0.322412312 9.641561216e-39
0.1177129075 0.1071753129 0.02136584744 9.641561216e-39
0.01843188517 0.1031269133 0.486427933 9.641561216e-39
0.1345460266 0.1146812886 0.0986847356 9.641561216e-39
0.1032800227 0.1561859399 0.4030306935 9.641561216e-39
0.07123216987 0.14697963 -0.1804920882 9.641561216e-39
-0.1253398508 -0.01360706054 0.4719628096 9.641561216e-39
0.084636271 0.1190680787 0.2690078318 9.641561216e-39
-0.02336692065 0.1599350572 0.227574572 9.641561216e-39
0.05597414821 0.05697060749 -0.09659828246 9.641561216e-39
-0.0425780341 0.1017424613 0.462125212 9.641561216e-39
0.09020781517 0.09638708085 0.1412262172 9.641561216e-39
0.03477180377 0.149509415 0.3543065786 9.641561216e-39
0.08083486557 0.02253247052 -0.1505973637 9.641561216e-39
-0.09250634164 0.01016983576 0.4785403907 9.641561216e-39
0.06493609399 0.03403763846 0.1950724274 9.641561216e-39
0.0154934125 0.108304061 0.2224240154 9.641561216e-39
0.05423364043 0.007639477495 -0.07132162899 9.641561216e-39
0.03834369406 0.09948264807 0.4734458923 9.641561216e-39
0.03404702991 0.00573984161 0.06444324553 9.641561216e-39
0.1075386629 0.09558629245 0.2568566203 9.641561216e-39
0.07000669092 0.01228541136 -0.06397867948 9.641561216e-39
0.08611927927 0.08229935914 0.4698783159 9.641561216e-39
0.01488218829 -0.006584926043 0.09749615192 9.641561216e-39
-0.00943075493 0.004788124934 0.3419966996 9.641561216e-39
-0.01227877382 0.006348118186 -0.04810811579 9.641561216e-39
0.06582189351 0.04036061093 0.4307657182 9.641561216e-39
0.109975934 -0.01596646383 0.07682330161 9.641561216e-39
-0.1182026118 -0.07534233481 0.3317195177 9.641561216e-39
0.0157296937 -0.006741820835 0.1366485357 9.641561216e-39
-0.07183355838 0.003718355205 0.3374060392 9.641561216e-39
-0.1105597913 0.02786747552 -0.4739324152 1.037659831e-38
0.01662858762 0.157158196 0.2884518206 1.037659831e-38
0.09873462468 0.133493796 0.0473741889 1.037659831e-38
0.07042084634 0.1574555337 0.32365641 1.037659831e-38
-0.1212397143 0.0478297919 0.01163582783 1.037659831e-38
-0.05138443783 0.1409543455 0.1247486547 1.037659831e-38
0.02907403931 0.1657932699 -0.2347124517 1.037659831e-38
0.09671144187 0.1683028489 0.4854759574 1.037659831e-38
-0.0887658298 0.04781523719 -0.4374809265 1.037659831e-38
0.08369854838 0.173448056 0.2194299251 1.037659831e-38
-0.0014790938 0.1003691331 -0.1073101833 1.037659831e-38
0.01798802987 0.1385732591 0.4076732397 1.037659831e-38
-0.09467606992 0.04573466629 -0.1225000471 1.037659831e-38
0.0373923704 0.1673471481 0.1456515938 1.037659831e-38
0.02127338387 0.08162502944 -0.2367689162 1.037659831e-38
0.08310710639 0.1015975997 0.4332998395 1.037659831e-38
-0.08281576633 -0.001774100587 -0.2959280312 1.037659831e-38
0.03878089041 0.1208289638 0.1660259366 1.037659831e-38
-0.01767443866 0.08604466915 0.1176542416 1.037659831e-38
-0.04372459278 0.08761588484 0.37216416 1.037659831e-38
-0.1054746881 0.03151402622 -0.005842585582 1.037659831e-38
-0.0338720791 0.06462895125 0.09010781348 1.037659831e-38
-0.1064461395 0.01420451514 0.04569157958 1.037659831e-38
-0.1167681366 0.1006012186 0.4331813753 1.037659831e-38
-0.1237446889 0.03844374418 -0.1983567029 1.037659831e-38
0.04467359185 0.005956043024 0.1835781038 1.037659831e-38
-0.1196302176 0.1132130772 -0.08048444241 1.037659831e-38
-0.1072274595 0.09634512663 0.3925873935 1.037659831e-38
-0.08563050628 0.07630737871 -0.359444499 1.037659831e-38
0.05227256194 -0.01425948925 0.3115649223 1.037659831e-38
-0.105878368 0.07029610127 -0.3421134651 1.037659831e-38
-0.1355504543 0.03229844198 0.2122420222 1.037659831e-38
0.02769467421 -0.117110908 -0.4813471138 1.111163541e-38
-0.09326383471 -0.10986536 -0.4766075909 1.111163541e-38
0.03554193676 0.1115498543 -0.4778998494 1.111163541e-38
-0.1448743194 -0.04156821221 -0.4795053601 1.111163541e-38
0.1106956154 -0.06317308545 -0.4847112894 1.111163541e-38
-0.01350281481 -0.06487320364 -0.4704010189 1.111163541e-38
0.1009034291 0.03090882488 -0.4880208075 1.111163541e-38
-0.08056119084 0.1226970702 -0.4906349182 1.111163541e-38
-0.04280428961 -0.119911544 -0.4780748188 1.111163541e-38
-0.09537159652 -0.1125074029 -0.446046412 1.111163541e-38
0.03929274157 0.07166293263 -0.459882021 1.111163541e-38
-0.05288336426 0.05514058098 -0.4899326265 1.111163541e-38
0.05633034557 -0.09329025447 -0.4602894485 1.111163541e-38
-0.01238759048 -0.1146083623 -0.4201782942 1.111163541e-38
0.0754467845 0.07003548741 -0.4586986899 1.111163541e-38
-0.08035122603 0.1011759564 -0.4856692255 1.111163541e-38
-0.001540838508 -0.1133742109 -0.4658195078 1.111163541e-38
-0.05643136054 -0.1098941118 -0.3593476713 1.111163541e-38
0.005485554226 0.1162965298 -0.4045076668 1.111163541e-38
-0.09093936533 0.02796798013 -0.4823901653 1.111163541e-38
0.08265643567 -0.03890023381 -0.4789915681 1.111163541e-38
-0.006258337293 -0.07080453634 -0.4061213136 1.111163541e-38
0.08455583453 0.05621906742 -0.4279438257 1.111163541e-38
-0.06344304979 0.001423782669 -0.4921060801 1.111163541e-38
0.03771783039 -0.07679156214 -0.4853978753 1.111163541e-38
-0.07943364233 -0.1013284028 -0.4901644886 1.111163541e-38
0.1312966943 -0.09232866019 -0.4684967697 1.111163541e-38
-0.02654018812 -0.03684566543 -0.4791160822 1.111163541e-38
0.01928412542 -0.0589289777 -0.4885487854 1.111163541e-38
-0.1103118286 -0.03204857931 -0.4724304974 1.111163541e-38
-0.0484944284 -0.06321188807 -0.4610668421 1.111163541e-38
-0.1130565479 -0.07326237112 -0.4620915055 1.111163541e-38
0.03955851495 0.1520765424 -0.2351970971 1.184631237e-38
-0.1021492407 0.1233105138 -0.2953295112 1.184631237e-38
-0.08792081475 0.1524816751 0.06061404198 1.184631237e-38
0.02975654975 0.145999983 0.3897638023 1.184631237e-38
0.0189641472 0.1201513782 0.0002786070108 1.184631237e-38
-0.08826977015 0.1539074033 0.003813334042 1.184631237e-38
-0.09145103395 0.1420780122 0.2704146802 1.184631237e-38
0.05584942922 0.1612977386 0.113932468 1.184631237e-38
0.06538238376 0.1421555579 -0.4247967899 1.184631237e-38
-0.07119182497 0.1294379383 -0.3592115939 1.184631237e-38
-0.08052004129 0.1314696074 0.1556278467 1.184631237e-38
0.04529487714 0.1379087418 0.2956753075 1.184631237e-38
0.0705594644 0.136158675 -0.180947274 1.184631237e-38
-0.05875243247 0.1359642893 -0.1298130006 1.184631237e-38
-0.06828957796 0.1254834086 0.2335717678 1.184631237e-38
0.02015238814 0.117133148 0.159377709 1.184631237e-38
0.04487957805 0.07757529616 -0.3194675446 1.184631237e-38
-0.0780550167 0.1317198575 -0.1650786847 1.184631237e-38
-0.08570189774 0.1412196904 0.04838019609 1.184631237e-38
-0.03043922409 0.1079923362 0.4312261641 1.184631237e-38
-0.05644058436 0.1110059097 -0.1321830302 1.184631237e-38
-0.06935959309 0.1468505114 -0.004478907213 1.184631237e-38
-0.07567163557 0.1097421274 0.1039690152 1.184631237e-38
-0.0710773319 0.1105458811 0.3720988333 1.184631237e-38
-0.02180722356 0.0107674608 -0.1702135354 1.184631237e-38
-0.06997514516 0.06900431216 -0.1052757353 1.184631237e-38
-0.08394216001 0.01264221687 0.221552521 1.184631237e-38
-0.1142837331 0.07442761213 0.02279809676 1.184631237e-38
-0.1070720032 0.03238829225 0.09516598284 1.184631237e-38
-0.0649510175 -0.02205166221 -0.2775580287 1.184631237e-38
-0.05646848679 0.005890510045 -0.3829378784 1.184631237e-38
-0.05160246417 0.0815539211 -0.196205169 1.184631237e-38
-0.03684256971 0.1357067674 -0.0419052355 1.258099074e-38
0.1229016036 -0.03120722249 0.4694356024 1.258099074e-38
-0.1157578602 0.1600391716 0.4456493556 1.258099074e-38
0.1477706432 0.1588261276 0.4724166095 1.258099074e-38
-0.02994588763 0.1436998546 0.1550729275 1.258099074e-38
0.04812750965 0.1552369148 0.3309136927 1.258099074e-38
0.03104332648 0.1616762429 0.2188802361 1.258099074e-38
-0.07990945131 0.1434820145 0.4407460988 1.258099074e-38
-0.0322752744 0.1590050012 -0.1772408485 1.258099074e-38
0.06644026935 -0.1342834085 0.4613999724 1.258099074e-38
-0.04349786788 0.1009807959 0.211308822 1.258099074e-38
-0.002658398123 0.08385132253 0.4103410244 1.258099074e-38
-0.005600855686 0.1404346973 0.003859180491 1.258099074e-38
0.02324611507 0.07078788429 0.4076453447 1.258099074e-38
-0.02947362512 0.09614919126 0.1423211545 1.258099074e-38
-0.02812934481 0.09472563118 0.3996656835 1.258099074e-38
-0.01629834808 0.1278375834 -0.09883976728 1.258099074e-38
0.07497566938 -0.06574680656 0.412230134 1.258099074e-38
-0.03846072778 0.1189879104 0.2925252318 1.258099074e-38
0.1161173955 0.08407045901 0.4156390727 1.258099074e-38
-0.0611499697 0.1190143898 0.1083711386 1.258099074e-38
-0.003388190642 0.07054328173 0.3620375991 1.258099074e-38
-0.05920637026 0.0935845077 0.3298107386 1.258099074e-38
0.05325215682 0.0655573681 0.4126397669 1.258099074e-38
-0.1045159847 0.09284736216 0.04359169677 1.258099074e-38
0.07487397641 -0.04775005206 0.3977055848 1.258099074e-38
-0.1162264496 0.07774551213 0.339196384 1.258099074e-38
-0.09636105597 -0.05047631636 0.4365907609 1.258099074e-38
-0.1254775673 0.05460906029 0.2839658856 1.258099074e-38
-0.008089701645 -0.02850098722 0.4369838238 1.258099074e-38
-0.05882705748 0.0597185865 -0.04573922977 1.258099074e-38
0.05881687626 -0.09396103024 0.4181438386 1.258099074e-38
-0.076878272 0.09119468182 0.187865302 1.331530897e-38
0.09239266813 0.03670471907 0.4892198741 1.331530897e-38
0.1064344049 0.04675693065 0.3146525025 1.331530897e-38
0.09109568596 -0.08624890447 0.1924079359 1.331530897e-38
0.008422797546 0.08579721302 0.1798145026 1.331530897e-38
-0.02329745889 0.1335368156 0.3840182424 1.331530897e-38
0.006813320331 0.1109561846 0.1246061251 1.331530897e-38
0.08424690366 -0.147227779 0.3942914307 1.331530897e-38
-0.06112105027 0.08607238531 -0.0516946502 1.331530897e-38
0.07004120201 -0.08587481081 0.4731341898 1.331530897e-38
0.08129433542 -0.03751097992 0.1213937104 1.331530897e-38
0.06154000387 -0.1252125651 0.2746528089 1.331530897e-38
0.02489783801 0.0657299608 0.06158348918 1.331530897e-38
0.02673512511 0.02811033837 0.4181561768 1.331530897e-38
0.06495036185 0.03841773421 0.09770770371 1.331530897e-38
0.09281805903 -0.1246062145 0.3089438081 1.331530897e-38
-0.01071348041 0.0138981631 -0.1048349217 1.331530897e-38
0.0632379353 -0.01977751963 0.4210313857 1.331530897e-38
0.03359940276 0.0116262855 0.2300960273 1.331530897e-38
0.08438129723 -0.09344682097 0.2401849478 1.331530897e-38
0.135637477 -0.04556672275 0.01137932483 1.331530897e-38
0.0008663160261 0.05804781243 0.3252449632 1.331530897e-38
-0.0268308036 0.08731905371 0.2365189046 1.331530897e-38
0.07753424346 -0.05193183571 0.3219635785 1.331530897e-38
0.1173407957 -0.002923510037 -0.09676709026 1.331530897e-38
0.008874559775 -0.06391189247 0.2312773615 1.331530897e-38
-0.09630362689 0.03673260659 0.1641217321 1.331530897e-38
-0.08631911129 -0.0483827889 0.3911230862 1.331530897e-38
-0.06943018734 -0.00351953553 0.006908142939 1.331530897e-38
0.09443997592 -0.09187423438 0.2428895831 1.331530897e-38
0.04487130791 -0.02445951849 -0.1176165044 1.331530897e-38
0.09884300083 -0.0490090549 0.3430295885 1.331530897e-38
-0.08986208588 0.02527656779 -0.4976782799 1.404926846e-38
0.02845446579 -0.04540701583 -0.4961816072 1.404926846e-38
0.00528532546 0.1249527559 -0.4674873352 1.404926846e-38
-0.1170140132 -0.1081669182 -0.4874674976 1.404926846e-38
0.008142991923 0.04041996226 -0.4960449338 1.404926846e-38
0.1095272228 -0.1015827581 -0.4819326103 1.404926846e-38
0.1042311564 0.09480827302 -0.2848836482 1.404926846e-38
-0.1519494057 -0.003169743344 -0.4892913997 1.404926846e-38
-0.1121619418 0.1393374801 -0.4910338521 1.404926846e-38
0.02207375132 0.02944575064 -0.4881273806 1.404926846e-38
0.06211035326 0.06342446059 -0.4009949267 1.404926846e-38
-0.04849648476 -0.05211478844 -0.4801450968 1.404926846e-38
-0.01402839273 0.09573058784 -0.4924417138 1.404926846e-38
0.06818220764 -0.1135047674 -0.4895452857 1.404926846e-38
0.0593660064 0.02337702177 -0.2835657597 1.404926846e-38
-0.1178790107 0.01007119101 -0.4826087356 1.404926846e-38
-0.05716758221 0.1105462238 -0.4790907502 1.404926846e-38
0.04916672409 -0.05227591097 -0.4819998145 1.404926846e-38
0.05754781887 0.05831576511 -0.3704086542 1.404926846e-38
-0.1107048094 -0.08264179528 -0.4252439141 1.404926846e-38
0.004123277031 0.05583899468 -0.4833525717 1.404926846e-38
0.1134582162 -0.08239594102 -0.379738301 1.404926846e-38
0.04744227603 0.07299025357 -0.4637695551 1.404926846e-38
-0.02107982896 -0.1120903194 -0.413787365 1.404926846e-38
-0.09701361507 0.05571530759 -0.4886266887 1.404926846e-38
0.0713615343 -0.07906045765 -0.4802835882 1.404926846e-38
-0.01019619498 -0.07413002104 -0.4821828604 1.404926846e-38
0.03099963441 -0.0779710412 -0.4832290411 1.404926846e-38
-0.09964277595 0.01081607398 -0.4933550656 1.404926846e-38
-0.06910127401 -0.08824446797 -0.4934980571 1.404926846e-38
-0.08206878603 0.04254260287 -0.4480178356 1.404926846e-38
-0.0601834543 -0.03010551073 -0.4879331589 1.404926846e-38
0.1020263359 -0.0263880752 -0.2853105962 1.478322936e-38
0.1312951893 -0.09181740135 -0.4270380437 1.478322936e-38
0.1265570372 -0.06369590759 -0.3461351395 1.478322936e-38
0.1258588135 -0.05693599582 -0.08849939704 1.478322936e-38
0.08564598113 -0.1269345582 -0.3965468407 1.478322936e-38
0.07679533958 -0.1174294427 -0.05405153707 1.478322936e-38
0.09860616922 -0.1732760966 -0.4437509477 1.478322936e-38
0.1067327559 -0.08008264005 -0.2653102875 1.478322936e-38
0.04315504059 -0.1013158709 -0.1250736862 1.478322936e-38
0.03152598813 -0.1767319143 -0.3764762878 1.478322936e-38
0.06828666478 -0.07600467652 -0.3633258939 1.478322936e-38
0.08048517257 -0.1283958554 -0.1469098777 1.478322936e-38
0.0447708182 -0.1080498099 -0.2217288613 1.478322936e-38
-0.03061197698 -0.1653236151 -0.1014478728 1.478322936e-38
0.1040126234 -0.05804662779 -0.4144545794 1.478322936e-38
0.08455953002 -0.1121154577 -0.1825556159 1.478322936e-38
0.006787255406 -0.0892053768 -0.1491393894 1.478322936e-38
-0.03278872371 -0.164696753 -0.1596756428 1.478322936e-38
0.1061944664 -0.07971753925 -0.2684342265 1.478322936e-38
0.1061870903 -0.09967681766 -0.09262685478 1.478322936e-38
0.03073213063 -0.1061590016 -0.3188528121 1.478322936e-38
0.00287457509 -0.06637896597 -0.01516094897 1.478322936e-38
0.1224272922 -0.09473066032 -0.3576623797 1.478322936e-38
0.07242771983 0.002256724983 -0.1398850679 1.478322936e-38
0.02840439416 -0.06907778978 -0.2341540456 1.478322936e-38
0.02264681645 -0.08776771277 -0.07483959943 1.478322936e-38
0.05708751082 -0.09289919585 -0.3742027283 1.478322936e-38
0.05886614323 -0.03727193549 -0.09958782047 1.478322936e-38
0.07624143362 -0.07206926495 -0.2615192235 1.478322936e-38
0.06253361702 -0.05460142717 -0.2205688953 1.478322936e-38
-0.06753668189 -0.066494748 -0.08663589507 1.478322936e-38
-0.01667902246 -0.09353392571 -0.1588523686 1.478322936e-38
-0.07933100313 -0.06676972657 -0.2431062162 1.551683013e-38
-0.03643831611 0.1486731619 0.4472607076 1.551683013e-38
-0.1228925586 0.1450459212 -0.09590394795 1.551683013e-38
0.07265289128 0.1273372173 -0.0859478265 1.551683013e-38
-0.09093578905 -0.07417187095 0.02039614879 1.551683013e-38
0.06036907062 0.1486272514 0.2565317154 1.551683013e-38
-0.09457718581 0.1735938638 0.1924984455 1.551683013e-38
0.002302568173 0.1656386703 0.09139274061 1.551683013e-38
0.0008707193192 -0.1380294412 -0.2701406181 1.551683013e-38
-0.0904333517 0.155185163 0.4732496738 1.551683013e-38
-0.04643270746 0.1647784412 0.02288996056 1.551683013e-38
0.01245371718 0.1069327369 -0.00952631887 1.551683013e-38
0.02284516767 -0.1167485192 -0.06932505965 1.551683013e-38
0.04309919849 0.1328681856 0.3238959908 1.551683013e-38
-0.0394539088 0.1356950998 0.1459773183 1.551683013e-38
-0.01900879107 0.04988833889 0.07466349006 1.551683013e-38
0.05319461599 -0.1126715094 -0.1408949941 1.551683013e-38
0.005813518073 0.1241093501 0.384750694 1.551683013e-38
-0.08279038221 0.1173942834 -0.03662887588 1.551683013e-38
-0.0458163321 0.0147151975 -0.00887699984 1.551683013e-38
-0.07806482166 -0.099205181 0.00612813374 1.551683013e-38
0.03705322742 0.09640713781 0.2828903496 1.551683013e-38
-0.07018136233 0.01333753671 0.1226655692 1.551683013e-38
-0.04787129909 -0.003709403565 0.0903153643 1.551683013e-38
-0.06161129475 -0.03856378794 -0.09765317291 1.551683013e-38
-0.09661388397 0.1313800961 0.2847283781 1.551683013e-38
-0.0107175326 -0.07991486043 0.1594726145 1.551683013e-38
-0.04720626399 -0.08132599294 0.2336580157 1.551683013e-38
-0.09415070713 0.04396119341 -0.1654057354 1.551683013e-38
-0.07588101178 -0.04411683977 0.2649556696 1.551683013e-38
-0.04838504642 -0.0714039728 -0.1361626983 1.551683013e-38
-0.02922707424 0.04529058561 0.2913088799 1.551683013e-38
-0.09907909483 0.05117534474 -0.2180787772 1.625043089e-38
-0.09467355162 0.1615244448 -0.00676970277 1.625043089e-38
-0.1182998493 0.05059771612 -0.4746481478 1.625043089e-38
-0.1151340976 0.06016357616 0.06768443435 1.625043089e-38
-0.09194413573 0.07933497429 -0.4335571527 1.625043089e-38
-0.07359452546 0.157870844 -0.144818455 1.625043089e-38
-0.09193571657 -0.09585089236 -0.3677647412 1.625043089e-38
-0.1246954948 0.05118827149 0.2655673623 1.625043089e-38
-0.08713049442 0.06289534271 -0.1003428549 1.625043089e-38
-0.06822562218 0.146978721 0.04947836697 1.625043089e-38
-0.05670340732 -0.06929711252 -0.4321033061 1.625043089e-38
-0.05258229375 0.02976013534 0.1158111319 1.625043089e-38
-0.05454054102 0.1469880193 -0.2567611337 1.625043089e-38
-0.06465039402 0.1534417868 -0.07630265504 1.625043089e-38
-0.05564766377 -0.03373539075 -0.2423544079 1.625043089e-38
-0.114688538 0.04518057406 0.1891390979 1.625043089e-38
-0.06673603505 0.1172936633 -0.1812004596 1.625043089e-38
-0.07784515619 0.11314518 -0.01638701558 1.625043089e-38
-0.0943498835 0.01535118092 -0.3050122559 1.625043089e-38
-0.1234871671 0.02585869282 0.07779839635 1.625043089e-38
-0.07196579129 0.1264229566 -0.3715552986 1.625043089e-38
-0.08451507986 0.141505003 -0.1301940531 1.625043089e-38
-0.09381022304 0.03164041042 -0.2603808939 1.625043089e-38
-0.1241111681 -0.0398655571 0.07823046297 1.625043089e-38
-0.126607269 0.0867478922 -0.3400017023 1.625043089e-38
-0.1177071035 0.0422572419 -0.01855357923 1.625043089e-38
-0.08802544326 0.04558176547 -0.2317670584 1.625043089e-38
-0.1225338057 -0.04580730945 0.07585821301 1.625043089e-38
-0.1083755121 -0.04223493114 -0.1433992386 1.625043089e-38
-0.1206884235 -0.04462592304 0.1342776865 1.625043089e-38
-0.1108504385 0.06136306003 -0.2170209438 1.625043089e-38
-0.1168904379 0.08761177212 0.02469004318 1.625043089e-38
0.07548225671 -0.01722311042 -0.4798509777 1.698367293e-38
-0.09629946947 0.1310239285 -0.2985111773 1.698367293e-38
0.05471940711 -0.1344395578 -0.405284822 1.698367293e-38
-0.09777012467 0.1253227443 0.1024262905 1.698367293e-38
-0.1303742677 -0.02587374486 -0.4872477055 1.698367293e-38
-0.01253725495 0.1495387405 0.009072666056 1.698367293e-38
0.0391458571 -0.1135414094 -0.1221036911 1.698367293e-38
-0.09105742723 0.008495065384 -0.007393270265 1.698367293e-38
0.1044025645 0.01124989241 -0.4870404899 1.698367293e-38
-0.0006593762664 0.122055091 -0.3148917258 1.698367293e-38
0.01961891353 -0.1439898908 -0.2692162693 1.698367293e-38
-0.04012147337 0.1397163272 0.05332302675 1.698367293e-38
-0.03176538646 -0.0005073621287 -0.4585397243 1.698367293e-38
0.006770552136 0.1370259821 -0.2102582008 1.698367293e-38
0.07282569259 -0.1107067168 -0.08171851933 1.698367293e-38
-0.1050470695 0.02465938404 -0.0610146448 1.698367293e-38
0.0412696898 0.004008899443 -0.4490105212 1.698367293e-38
0.01126934588 0.09108679742 -0.2259579301 1.698367293e-38
0.008618290536 -0.1244404987 -0.2333595604 1.698367293e-38
-0.1138427928 0.06831318885 0.05335503072 1.698367293e-38
-0.03530899435 -0.001013357774 -0.3717507422 1.698367293e-38
0.02291988768 0.07901339233 -0.1290568709 1.698367293e-38
-0.05762019008 -0.1189624742 -0.2058325261 1.698367293e-38
-0.04207155854 -0.09303148836 0.143955797 1.698367293e-38
0.02340403385 -0.0183044076 -0.3350000679 1.698367293e-38
-0.05386821553 0.004202132579 -0.1003356576 1.698367293e-38
-0.08227164298 -0.08731375635 -0.1711203456 1.698367293e-38
-0.04751772061 -0.05123678595 0.006660154555 1.698367293e-38
0.07987337559 -0.09239145368 -0.3032399416 1.698367293e-38
-0.09566456825 -0.03310175985 -0.005429869983 1.698367293e-38
0.1213286147 -0.08120545 -0.4223587811 1.698367293e-38
-0.06159318984 0.001306436257 -0.2730922401 1.698367293e-38
0.1047189161 0.01957102492 0.2311484069 1.771655483e-38
0.05401108786 0.07222642004 -0.4957411587 1.771655483e-38
0.1170433015 -0.09055634588 0.3611976206 1.771655483e-38
0.1367551237 -0.07411570102 -0.1656577289 1.771655483e-38
0.03890329972 -0.04958568886 0.2939735651 1.771655483e-38
0.1059986949 -0.09388002753 -0.328632623 1.771655483e-38
0.03038465418 -0.154055506 0.4632336497 1.771655483e-38
-0.04587673396 -0.0804162994 -0.4708660543 1.771655483e-38
0.09953857213 -0.07175536454 0.004257560242 1.771655483e-38
0.07579401881 0.04112714902 -0.4865578115 1.771655483e-38
0.02900306135 -0.1037496626 0.406555295 1.771655483e-38
0.005244087894 -0.1264836043 -0.2661299706 1.771655483e-38
0.06628588587 -0.09701547027 0.07932205498 1.771655483e-38
0.06408621371 -0.03816263005 -0.3951569796 1.771655483e-38
0.04216265678 -0.1143982485 0.433216393 1.771655483e-38
-0.0458977595 -0.1198633015 -0.3403735757 1.771655483e-38
0.06396464258 -0.1092544943 -0.008226153441 1.771655483e-38
0.08421430737 -0.02295796946 -0.3938426971 1.771655483e-38
0.1356327832 -0.08529683948 0.2797685564 1.771655483e-38
0.001573948772 -0.09129524231 -0.1420571506 1.771655483e-38
0.01502502151 -0.1197666004 0.1102336347 1.771655483e-38
0.1205169782 -0.1208664477 -0.2650843263 1.771655483e-38
0.1139307395 -0.0722361356 0.2857028246 1.771655483e-38
-0.0876969099 -0.05107765645 -0.1822600663 1.771655483e-38
-0.01598388888 -0.09211538732 0.2448692322 1.771655483e-38
0.1059621051 -0.02106180787 -0.3726492822 1.771655483e-38
-0.04478181526 -0.1213487312 0.4285138249 1.771655483e-38
0.02088958025 -0.09746935219 -0.2574002147 1.771655483e-38
-0.01233413815 -0.07837277651 0.3688120544 1.771655483e-38
0.003001963953 -0.08449307084 -0.4334525466 1.771655483e-38
0.03499042243 -0.04243507609 0.04212330282 1.771655483e-38
0.07936624438 -0.03986929357 -0.3800594807 1.771655483e-38
-0.04037063941 0.1490893066 0.3766488731 1.844943813e-38
0.01085168775 0.1679651439 -0.1073979139 1.844943813e-38
-0.01671401411 0.1593778133 -0.2608818412 1.844943813e-38
-0.1361026764 -0.1000389159 -0.3103433847 1.844943813e-38
-0.02401258238 0.1604925096 0.08972001076 1.844943813e-38
0.03594604507 0.1387702823 0.087428689 1.844943813e-38
-0.08889753371 0.0133121945 -0.4876543283 1.844943813e-38
-0.09970425069 -0.07421417534 -0.1344015002 1.844943813e-38
-0.03007364646 0.1552740484 0.4754453301 1.844943813e-38
0.02335100062 0.1581110209 -0.1420371532 1.844943813e-38
-0.06736906618 0.04994532093 -0.3010190129 1.844943813e-38
-0.04753943533 -0.1351844966 -0.1774425656 1.844943813e-38
-0.01180389803 0.1506923139 0.2933423817 1.844943813e-38
0.02455317602 0.1288437843 -0.0093236994 1.844943813e-38
-0.08056557924 0.02147173136 -0.3603052199 1.844943813e-38
-0.09057410061 -0.02766941302 -0.1417587698 1.844943813e-38
-0.004208703991 0.100468874 0.3524847031 1.844943813e-38
0.05782201514 0.1056410447 -0.04528462887 1.844943813e-38
-0.12688829 0.05303753912 -0.2554772198 1.844943813e-38
-0.07625085115 0.01146254409 -0.149016425 1.844943813e-38
-0.03129050508 0.09108497202 0.1804435253 1.844943813e-38
0.03872617707 0.0138357766 0.1020575389 1.844943813e-38
-0.1545948237 0.09905121475 -0.2372752279 1.844943813e-38
-0.136396423 -0.04513835534 -0.03452111781 1.844943813e-38
-0.06423968077 0.04163138941 0.2465212643 1.844943813e-38
-0.04611329362 -0.007576395292 0.01791482233 1.844943813e-38
-0.08770301938 0.06253611296 -0.06088175997 1.844943813e-38
-0.1200402826 0.003823313862 0.05719260871 1.844943813e-38
-0.07270535082 -0.01444643829 -0.02219902351 1.844943813e-38
-0.1153977066 -0.09730077535 -0.03260360286 1.844943813e-38
-0.08807299286 0.02683731727 0.1251617372 1.844943813e-38
-0.07183615863 0.09963842481 -0.155828163 1.844943813e-38
0.1287945658 0.05715797096 0.4862655997 1.91819627e-38
-0.03016194515 0.1630857438 0.4231922925 1.91819627e-38
0.07660826296 -0.1188336238 0.480968982 1.91819627e-38
0.03087818623 0.1454310119 0.2280673236 1.91819627e-38
-0.04143674299 0.0502035208 0.4960605502 1.91819627e-38
0.1021098122 0.06445669383 0.2930428088 1.91819627e-38
0.1217033193 -0.1134120449 0.3410694897 1.91819627e-38
-0.05523745716 0.1897270977 0.2656342387 1.91819627e-38
0.05659497157 0.006566355471 0.4934272468 1.91819627e-38
-0.07554142177 0.1674768031 0.4450517595 1.91819627e-38
0.06343324482 -0.1122304499 0.403262347 1.91819627e-38
-0.01938012429 0.1543233395 0.1538902521 1.91819627e-38
0.03244186565 0.07317955792 0.4899365604 1.91819627e-38
0.08079024404 0.1056094021 0.3413105011 1.91819627e-38
0.09015609324 -0.09372434765 0.2078334242 1.91819627e-38
-0.07313911617 0.1341427714 0.2288272381 1.91819627e-38
0.06540066004 0.06501009315 0.4864574671 1.91819627e-38
0.02872582525 0.1083191782 0.3674203157 1.91819627e-38
0.1149266511 -0.1032793373 0.3637080491 1.91819627e-38
0.01050673518 0.07496102154 0.1350757182 1.91819627e-38
-0.03786494583 0.04618190974 0.4910852313 1.91819627e-38
0.05906794593 0.05576467887 0.3079311252 1.91819627e-38
0.06637427211 -0.1061112061 0.3429520428 1.91819627e-38
0.08315206319 0.004240695853 0.1568936259 1.91819627e-38
-0.04016758502 0.01698958501 0.4214737117 1.91819627e-38
-0.07931812108 0.04115858302 0.3954707682 1.91819627e-38
0.02480559796 -0.08467138559 0.3033641875 1.91819627e-38
0.08271017671 -0.002143200953 0.1769170165 1.91819627e-38
0.09159086645 -0.1069860384 0.4239012599 1.91819627e-38
-0.111536555 0.04290508851 0.4423337877 1.91819627e-38
0.01390011515 -0.05194548517 0.468531698 1.91819627e-38
0.02320342511 -0.003387125209 0.1107475162 1.91819627e-38
0.07165712118 0.03172199428 0.007834311575 1.991448586e-38
0.06052076817 0.1404667795 0.2055522054 1.991448586e-38
0.0867998153 -0.100190714 0.1731844097 1.991448586e-38
0.1015766859 -0.06810766459 0.256925106 1.991448586e-38
-0.08825822175 0.06356976181 -0.1260420829 1.991448586e-38
0.04195412993 0.1166716442 0.03133435175 1.991448586e-38
-0.02994611859 -0.1000269428 0.04934309423 1.991448586e-38
0.09455696493 0.1528038681 0.4324362576 1.991448586e-38
0.06967262924 -0.03472133726 0.02121699229 1.991448586e-38
0.06032297388 0.1487003714 0.2330382019 1.991448586e-38
-0.01587390155 -0.1291653514 0.08833319694 1.991448586e-38
0.08599009365 -0.100375548 0.2702755332 1.991448586e-38
-0.01777904108 -0.01030623168 -0.07198379189 1.991448586e-38
0.07502164692 -0.01161511894 0.05703851581 1.991448586e-38
-0.003839354729 -0.1291813403 0.07075285912 1.991448586e-38
0.09932575375 0.0185062997 0.3415006995 1.991448586e-38
0.04938843474 0.01194433682 -0.0352967903 1.991448586e-38
0.06965437531 -0.03823204711 0.1336911619 1.991448586e-38
-0.03139495105 -0.1172180548 0.1687918454 1.991448586e-38
0.1032929048 -0.08584045619 0.2877669334 1.991448586e-38
-0.005627572536 -0.00544625707 -0.1546981037 1.991448586e-38
0.10018152 -0.008954039775 -0.005756999832 1.991448586e-38
-0.05562130362 -0.08828145266 0.09948441386 1.991448586e-38
0.008863619529 -0.1211183742 0.2782183588 1.991448586e-38
0.1001556814 -0.01592209563 -0.1514840722 1.991448586e-38
0.1064010784 0.007450010628 0.1495773196 1.991448586e-38
-0.09824854881 0.04409316182 0.004012086429 1.991448586e-38
0.02180387825 -0.09500616044 0.258585304 1.991448586e-38
0.05034481362 -0.09828985482 0.02799830586 1.991448586e-38
0.1053829119 -0.09419088811 0.3081200123 1.991448586e-38
0.08897014707 -0.08939824998 -0.0422969386 1.991448586e-38
0.08739680797 -0.04485154897 0.08948283643 1.991448586e-38
0.1094507128 0.01422889996 -0.4665634632 2.06466517e-38
0.00715680141 0.1354817897 -0.4812935293 2.06466517e-38
0.1256290972 0.05102757365 -0.1745297909 2.06466517e-38
0.08349756151 0.1215789169 -0.2817712128 2.06466517e-38
0.09210219234 -0.01593746059 -0.4905951917 2.06466517e-38
0.1246464998 0.1223772615 -0.479156673 2.06466517e-38
0.09300714731 0.03475206345 0.1428540498 2.06466517e-38
0.1160174683 0.09494033456 -0.1530318707 2.06466517e-38
0.09496350586 -0.01060041599 -0.3577211499 2.06466517e-38
-0.09171947092 0.1530684978 -0.4855386913 2.06466517e-38
0.06778212637 -0.03384422883 0.01992134936 2.06466517e-38
0.04971045256 0.1476803869 -0.2368140221 2.06466517e-38
0.09121065587 0.03518781066 -0.4459178448 2.06466517e-38
0.04739753902 0.1362832338 -0.4773958325 2.06466517e-38
0.08633570373 -0.07500555366 0.1110478714 2.06466517e-38
0.08506179601 0.06160841882 -0.1944140196 2.06466517e-38
0.1173882708 -0.0515595004 -0.3591200411 2.06466517e-38
-0.0205345042 0.09687174112 -0.4696732759 2.06466517e-38
0.09993140399 -0.06471772492 -0.08339975774 2.06466517e-38
0.02965188771 0.03980363905 -0.1851820499 2.06466517e-38
0.003617643379 -0.0196377933 -0.3475036323 2.06466517e-38
0.06315724552 0.06484503299 -0.4425078332 2.06466517e-38
0.1089376137 -0.0281733647 -0.1146591082 2.06466517e-38
0.04649110511 -0.003873280482 -0.1190401167 2.06466517e-38
0.03913399577 -0.1022818983 -0.3171417117 2.06466517e-38
-0.05120053515 -0.02820414118 -0.4509655833 2.06466517e-38
0.07951247692 -0.05475981906 -0.3270796239 2.06466517e-38
0.1136705577 -0.01643169299 -0.191763863 2.06466517e-38
0.094883807 -0.1010279208 -0.007715533953 2.06466517e-38
0.02886204235 -0.01555431355 -0.2678167224 2.06466517e-38
0.08433187008 -0.1037147939 -0.4060281813 2.06466517e-38
-0.09549219906 -0.00843698252 -0.4543046355 2.06466517e-38
-0.1046372578 -0.02177333832 0.3301180005 2.137881613e-38
-0.09721487761 0.1519491673 0.3638573885 2.137881613e-38
-0.01432060171 0.1580010056 -0.3596971929 2.137881613e-38
-0.01538826525 0.1580308676 -0.05979534239 2.137881613e-38
-0.05142982677 -0.1036610454 0.00735017471 2.137881613e-38
-0.08371057361 0.1382311136 0.182911545 2.137881613e-38
-0.04796776548 0.1667162329 -0.1131810546 2.137881613e-38
-0.02832863107 0.1472499073 0.09360936284 2.137881613e-38
-0.1185261831 -0.1040466353 0.3654095232 2.137881613e-38
-0.09414191544 0.08109608293 0.3948479295 2.137881613e-38
-0.01341333985 0.1303177625 -0.2294163555 2.137881613e-38
0.0207735803 0.1467755884 0.01817807183 2.137881613e-38
-0.03094236366 -0.1567492336 0.1242808551 2.137881613e-38
-0.05296761915 0.177916795 0.2626892328 2.137881613e-38
-0.002150778193 0.060089048 -0.1587428451 2.137881613e-38
-0.03402805328 0.1222090796 0.06641576439 2.137881613e-38
-0.1231571883 -0.1258778572 0.2625395954 2.137881613e-38
-0.0684074387 0.1222616881 0.3045082092 2.137881613e-38
-0.03853077814 0.1215243116 -0.2853399813 2.137881613e-38
-0.03468333185 0.1091945022 -0.03351354972 2.137881613e-38
-0.07541956007 -0.06896746159 0.08150885999 2.137881613e-38
-0.05159834027 0.1136153191 0.1914870441 2.137881613e-38
-0.06224541739 -0.02182137221 -0.1854933798 2.137881613e-38
-0.08754296601 0.057499405 0.01312368456 2.137881613e-38
-0.0756341964 -0.02640546858 -0.0573936142 2.137881613e-38
-0.06327362359 0.07639972121 0.1399544179 2.137881613e-38
-0.07788713276 -0.07983296365 -0.08810077608 2.137881613e-38
