# .PCD v0.7 - Point Cloud Data file format
VERSION 0.7
FIELDS x y z rgb
SIZE 4 4 4 4
TYPE F F F F
COUNT 1 1 1 1
WIDTH 808
HEIGHT 1
VIEWPOINT 0 0 0 1 0 0 0
POINTS 808
DATA ascii
-0.05355189368 0.01421495713 -0.001748202485 8.170410826e-39
0.1656641215 -0.03460497782 -0.04940485209 8.170410826e-39
-0.227985248 0.004150586668 0.05393733457 8.170410826e-39
0.02836879715 -0.02365802601 -0.069159545 8.170410826e-39
-0.08132194728 0.0063401917 -0.04292822629 8.170410826e-39
0.1552321166 -0.0542322211 -0.04483724758 8.170410826e-39
-0.1641439795 -0.01175603084 0.03203399107 8.170410826e-39
0.04224611074 -0.02959582582 -0.03987109289 8.170410826e-39
-0.0229119435 -0.00281169638 -0.01366336178 8.170410826e-39
0.1177744642 -0.04691810161 -0.04199731722 8.170410826e-39
-0.1166646853 -0.005303273443 0.02254834771 8.170410826e-39
0.002773043001 -0.02754879184 -0.02446197718 8.170410826e-39
0.00351799326 0.003363935743 -0.004569606856 8.170410826e-39
0.1719049811 -0.06663005054 -0.03120683879 8.170410826e-39
-0.1354186237 -0.02428578585 0.03776594996 8.170410826e-39
0.07905266434 -0.04140168428 -0.04600052908 8.170410826e-39
-0.0505707413 0.01559428219 -0.008952933364 8.170410826e-39
0.1662174314 -0.0572748594 -0.04363044351 8.170410826e-39
-0.1715696752 -0.01356774755 0.04016523436 8.170410826e-39
0.06951442361 -0.01198787894 -0.04103047773 8.170410826e-39
-0.0004963017418 0.009750090539 -0.01075912081 8.170410826e-39
0.1465095282 0.003854278009 -0.04567755759 8.170410826e-39
-0.08239772171 0.002097525401 0.02494086884 8.170410826e-39
-0.01721577533 -0.04500740394 -0.09662465006 8.906165387e-39
-0.2368340343 -0.0393442139 -0.07108715177 8.906165387e-39
-0.1259335726 -0.01611998305 -0.01831157506 8.906165387e-39
-0.1964861155 -0.04331500828 -0.02159951255 8.906165387e-39
-0.04732274637 -0.02519013733 -0.1118090823 8.906165387e-39
-0.1657911986 0.003930198494 -0.07738152891 8.906165387e-39
-0.2152415365 -0.034497343 0.04206734151 8.906165387e-39
-0.3409445882 -0.03116887063 0.01587677374 8.906165387e-39
-0.09090700001 -0.03186346218 -0.08725289255 8.906165387e-39
-0.3000257015 -0.01765556447 -0.08694674075 8.906165387e-39
-0.2220552117 -0.0525030233 0.03701582551 8.906165387e-39
-0.3745449185 -0.05805667862 0.0258563254 8.906165387e-39
-0.08735522628 -0.06798862666 -0.04701012373 8.906165387e-39
-0.3030254245 -0.02265664563 -0.0984801203 8.906165387e-39
-0.1679604799 -0.06323833019 0.03278235346 8.906165387e-39
-0.3702423573 -0.07041122764 -0.01483602915 8.906165387e-39
-0.058409594 -0.08460448682 -0.03026590124 8.906165387e-39
-0.2174616158 -0.05435690284 -0.04875288531 8.906165387e-39
-0.1255574524 -0.05937668309 0.01988851652 8.906165387e-39
-0.3016900122 -0.05911817402 -0.02414938249 8.906165387e-39
-0.02372008562 -0.07667031139 -0.03601023927 8.906165387e-39
-0.1693580747 -0.07594884187 -0.04818833619 8.906165387e-39
-0.1617446244 -0.07583858073 0.04473915696 8.906165387e-39
-0.3545596898 -0.08004896343 -0.02014718764 8.906165387e-39
-0.03597342968 -0.1021590456 -0.03434705734 8.906165387e-39
-0.2369543314 -0.08817429841 -0.05998174101 8.906165387e-39
-0.1833691448 -0.06872504205 0.02968117967 8.906165387e-39
-0.3547731042 -0.07057198882 -0.02503865585 8.906165387e-39
-0.05720553547 -0.08333092928 -0.01635984145 8.906165387e-39
-0.2248338163 -0.02867392637 -0.06032640859 8.906165387e-39
-0.06448771805 -0.06966309249 0.01866365224 8.906165387e-39
-0.1946594119 -0.02836217918 -0.03516947851 8.906165387e-39
-0.1055746898 0.006526265293 0.004368500784 9.641561216e-39
-0.04824722186 -0.03398313373 0.2135318816 9.641561216e-39
0.04517487809 0.0132235121 -0.001971376361 9.641561216e-39
0.2541053295 0.0007931141299 0.0121507477 9.641561216e-39
-0.1653286517 0.0132868262 -0.0002810806036 9.641561216e-39
-0.134884879 -0.02201645076 0.2262792736 9.641561216e-39
0.12483944 0.02831471153 0.01343318447 9.641561216e-39
0.3641840816 0.01205358747 0.001653118408 9.641561216e-39
-0.02646066807 0.02096761763 0.01429190766 9.641561216e-39
-0.05354014039 -0.02280580811 0.1813154668 9.641561216e-39
0.1652109772 0.01127531752 0.0336978361 9.641561216e-39
0.3310633898 -0.005444916431 0.006837857421 9.641561216e-39
0.00905652158 0.00362383062 0.03225463629 9.641561216e-39
-0.06960824877 -0.03237086907 0.1196845323 9.641561216e-39
0.1386660784 0.005779692903 0.0114588486 9.641561216e-39
0.3060706556 -0.02570527233 -0.002505237469 9.641561216e-39
-0.01778091863 -0.01294651907 0.01012448687 9.641561216e-39
-0.1539493948 -0.07140184194 0.04152715951 9.641561216e-39
0.06750008464 -0.01197881717 -0.01258843206 9.641561216e-39
0.2603211999 -0.03864848241 -0.001865191036 9.641561216e-39
-0.04169184342 -0.01876520179 0.017079629 9.641561216e-39
-0.08543287218 -0.09170334786 0.0322535336 9.641561216e-39
0.1504200697 -0.02141561359 -0.01333816256 9.641561216e-39
0.3359656036 -0.039868664 -0.004464775324 9.641561216e-39
0.03038286045 -0.002511250554 0.009591478854 9.641561216e-39
-0.06400188804 -0.0671088025 0.04505065456 9.641561216e-39
0.1431173533 0.01351911388 0.01712671854 9.641561216e-39
0.3329114616 -0.02363077924 -0.003864134895 9.641561216e-39
0.01295935083 0.008845240809 -0.01217866782 9.641561216e-39
0.0166828502 -0.01866781339 0.009868614376 9.641561216e-39
0.006148074754 0.01129929721 0.01521283761 9.641561216e-39
0.2354700863 0.008774522692 0.02545785531 9.641561216e-39
-0.1907027215 0.01344123017 -0.01820939593 1.037659831e-38
0.09207558632 0.01386668347 0.02625556663 1.037659831e-38
-0.1207200065 -0.01115591731 -0.03808886185 1.037659831e-38
0.2233477682 0.001605464611 0.02994380705 1.037659831e-38
-0.1450547725 0.007160407025 0.01724036597 1.037659831e-38
-0.01662826166 0.01360123884 0.005753027275 1.037659831e-38
0.03083361872 0.005739044864 -0.05232987925 1.037659831e-38
0.3761436045 0.003190357704 0.02725445665 1.037659831e-38
-0.3136423528 0.02788337879 -0.05833780393 1.037659831e-38
0.1195686162 0.01459141821 0.04622964561 1.037659831e-38
0.05117502436 0.005382113159 -0.05920026451 1.037659831e-38
0.3292230666 -0.02800843492 0.04615537077 1.037659831e-38
-0.2810278237 -0.004686842673 -0.05085777864 1.037659831e-38
0.03900873661 -0.01850924082 0.08244454861 1.037659831e-38
-0.06905964017 -0.01554737892 -0.03137949109 1.037659831e-38
0.2714430988 -0.05901963264 0.04042978957 1.037659831e-38
-0.2763093412 0.008982670493 -0.01396673266 1.037659831e-38
-0.01770224981 -0.006116328761 0.02529493347 1.037659831e-38
-0.08657698333 0.02832408994 -0.03537475318 1.037659831e-38
0.2132229656 -0.0642374754 0.04336735234 1.037659831e-38
-0.1756620258 -0.01461541839 -0.00329164532 1.037659831e-38
0.02874694951 0.001460297848 0.02084427513 1.037659831e-38
0.003940735012 0.02110018954 -0.03314291313 1.037659831e-38
0.2854265869 -0.05776312947 0.03946627676 1.037659831e-38
-0.2834620774 -0.03268143162 -0.006630211603 1.037659831e-38
0.09025391936 -0.01009571552 0.04375211522 1.037659831e-38
-0.02666725405 0.02061956935 -0.04039446637 1.037659831e-38
0.2925129533 -0.04584797472 0.03388388455 1.037659831e-38
-0.2327110171 -0.008698362857 -0.02609761432 1.037659831e-38
0.127623111 0.0103333341 0.02996863984 1.037659831e-38
-0.142829746 -0.001204430475 -0.04610013217 1.037659831e-38
0.230726853 0.007411940489 0.02953774109 1.037659831e-38
-0.0363666378 -0.05035623536 -0.194634825 1.111163541e-38
-0.08730927855 -0.03109383024 -0.1039388701 1.111163541e-38
0.08698478341 -0.06912377477 -0.04863192886 1.111163541e-38
-0.1871762872 -0.01692952216 -0.05671901256 1.111163541e-38
-0.05928356946 -0.04102036357 -0.2066749483 1.111163541e-38
-0.07313299924 -0.02303271182 -0.0800781697 1.111163541e-38
0.131650731 -0.03375819698 -0.01908443123 1.111163541e-38
-0.3146939874 0.0113104824 -0.04719481617 1.111163541e-38
-0.1140147448 -0.0297170002 -0.285695821 1.111163541e-38
-0.1858782321 -0.009151695296 -0.07507426292 1.111163541e-38
0.1515565962 -0.05204987153 -0.03276597708 1.111163541e-38
-0.3309274912 -0.03327789903 -0.05222036317 1.111163541e-38
-0.01989637315 -0.04734661803 -0.1175206229 1.111163541e-38
-0.1655231565 0.008718783967 -0.0744125098 1.111163541e-38
0.1563997269 -0.07042301446 -0.01189132594 1.111163541e-38
-0.3042367399 -0.02610936388 -0.05424626172 1.111163541e-38
0.01705328003 -0.04899322614 -0.06097310781 1.111163541e-38
-0.11601457 -0.03571257368 -0.02547009662 1.111163541e-38
0.1387995929 -0.09415091574 -0.01648270898 1.111163541e-38
-0.2467720211 -0.01058839913 -0.02655029483 1.111163541e-38
0.05022570491 -0.02952210046 -0.03402753174 1.111163541e-38
-0.08505453169 -0.06672396511 -0.02721153386 1.111163541e-38
0.2025141716 -0.0836873576 0.00859933719 1.111163541e-38
-0.2847157419 -0.04269690812 -0.02911614813 1.111163541e-38
0.02108328789 -0.03215197474 -0.05546215922 1.111163541e-38
-0.1678349078 -0.04553006589 -0.005835839547 1.111163541e-38
0.2182410508 -0.08362834901 -0.007152867503 1.111163541e-38
-0.3170222342 -0.03255676478 -0.03219430149 1.111163541e-38
0.0630942136 -0.0196530018 -0.0524173528 1.111163541e-38
-0.1056808978 0.002743877936 -0.00835327711 1.111163541e-38
0.1290715784 -0.04643459618 -0.03722099215 1.111163541e-38
-0.1740749925 0.001942423522 -0.03756975755 1.111163541e-38
-0.2808490098 -0.03405326605 -0.0177483093 1.184631237e-38
-0.03514685482 0.002458627103 0.02295913547 1.184631237e-38
-0.3544305563 0.08345418423 -0.0004377923615 1.184631237e-38
-0.0673758164 -0.007203662768 -0.03988455236 1.184631237e-38
-0.1988112777 -0.02562072314 -0.03325647488 1.184631237e-38
-0.1499948949 0.018098047 0.02984377183 1.184631237e-38
-0.3988259733 0.01761591062 0.01357384492 1.184631237e-38
-0.2128225565 0.002369906055 -0.06204335764 1.184631237e-38
-0.3047505617 -0.02182750776 0.06209874898 1.184631237e-38
-0.2038968354 0.006566966418 0.03778754547 1.184631237e-38
-0.4126521051 -0.01155548543 0.04926554859 1.184631237e-38
-0.1722162664 -0.02600721084 -0.0624053888 1.184631237e-38
-0.2837530673 -0.008448220789 0.0586916469 1.184631237e-38
-0.2255624533 -0.00480838865 0.05904756859 1.184631237e-38
-0.3917669952 -0.04431898147 -0.02870622836 1.184631237e-38
-0.1244466752 -0.02284457162 -0.05857325718 1.184631237e-38
-0.2574521005 -0.003401296213 0.03635016084 1.184631237e-38
-0.1680364311 -0.004157936666 0.04916076735 1.184631237e-38
-0.3445516527 -0.05845331028 -0.02356643043 1.184631237e-38
-0.00896464102 -0.04926686361 -0.0500607416 1.184631237e-38
-0.1727475971 -0.008759572171 0.0009045635816 1.184631237e-38
-0.1178025976 -0.01583777554 0.03753747791 1.184631237e-38
-0.3371579647 -0.04900814965 -0.0007163899718 1.184631237e-38
-0.05920029432 -0.040975146 -0.06150683016 1.184631237e-38
-0.2442835569 -0.05370124802 0.0311089661 1.184631237e-38
-0.1771872789 -0.01177122444 0.04892627895 1.184631237e-38
-0.3819721341 -0.04496288672 -0.03163664043 1.184631237e-38
-0.0567846261 -0.03369595855 -0.05525141954 1.184631237e-38
-0.2552737296 0.002842895454 0.04013305157 1.184631237e-38
-0.1582302749 -0.00605858909 0.03623725474 1.184631237e-38
-0.2949926257 -0.006651422475 -0.03644597903 1.184631237e-38
0.04627406225 -0.01868450642 -0.0429607667 1.184631237e-38
-0.04387839884 -0.05550021306 0.1701978594 1.258099074e-38
0.1576630175 -0.01593968086 0.02608102188 1.258099074e-38
-0.03734605387 -0.04256408289 0.1582733542 1.258099074e-38
-0.07031156868 -0.03460523859 0.2160075456 1.258099074e-38
-0.03530340642 -0.02769009583 0.1236686856 1.258099074e-38
0.1283678263 0.02261127718 0.02423121221 1.258099074e-38
-0.1469486803 -0.01358366664 0.05433043838 1.258099074e-38
-0.0154907601 -0.02252226137 0.1330331415 1.258099074e-38
0.002077583922 -0.01678861864 0.06261223555 1.258099074e-38
0.1917172521 0.02140495181 0.02636416815 1.258099074e-38
-0.09554007649 -0.02208750509 0.07687264681 1.258099074e-38
-0.04237660021 -0.06057269871 0.1396787167 1.258099074e-38
0.05240290239 -0.01513139904 0.06411826611 1.258099074e-38
0.2908229232 -0.00331846159 0.033482939 1.258099074e-38
-0.02381057106 -0.05035654828 0.05370319262 1.258099074e-38
-0.1901231706 -0.09288801253 0.04617477953 1.258099074e-38
0.05955764651 -0.04018980265 0.0548340641 1.258099074e-38
0.2309028655 -0.044320371 0.04256197438 1.258099074e-38
-0.005438371096 -0.05791652203 0.05244680867 1.258099074e-38
-0.1317182928 -0.09491674602 0.02995944209 1.258099074e-38
0.1541287601 -0.04149510711 0.05033269897 1.258099074e-38
0.204063341 -0.04688073322 0.0476953499 1.258099074e-38
-0.08084852248 -0.05821257457 0.04174131528 1.258099074e-38
-0.160654828 -0.0970698297 0.03492982313 1.258099074e-38
0.1049133316 -0.04116281494 0.05298103765 1.258099074e-38
0.2900068462 -0.04732084274 0.04039271176 1.258099074e-38
-0.05334419012 -0.04310043156 0.04874353111 1.258099074e-38
-0.1903295815 -0.05851099268 0.04862415418 1.258099074e-38
0.1275033802 -0.01376695372 0.05670431629 1.258099074e-38
0.2537042499 -0.01761208102 0.04908584803 1.258099074e-38
-0.00016348809 0.0112465499 0.0392299071 1.258099074e-38
-0.1167705134 -0.05271060765 0.02458859049 1.258099074e-38
-0.0009688732098 -0.04349574819 -0.06638124585 1.331530897e-38
0.1992997974 -0.06710618734 0.005415163003 1.331530897e-38
0.04858645797 -0.01337049156 0.03193892911 1.331530897e-38
0.275504142 -0.04091047868 -0.02129634283 1.331530897e-38
0.04390551895 -0.02726665698 -0.02941737697 1.331530897e-38
0.0662246272 -0.01959517039 0.04764001071 1.331530897e-38
-0.155438453 0.009148223326 0.02277716435 1.331530897e-38
0.3921407461 -0.02486072667 -0.01066208445 1.331530897e-38
-0.08589223772 -0.05065928027 -0.1121767387 1.331530897e-38
0.2624540031 -0.04109696671 0.01876234636 1.331530897e-38
-0.08502303064 -0.0375748463 0.03644471243 1.331530897e-38
0.3812760413 -0.07171436399 -0.002567337826 1.331530897e-38
-0.01753835753 -0.04872361943 -0.09181312472 1.331530897e-38
0.2146290839 -0.0718754828 0.04947632924 1.331530897e-38
-0.01820618659 -0.06088343635 0.04947630689 1.331530897e-38
0.3429487646 -0.07734661549 -0.01645916328 1.331530897e-38
0.004391448107 -0.05554447323 -0.05573037639 1.331530897e-38
0.1588677615 -0.09103197604 0.0201784838 1.331530897e-38
0.05032915249 -0.05785160884 0.04446046427 1.331530897e-38
0.2912967801 -0.0795192197 -0.01705218293 1.331530897e-38
0.08139663935 -0.05488114432 -0.05722445995 1.331530897e-38
0.1387308091 -0.09355083108 0.01733505726 1.331530897e-38
-0.03502684832 -0.07020864636 0.05314964429 1.331530897e-38
0.35738644 -0.07321006805 -0.02656517923 1.331530897e-38
0.01095802803 -0.06156749651 -0.05664813891 1.331530897e-38
0.2144630998 -0.1151302606 0.01127015799 1.331530897e-38
-0.03225950897 -0.06254090369 0.04673118517 1.331530897e-38
0.3656987846 -0.06932093948 -0.02461513504 1.331530897e-38
0.0481556356 -0.03727107868 -0.06755682081 1.331530897e-38
0.2106700093 -0.07490702718 0.01241027936 1.331530897e-38
0.03263460472 -0.02354509942 0.03710095957 1.331530897e-38
0.2217493951 -0.04620917141 -0.03573011234 1.331530897e-38
-0.0832952112 -0.0437730141 -0.1697534025 1.404926846e-38
-0.1266086847 -0.03795774281 -0.2515929341 1.404926846e-38
-0.02287804335 -0.04478902742 -0.06168473884 1.404926846e-38
-0.09781648219 -0.02863554657 -0.25649634 1.404926846e-38
-0.05153848603 -0.02655178681 -0.1230150759 1.404926846e-38
-0.07753340155 -0.03317207098 -0.2348069996 1.404926846e-38
0.0268286597 -0.00991753675 -0.06992869079 1.404926846e-38
-0.1161225662 -0.01860110089 -0.2568751574 1.404926846e-38
-0.08802028745 -0.01513040252 -0.1554639637 1.404926846e-38
-0.1078499034 -0.03727294877 -0.23013331 1.404926846e-38
0.08738341928 -0.02568034269 -0.09642253816 1.404926846e-38
-0.09054688364 -0.04139564931 -0.1473244727 1.404926846e-38
-0.09949910641 -0.0299773328 -0.09480502456 1.404926846e-38
-0.1868936867 -0.03730942681 -0.1034047157 1.404926846e-38
0.08841113746 -0.07643828541 -0.04596940055 1.404926846e-38
-0.2646682858 -0.03205126524 -0.07282901555 1.404926846e-38
-0.06407345086 -0.02621849813 -0.04473639652 1.404926846e-38
-0.1494196951 -0.02128141373 -0.03685515001 1.404926846e-38
0.07656873018 -0.09399686009 -0.02979587018 1.404926846e-38
-0.143969059 -0.05597602203 -0.04267142713 1.404926846e-38
0.01234165486 -0.05395332724 -0.06260664761 1.404926846e-38
-0.09634045511 -0.02475538664 -0.05628374219 1.404926846e-38
0.1291307211 -0.09044334292 -0.006799533498 1.404926846e-38
-0.1947167516 -0.05953672901 -0.04890345037 1.404926846e-38
-0.01679343358 -0.04738771915 -0.0459420234 1.404926846e-38
-0.1349405795 -0.03708970174 -0.04261985794 1.404926846e-38
0.09716172516 -0.08514133096 -0.01753746532 1.404926846e-38
-0.2568949759 -0.04319892451 -0.05591932312 1.404926846e-38
-0.05146348849 -0.01455520093 -0.03114379756 1.404926846e-38
-0.1474023312 -0.009179046378 -0.06195496023 1.404926846e-38
0.004671845119 -0.02890351228 -0.05633390322 1.404926846e-38
-0.09493608028 -0.01696174406 -0.04664942995 1.404926846e-38
-0.05592530966 -0.05069960281 -0.1908621192 1.478322936e-38
-0.1748185903 0.002236682922 -0.03478861973 1.478322936e-38
0.1482002884 -0.01406506822 -0.03175977618 1.478322936e-38
0.06361743808 0.01402659342 -0.009130708873 1.478322936e-38
-0.1212048307 -0.0341030322 -0.2327432483 1.478322936e-38
-0.1237538978 -0.01206447463 -0.03177049756 1.478322936e-38
0.2558429539 -0.0086191101 -0.02874921262 1.478322936e-38
-0.06437698007 0.03968078643 -0.01370903663 1.478322936e-38
-0.001788435504 -0.004604955204 -0.06659876555 1.478322936e-38
-0.2188869715 0.006942912936 -0.04446986318 1.478322936e-38
0.2235610485 -0.03655778989 -0.04285284132 1.478322936e-38
-0.08584145457 -0.009361067787 -0.04665498435 1.478322936e-38
0.05701423809 -0.009993921034 -0.02328888886 1.478322936e-38
-0.2513418794 -0.01046023332 -0.07473780215 1.478322936e-38
0.1816588193 -0.03531301394 -0.04239539802 1.478322936e-38
-0.09902984649 -0.004687930457 -0.01674976014 1.478322936e-38
-0.01874875277 -0.02007158287 -0.03284357116 1.478322936e-38
-0.209044531 -0.01801976003 -0.04373900965 1.478322936e-38
0.1936103553 -0.03568054736 -0.04283609986 1.478322936e-38
-0.01622541808 0.01074090227 -0.03171750903 1.478322936e-38
-0.01699844189 -0.04092894122 -0.04273499921 1.478322936e-38
-0.1603179127 -0.03252581134 -0.03780443966 1.478322936e-38
0.277449578 -0.03143870085 -0.03943258896 1.478322936e-38
-0.06240615994 0.005600431003 -0.02559897117 1.478322936e-38
0.1768919677 -0.06506270915 -0.04685343057 1.478322936e-38
-0.2167456895 -0.03661683947 -0.05575182661 1.478322936e-38
0.2582112849 -0.0309147276 -0.03951660171 1.478322936e-38
-0.05600388721 0.0204437878 -0.02958206646 1.478322936e-38
0.1518689841 -0.03201530874 -0.02103099786 1.478322936e-38
-0.2141919881 -0.01619125903 -0.03767039627 1.478322936e-38
0.09518133104 0.01437203679 -0.01207987312 1.478322936e-38
-0.04617187753 0.01168340165 0.006774202455 1.478322936e-38
0.04499041289 -0.0696669966 0.05895197764 1.551683013e-38
-0.3195067048 0.03331651911 -0.003275971394 1.551683013e-38
-0.2746235728 -0.03244286403 0.0438420698 1.551683013e-38
-0.3904126883 0.07232837379 -0.04621752724 1.551683013e-38
-0.09835220873 -0.02916188538 0.1288431585 1.551683013e-38
-0.2090044916 0.005183650181 0.01410765294 1.551683013e-38
-0.1096614227 -0.005666024052 0.0415353477 1.551683013e-38
-0.3690292239 0.05629014969 0.0001684427261 1.551683013e-38
-0.08140103519 -0.03975751996 -0.01725987718 1.551683013e-38
-0.3754730225 0.02215437964 0.02721850947 1.551683013e-38
-0.1215627417 -0.0261670053 0.02909546345 1.551683013e-38
-0.3967266679 0.0132924756 0.004146041814 1.551683013e-38
-0.06234226003 -0.07231271267 -0.008383431472 1.551683013e-38
-0.3657253683 0.01011017524 0.06273270398 1.551683013e-38
-0.2171269655 -0.05191865936 -0.0001372359693 1.551683013e-38
-0.4319648445 -0.04638262093 0.0311587546 1.551683013e-38
-0.07108131051 -0.0610791184 -0.01692964882 1.551683013e-38
-0.2656289041 -0.0188324824 0.01950866543 1.551683013e-38
-0.1938113421 -0.05922349542 0.001968694152 1.551683013e-38
-0.4073272049 -0.03154907003 0.007118950598 1.551683013e-38
0.04753231257 -0.08634635061 0.02420716733 1.551683013e-38
-0.1925920248 -0.0280926954 -0.006108617876 1.551683013e-38
-0.1249287203 -0.08631225675 0.01743609086 1.551683013e-38
-0.3427700102 -0.03631404042 0.03468339518 1.551683013e-38
-0.01905869879 -0.1075826958 -0.01324991789 1.551683013e-38
-0.2817312777 -0.02828263678 0.004480805248 1.551683013e-38
-0.2075685412 -0.08022368699 0.0003343187273 1.551683013e-38
-0.3866613209 -0.05428117514 0.0375318788 1.551683013e-38
-0.02983886562 -0.06849658489 -0.0002293549478 1.551683013e-38
-0.2723630667 -0.01805983856 0.0167538356 1.551683013e-38
-0.2348110229 0.00441441033 0.02286300063 1.551683013e-38
-0.3170588017 0.01177794393 -0.002589827171 1.551683013e-38
-0.3071957827 -0.03511179611 -0.02955836058 1.625043089e-38
-0.3501747847 0.05195774511 -0.001492156414 1.625043089e-38
-0.2547157407 -0.02196716145 -0.0414230153 1.625043089e-38
-0.3482505977 0.05478927121 0.005421384238 1.625043089e-38
-0.1882653236 -0.01151640434 -0.09490152448 1.625043089e-38
-0.3533377647 0.03912933543 -0.00793458242 1.625043089e-38
-0.3988867104 -0.001132979523 -0.02152503096 1.625043089e-38
-0.3921427131 0.02683169022 0.01258243527 1.625043089e-38
-0.3250877559 -0.01077639312 -0.02694965526 1.625043089e-38
-0.3451591134 0.06371400505 0.007221647538 1.625043089e-38
-0.4101479948 -0.03550097719 -0.0008522418793 1.625043089e-38
-0.3876408339 0.00300660939 0.02626220323 1.625043089e-38
-0.3084050417 -0.0523429662 -0.04209937528 1.625043089e-38
-0.2932987213 -0.02925142832 -0.05933049694 1.625043089e-38
-0.3938657641 -0.05101835728 -0.02598613128 1.625043089e-38
-0.3556148112 -0.01417504624 0.03148567304 1.625043089e-38
-0.2662404478 -0.08583942801 -0.03158178553 1.625043089e-38
-0.2281360477 -0.01898506097 -0.02578026988 1.625043089e-38
-0.3293675482 -0.05968980864 -0.02588110045 1.625043089e-38
-0.2769789696 -0.03933250532 0.008923666552 1.625043089e-38
-0.2082315683 -0.08219294995 -0.04657652602 1.625043089e-38
-0.2120548636 -0.04544642568 -0.02451944537 1.625043089e-38
-0.3758554161 -0.06484310329 0.0009623539518 1.625043089e-38
-0.2888957262 -0.06657370925 0.03106725775 1.625043089e-38
-0.3166664541 -0.08348141611 -0.03716927767 1.625043089e-38
-0.2400348783 -0.03162696585 -0.02120750584 1.625043089e-38
-0.4022750854 -0.05887014046 -0.004125542007 1.625043089e-38
-0.3291845322 -0.04832347482 0.0339791961 1.625043089e-38
-0.3068265319 -0.08545634896 -0.03854976222 1.625043089e-38
-0.2406386286 -0.03862811998 -0.0281816069 1.625043089e-38
-0.2506218255 0.01198263653 -0.02977311797 1.625043089e-38
-0.3219929039 0.008173559792 -0.00197084737 1.625043089e-38
0.02235820703 -0.05258131027 -0.01866018213 1.698367293e-38
-0.07062272727 -0.04096382484 -0.1839553863 1.698367293e-38
0.04271306098 -0.04003864154 0.04090823233 1.698367293e-38
-0.08425598592 -0.03660299256 -0.1692199409 1.698367293e-38
-0.1318764836 -0.03125663474 -0.04687294737 1.698367293e-38
-0.01756877638 -0.03235315159 -0.1114871055 1.698367293e-38
-0.06413916498 -0.03025143221 0.05042013898 1.698367293e-38
-0.1162349284 -0.01926943474 -0.1613334715 1.698367293e-38
0.09389843047 -0.03530970588 -0.0419786498 1.698367293e-38
-0.1236608848 -0.04136836156 -0.1618008763 1.698367293e-38
-0.01036752854 -0.05242436379 0.05908649787 1.698367293e-38
-0.1547490209 -0.03571853414 -0.1347016543 1.698367293e-38
0.1168135405 -0.03844434395 -0.06650922447 1.698367293e-38
-0.02921216376 -0.005303976592 -0.09242774546 1.698367293e-38
0.08928010613 -0.09752635658 0.02248350717 1.698367293e-38
-0.1825428158 -0.03386003152 -0.04164100066 1.698367293e-38
0.06245285645 -0.0865278393 -0.02109056897 1.698367293e-38
0.02015615627 0.008857161738 -0.006452336907 1.698367293e-38
0.1313305497 -0.09931113571 0.04384120926 1.698367293e-38
-0.1450760067 -0.03844287246 -0.03994430602 1.698367293e-38
0.03913548589 -0.0948965922 -0.02228756621 1.698367293e-38
0.0448801294 -0.001324984361 0.007286270615 1.698367293e-38
0.05437906832 -0.1016343236 0.06031763926 1.698367293e-38
-0.1741173416 -0.04102435708 -0.03985163569 1.698367293e-38
0.1763609201 -0.09366675466 -0.04711512104 1.698367293e-38
-0.01279373653 0.03850274161 -0.0009372380446 1.698367293e-38
0.09326051176 -0.1106234565 0.03897406906 1.698367293e-38
-0.1200287938 -0.03946464136 -0.03898454458 1.698367293e-38
0.127160117 -0.07571030408 -0.04457452148 1.698367293e-38
0.03418352827 0.01244616508 0.01692359895 1.698367293e-38
0.1767454594 -0.07153223455 0.01791224442 1.698367293e-38
-0.1297168583 -0.02027350478 -0.03766370937 1.698367293e-38
-0.07720119506 -0.03471720591 0.2536290288 1.771655483e-38
-0.04820581898 -0.04817520827 0.151774019 1.771655483e-38
0.1922686398 -0.04484057054 -0.0257737916 1.771655483e-38
0.01101131923 -0.06552529335 0.01576637663 1.771655483e-38
-0.1285089701 -0.04299677908 0.2869586647 1.771655483e-38
-0.1171026379 -0.03267173842 0.1908171773 1.771655483e-38
0.3253582716 -0.02160095423 -0.0242503155 1.771655483e-38
0.2148266584 -0.05474207923 0.01454567723 1.771655483e-38
0.05029652268 -0.03894112632 0.1265598834 1.771655483e-38
-0.07224172354 -0.05744185671 0.06591409445 1.771655483e-38
0.3308337927 -0.04437785968 -0.0294900164 1.771655483e-38
0.2633300126 -0.08318586648 0.01991926692 1.771655483e-38
0.006183828693 -0.06234261766 0.09042090178 1.771655483e-38
-0.08136250824 -0.08360434324 -0.006178389769 1.771655483e-38
0.2733225226 -0.05819841474 -0.03195085004 1.771655483e-38
0.1497335434 -0.08895722032 0.01270451955 1.771655483e-38
-0.07448731363 -0.0929492265 0.02736244723 1.771655483e-38
-0.109416388 -0.09886047989 -0.01392526273 1.771655483e-38
0.2384794056 -0.08380114287 -0.02874661423 1.771655483e-38
0.06279735267 -0.09149119258 0.03211693838 1.771655483e-38
-0.1307826042 -0.08745026588 0.0939020887 1.771655483e-38
-0.09083984047 -0.1028872132 0.000479850889 1.771655483e-38
0.3238022029 -0.09998150915 -0.03761115298 1.771655483e-38
0.2121958584 -0.09960834682 0.004630633164 1.771655483e-38
0.05220363662 -0.114925921 0.0225720387 1.771655483e-38
-0.04118803889 -0.1024942473 -0.02273459174 1.771655483e-38
0.2865441144 -0.06254522502 -0.03139672056 1.771655483e-38
0.3020882905 -0.0799658373 0.04134310782 1.771655483e-38
-0.00642669294 -0.07783735543 0.03388257325 1.771655483e-38
-0.05087779835 -0.07787644863 -0.05921180919 1.771655483e-38
0.178892836 -0.05810139701 -0.007057333365 1.771655483e-38
0.1060250103 -0.04834188893 0.06663667411 1.771655483e-38
-0.3851220012 0.08000648022 0.0003110319376 1.844943813e-38
-0.2637118697 -0.02764044143 -0.04599907994 1.844943813e-38
-0.2758922577 0.02399622276 -0.01374809258 1.844943813e-38
-0.1335113943 -0.04070788622 -0.03389342874 1.844943813e-38
-0.3520832956 0.04239528626 -0.001127153169 1.844943813e-38
-0.1721339971 -0.02632310055 -0.05731222034 1.844943813e-38
-0.3798945546 0.04115412012 0.006610669661 1.844943813e-38
-0.2278548181 -0.03624325618 -0.04722517356 1.844943813e-38
-0.3792186081 0.05182016268 0.01370589994 1.844943813e-38
-0.2892927229 -0.02091936208 -0.03921558335 1.844943813e-38
-0.4124117494 0.02920725755 0.008585004136 1.844943813e-38
-0.2258467823 -0.04829887301 -0.06913866103 1.844943813e-38
-0.3264675438 0.01168736536 0.007825066335 1.844943813e-38
-0.3607355654 -0.01798090152 -0.05485703796 1.844943813e-38
-0.4344829917 -0.02536494657 -0.01119623519 1.844943813e-38
-0.2334423065 -0.05386301503 -0.0611073412 1.844943813e-38
-0.3068108559 0.02452643774 0.001641093171 1.844943813e-38
-0.2539300919 -0.04446650669 -0.04092300683 1.844943813e-38
-0.4060456157 -0.05357914791 -0.02813250944 1.844943813e-38
-0.1517600119 -0.04538689554 -0.05295019597 1.844943813e-38
-0.2480187267 -0.01975026168 0.01921999641 1.844943813e-38
-0.2227164358 -0.04309213907 -0.04796954244 1.844943813e-38
-0.4168375432 -0.02760798298 0.006085365545 1.844943813e-38
-0.225066945 -0.06256317347 -0.04692400619 1.844943813e-38
-0.3126257062 -0.03497366235 0.04036169872 1.844943813e-38
-0.287553817 -0.06086654216 -0.03523453698 1.844943813e-38
-0.4159745872 -0.03758599609 -0.002210673178 1.844943813e-38
-0.2489662915 -0.05989499763 -0.04357006773 1.844943813e-38
-0.3362671733 -0.01306726132 0.01214298513 1.844943813e-38
-0.3018066585 -0.04334409535 -0.03686052188 1.844943813e-38
-0.364795357 -0.01905264333 -0.03035360761 1.844943813e-38
-0.1240330562 -0.03506815806 -0.04287961125 1.844943813e-38
-0.06463693082 -0.004752927925 0.03815276176 1.91819627e-38
0.2252279818 0.002336795907 -0.02938707173 1.91819627e-38
-0.01789369993 -0.02612382174 0.1063711196 1.91819627e-38
0.3216638267 -0.004915272351 0.01122406684 1.91819627e-38
-0.2290686071 -0.009583254345 0.05423761159 1.91819627e-38
-0.02327580564 -0.003076618072 -0.06522288173 1.91819627e-38
0.113247633 0.02535721846 0.02710686997 1.91819627e-38
0.4247917533 -0.01522821188 -0.0004992484464 1.91819627e-38
-0.02311198041 0.01397925429 0.07206822932 1.91819627e-38
0.2502666712 0.008464447223 -0.02855664305 1.91819627e-38
0.1041379869 -0.005973327439 0.07231621444 1.91819627e-38
0.396114707 -0.02059170045 -0.005797455553 1.91819627e-38
-0.09300160408 -0.007482016459 0.06880181283 1.91819627e-38
0.1807476282 -0.01900803111 -0.05926225334 1.91819627e-38
0.08106026798 -0.047890421 0.0336509943 1.91819627e-38
0.3977120519 -0.03550565243 -0.01797473617 1.91819627e-38
-0.1432202011 -0.01255608629 0.04011936486 1.91819627e-38
0.0721751973 -0.05359949917 -0.08987045288 1.91819627e-38
0.09873499721 -0.01898308098 0.01538372878 1.91819627e-38
0.3391286433 -0.06588485837 -0.0005187838688 1.91819627e-38
-0.2002653033 -0.01674790494 0.01433091052 1.91819627e-38
0.09418302029 -0.0558805801 -0.07566719502 1.91819627e-38
0.1025395021 -0.06632053107 0.01369295362 1.91819627e-38
0.4238424301 -0.04036476463 -0.01536340825 1.91819627e-38
-0.08342314512 -0.0192503836 0.01563291997 1.91819627e-38
0.1838850677 -0.04629944265 -0.06826801598 1.91819627e-38
0.119851172 0.004805855919 0.02401682734 1.91819627e-38
0.4332050085 -0.03716688603 -0.003765729256 1.91819627e-38
-0.0447499752 0.01978400722 0.0165428482 1.91819627e-38
0.2172380239 -0.008736715652 -0.04887801409 1.91819627e-38
0.03695907816 0.00808565598 0.01920112409 1.91819627e-38
0.3443974853 -0.006401585415 -0.03919298947 1.91819627e-38
0.1157775968 -0.06557793915 -0.03054248169 1.991448586e-38
0.3504863381 -0.05760444701 -0.01002411451 1.991448586e-38
0.06816094369 -0.0486045219 0.05364548415 1.991448586e-38
0.3348065615 -0.04496144876 0.01451233216 1.991448586e-38
-0.01481670514 -0.06613683701 -0.01927875169 1.991448586e-38
0.1440210938 -0.02342724428 0.02870276943 1.991448586e-38
-0.1462096125 -0.04769548029 0.03483428806 1.991448586e-38
0.4314365685 -0.02371550724 0.00209578569 1.991448586e-38
0.1733774394 -0.03136466816 -0.04272351786 1.991448586e-38
0.292887181 -0.05574500561 0.01623597369 1.991448586e-38
-0.04169733077 -0.05045863613 0.08304034173 1.991448586e-38
0.410993576 -0.04520984739 0.03235307708 1.991448586e-38
0.171731323 -0.07003875077 -0.02364721335 1.991448586e-38
0.2590810061 -0.04305427149 0.04275963828 1.991448586e-38
0.03422030807 -0.0810488686 -0.01501378138 1.991448586e-38
0.3763379455 -0.05692860112 0.02982200496 1.991448586e-38
0.132985428 -0.08557453752 0.01677593775 1.991448586e-38
0.2030632943 -0.07820539176 0.03244778886 1.991448586e-38
0.08480092138 -0.08730241656 -0.03463225439 1.991448586e-38
0.3294086158 -0.06988933682 0.04002442956 1.991448586e-38
0.09014146775 -0.09024671465 0.01338573266 1.991448586e-38
0.1896720529 -0.08397130668 0.03484440967 1.991448586e-38
-0.04906050488 -0.09519474208 0.01819135994 1.991448586e-38
0.3642295897 -0.07064307481 0.03328350931 1.991448586e-38
0.2332648039 -0.1074027345 -0.007428166922 1.991448586e-38
0.2450459898 -0.09328915179 0.0267685391 1.991448586e-38
-0.06395503879 -0.09742366523 0.0001570805907 1.991448586e-38
0.3967839777 -0.05362809449 0.02009870298 1.991448586e-38
0.2065611035 -0.08612720668 0.006109787617 1.991448586e-38
0.2483153194 -0.05207302049 0.02907070704 1.991448586e-38
0.2001864165 -0.06686335802 -0.04218953475 1.991448586e-38
0.3044779003 -0.03433461487 0.04673012719 1.991448586e-38
0.289519757 -0.0157743711 -0.02518117055 2.06466517e-38
0.08020466566 -0.02426534519 -0.03452469036 2.06466517e-38
0.3355315626 -0.01761297509 -0.0308210738 2.06466517e-38
-0.1302816123 -0.03448970616 -0.2282219231 2.06466517e-38
0.07372924685 0.02983706258 -0.0002188980579 2.06466517e-38
-0.01467125677 -0.004959386308 -0.04010652751 2.06466517e-38
0.4008020163 -0.001475020195 -0.008396785706 2.06466517e-38
-0.0321508497 -0.02991148829 -0.1740090847 2.06466517e-38
0.2953560948 0.01979971118 -0.009914922528 2.06466517e-38
0.11746151 -0.009000188671 -0.05051568896 2.06466517e-38
0.445178926 -0.01524089742 -0.003992744721 2.06466517e-38
0.03348878399 -0.02368493564 -0.1447821409 2.06466517e-38
0.2952302098 -0.001589375199 -0.02118227445 2.06466517e-38
0.190708667 -0.01708047092 -0.06529887766 2.06466517e-38
0.4275316894 -0.04157150909 -0.02254528739 2.06466517e-38
0.008024103008 -0.05140977725 -0.05499964207 2.06466517e-38
0.2371848375 -0.02170832641 -0.01230609883 2.06466517e-38
0.1229295507 -0.06004521623 -0.03753833845 2.06466517e-38
0.3321677744 -0.0899206847 -0.02251250669 2.06466517e-38
-0.02213037759 -0.05385096371 -0.05243852735 2.06466517e-38
0.1951635331 -0.03469713032 -0.03114713915 2.06466517e-38
0.09295270592 -0.06840619445 -0.02086762525 2.06466517e-38
0.3936545551 -0.07728016376 -0.009675439447 2.06466517e-38
0.03559952974 -0.07063504308 -0.0396210812 2.06466517e-38
0.3061162531 -0.03556789085 -0.03305254504 2.06466517e-38
0.1744139194 -0.06210814044 -0.05387018993 2.06466517e-38
0.4314880073 -0.05348586291 -0.01329424139 2.06466517e-38
0.03961960226 -0.04232272878 -0.04091341048 2.06466517e-38
0.3060115576 -0.01422519423 -0.02198309079 2.06466517e-38
0.2030076683 -0.03442517295 -0.03717536107 2.06466517e-38
0.2777630687 -0.04263775423 -0.04136443511 2.06466517e-38
0.04581348971 -0.0006029605283 -0.04958802834 2.06466517e-38
-0.2117200196 -0.0124582164 -0.01708264649 2.137881613e-38
0.02131618932 -0.01366735063 0.02264568396 2.137881613e-38
-0.2845661044 0.007891856134 0.01884225383 2.137881613e-38
0.04844678566 -0.03663576022 -0.06248567626 2.137881613e-38
-0.1873094141 -0.003853026312 -0.0392773971 2.137881613e-38
-0.219428882 0.002643474843 -0.03923758492 2.137881613e-38
-0.3330262601 0.02371984534 0.03519649431 2.137881613e-38
-0.06421037763 0.03500340879 -0.0252011288 2.137881613e-38
-0.2259194851 -0.005074531771 0.01133493241 2.137881613e-38
-0.04623110965 -0.02085651457 0.06422569603 2.137881613e-38
-0.351118654 0.03542861342 0.03095470183 2.137881613e-38
-0.0149235297 0.004865988158 -0.03408317268 2.137881613e-38
-0.2311517596 0.009257707745 0.02826374769 2.137881613e-38
0.006476878189 0.0002973973751 0.02217950486 2.137881613e-38
-0.3122381568 -0.004724557046 0.03471390158 2.137881613e-38
0.0169795081 -0.01201455574 -0.0257851202 2.137881613e-38
-0.2272336185 0.01286891568 0.01456154231 2.137881613e-38
-0.1629176438 0.006403679028 -0.02244740538 2.137881613e-38
-0.2393854856 -0.04715541378 0.02279378287 2.137881613e-38
0.07844495773 -0.0313003771 -0.03035637923 2.137881613e-38
-0.1478179395 0.02621480636 0.002924795263 2.137881613e-38
-0.1238532886 0.005112797022 -0.01327573322 2.137881613e-38
-0.2921463251 -0.07205501944 0.03090020828 2.137881613e-38
0.03675284237 0.007227585651 -0.01466887258 2.137881613e-38
-0.1608845145 -0.009186069481 0.02903744206 2.137881613e-38
-0.06771653891 0.006836933549 -0.008294571191 2.137881613e-38
-0.3364603817 -0.05307698995 0.02479753643 2.137881613e-38
0.04579064995 0.02296051569 -0.01418781094 2.137881613e-38
-0.2250418812 0.01522467379 0.01742081903 2.137881613e-38
-0.1312593073 0.005228524096 -0.009258378297 2.137881613e-38
-0.2140386552 -0.01685161702 0.02891887724 2.137881613e-38
0.1199029386 0.01597022824 -0.01814579777 2.137881613e-38
-0.01309551671 -0.01584209502 0.03734906763 2.211062324e-38
-0.1583120376 -0.01637760922 0.03616670519 2.211062324e-38
0.1371461749 0.03281651437 -0.02464275807 2.211062324e-38
-0.3002341688 0.04116866738 0.007827179506 2.211062324e-38
-0.04684891924 0.0006889103679 0.02847724408 2.211062324e-38
-0.1043446958 -0.01199642383 0.05622095242 2.211062324e-38
0.25976789 0.01637990214 -0.03313198686 2.211062324e-38
-0.36963588 0.03426399082 0.02213077433 2.211062324e-38
0.09243172407 0.03275302798 0.031618312 2.211062324e-38
-0.2200993299 -0.01014516689 0.05816075206 2.211062324e-38
0.2615498304 -0.0135182552 -0.05880352855 2.211062324e-38
-0.4051290154 0.05523880944 0.01868351549 2.211062324e-38
0.04646598548 0.02214674652 0.02617302351 2.211062324e-38
-0.2175257057 0.003473103978 0.05113045499 2.211062324e-38
0.1908651143 -0.03051974997 -0.06181591749 2.211062324e-38
-0.3960335255 -0.03453025594 -0.01057691127 2.211062324e-38
0.002817980945 0.02747472934 0.03275803104 2.211062324e-38
-0.1661118269 0.03910947964 0.01857246086 2.211062324e-38
0.1396849155 -0.01367142517 -0.04898293689 2.211062324e-38
-0.3481319845 -0.01733352989 -0.01213877834 2.211062324e-38
-0.01769928634 0.03594958782 0.01703522354 2.211062324e-38
-0.1347872764 0.0474659875 0.008543825708 2.211062324e-38
0.2246174961 -0.03594920039 -0.05591827631 2.211062324e-38
-0.3849389255 -0.07999926805 0.006481316406 2.211062324e-38
0.07544539124 0.02200109884 0.01521577034 2.211062324e-38
-0.1811485887 0.02976426296 0.02054292895 2.211062324e-38
0.18510665 -0.03885569423 -0.05267273262 2.211062324e-38
-0.4117575884 -0.076974608 -0.01179650798 2.211062324e-38
0.05227511749 0.03202746436 0.02383255213 2.211062324e-38
-0.1716392338 0.01599637233 0.02797039412 2.211062324e-38
0.1584075391 -0.01075723954 -0.03579581529 2.211062324e-38
-0.2738055587 0.01495243888 0.03366733715 2.211062324e-38
-0.02933805995 -0.05389639363 0.03288674727 2.284242894e-38
0.3880670071 -0.009272960015 0.01265839674 2.284242894e-38
0.02142176032 -0.02203782089 0.05770898238 2.284242894e-38
0.1441577524 0.003548813984 -0.02557295747 2.284242894e-38
-0.03020866215 0.01475399081 0.0006811543135 2.284242894e-38
0.1386784315 0.01823808625 0.02782515995 2.284242894e-38
-0.07376264036 -0.0004265242897 0.1132323146 2.284242894e-38
0.3197651207 -0.006456532981 -0.04132715985 2.284242894e-38
-0.04084697366 0.00909972284 -0.1486361176 2.284242894e-38
0.3536389172 0.003012234578 0.02424134687 2.284242894e-38
-0.07884576172 -0.004614609294 0.08080020547 2.284242894e-38
0.3022211492 -0.01131739374 -0.0482284613 2.284242894e-38
0.03429795429 -0.002103307983 -0.008944295347 2.284242894e-38
0.3202160001 -0.02392419055 0.03033135831 2.284242894e-38
-0.07931503654 0.0007731577498 0.03867511824 2.284242894e-38
0.2097256333 -0.03031347878 -0.02025924623 2.284242894e-38
-0.0001523643732 -0.02364129946 0.008610446006 2.284242894e-38
0.162234664 -0.05263508111 0.02525760047 2.284242894e-38
-0.04076265544 0.05157296732 0.0174509082 2.284242894e-38
0.1725187451 -0.04404053092 0.001153904479 2.284242894e-38
0.06909392774 -0.009717576206 0.01523023751 2.284242894e-38
0.2297916561 -0.0391799733 0.03142923862 2.284242894e-38
-0.08024723083 0.04333847761 0.02662312612 2.284242894e-38
0.2291400135 -0.02485954575 0.005258381367 2.284242894e-38
0.04533525556 -0.04144998267 -0.008849482983 2.284242894e-38
0.3577946424 -0.0630345121 0.0100659756 2.284242894e-38
-0.04655405879 0.03874827176 0.01193165779 2.284242894e-38
0.2633423805 -0.03010032326 -0.001853091409 2.284242894e-38
0.09688729048 0.007269928697 0.01370279398 2.284242894e-38
0.3900716007 -0.02333771065 -0.005468545016 2.284242894e-38
0.0444223769 0.01898456551 -0.0069529186 2.284242894e-38
0.2083715498 -0.005015380681 0.0143264262 2.284242894e-38
0.2448748201 -0.05714463443 -0.02992969751 2.348204041e-38
0.1119495705 -0.05760709941 0.0131445257 2.348204041e-38
-0.08813422918 -0.04531530663 -0.1042746454 2.348204041e-38
-0.04871417955 -0.06879197061 -0.005808154121 2.348204041e-38
0.2219308615 -0.005138828885 -0.04274494946 2.348204041e-38
0.07776843756 -0.02829186991 -0.004983637016 2.348204041e-38
-0.08604641259 -0.04344308004 -0.1575365961 2.348204041e-38
-0.02380179241 -0.02359295078 0.1078784093 2.348204041e-38
0.3426692486 -0.03511080146 -0.03271459416 2.348204041e-38
0.171834752 -0.04070918635 0.04049675167 2.348204041e-38
-0.0533089675 -0.05889091268 -0.1776456833 2.348204041e-38
0.002048012801 -0.05997998267 0.0732235387 2.348204041e-38
0.3452802896 -0.04340354726 -0.03587577119 2.348204041e-38
0.174455151 -0.06965130568 0.03047831915 2.348204041e-38
-0.07233338803 -0.07084859908 -0.04344351217 2.348204041e-38
0.04466829449 -0.06743688136 0.02009554766 2.348204041e-38
0.3504650891 -0.04784552008 -0.03256006911 2.348204041e-38
0.1579637229 -0.1053431407 0.019667577 2.348204041e-38
-0.1448488384 -0.08995206654 -0.01263114717 2.348204041e-38
0.03720732406 -0.09487406164 -0.02032727189 2.348204041e-38
0.3466741443 -0.04737394303 -0.02589013614 2.348204041e-38
0.1459027976 -0.1066121459 0.02168154716 2.348204041e-38
-0.05464812741 -0.08062360436 -0.03151933849 2.348204041e-38
0.09845263511 -0.06976049393 -0.0099776797 2.348204041e-38
0.4048961997 -0.05822958797 -0.02236094885 2.348204041e-38
0.1829613298 -0.105068624 0.03005932458 2.348204041e-38
-0.0932264477 -0.07425229251 -0.008992057294 2.348204041e-38
0.09319988638 -0.06886278838 0.01365074608 2.348204041e-38
0.396430403 -0.04542091861 -0.02808228694 2.348204041e-38
0.1954870671 -0.0770033896 0.03281300142 2.348204041e-38
-0.1190515682 -0.06616909802 0.0176059138 2.348204041e-38
0.06792162359 -0.06223279983 -0.02688372321 2.348204041e-38
-0.2605219185 -0.0002035349607 -0.02570335567 2.347880341e-38
-0.1873789281 -0.06948487461 -0.008703131229 2.347880341e-38
-0.3722786903 0.03646187112 -0.007358805742 2.347880341e-38
0.07599999011 -0.05337163433 0.02365036309 2.347880341e-38
-0.1866102964 -0.0324229151 -0.07387258857 2.347880341e-38
-0.08815860748 -0.05745362118 0.0010580417 2.347880341e-38
-0.3850851059 0.02855104394 0.02328143455 2.347880341e-38
-0.0621368736 -0.05773665756 0.001869706088 2.347880341e-38
-0.2541416585 0.003436551895 -0.03108298592 2.347880341e-38
-0.1734215468 -0.05948134512 0.02306365222 2.347880341e-38
-0.4547694921 0.03302451596 0.005630463362 2.347880341e-38
-0.0490860194 -0.07594323158 0.01769411564 2.347880341e-38
-0.3003641963 -0.03476119414 -0.03834054247 2.347880341e-38
-0.2264749408 -0.07472874969 0.0202529002 2.347880341e-38
-0.4342935681 -0.04015742242 -0.01002313942 2.347880341e-38
0.008997644298 -0.0784150064 0.03712940216 2.347880341e-38
-0.3132887483 -0.06922478974 -0.03695343807 2.347880341e-38
-0.1889889091 -0.09441162646 0.01515774522 2.347880341e-38
-0.3658083975 -0.03741529211 -0.01761013083 2.347880341e-38
0.1206212342 -0.09321238101 0.04326014221 2.347880341e-38
-0.2270686328 -0.06316679716 -0.05316136032 2.347880341e-38
-0.1653422713 -0.1105421409 0.01407277025 2.347880341e-38
-0.359351337 -0.02570030279 0.006596752908 2.347880341e-38
0.06539265066 -0.09186014533 0.04952719063 2.347880341e-38
-0.2934583127 -0.05642810464 -0.03463537991 2.347880341e-38
-0.234244734 -0.1059393436 0.01686542667 2.347880341e-38
-0.4265688658 -0.06698428839 -0.01454389375 2.347880341e-38
0.04780127481 -0.08491097391 0.03992188349 2.347880341e-38
-0.3311420083 -0.06859175116 -0.02860715985 2.347880341e-38
-0.211646229 -0.08870187402 0.001651881612 2.347880341e-38
-0.3534058034 -0.00297418097 0.02282833681 2.347880341e-38
0.1306564957 -0.05845617503 0.04781419784 2.347880341e-38
0.02135783434 -0.04585024714 -0.04251966625 2.347520768e-38
-0.2402921766 -0.001550445915 -0.03017869405 2.347520768e-38
-0.07176174968 -0.04303342476 -0.06212113798 2.347520768e-38
-0.1470427662 0.009976054542 0.05506337434 2.347520768e-38
0.05337302387 -0.03535402939 -0.03335116059 2.347520768e-38
-0.05080980435 0.004628491122 0.002925745212 2.347520768e-38
-0.1983241737 -0.02001246437 -0.07661574334 2.347520768e-38
-0.2638638914 0.02817049623 0.003285753774 2.347520768e-38
-0.1034270376 -0.05306147784 -0.03465081379 2.347520768e-38
-0.2873104811 0.00325474306 -0.01874395646 2.347520768e-38
-0.1881091744 -0.04795821384 -0.09581355751 2.347520768e-38
-0.2929874957 -0.0002645831555 -0.04708010703 2.347520768e-38
-0.06487544626 -0.06652920693 -0.03610590473 2.347520768e-38
-0.3992452621 -0.0264398735 -0.03568824381 2.347520768e-38
-0.1451111883 -0.06514830887 -0.06402683258 2.347520768e-38
-0.2686603963 -0.01250330079 -0.0190336518 2.347520768e-38
0.005341687705 -0.07371564209 -0.006629667711 2.347520768e-38
-0.3560812175 -0.04579589516 -0.03317528591 2.347520768e-38
-0.04262591153 -0.05660467222 -0.03698156402 2.347520768e-38
-0.1938317418 -0.01499519218 -0.01023600996 2.347520768e-38
0.1045996621 -0.06817171723 -0.01884067617 2.347520768e-38
-0.2717695832 -0.04949634522 -0.03970849514 2.347520768e-38
-0.1148608625 -0.07192821801 -0.05624760315 2.347520768e-38
-0.2122396976 -0.02732865885 -0.0105124861 2.347520768e-38
0.01152893528 -0.08844406903 -0.01201576274 2.347520768e-38
-0.388010025 -0.0611326322 -0.01899297163 2.347520768e-38
-0.1514872611 -0.07052533329 -0.05902160704 2.347520768e-38
-0.2580856979 -0.02092172392 -0.01000825409 2.347520768e-38
-0.02430234663 -0.07495906949 0.009871326387 2.347520768e-38
-0.3621196747 -0.02652117237 -0.03438609466 2.347520768e-38
0.01457802486 -0.009565244429 -0.04582077637 2.347520768e-38
-0.1588071883 0.006887859665 0.008612985723 2.347520768e-38
0.2594632208 -0.008989367634 0.02995929681 2.347161195e-38
0.3587625921 0.007651444059 -0.01897972077 2.347161195e-38
0.390253067 -0.02266722731 0.02720638923 2.347161195e-38
-0.04624499008 -0.01618539728 0.09111630172 2.347161195e-38
0.1899016351 0.0271014832 -0.01812152378 2.347161195e-38
0.09557597339 0.01352952234 0.02500095591 2.347161195e-38
0.431470722 -0.02141192369 0.01066769566 2.347161195e-38
0.1149309427 0.03034201078 -0.00684001483 2.347161195e-38
0.3040237129 -0.008084419183 0.02929073386 2.347161195e-38
0.2173139006 0.01045806985 0.002215604763 2.347161195e-38
0.4467563033 -0.03258020431 0.01769431308 2.347161195e-38
0.127132386 0.01402498875 -0.03241931647 2.347161195e-38
0.2967250645 -0.01434767153 0.0406027399 2.347161195e-38
0.1620919704 -0.02572722547 0.04919689149 2.347161195e-38
0.4115155637 -0.03626568988 0.02881328575 2.347161195e-38
0.02922566608 -0.03489060327 0.025561627 2.347161195e-38
0.2658044994 -0.03849185631 0.04083647951 2.347161195e-38
0.03767618164 -0.03103359789 0.03152961656 2.347161195e-38
0.3741818964 -0.07977158576 0.03323226422 2.347161195e-38
-0.02929699793 -0.06179176643 0.05307283998 2.347161195e-38
0.2339732796 -0.0268998947 0.03939992934 2.347161195e-38
0.04628891498 -0.01332163252 0.005998338573 2.347161195e-38
0.4085122347 -0.0832663849 0.02253427729 2.347161195e-38
0.06593459845 -0.03560542315 0.02261162549 2.347161195e-38
0.3101187646 -0.04198573902 0.04077483341 2.347161195e-38
0.1533495337 -0.01222063135 0.01369772851 2.347161195e-38
0.4295203686 -0.04152563959 0.02371769585 2.347161195e-38
0.05911417678 -0.03224345669 0.008509896696 2.347161195e-38
0.3294476569 -0.02564352937 0.03403556347 2.347161195e-38
0.1995655 0.006558797322 0.01430951711 2.347161195e-38
0.3703319728 -0.0194956474 0.03271500394 2.347161195e-38
0.04434502125 -0.008447892964 0.04392969981 2.347161195e-38
-0.2456418127 0.01069566049 -0.008761121891 2.346801622e-38
-0.1266243607 7.511675358e-05 -0.01595646329 2.346801622e-38
-0.3736759126 0.04806236923 -0.0003265440464 2.346801622e-38
-0.05634063855 -0.05047025904 -0.02628760785 2.346801622e-38
-0.2489927262 -0.008828366175 -0.05414713174 2.346801622e-38
-0.2179989964 -0.004481598735 -0.04251539707 2.346801622e-38
-0.4240673184 0.04192560539 -0.03507785127 2.346801622e-38
0.05669829249 -0.06363224238 -0.007178823929 2.346801622e-38
-0.2596156895 0.01739037596 0.04402913898 2.346801622e-38
-0.05377223343 -0.003791656811 -0.02336103842 2.346801622e-38
-0.4384227395 -0.003486693604 -0.04185445979 2.346801622e-38
0.0529759638 -0.01791129075 -0.001653729356 2.346801622e-38
-0.2589657605 -0.005638882518 0.03285847604 2.346801622e-38
-0.1629297286 0.01176070608 -0.009830918163 2.346801622e-38
-0.4415258467 -0.03698546067 0.01520009991 2.346801622e-38
0.001381806098 0.01492148172 0.0003993063874 2.346801622e-38
-0.2510794997 -0.01729534939 0.02051664516 2.346801622e-38
