# .PCD v0.7 - Point Cloud Data file format
VERSION 0.7
FIELDS x y z rgb
SIZE 4 4 4 4
TYPE F F F F
COUNT 1 1 1 1
WIDTH 828
HEIGHT 1
VIEWPOINT 0 0 0 1 0 0 0
POINTS 828
DATA ascii
0.1968159378 -0.09604476392 -0.3467049897 1.478322936e-38
0.1709991843 -0.1151032746 -0.1377351731 1.478322936e-38
-0.06765802205 -0.1202771962 -0.1812845469 1.478322936e-38
-0.03669951111 -0.03003784828 -0.09472642094 1.478322936e-38
0.194035545 -0.1147812307 -0.4159220457 1.478322936e-38
0.2012663633 -0.1035180911 -0.2034624517 1.478322936e-38
-0.00118447782 -0.1133939624 -0.1317397207 1.478322936e-38
-0.04339713976 -0.0367384851 -0.1406211257 1.478322936e-38
0.1943455637 -0.1244956926 -0.2706735134 1.478322936e-38
0.1217464507 -0.1402565539 -0.1428211182 1.478322936e-38
0.0119237313 -0.1118897647 -0.2621753216 1.478322936e-38
-0.009560695849 -0.01882589981 0.00568455318 1.478322936e-38
0.1705038995 -0.09963279217 -0.3419577777 1.478322936e-38
0.09223985672 0.002103519393 -0.1518448442 1.478322936e-38
0.04494997114 -0.07719814032 -0.2549977601 1.478322936e-38
0.1003712565 -0.1303373277 -0.08428128064 1.478322936e-38
0.09433206916 -0.1269597262 -0.253791064 1.478322936e-38
0.09688973427 -0.03416216373 -0.03733250871 1.478322936e-38
0.1026384905 -0.1086714789 -0.271381706 1.478322936e-38
0.1026724502 -0.1478542686 -0.1539111286 1.478322936e-38
-0.08430596441 -0.1303126812 -0.04544894025 1.478322936e-38
-0.02069864608 -0.08204385638 -0.2169431597 1.478322936e-38
-0.04668533802 -0.1016915888 0.03107846156 1.551683013e-38
-0.1603953093 0.1293983907 0.389759481 1.551683013e-38
-0.1791893393 0.1018206477 -0.0979981795 1.551683013e-38
-0.2096002996 -0.07364029437 -0.07083138824 1.551683013e-38
-0.02215534635 -0.1171774268 0.1130259857 1.551683013e-38
-0.1513388455 0.1173951253 0.2567943037 1.551683013e-38
-0.1441618353 0.06205763295 0.214291051 1.551683013e-38
-0.2034048438 -0.03760560229 0.1640290916 1.551683013e-38
-0.083455652 -0.1103532314 -0.2061762661 1.551683013e-38
-0.2058639228 0.1105159223 0.444837451 1.551683013e-38
-0.2350209653 0.1155605689 0.01171112899 1.551683013e-38
-0.2242908329 -0.01591205411 0.04211691022 1.551683013e-38
-0.05376349762 -0.1028588414 -0.03638501838 1.551683013e-38
-0.1794085503 0.1393564641 0.2920829058 1.551683013e-38
-0.1864148974 0.127834022 0.1213007644 1.551683013e-38
-0.2154227495 -0.02843860164 0.104527235 1.551683013e-38
-0.008050908335 -0.1053005382 -0.1231387332 1.551683013e-38
-0.1346737891 0.1117421612 0.3481909633 1.551683013e-38
-0.1577905566 0.05346559733 0.002634154167 1.551683013e-38
-0.1334210783 -0.02931760252 0.01046416722 1.551683013e-38
-0.1046605706 -0.1085693464 0.04144350812 1.551683013e-38
-0.1500651091 0.1293857098 0.2289969623 1.551683013e-38
-0.102121003 -0.00887918938 0.1771285683 1.551683013e-38
-0.1173406318 0.01339013595 0.09276211262 1.551683013e-38
-0.07072539628 -0.01411015727 -0.1282888949 1.551683013e-38
-0.2006865442 0.1336490959 0.05158853531 1.551683013e-38
-0.07448189706 -0.1377308071 0.1843912899 1.551683013e-38
-0.1016903669 -0.09314531088 0.2750375867 1.551683013e-38
-0.1935536414 0.1279498935 -0.2039171308 1.551683013e-38
-0.1873691678 -0.03521370143 0.2173359543 1.551683013e-38
-0.1527499706 -0.1117223501 -0.1743272245 1.551683013e-38
-0.1702018231 0.1411934495 0.3474130929 1.551683013e-38
-0.1820363998 0.009583185427 -0.2032032162 1.625043089e-38
-0.1428219825 0.1347000897 -0.006649485789 1.625043089e-38
-0.2005910873 -0.0320452638 -0.4184257984 1.625043089e-38
-0.2062191218 0.05391215906 0.01634987816 1.625043089e-38
-0.1935015321 0.002925767563 -0.4738932252 1.625043089e-38
-0.1174769849 0.1180228516 -0.1479936242 1.625043089e-38
-0.1949183196 -0.08362522721 -0.08523289859 1.625043089e-38
-0.2236866802 0.06029264629 0.2629768252 1.625043089e-38
-0.2114299387 0.03798742965 -0.07299318165 1.625043089e-38
-0.2057148963 0.1391967833 0.07295703143 1.625043089e-38
-0.2380248904 -0.07414408028 -0.3586040735 1.625043089e-38
-0.2199440897 0.08834507316 0.1434628814 1.625043089e-38
-0.2223610133 0.1572992653 -0.2899644077 1.625043089e-38
-0.2011193931 0.1535200179 -0.08909346908 1.625043089e-38
-0.1981508881 -0.06780845672 -0.2221527696 1.625043089e-38
-0.2135940343 0.06761119515 0.2071580738 1.625043089e-38
-0.1550613046 0.1369785368 -0.1912207454 1.625043089e-38
-0.1577286571 0.1393428147 -0.03532702103 1.625043089e-38
-0.2009485811 -0.045769196 -0.2871348858 1.625043089e-38
-0.2084893286 0.03533570468 0.07802236825 1.625043089e-38
-0.1827832162 0.1209977195 -0.3754000366 1.625043089e-38
-0.1437925398 0.1306919903 -0.1405419111 1.625043089e-38
-0.2031215578 0.03558385 -0.2379087061 1.625043089e-38
-0.2060556114 -0.08221028 0.08266405761 1.625043089e-38
-0.2184854448 0.04528508335 -0.3462483585 1.625043089e-38
-0.2281011492 0.009457022883 -0.02944383025 1.625043089e-38
-0.2058068216 0.1260411888 -0.2638481855 1.625043089e-38
-0.2276208401 -0.1109909341 -0.03144644946 1.625043089e-38
-0.189861834 -0.05943172425 -0.1491214186 1.625043089e-38
-0.1985031515 -0.02002304234 0.1755730212 1.625043089e-38
-0.1775399148 0.07500250638 -0.121078901 1.625043089e-38
-0.1735509932 0.135856688 0.02577950992 1.625043089e-38
0.08092333376 -0.1334472001 -0.3643492758 1.698367293e-38
-0.1054167449 0.08700124174 -0.3240283132 1.698367293e-38
0.1493460536 -0.1127426326 -0.2970387042 1.698367293e-38
-0.1880662292 0.09605923295 -0.1920428425 1.698367293e-38
-0.1195546314 -0.02400132827 -0.4535677135 1.698367293e-38
0.03058441915 -0.003072722349 -0.2680078447 1.698367293e-38
0.05884627998 -0.1171543449 0.05606903881 1.698367293e-38
-0.1954585016 -0.06129299849 0.05881211162 1.698367293e-38
0.1966225207 -0.03922523931 -0.4687745869 1.698367293e-38
-0.2051534206 0.06011072919 -0.2528464496 1.698367293e-38
0.08639819175 -0.1160676107 -0.1919678897 1.698367293e-38
-0.2153144628 0.02964550443 -0.135810867 1.698367293e-38
-0.006278402638 -0.02882936969 -0.4534753561 1.698367293e-38
-0.09562965482 0.03573687375 -0.3007141054 1.698367293e-38
0.07370263338 -0.1156995744 -0.08464131504 1.698367293e-38
-0.2109774053 -0.07151161879 -0.06607674807 1.698367293e-38
0.09762343764 -0.01476372778 -0.4477109015 1.698367293e-38
-0.08054113388 0.01014658622 -0.2535355985 1.698367293e-38
-0.005760561209 -0.1139899865 -0.1960486621 1.698367293e-38
-0.181826055 0.09857455641 -0.101711005 1.698367293e-38
-0.02254993282 -0.001250724541 -0.3572083712 1.698367293e-38
-0.08575963974 -0.003896613372 -0.2029893994 1.698367293e-38
-0.07464338094 -0.13214764 -0.1771478206 1.698367293e-38
-0.04309635609 -0.1408798397 0.1098752096 1.698367293e-38
0.03072328679 -0.03300091624 -0.3307807744 1.698367293e-38
-0.08101487905 -0.001758471131 -0.08807825297 1.698367293e-38
-0.1714684516 -0.07922324538 -0.173063159 1.698367293e-38
-0.03617634624 -0.02984381653 -0.024852328 1.698367293e-38
0.100769192 -0.1269440949 -0.2041657269 1.698367293e-38
-0.173731938 -0.1035455242 0.003998332657 1.698367293e-38
0.1563576907 -0.06982320547 -0.4549223781 1.698367293e-38
-0.1798749417 -0.01276220474 -0.2908621728 1.698367293e-38
0.1720911264 -0.1288720965 0.05364281312 1.771655483e-38
0.1060849056 0.002667137654 -0.4856642485 1.771655483e-38
0.2036115527 -0.06319635361 0.3154560328 1.771655483e-38
0.1996698231 -0.08809600025 -0.07494085282 1.771655483e-38
0.09300172329 -0.1187243834 0.2845548391 1.771655483e-38
0.2094037384 -0.09203930944 -0.3257436752 1.771655483e-38
0.1426787227 -0.1188838929 0.460296452 1.771655483e-38
-0.02703858353 -0.07552199066 -0.4347141683 1.771655483e-38
0.1814232171 -0.07204429805 0.01936635748 1.771655483e-38
0.1867721379 0.00461402256 -0.4721309245 1.771655483e-38
0.1795368791 -0.08916493505 0.3810157776 1.771655483e-38
0.06176921725 -0.1132927835 -0.2498917878 1.771655483e-38
0.154433623 -0.106165491 0.2148683667 1.771655483e-38
0.1880605966 -0.01235691924 -0.3820303679 1.771655483e-38
0.188007772 -0.1245730296 0.4210321605 1.771655483e-38
0.02439833432 -0.1059440002 -0.3519777358 1.771655483e-38
0.1215854734 -0.1040950269 0.1035556719 1.771655483e-38
0.1988630593 0.03530459106 -0.4179747105 1.771655483e-38
0.2291785628 -0.1005176082 0.2164779752 1.771655483e-38
0.04412705079 -0.111660324 -0.1239163801 1.771655483e-38
0.05143600702 -0.1154310331 0.1703148633 1.771655483e-38
0.1881713122 -0.0835923478 -0.2818950415 1.771655483e-38
0.2143683732 -0.1096891463 0.1521528512 1.771655483e-38
-0.03857344389 -0.08696899563 -0.1909891516 1.771655483e-38
0.01746898517 -0.1127474084 0.2797847092 1.771655483e-38
0.1231307015 -0.1055111662 -0.2286305428 1.771655483e-38
-0.02284340933 -0.1332400441 0.3760500848 1.771655483e-38
0.1431365013 -0.1277290136 -0.1092741936 1.771655483e-38
0.04640087858 -0.1078100577 0.3710205257 1.771655483e-38
-0.001271917718 -0.1568841934 -0.4062153101 1.771655483e-38
0.05347289145 -0.1139628068 -0.02655363083 1.771655483e-38
0.137671411 -0.02906324901 -0.3891200125 1.771655483e-38
-0.1203602701 0.1329237223 0.3051427603 1.844943813e-38
-0.144650653 0.1251570731 -0.04963945225 1.844943813e-38
-0.1955540329 0.02494821697 -0.3006763756 1.844943813e-38
-0.2008265704 0.00878114067 -0.09765733033 1.844943813e-38
-0.1274983436 0.1271595508 0.1527802497 1.844943813e-38
-0.1106927171 0.05904218927 0.08849542588 1.844943813e-38
-0.1923163533 -0.01687833481 -0.4522453249 1.844943813e-38
-0.1831900626 -0.1068990901 -0.1203576252 1.844943813e-38
-0.1515042335 0.112977244 0.3887284696 1.844943813e-38
-0.1666743606 0.1206162646 -0.09310985357 1.844943813e-38
-0.2324638665 0.05508325249 -0.3579035103 1.844943813e-38
-0.2235005647 -0.01045010984 -0.1455964893 1.844943813e-38
-0.1465752274 0.1187346652 0.2888157964 1.844943813e-38
-0.1553882957 0.08615840971 0.008798714727 1.844943813e-38
-0.2088603079 0.009046061896 -0.400219053 1.844943813e-38
-0.2105187625 -0.0562578924 -0.1747073531 1.844943813e-38
-0.08733881265 0.08794715255 0.3567622602 1.844943813e-38
-0.1174456626 0.007265298162 -0.01085317694 1.844943813e-38
-0.212675795 0.08159351349 -0.2677316666 1.844943813e-38
-0.2123615444 0.0457460545 -0.09924702346 1.844943813e-38
-0.1253535002 0.04443536699 0.1677454561 1.844943813e-38
-0.09473086149 -0.02507740818 0.07979156822 1.844943813e-38
-0.2093501836 0.113365829 -0.2239001244 1.844943813e-38
-0.2168356478 -0.02509792894 -0.02964091487 1.844943813e-38
-0.1024640426 0.0358701162 0.2501142025 1.844943813e-38
-0.07606311888 -0.0142875798 0.02608711645 1.844943813e-38
-0.1765166223 0.1584467143 0.01128487103 1.844943813e-38
-0.2063343972 0.08230201155 0.09535368532 1.844943813e-38
-0.1907796562 -0.1020373031 -0.2140134275 1.844943813e-38
-0.1844343096 -0.1222318858 -0.05283325911 1.844943813e-38
-0.1522328258 0.1468650997 0.2030886263 1.844943813e-38
-0.1791132241 0.1393634528 -0.1790000051 1.844943813e-38
0.1680828929 0.008119553328 0.4897052646 1.91819627e-38
-0.05792449042 0.03292223439 0.3953680098 1.91819627e-38
0.1916840076 -0.1055075452 0.4320251048 1.91819627e-38
-0.06053283066 -0.01555147581 0.237735942 1.91819627e-38
-0.05419095978 -0.008096115664 0.4930487573 1.91819627e-38
0.06570789218 -0.009697550908 0.251498878 1.91819627e-38
0.1912036985 -0.0917949602 0.2252325416 1.91819627e-38
-0.1640361696 0.09443303198 0.3215122223 1.91819627e-38
0.1087588966 0.01109897252 0.4847181737 1.91819627e-38
-0.1635588706 0.0182895083 0.4190873206 1.91819627e-38
0.2244631946 -0.08655240387 0.3783570826 1.91819627e-38
-0.1179995015 -0.002455944894 0.2062245458 1.91819627e-38
0.01363909617 0.04635035619 0.4932426214 1.91819627e-38
0.02295452915 -0.005886650644 0.3090630472 1.91819627e-38
0.187320441 -0.09729734063 0.2889341712 1.91819627e-38
-0.1370469779 0.03757030889 0.2579989135 1.91819627e-38
0.08560284972 0.07424926758 0.4852280021 1.91819627e-38
-0.02115182951 -0.008697425015 0.3321368396 1.91819627e-38
0.123009555 -0.1162982583 0.3016575575 1.91819627e-38
-0.0675515756 -0.04453847185 0.1449317485 1.91819627e-38
-0.1114057526 0.02511515468 0.4429289401 1.91819627e-38
-0.001605554018 -0.01929933019 0.2368076593 1.91819627e-38
0.04569148272 -0.1417603642 0.3272560239 1.91819627e-38
0.1068014205 -0.02221203968 0.1655777693 1.91819627e-38
-0.04156474769 -0.01653204672 0.24217996 1.91819627e-38
-0.104322277 0.03206004947 0.3831527829 1.91819627e-38
-0.01173330657 -0.118598327 0.3664524555 1.91819627e-38
0.1653309613 -0.02168337815 0.137509793 1.91819627e-38
0.1187312752 -0.1208647639 0.4060035944 1.91819627e-38
-0.1716931462 0.08947835863 0.4378552139 1.91819627e-38
0.03046466596 -0.08347421139 0.4870323241 1.91819627e-38
0.01003273483 -0.03648499772 0.1162067205 1.91819627e-38
-0.002580987057 -0.04204546288 0.01015710179 1.991448586e-38
0.1954549104 -0.01479365397 0.1656671911 1.991448586e-38
0.07051314414 -0.1158938706 0.1342200488 1.991448586e-38
0.1918415725 -0.1085777134 0.2238274366 1.991448586e-38
-0.120107159 -0.00496551767 -0.06422684342 1.991448586e-38
0.1882083714 -0.005503964145 -0.00507900212 1.991448586e-38
-0.104608722 -0.1119706035 0.0527965948 1.991448586e-38
0.2151249796 -0.07013008744 0.4308853447 1.991448586e-38
0.07112818956 -0.02336995862 -0.02954589203 1.991448586e-38
0.2163095921 -0.02203652263 0.2082362324 1.991448586e-38
-0.02770394273 -0.1078354865 0.1433590353 1.991448586e-38
0.1969545037 -0.1075539887 0.3209456801 1.991448586e-38
-0.07893783599 -0.01114112232 -0.05423524976 1.991448586e-38
0.209397912 -0.01453011669 0.0656792447 1.991448586e-38
0.007907166146 -0.1035175696 0.08043128252 1.991448586e-38
0.2164905965 -0.06366039813 0.3852047324 1.991448586e-38
0.03882236779 -0.009261883795 -0.05660462752 1.991448586e-38
0.2003161162 -0.02288078889 0.1203662604 1.991448586e-38
-0.04876569286 -0.1395616829 0.2020772099 1.991448586e-38
0.110495314 -0.1123627871 0.2777324915 1.991448586e-38
-0.0407249704 -0.02686046623 -0.1878816187 1.991448586e-38
0.1543940008 -0.01050009392 0.02076427825 1.991448586e-38
-0.1622983217 -0.1417853683 0.1477218419 1.991448586e-38
0.008689214475 -0.1394195855 0.3019067347 1.991448586e-38
0.1293189526 -0.01539939735 -0.15382424 1.991448586e-38
0.1483546197 -0.01401847415 0.1199262664 1.991448586e-38
-0.1365285516 -0.03920935467 -0.001209288253 1.991448586e-38
0.04524730518 -0.1220848784 0.1003916264 1.991448586e-38
0.09393621981 -0.119451873 0.06607670337 1.991448586e-38
0.1405274421 -0.1384713352 0.3327190578 1.991448586e-38
0.1603637338 -0.1018203273 -0.1105638966 1.991448586e-38
0.1226414964 -0.0448580943 0.05699433014 1.991448586e-38
0.1955690086 -0.07481567562 -0.3963430524 2.06466517e-38
-0.08782312274 0.04866629466 -0.4211534262 2.06466517e-38
0.196443364 -0.06411699206 -0.0892900005 2.06466517e-38
-0.01550971717 -0.009209021926 -0.2166816443 2.06466517e-38
0.1558422148 0.009849863127 -0.4884910583 2.06466517e-38
0.03183855861 0.03902724013 -0.4189322889 2.06466517e-38
0.1963820904 -0.04331193864 0.1404535919 2.06466517e-38
0.1779610813 -0.03453052416 -0.1870941669 2.06466517e-38
0.1917729676 -0.06057930738 -0.3401713073 2.06466517e-38
-0.1681214124 0.1293525845 -0.4274057448 2.06466517e-38
0.2070006579 -0.03609410301 -0.04973934218 2.06466517e-38
0.03648860008 -0.006143976934 -0.1975829601 2.06466517e-38
0.1950453818 0.03141641617 -0.4651629329 2.06466517e-38
-0.08136181533 0.05714987218 -0.4242537916 2.06466517e-38
0.1997385174 -0.02805054188 0.07197272778 2.06466517e-38
0.1074509248 0.001981550129 -0.1913063675 2.06466517e-38
0.178377226 -0.03855244815 -0.3771594763 2.06466517e-38
-0.1076823771 0.04024689272 -0.3563295901 2.06466517e-38
0.1920650303 -0.03948120028 -0.1024437025 2.06466517e-38
0.0218702089 -0.03438756987 -0.1394456476 2.06466517e-38
0.00334330136 -0.01553879771 -0.3313963711 2.06466517e-38
-0.10352128 -0.04376687855 -0.3380967379 2.06466517e-38
0.1977677643 -0.005577197298 -0.1462556869 2.06466517e-38
0.1040159911 -0.0119873276 -0.1355746388 2.06466517e-38
0.07956877351 -0.1014992297 -0.2741290033 2.06466517e-38
-0.08325339854 -0.07108835131 -0.424320668 2.06466517e-38
0.04278907925 -0.07358887792 -0.4485215843 2.06466517e-38
0.147507146 -0.01640914567 -0.2249587029 2.06466517e-38
0.1592144668 -0.08968544751 0.05207620189 2.06466517e-38
0.08068599552 -0.0389480032 -0.2727377713 2.06466517e-38
0.1251933426 -0.1299549043 -0.4295842648 2.06466517e-38
-0.1571002007 0.06977757066 -0.4654941559 2.06466517e-38
-0.1674144119 -0.1338153183 0.08014271408 2.137881613e-38
-0.1389283091 0.1521296501 0.3557621837 2.137881613e-38
-0.07874430716 0.004078514408 -0.3375081122 2.137881613e-38
-0.100640215 0.07137032598 -0.07879800349 2.137881613e-38
-0.1167386472 -0.1223078817 -0.02234645188 2.137881613e-38
-0.1824550927 0.1389088929 0.1657200903 2.137881613e-38
-0.1317446828 0.1039159149 -0.1381505579 2.137881613e-38
-0.2085809857 0.1265978664 0.09179137647 2.137881613e-38
-0.1963934302 -0.08384331316 0.3132594526 2.137881613e-38
-0.1986128688 0.104192622 0.3964285254 2.137881613e-38
-0.1280705631 0.05905423313 -0.2700635493 2.137881613e-38
-0.1717491746 0.08556203544 -0.01811339334 2.137881613e-38
-0.2154523581 -0.08498263359 0.1565870047 2.137881613e-38
-0.1719401181 0.1438627392 0.2551192045 2.137881613e-38
-0.1082176566 0.05728534609 -0.1962715387 2.137881613e-38
-0.1600692719 0.1143433824 0.039525453 2.137881613e-38
-0.186771825 -0.1162358895 0.2151246965 2.137881613e-38
-0.1366485357 0.1320348233 0.3222854137 2.137881613e-38
-0.0939020142 -0.005110889673 -0.243248105 2.137881613e-38
-0.1517124474 0.04311003163 -0.07294362783 2.137881613e-38
-0.2070064396 -0.05963999778 0.05976932496 2.137881613e-38
-0.1212518141 0.1227299049 0.2198300213 2.137881613e-38
-0.08540765196 -0.1003728583 -0.1332663596 2.137881613e-38
-0.1433208883 0.0544728674 0.002457807539 2.137881613e-38
-0.1499117613 0.01317741442 -0.1148146763 2.137881613e-38
-0.1222527549 0.06717073917 0.07726054639 2.137881613e-38
-0.2096251696 -0.1234146729 -0.08180393279 2.137881613e-38
-0.2117458284 0.09851638973 0.03872481361 2.137881613e-38
-0.1274112016 0.05798009783 -0.1519483775 2.137881613e-38
-0.1632187963 0.1706497073 0.1415149719 2.137881613e-38
-0.1636223346 -0.01144139469 0.1801938117 2.137881613e-38
-0.1841115505 0.130486697 0.2634052336 2.137881613e-38
-0.1054061651 0.04730150849 0.07822195441 2.211062324e-38
-0.09790398926 0.1232614219 0.3275309503 2.211062324e-38
-0.1135906428 -0.02174490504 -0.3019647896 2.211062324e-38
-0.1514350325 0.1247243956 -0.3654792309 2.211062324e-38
-0.08938059211 0.007732252125 -0.1316791475 2.211062324e-38
-0.1189527363 0.1169688553 0.1211931407 2.211062324e-38
0.03615618125 -0.07106302679 -0.4813123941 2.211062324e-38
-0.1644801795 0.1358940303 -0.09200406075 2.211062324e-38
-0.09883483499 0.01888010465 0.2983057499 2.211062324e-38
-0.1724735051 0.1174108237 0.4057942927 2.211062324e-38
-0.1291604787 -0.0304909423 -0.3649868667 2.211062324e-38
-0.1747704595 0.1483799219 -0.2427710891 2.211062324e-38
-0.12209104 0.001312925713 0.0309296716 2.211062324e-38
-0.190137133 0.1669325382 0.1672412753 2.211062324e-38
-0.006297713611 -0.06308622658 -0.3921421766 2.211062324e-38
-0.1286703944 0.1224861741 -0.1654446274 2.211062324e-38
-0.07547907531 0.002945071785 0.1665506959 2.211062324e-38
-0.1057968661 0.07797326893 0.2700038552 2.211062324e-38
-0.1182007417 -0.02442160435 -0.2044848353 2.211062324e-38
-0.1312393546 0.1021771431 -0.3118243515 2.211062324e-38
-0.08409652859 0.003807749832 -0.01591781713 2.211062324e-38
-0.1525690109 0.1461594254 0.04722920433 2.211062324e-38
-0.0464714691 -0.09122989327 -0.1657375097 2.211062324e-38
-0.1481891274 0.06732065231 -0.2427077442 2.211062324e-38
0.04191493243 -0.01771342196 -0.06125022843 2.211062324e-38
-0.1613919586 0.1796191484 -0.1606125981 2.211062324e-38
-0.04789508879 -0.1068144962 0.003717258107 2.211062324e-38
-0.2193231881 0.06047189981 -0.05098704994 2.211062324e-38
-0.03741725162 -0.1322927773 -0.2862050831 2.211062324e-38
-0.2014835328 0.1371538043 -0.04367686436 2.211062324e-38
-0.105306223 -0.06904184818 0.09334024787 2.211062324e-38
-0.1260564774 0.1243405268 0.212946102 2.211062324e-38
0.1913755238 -0.03188690916 -0.1484805644 2.284242894e-38
0.1920540929 -0.06711698323 0.03814360499 2.284242894e-38
0.1868403852 -0.08543359488 0.2454369515 2.284242894e-38
0.1998126358 0.02969777957 -0.4326100051 2.284242894e-38
0.1338378936 -0.004521043971 -0.03018866666 2.284242894e-38
0.1786163747 -0.02002435736 0.1704792529 2.284242894e-38
0.1504709423 0.0123236645 0.4719830453 2.284242894e-38
0.204053238 -0.1312989742 -0.4348685443 2.284242894e-38
0.03823558241 -0.002307284158 -0.3968325257 2.284242894e-38
0.1835573316 -0.1151181832 -0.02988910489 2.284242894e-38
0.1756082028 -0.08688718081 0.3482060134 2.284242894e-38
0.1895063221 -0.04845075682 -0.4251199067 2.284242894e-38
0.01267730352 -0.01336440258 -0.2318878174 2.284242894e-38
0.1785837859 -0.004995196592 0.102919735 2.284242894e-38
0.1935541481 -0.0146019794 0.4285857379 2.284242894e-38
0.2024362832 -0.08257996291 -0.455937922 2.284242894e-38
0.02750110626 0.0004866756208 -0.3221358657 2.284242894e-38
0.1738928407 -0.007682321128 0.04369172454 2.284242894e-38
0.1127118319 -0.01890469342 0.1752397716 2.284242894e-38
0.2071436495 -0.0619051829 -0.3257718086 2.284242894e-38
0.09027912468 -0.01260365453 -0.08257639408 2.284242894e-38
0.04955926538 -0.01360293571 0.0984127447 2.284242894e-38
0.07811620086 -0.01867631264 0.265973717 2.284242894e-38
0.2235087454 -0.09529093653 -0.06209567562 2.284242894e-38
-0.01848394796 -0.01386126038 -0.09828775376 2.284242894e-38
0.2230936587 -0.007906303741 -0.2235836685 2.284242894e-38
-0.01309264917 -0.04090354592 0.3223454952 2.284242894e-38
0.1985545456 -0.02489421703 -0.006033250596 2.284242894e-38
-0.009802355431 -0.03249720857 0.006002435926 2.284242894e-38
0.2013610154 -0.1255265474 -0.2447878867 2.284242894e-38
0.109537445 -0.01349254046 -0.3009064496 2.284242894e-38
0.146079585 -0.01782332361 -0.1390029788 2.284242894e-38
0.1860838532 -0.01377705485 -0.4740741551 2.348204041e-38
0.127262637 -0.1324127913 -0.4755227566 2.348204041e-38
-0.07756210119 -0.0685679689 -0.4891522229 2.348204041e-38
0.1830365658 -0.03891382739 -0.4802757502 2.348204041e-38
0.1650527865 0.05893123522 -0.4479404092 2.348204041e-38
-0.02018828504 -0.1159617528 -0.4859298766 2.348204041e-38
-0.09420757741 0.05199232697 -0.4880930483 2.348204041e-38
0.1583809853 -0.1294052005 -0.4412871003 2.348204041e-38
0.1800169945 -0.09557073563 -0.4082347155 2.348204041e-38
0.1594597548 -0.1372452676 -0.4879495502 2.348204041e-38
-0.1484453976 -0.05832687393 -0.490583241 2.348204041e-38
0.1369904131 -0.09773233533 -0.4405280352 2.348204041e-38
0.1976676136 -0.007874072529 -0.3881355226 2.348204041e-38
0.04938231781 -0.134111926 -0.4818846881 2.348204041e-38
-0.1295188069 0.002593422076 -0.4870808721 2.348204041e-38
0.1792261899 -0.1402737051 -0.4115148187 2.348204041e-38
0.1862182915 -0.06790354848 -0.3701747954 2.348204041e-38
0.1113909408 -0.1214822158 -0.4581370354 2.348204041e-38
-0.09425129741 -0.05796179548 -0.4667760432 2.348204041e-38
0.1363532543 0.02865790203 -0.4378795028 2.348204041e-38
0.1998359859 0.01713103801 -0.3724582195 2.348204041e-38
0.03865939006 -0.1003151163 -0.4687857032 2.348204041e-38
0.00661463337 0.03878650814 -0.4807550311 2.348204041e-38
0.06439131498 -0.004666294437 -0.4806630611 2.348204041e-38
0.2008956075 0.001472352888 -0.3990758359 2.348204041e-38
0.1294634491 -0.09139105678 -0.4687954187 2.348204041e-38
0.05908615142 0.0552749373 -0.4783016145 2.348204041e-38
-0.01362874173 -0.0430932641 -0.4853633642 2.348204041e-38
-0.08781521022 -0.1091300547 -0.4731472433 2.348204041e-38
0.1748995185 -0.09368503094 -0.4727587998 2.348204041e-38
0.1007855311 -0.07634681463 -0.3953645825 2.348204041e-38
0.09559380263 -0.0314588882 -0.4871765077 2.348204041e-38
-0.2015099525 0.05016376078 -0.1761322618 2.347880341e-38
-0.2011473924 0.03724599257 -0.3714267015 2.347880341e-38
-0.1521166265 -0.1337863356 -0.4696227312 2.347880341e-38
-0.1951389462 -0.1086501926 -0.3214588761 2.347880341e-38
-0.2004892975 -0.0127300825 -0.2687100768 2.347880341e-38
-0.2057033032 0.06407125294 -0.2159828693 2.347880341e-38
-0.1960821301 -0.091474168 -0.3668153584 2.347880341e-38
-0.1864070296 -0.1181092784 -0.1617322415 2.347880341e-38
-0.2140669823 0.01058994886 0.007109894883 2.347880341e-38
-0.2167401761 -0.01600029878 -0.400354743 2.347880341e-38
-0.2223403305 -0.1318853348 -0.4702115655 2.347880341e-38
-0.2110406905 -0.1166949496 -0.2886544168 2.347880341e-38
-0.2329048812 0.003995635547 -0.1516729891 2.347880341e-38
-0.2305944711 0.08806522936 -0.315849185 2.347880341e-38
-0.2018572241 -0.08570697159 -0.3815503418 2.347880341e-38
-0.1903063208 -0.1246886253 -0.2099629045 2.347880341e-38
-0.202996254 -0.0305369366 -0.06903211027 2.347880341e-38
-0.2078347206 0.01626851596 -0.3001810312 2.347880341e-38
-0.1291115582 -0.1610140353 -0.3425009847 2.347880341e-38
-0.1999095827 -0.1023514345 -0.2932184935 2.347880341e-38
-0.1826818138 -0.05256790668 -0.1288403869 2.347880341e-38
-0.2273956388 0.0315936543 -0.2552863359 2.347880341e-38
-0.1437644809 -0.1528074592 -0.3420947492 2.347880341e-38
-0.2087379098 -0.01952748559 -0.3127642572 2.347880341e-38
-0.114027217 -0.1058778614 0.006265856326 2.347880341e-38
-0.111723423 -0.05371620134 -0.2208768874 2.347880341e-38
-0.2128934115 -0.0724389106 -0.2424015701 2.347880341e-38
-0.2033450902 0.01807322912 -0.1967723668 2.347880341e-38
-0.1616843939 -0.1456298083 -0.3880886436 2.347880341e-38
-0.1117665842 -0.1474413574 -0.2402618378 2.347880341e-38
-0.1795718372 -0.1020731926 -0.008986543864 2.347880341e-38
-0.1826762855 0.05486758798 -0.382365495 2.347880341e-38
-0.06224754453 -0.1233030856 -0.4039333463 2.347520768e-38
-0.1941593587 0.03858083114 0.1322535872 2.347520768e-38
-0.189849779 -0.02563077211 -0.1735734195 2.347520768e-38
-0.2112025023 -0.005851574708 -0.4156825542 2.347520768e-38
0.02566730417 -0.1185408756 -0.3937040269 2.347520768e-38
-0.1995960027 0.08914159238 -0.1319509298 2.347520768e-38
-0.1976422518 -0.0479615517 -0.3034612536 2.347520768e-38
-0.2112242579 0.09839804471 -0.2820983529 2.347520768e-38
-0.1799575388 -0.1045247465 -0.3441167176 2.347520768e-38
-0.198191613 0.04868149012 0.1910309494 2.347520768e-38
-0.2209572494 -0.02543064021 -0.2234983146 2.347520768e-38
-0.2317740023 0.1078516245 -0.3893229663 2.347520768e-38
-0.124104917 -0.1205446199 -0.3181864023 2.347520768e-38
-0.2336696535 0.09344346076 -0.07278190553 2.347520768e-38
-0.1928881556 -0.01317935064 -0.2726777792 2.347520768e-38
-0.2060150206 0.1083649769 -0.3384436667 2.347520768e-38
-0.1124204621 -0.1187014058 -0.2440700382 2.347520768e-38
-0.2048053592 0.03906076029 0.03492985666 2.347520768e-38
-0.2068953812 -0.04253280163 -0.05992758647 2.347520768e-38
-0.1966894865 -0.01373916771 -0.3313618004 2.347520768e-38
-0.01084152609 -0.1264655739 -0.2854236364 2.347520768e-38
-0.2015183121 0.1133998483 -0.1144744381 2.347520768e-38
-0.2259444445 -0.07134094089 -0.1289840192 2.347520768e-38
-0.2078052163 -0.1246687844 -0.4212472141 2.347520768e-38
-0.09637071937 -0.08150627464 -0.2959795594 2.347520768e-38
-0.2199988216 0.1556939781 -0.2709216475 2.347520768e-38
-0.1334239393 -0.1290079653 -0.3886732459 2.347520768e-38
-0.2058894336 -0.0108850142 -0.4072111249 2.347520768e-38
-0.1987514049 -0.09286980331 -0.2145261168 2.347520768e-38
-0.2002925277 0.09173361957 -0.1925246269 2.347520768e-38
-0.1336301267 -0.01147317421 -0.2746975422 2.347520768e-38
-0.154018864 0.08046670258 0.08178439736 2.347520768e-38
0.1292820424 -0.1146768257 -0.04531671852 2.347161195e-38
0.1939291954 -0.06386304647 0.09451705217 2.347161195e-38
-0.08392968029 -0.04768870398 0.410420537 2.347161195e-38
0.002638721373 -0.07563361526 0.4589173198 2.347161195e-38
0.08467745036 -0.0959559232 -0.09562844783 2.347161195e-38
0.1876048893 -0.07599068433 -0.2812857628 2.347161195e-38
-0.02039833553 -0.09868995845 -0.3761504889 2.347161195e-38
0.2102743387 -0.07092365623 0.3586323559 2.347161195e-38
0.1783688962 -0.1085845977 0.2378399074 2.347161195e-38
0.1990111321 -0.06445454061 0.1704276949 2.347161195e-38
-0.1864610165 0.01947767474 0.2094534039 2.347161195e-38
0.08912941813 -0.05918458477 0.4482212067 2.347161195e-38
0.05185694247 -0.09166895598 0.09531731158 2.347161195e-38
0.2073537707 -0.03530380875 -0.1115955934 2.347161195e-38
-0.1409297138 -0.03330826387 -0.09717630595 2.347161195e-38
0.1678183824 0.02649423853 0.4040582478 2.347161195e-38
0.08865975589 -0.1052114367 0.1697419733 2.347161195e-38
0.208028391 -0.04785089567 -0.01221084222 2.347161195e-38
-0.09205752611 -0.03156555444 0.2866714895 2.347161195e-38
0.04580452293 -0.08788383007 0.3150105476 2.347161195e-38
0.003806945169 -0.1167040914 0.1159877554 2.347161195e-38
0.2110135406 -0.1103824303 -0.2090840787 2.347161195e-38
0.004753062036 -0.06971601397 -0.01061114483 2.347161195e-38
0.07878263295 -0.1551871449 0.2342550009 2.347161195e-38
-0.06596400589 -0.1137032509 0.2565527856 2.347161195e-38
0.1217736676 -0.03129872307 0.09000876546 2.347161195e-38
0.06666116416 -0.113214016 -0.2215728611 2.347161195e-38
0.221367538 -0.1213049591 -0.001303175231 2.347161195e-38
-0.1530954987 -0.09775031358 0.07542320341 2.347161195e-38
0.1894086152 -0.06368993223 0.2840203941 2.347161195e-38
0.1319137514 -0.1185309887 0.3004817665 2.347161195e-38
0.1301774383 -0.07808191329 0.181507498 2.347161195e-38
-0.1961440593 -0.04435691983 0.2853964567 2.346801622e-38
-0.1798066199 -0.03810214251 0.4776364863 2.346801622e-38
-0.1025120765 0.125214681 0.1443595886 2.346801622e-38
-0.1979792565 0.1014605612 0.4351991117 2.346801622e-38
-0.1973414272 -0.1098437533 0.1177914366 2.346801622e-38
-0.1971511245 0.04465054348 0.3446184397 2.346801622e-38
-0.1322149485 0.08112630993 -0.07488171756 2.346801622e-38
-0.204828009 0.09835331887 0.2352907956 2.346801622e-38
-0.2078700066 -0.1227615401 0.3376534581 2.346801622e-38
-0.08227901161 -0.0599020198 0.4851663411 2.346801622e-38
-0.1547484696 0.1297015101 0.08729963005 2.346801622e-38
-0.2079727948 0.1194261834 0.3474220335 2.346801622e-38
-0.225487411 -0.09996595234 0.2150758654 2.346801622e-38
-0.2148627788 0.04705967754 0.444719106 2.346801622e-38
-0.1187100336 0.09174546599 -0.01041922998 2.346801622e-38
-0.2059410214 0.1250824779 0.2917023003 2.346801622e-38
-0.2019348145 -0.1160981357 0.2788675427 2.346801622e-38
-0.1359426677 -0.04783066735 0.4774893522 2.346801622e-38
-0.1440368146 0.1435493827 0.1675294489 2.346801622e-38
-0.1650705785 0.08530585468 0.3618864417 2.346801622e-38
-0.2110344023 -0.0724735409 0.1708113253 2.346801622e-38
-0.2066594064 -0.017939521 0.3539150655 2.346801622e-38
-0.19515872 0.1030590981 0.2055909634 2.346801622e-38
-0.2193497717 0.1020890474 0.3278438449 2.346801622e-38
-0.2152104974 -0.001723228139 0.1995055825 2.346801622e-38
-0.1040180698 0.02017799206 0.4183817804 2.346801622e-38
-0.1398597211 -0.05594769493 0.04081378505 2.346801622e-38
-0.2247108668 0.1009785384 0.2771434188 2.346801622e-38
-0.1978256851 0.04416749626 0.1388353556 2.346801622e-38
-0.06387000531 0.07157474011 0.4643911421 2.346801622e-38
-0.1303938329 -0.0360301435 0.2365805656 2.346801622e-38
-0.1358954757 0.140307188 0.423555553 2.346801622e-38
-0.105535917 0.1492931098 -0.294615835 2.346406175e-38
0.1438208967 0.04765033722 -0.4558970332 2.346406175e-38
0.1917459667 -0.061712455 -0.4323534966 2.346406175e-38
-0.1838136315 0.06881377101 -0.4678498209 2.346406175e-38
-0.0615349561 -0.01113350503 -0.1406081319 2.346406175e-38
0.02699746378 0.0263803564 -0.4127045572 2.346406175e-38
0.1838448197 -0.1158135757 -0.237962991 2.346406175e-38
0.02800465003 0.05813719332 -0.4819952548 2.346406175e-38
-0.1672443002 0.1420092136 -0.3893026412 2.346406175e-38
0.1842414439 0.02361051179 -0.4280003011 2.346406175e-38
0.1868131608 -0.06654778123 -0.3702558577 2.346406175e-38
-0.1392204612 0.09923117608 -0.4726757109 2.346406175e-38
-0.1586486995 0.07838969678 -0.1749057025 2.346406175e-38
0.07027561963 0.04868211597 -0.402441293 2.346406175e-38
0.1974934787 -0.06840661168 -0.2769459188 2.346406175e-38
-0.0130891446 0.09172964841 -0.4560682476 2.346406175e-38
-0.1213160381 0.09813997895 -0.3051389754 2.346406175e-38
0.1091114953 0.01552608702 -0.4021871686 2.346406175e-38
0.1431793869 0.01967652515 -0.3567349613 2.346406175e-38
-0.1346859038 0.1363341212 -0.3719459474 2.346406175e-38
-0.09302359819 0.01109964866 -0.1698634624 2.346406175e-38
-0.01358252019 -0.01524805184 -0.3197574317 2.346406175e-38
0.06133041903 0.008311711252 -0.3458345234 2.346406175e-38
-0.1212128475 0.06271584332 -0.3908681273 2.346406175e-38
-0.03777060658 -0.001697762171 -0.313213706 2.346406175e-38
-0.06874432415 0.01449277252 -0.3899930716 2.346406175e-38
-0.07427158207 0.001072445419 -0.2171584368 2.346406175e-38
-0.1084417328 -0.01385245938 -0.4268621802 2.346406175e-38
0.04930024594 -0.1209480613 -0.2895395756 2.346406175e-38
-0.08119784296 0.05508181825 -0.4803110659 2.346406175e-38
-0.1805364639 0.1290366799 -0.3326605558 2.346406175e-38
-0.04253139719 -0.008560231887 -0.4061185718 2.346406175e-38
0.08613794297 -0.01923231594 0.3810484409 2.346010729e-38
-0.1975424141 0.04341702536 0.2028593123 2.346010729e-38
0.03829261288 0.00563237071 -0.3932728469 2.346010729e-38
-0.1047959179 0.001285358565 -0.3850111365 2.346010729e-38
-0.1953615397 0.04403534159 0.3150825202 2.346010729e-38
-0.0843263343 0.009586204775 0.3022074997 2.346010729e-38
-0.1329536587 0.09590964019 -0.4760755897 2.346010729e-38
-0.1717407405 0.05660290271 0.005723196082 2.346010729e-38
0.02975858375 -0.0742398873 0.4990608394 2.346010729e-38
-0.1055640504 0.02688536979 0.04250126705 2.346010729e-38
-0.1079784855 0.05256861448 -0.4232797027 2.346010729e-38
-0.2059122026 0.04870181903 -0.2190840691 2.346010729e-38
-0.1390140802 -0.03279175982 0.4892798066 2.346010729e-38
-0.1358474344 0.03081807308 0.229099974 2.346010729e-38
-0.1140770987 0.1027071327 -0.4472361207 2.346010729e-38
-0.08413819224 0.02446199954 -0.1534625888 2.346010729e-38
-0.009852771647 -0.05269682407 0.4919221699 2.346010729e-38
-0.05414294451 -0.03615887091 0.08304026723 2.346010729e-38
-0.08913995326 0.008589786477 -0.3099325001 2.346010729e-38
0.08113390207 -0.0429786779 -0.3502238989 2.346010729e-38
-0.197129786 -0.006279117893 0.3896636665 2.346010729e-38
-0.05325579643 -0.02106214873 0.2138966173 2.346010729e-38
-0.06392668188 -0.04019891471 -0.2585688829 2.346010729e-38
0.1367407143 -0.00690815784 -0.2264483273 2.346010729e-38
0.07966754586 -0.01691335067 0.3121237159 2.346010729e-38
0.08071528375 -0.01324635744 -0.0327880308 2.346010729e-38
-0.0009598782635 -0.1084559336 -0.04014043882 2.346010729e-38
0.03614950925 -0.04641296715 -0.1092764661 2.346010729e-38
-0.1846776754 0.09787590057 -0.3517910838 2.346010729e-38
-0.1105573475 0.05135768652 -0.08438865095 2.346010729e-38
-0.09039263427 0.008500251919 0.4317536354 2.346010729e-38
-0.1843797117 0.07716793567 0.1159779653 2.346010729e-38
0.1987280846 -0.1257043332 0.1189233214 2.345615283e-38
0.1892313361 -0.1168204024 -0.1186569929 2.345615283e-38
-0.1388944685 0.1002480164 -0.3670053184 2.345615283e-38
-0.1851739734 0.08607187867 0.2893333137 2.345615283e-38
0.1863620132 -0.1131828502 0.0006844176678 2.345615283e-38
-0.02168668807 -0.04520314559 0.02631084062 2.345615283e-38
-0.1739206612 0.1397630423 -0.05158742517 2.345615283e-38
-0.1737001836 0.03136312217 -0.1006218642 2.345615283e-38
0.1240645871 -0.1000086442 0.3070798218 2.345615283e-38
-0.1745794117 -0.06643636525 -0.2539387941 2.345615283e-38
-0.2242301404 0.1284676939 -0.2747790515 2.345615283e-38
-0.1873260289 0.1123823002 0.1591458023 2.345615283e-38
0.1182127967 -0.1182454079 0.1324057579 2.345615283e-38
-0.1365273744 -0.05329483747 -0.10143736 2.345615283e-38
-0.1585206687 0.1257458925 -0.1473780721 2.345615283e-38
-0.1413278431 0.04961126298 0.0218913015 2.345615283e-38
0.1253047585 -0.1079910398 0.2399645597 2.345615283e-38
-0.05282321572 -0.008952013217 -0.1263639033 2.345615283e-38
-0.1309019774 0.04019751027 -0.2706818283 2.345615283e-38
-0.1928792596 0.1041040942 0.1647547483 2.345615283e-38
0.05197672918 -0.1048642769 0.04178503901 2.345615283e-38
-0.08671767265 -0.06717805564 0.148802042 2.345615283e-38
-0.1199402884 -0.006779321004 -0.2077440768 2.345615283e-38
-0.2112428695 0.07691168785 0.08030275255 2.345615283e-38
0.0651268959 -0.08999573439 0.1192904413 2.345615283e-38
-0.1312933415 0.07873907685 0.2941679657 2.345615283e-38
0.1032178402 -0.1375356615 -0.004540389869 2.345615283e-38
-0.1505673379 -0.1483802795 -0.01106624585 2.345615283e-38
-0.1774527133 0.101846911 0.006910864264 2.345615283e-38
-0.1144649163 -0.01107116975 -0.05771779642 2.345615283e-38
-0.005449699238 -0.1274386495 0.1675794423 2.345615283e-38
-0.106172584 -0.05624120682 0.1978907883 2.345615283e-38
-0.05133051425 0.00170416222 -0.01649419777 2.345219836e-38
0.1373761743 -0.0002980977297 -0.2592400014 2.345219836e-38
-0.1866654009 0.04230779037 -0.1682343632 2.345219836e-38
0.1799926013 -0.01129937172 -0.05202688649 2.345219836e-38
-0.01261560339 -0.01567062922 0.1508997083 2.345219836e-38
0.1809989661 -0.002570828423 0.06272923201 2.345219836e-38
-0.1969476342 0.01914859004 0.1156797037 2.345219836e-38
0.2066122591 -0.01673999056 -0.1861347258 2.345219836e-38
0.006855447311 -0.008147308603 -0.06759404391 2.345219836e-38
0.1709626168 -0.01517223008 -0.3349353671 2.345219836e-38
-0.2179764956 0.009589500725 -0.04594993591 2.345219836e-38
0.09156626463 -0.01273978502 -0.1251925528 2.345219836e-38
0.0002844519913 0.002105188323 0.06236256659 2.345219836e-38
-0.1204861477 0.003386905417 -0.2216092199 2.345219836e-38
-0.2111522704 0.01374033745 0.02228560857 2.345219836e-38
0.1803589612 -0.0001645237207 -0.1441134214 2.345219836e-38
0.01514504198 -0.00570587581 0.006411017384 2.345219836e-38
-0.08011388034 0.00203510467 -0.2811498642 2.345219836e-38
-0.1374985427 0.02190000191 -0.1205679104 2.345219836e-38
-0.01950690337 -0.0220645424 -0.1045407578 2.345219836e-38
0.07648389041 -0.01511818077 0.1298181564 2.345219836e-38
0.1622477174 -0.01713399217 0.02284139208 2.345219836e-38
-0.1217935383 0.03209586442 -0.0316445753 2.345219836e-38
-0.1006787717 -0.01492036041 -0.165637061 2.345219836e-38
0.1325311661 -0.01232009288 0.09053402394 2.345219836e-38
0.2039824426 -0.007090431172 -0.03773933649 2.345219836e-38
-0.1054909676 0.002103977604 0.08304752409 2.345219836e-38
-0.1424390674 -0.01102219988 -0.2120318711 2.345219836e-38
-0.1947125196 -0.01620239206 -0.07954735309 2.345219836e-38
0.202123791 -0.08938328177 -0.1506806761 2.345219836e-38
0.1576998383 -0.02377801202 -0.01775770262 2.345219836e-38
0.09311787784 -0.01505583338 -0.1915102601 2.345219836e-38
0.2004456818 -0.07277672738 -0.07760480046 2.344788516e-38
-0.1807931215 -0.08969084918 0.3783112466 2.344788516e-38
0.1607160568 -0.1119117811 0.1399573833 2.344788516e-38
0.03415933996 -0.1180817038 0.03016316146 2.344788516e-38
0.20156838 -0.1059845909 0.05046521127 2.344788516e-38
-0.1829998046 -0.1030092537 0.123547703 2.344788516e-38
-0.04131212458 -0.1175950393 0.3146537542 2.344788516e-38
0.05561608449 -0.1067844257 -0.2870232761 2.344788516e-38
0.2039562464 -0.0512323305 -0.3889200389 2.344788516e-38
-0.1937209815 -0.08525563031 0.4794480801 2.344788516e-38
0.01954454929 -0.1209497377 0.1468228251 2.344788516e-38
-0.003918674309 -0.1068996266 -0.1001262441 2.344788516e-38
0.1578431278 -0.09079110622 -0.1428999305 2.344788516e-38
-0.2181288004 -0.1095751449 0.2394329607 2.344788516e-38
-0.05715836585 -0.1178175211 0.1904847771 2.344788516e-38
0.03709782287 -0.1163291931 -0.1766533256 2.344788516e-38
0.1911646128 -0.07664729655 -0.2645550072 2.344788516e-38
-0.1573686749 -0.08976960927 0.3271139562 2.344788516e-38
0.04302145168 -0.1274269223 0.2493209392 2.344788516e-38
-0.03849492595 -0.1187902838 -0.01366468798 2.344788516e-38
0.1961605847 -0.0979776606 -0.01942483708 2.344788516e-38
-0.1405229121 -0.1085525975 0.1538121253 2.344788516e-38
-0.08013600856 -0.1196352318 0.2811921835 2.344788516e-38
-0.0586133562 -0.1338991076 0.1037113369 2.344788516e-38
0.1824976653 -0.01338662673 -0.2254454345 2.344788516e-38
0.07768899947 -0.06996723264 0.09605100751 2.344788516e-38
-0.1407814175 -0.1191572472 -0.1524769217 2.344788516e-38
-0.1965751797 -0.1231393814 0.05402141809 2.344788516e-38
-0.1580193341 -0.1383277178 -0.03487167135 2.344788516e-38
0.0950763151 -0.121514 0.02835527062 2.344788516e-38
0.1266109645 -0.08351768553 -0.459499836 2.344788516e-38
-0.1741535366 -0.09529983997 0.1778918356 2.344788516e-38
0.06435718387 -0.1218204573 -0.4319156706 2.344357197e-38
0.2016533166 -0.05430030078 -0.06389607489 2.344357197e-38
0.195495531 0.0128690647 -0.4435781538 2.344357197e-38
0.2029298842 -0.08218694478 -0.2020180076 2.344357197e-38
-0.03594167531 -0.1023395211 -0.3795836866 2.344357197e-38
0.0473277308 -0.08778330684 -0.2354396582 2.344357197e-38
-0.1035439521 0.08790164441 -0.4402632713 2.344357197e-38
0.1947455704 -0.01760852896 -0.3213682473 2.344357197e-38
0.1782351136 -0.1057193726 -0.3764799535 2.344357197e-38
0.1947089285 -0.07301005721 -0.008175458759 2.344357197e-38
0.0563740693 0.05769807473 -0.4287180901 2.344357197e-38
0.2125080526 -0.04317713529 -0.2195637226 2.344357197e-38
-0.009314901195 -0.1259137839 -0.3411991298 2.344357197e-38
0.07953896374 -0.1176500991 -0.1521677822 2.344357197e-38
-0.02283784002 0.0763200596 -0.4264948964 2.344357197e-38
0.1992637515 -0.02412378602 -0.2720587552 2.344357197e-38
0.04037980735 -0.1278574467 -0.2935573161 2.344357197e-38
0.1880247146 -0.1008555666 -0.07518966496 2.344357197e-38
0.06384772807 -0.01709246263 -0.3676712215 2.344357197e-38
0.1824231595 -0.05837109685 -0.3002589941 2.344357197e-38
-0.09590341151 -0.1084756702 -0.2426533103 2.344357197e-38
0.07541957498 -0.137707606 -0.2180197239 2.344357197e-38
0.02139498852 -0.006474248134 -0.3835697174 2.344357197e-38
0.1286197305 -0.007933636196 -0.3524215817 2.344357197e-38
-0.1177477315 -0.05970462412 -0.3390008509 2.344357197e-38
0.194161132 0.001829040935 -0.1541128308 2.344357197e-38
-0.1287997812 0.02562422305 -0.4006600082 2.344357197e-38
0.1117837429 -0.01087951194 -0.3900056481 2.344357197e-38
-0.04804727808 -0.07188305259 -0.4580589533 2.344357197e-38
0.1960919648 -0.04980594292 -0.09588046372 2.344357197e-38
0.09705603123 -0.0710298866 -0.3587921858 2.344357197e-38
0.05454848334 -0.1226160154 -0.1040304378 2.344357197e-38
0.1731951684 -0.1328764856 0.4673179388 2.343925737e-38
0.1770137846 -0.06509857625 0.3559295237 2.343925737e-38
0.03763901815 -0.08739259839 0.4872032106 2.343925737e-38
0.2058479488 -0.03833069652 0.2283982933 2.343925737e-38
0.1931442767 -0.05315479264 0.3917681277 2.343925737e-38
-0.03399766982 -0.02843307704 0.3650374413 2.343925737e-38
-0.1493262947 -0.1279205382 0.4746917486 2.343925737e-38
0.188469559 -0.05407766625 -0.0400586091 2.343925737e-38
0.1247088313 -0.07289361209 0.4838943779 2.343925737e-38
0.1676852703 -0.06240950897 0.2566190958 2.343925737e-38
-0.04713512212 -0.1025505066 0.4942314625 2.343925737e-38
0.1774433106 -0.06038576365 0.1346091628 2.343925737e-38
0.2130493373 -0.08643551171 0.4479362667 2.343925737e-38
-0.1530374587 -0.0107917469 0.3655949235 2.343925737e-38
-0.09535649419 -0.1084212288 0.4689840972 2.343925737e-38
0.2176554799 -0.0505371727 0.08842022717 2.343925737e-38
0.1706405729 -0.03956028447 0.4538225532 2.343925737e-38
-0.02263542637 -0.06874680519 0.2844666839 2.343925737e-38
-0.008901201189 -0.0373243168 0.4476616681 2.343925737e-38
0.1346551031 -0.05277682096 0.1537670195 2.343925737e-38
0.1447931975 -0.1397475302 0.2737240493 2.343925737e-38
-0.0426851511 -0.05159647763 0.240642339 2.343925737e-38
-0.04543699697 -0.02874131687 0.3581342697 2.343925737e-38
-0.1272193193 -0.03418348357 0.194394812 2.343925737e-38
0.06293730438 -0.07184821367 0.3366544545 2.343925737e-38
0.1124602035 -0.01469244901 0.1700235605 2.343925737e-38
0.05115213245 -0.0690952912 0.3818461299 2.343925737e-38
-0.1960022449 -0.0224301517 0.2868017256 2.343925737e-38
0.05130462348 -0.01411155052 0.483402133 2.343925737e-38
0.1174899265 -0.01931161992 0.04907440394 2.343925737e-38
-0.1064300835 -0.1087433323 0.4158598781 2.343925737e-38
-0.03611814976 -0.1061057374 0.1772904247 2.343925737e-38
-0.1874493957 -0.01999024674 0.4859291613 2.343458544e-38
-0.1806372553 -0.1117551401 0.1610750258 2.343458544e-38
-0.123949036 -0.1203520522 0.4313311577 2.343458544e-38
-0.1068796366 0.1035521701 0.4519732296 2.343458544e-38
-0.2024197578 -0.08814075589 0.4734853506 2.343458544e-38
-0.2024484277 0.01194326393 0.2322915196 2.343458544e-38
-0.1837225705 -0.1095266268 0.2765397727 2.343458544e-38
-0.1882549077 0.1000381559 0.3229655921 2.343458544e-38
-0.1836569607 0.04577190056 0.4869356453 2.343458544e-38
-0.20879592 -0.0937165916 0.0744439736 2.343458544e-38
-0.2106214762 -0.1278775483 0.4334476292 2.343458544e-38
-0.1830259413 0.1359897107 0.4005562365 2.343458544e-38
-0.2335565984 -0.0130207371 0.4706447124 2.343458544e-38
-0.2219896764 -0.006525148172 0.1749082357 2.343458544e-38
-0.1678377092 -0.1113973409 0.310123682 2.343458544e-38
-0.189766258 0.1224316806 0.3485735059 2.343458544e-38
-0.1898299307 0.02988143824 0.4676122367 2.343458544e-38
-0.1865522563 -0.04478964955 0.09040932357 2.343458544e-38
-0.08619701117 -0.09948816895 0.3476333022 2.343458544e-38
-0.1348240972 0.1525327116 0.3637489378 2.343458544e-38
-0.1962487698 -0.053454604 0.3909652233 2.343458544e-38
-0.2045316547 -0.0391372554 0.247873649 2.343458544e-38
-0.1396275163 -0.08442706615 0.2529058456 2.343458544e-38
-0.2287084311 0.01422603521 0.3839633167 2.343458544e-38
-0.1367197931 -0.05697428808 0.4531608522 2.343458544e-38
-0.1942222714 0.007980512455 0.369135499 2.343458544e-38
-0.1366349608 -0.1010768488 0.1553913653 2.343458544e-38
-0.2001719177 0.05319913104 0.2648507953 2.343458544e-38
-0.1820928305 -0.1024030671 0.3798321486 2.343458544e-38
-0.09491955489 0.07440445572 0.4684511721 2.343458544e-38
-0.122795403 0.009480706416 0.4814004898 2.343458544e-38
-0.1846234053 -0.1195576116 0.2607528567 2.343458544e-38
-0.2048097402 0.07666637003 0.3565556109 2.343027224e-38
-0.2034802884 -0.06376216561 0.3887938857 2.343027224e-38
-0.1038989872 0.07443542033 0.2025908679 2.343027224e-38
-0.1020414233 -0.1244390085 0.429386735 2.343027224e-38
-0.1007030606 0.009857379831 0.4062722027 2.343027224e-38
-0.175951913 -0.1087415144 0.4325895309 2.343027224e-38
-0.1375956535 0.1263992041 0.09980580956 2.343027224e-38
-0.14350532 -0.121942088 0.2439194322 2.343027224e-38
-0.1951971054 0.1202158481 0.2957297564 2.343027224e-38
-0.2298807502 0.01078945212 0.3741627932 2.343027224e-38
-0.1292273551 0.09131602943 0.2006372958 2.343027224e-38
-0.1273549497 -0.1279373318 0.3752653897 2.343027224e-38
-0.1519188136 0.07376760244 0.355956763 2.343027224e-38
-0.2113185823 -0.08410858363 0.4058913887 2.343027224e-38
-0.1399562955 0.09971699864 0.1104256362 2.343027224e-38
-0.1261925548 -0.1315079629 0.313613832 2.343027224e-38
-0.1271734387 -0.05326001719 0.1980443746 2.343027224e-38
-0.2105716169 -0.04615509138 0.3363623023 2.343027224e-38
-0.1096205488 0.03988040611 0.2299570888 2.343027224e-38
-0.04418608546 -0.1412828118 0.3093762398 2.343027224e-38
-0.07104635984 -0.01721308939 0.3022758663 2.343027224e-38
-0.1848088354 -0.1444997638 0.3752683103 2.343027224e-38
-0.1812504083 0.05917620286 0.3733849227 2.343027224e-38
-0.04746674001 -0.1051857695 0.2907733321 2.343027224e-38
-0.08194445074 -0.06850295514 0.2210078835 2.343027224e-38
-0.1392830461 -0.1621492803 0.4291487038 2.343027224e-38
-0.1532707214 0.0007551460294 0.4003129005 2.343027224e-38
-0.07289328426 -0.0682259798 0.1265109479 2.343027224e-38
-0.192765221 0.1447543651 0.234777987 2.343027224e-38
-0.0624428913 -0.1444384158 0.4498974383 2.343027224e-38
-0.1879549026 0.1104681343 0.3200080395 2.343027224e-38
-0.201035291 -0.02572149225 0.3866544068 2.343027224e-38
-0.1858600676 -0.0295072794 0.0007266885368 2.342559891e-38
-0.1818187386 0.1268923581 -0.1278413981 2.342559891e-38
-0.1887724698 0.1157848388 -0.2176003903 2.342559891e-38
-0.1873243898 0.07541969419 0.3602994084 2.342559891e-38
-0.2014240474 0.1126867011 0.09912364185 2.342559891e-38
-0.1977487504 0.1066419408 -0.02683403343 2.342559891e-38
