# .PCD v0.7 - Point Cloud Data file format
VERSION 0.7
FIELDS x y z rgb
SIZE 4 4 4 4
TYPE F F F F
COUNT 1 1 1 1
WIDTH 825
HEIGHT 1
VIEWPOINT 0 0 0 1 0 0 0
POINTS 825
DATA ascii
-0.3000563979 -0.02308313176 0.05628184229 1.184631237e-38
-0.3044214249 -0.03638058901 -0.0869455114 1.184631237e-38
-0.01471326873 -0.01267642435 -0.05319964513 1.184631237e-38
0.2727257609 0.03686325997 0.1567928195 1.258099074e-38
0.3673091829 -0.02331056632 0.1455212831 1.258099074e-38
0.07347848266 0.1276766062 0.0799343586 1.258099074e-38
0.272500217 -0.04605971277 0.1580013335 1.258099074e-38
0.3313419819 0.03548703715 0.1129136011 1.258099074e-38
0.2625541091 -0.1101541519 0.1493297964 1.258099074e-38
-0.07145830989 0.1307408214 0.09919131547 1.258099074e-38
-0.367033571 0.01002272218 0.1532116085 1.258099074e-38
0.1374654472 0.1127374023 0.0936069563 1.258099074e-38
0.4280262589 -0.09938784689 0.1313115358 1.258099074e-38
0.02120945603 0.1244492158 0.0966206044 1.258099074e-38
-0.002921200357 -0.02992487326 0.1351190656 1.258099074e-38
0.1822312772 0.06716639549 0.08049234003 1.258099074e-38
0.337118715 -0.1112447828 0.1410779059 1.258099074e-38
0.04355334863 0.1149115562 0.09331264347 1.258099074e-38
0.1069761068 -0.04453916475 0.1429283619 1.258099074e-38
0.230449155 0.04750455543 0.08776278794 1.258099074e-38
0.2872281671 -0.1187054068 0.1587118804 1.258099074e-38
-0.04789517075 0.130501464 0.0989940837 1.258099074e-38
-0.07562143356 0.01006617676 0.1647416949 1.258099074e-38
0.1757128686 0.06714649498 0.08011181653 1.258099074e-38
0.382139504 -0.1250761747 0.1637259275 1.258099074e-38
0.1041175351 0.07824195921 0.1315726787 1.258099074e-38
0.1276958436 0.02720507048 0.1582943648 1.258099074e-38
0.2021173835 0.04499117658 0.1521581262 1.258099074e-38
0.1493065357 -0.09264033288 0.1418946981 1.258099074e-38
-0.1914100945 0.02756560966 0.1007535383 1.258099074e-38
-0.2329524755 -0.02385675348 0.1370292157 1.258099074e-38
0.005405611824 0.02848149277 0.1358259916 1.258099074e-38
0.2613449693 -0.06339023262 0.1023339629 1.258099074e-38
-0.1079555303 -0.05011384189 0.1248592138 1.258099074e-38
-0.1588703394 -0.08791915327 0.07718173414 1.258099074e-38
0.09709115326 -0.06797549874 -0.08308612555 1.331530897e-38
0.2805634737 -0.09065403044 0.09696025401 1.331530897e-38
0.1983737499 -0.09450406581 0.08359214664 1.331530897e-38
0.2760950327 -0.09177017957 -0.1515517384 1.331530897e-38
0.2385696322 -0.06282288581 -0.06939636171 1.331530897e-38
0.2200042009 -0.07623390853 0.1439757198 1.331530897e-38
-0.07289361209 -0.09547320753 0.04765937477 1.331530897e-38
0.4727388024 -0.08561401814 -8.549541235e-05 1.331530897e-38
-0.08193720877 -0.05233201757 -0.1565368772 1.331530897e-38
0.4072555304 -0.06764297187 0.15474765 1.331530897e-38
0.03631798178 -0.1108184457 0.05754369125 1.331530897e-38
0.3793436885 -0.109077245 -0.09227637947 1.331530897e-38
0.07278956473 -0.05609365925 -0.1540325135 1.331530897e-38
0.2908402085 -0.09734114259 0.1453019232 1.331530897e-38
0.09985629469 -0.1047019735 0.06537842005 1.331530897e-38
0.3256179988 -0.1129585877 -0.1399136484 1.331530897e-38
0.124015592 -0.07033334672 -0.1654451936 1.331530897e-38
0.2445051223 -0.08404126018 0.1543703377 1.331530897e-38
1.989305019e-06 -0.1084419787 0.05639696494 1.331530897e-38
0.4382348359 -0.1119466349 -0.07828468084 1.331530897e-38
0.00585277006 -0.0530445911 -0.1664326787 1.331530897e-38
0.3562195301 -0.08638197929 0.1658119112 1.331530897e-38
0.05398739874 -0.06574616581 0.1386381239 1.331530897e-38
0.3090247512 -0.1071396992 -0.09298872948 1.331530897e-38
0.1989456117 -0.0616886057 -0.1205738261 1.331530897e-38
0.1993500739 -0.09779184312 0.020193737 1.331530897e-38
-0.1642257273 -0.04350566864 0.03377300873 1.331530897e-38
0.328395009 -0.09279765934 -0.01695365459 1.331530897e-38
-0.07819766551 -0.09039334208 -0.09378891438 1.331530897e-38
0.3353416622 -0.09982220083 0.04630040005 1.331530897e-38
0.03068935499 -0.06089833751 -0.009914095514 1.331530897e-38
0.1764150262 -0.08775639534 -0.03393192589 1.331530897e-38
0.05187762156 -0.04619242996 -0.1484257877 1.404926846e-38
-0.1679315865 -0.0614734143 -0.1459611058 1.404926846e-38
0.1471887678 -0.07042844594 -0.1350074112 1.404926846e-38
-0.2618020773 -0.06953109056 -0.1511970013 1.404926846e-38
0.1459314078 0.02005133219 -0.1263345033 1.404926846e-38
-0.1064442918 -0.005917158909 -0.131802991 1.404926846e-38
0.345462501 -0.08796945959 -0.06820621341 1.404926846e-38
-0.420481056 -0.03789876774 -0.1433332562 1.404926846e-38
-0.08045420796 0.006653801072 -0.1611118913 1.404926846e-38
-0.3161629736 0.04262859747 -0.1431109756 1.404926846e-38
0.2198562175 -0.1042611673 -0.0950794369 1.404926846e-38
-0.3452971578 -0.06758645177 -0.1471128613 1.404926846e-38
0.0110792527 -0.000663281302 -0.1623975635 1.404926846e-38
-0.2276787758 0.008250929415 -0.1592394561 1.404926846e-38
0.1712228358 -0.09705413133 -0.1183137596 1.404926846e-38
-0.3092241585 -0.05514260381 -0.1577666104 1.404926846e-38
0.03161862493 0.005202563014 -0.169819966 1.404926846e-38
-0.1911474168 0.02391736954 -0.1663416475 1.404926846e-38
0.2705780864 -0.1017781422 -0.09176706523 1.404926846e-38
-0.393807143 -0.04324033856 -0.1722148061 1.404926846e-38
-0.06074333563 0.001660408336 -0.1668259203 1.404926846e-38
-0.2933346927 0.02352917753 -0.1587726325 1.404926846e-38
0.07861686498 -0.08633735031 -0.145338729 1.404926846e-38
-0.2199466377 -0.07819352299 -0.1697567999 1.404926846e-38
0.0996517241 0.008230185136 -0.1083294079 1.404926846e-38
-0.2293385267 0.0339582637 -0.1534990966 1.404926846e-38
-0.04122027382 -0.07757639885 -0.1507373154 1.404926846e-38
-0.2950880229 -0.02301611938 -0.1755535603 1.404926846e-38
-0.04420121014 0.02810480818 -0.1202345118 1.404926846e-38
-0.4334052801 0.01854672469 -0.1244512275 1.404926846e-38
-0.07655159384 -0.0482182242 -0.1496147513 1.404926846e-38
-0.2171313316 -0.0643298924 -0.1120102182 1.404926846e-38
0.3530234993 -0.01540308073 -0.1213599965 1.478322936e-38
-0.1442536116 -0.02854146995 -0.1005874798 1.478322936e-38
0.30005458 -0.08024621755 -0.1492151916 1.478322936e-38
0.1412474066 -0.01955569722 -0.166459024 1.478322936e-38
0.3148016632 -0.00583953457 -0.1044228002 1.478322936e-38
0.0702894628 -0.08739958704 -0.1414979994 1.478322936e-38
0.4561259449 -0.08221834153 -0.1067884415 1.478322936e-38
0.292945087 -0.08389428258 -0.1285480559 1.478322936e-38
0.4452139735 0.01933922805 -0.04196853191 1.478322936e-38
-0.269220829 -0.03843165189 -0.1389987469 1.478322936e-38
0.3433592916 -0.06842027605 -0.1337453872 1.478322936e-38
0.1858664006 -0.05616921932 -0.1426401585 1.478322936e-38
0.3593215048 0.01834592782 -0.06878431886 1.478322936e-38
-0.09303227067 -0.05683273822 -0.1404578388 1.478322936e-38
0.3070573807 -0.03844840825 -0.1363397688 1.478322936e-38
0.1448229104 -0.05459154397 -0.1569143385 1.478322936e-38
0.3090393543 0.02813960426 -0.06799585372 1.478322936e-38
-0.04271828011 -0.06892716885 -0.1478070766 1.478322936e-38
0.4105532169 -0.07715176791 -0.1570986807 1.478322936e-38
0.2532046437 -0.07675278932 -0.1528960466 1.478322936e-38
0.4175002277 0.006568314973 -0.04675011709 1.478322936e-38
-0.1952585131 -0.05440590903 -0.1679164469 1.478322936e-38
0.2497973144 -0.01818308234 -0.10829667 1.478322936e-38
0.0968496725 0.01133428421 -0.1466230154 1.478322936e-38
0.2693648934 -0.00378236617 -0.0938699767 1.478322936e-38
0.002845637267 -0.05690374225 -0.1338623762 1.478322936e-38
0.002318720799 -0.04986941069 -0.0913823992 1.478322936e-38
-0.07072239369 -0.01232344098 -0.09375480562 1.478322936e-38
0.2989021242 0.03924852237 -0.03006805666 1.478322936e-38
-0.269813031 -0.008997979574 -0.1059297994 1.478322936e-38
0.04072166234 -0.01904265583 -0.03270079941 1.478322936e-38
-0.08607262373 -0.01759210601 -0.03063650616 1.478322936e-38
0.002801887924 -0.07104250789 0.08676641434 1.551683013e-38
-0.3396044374 -0.06459768116 0.1530715823 1.551683013e-38
-0.2457802594 -0.09313424677 -0.1234375015 1.551683013e-38
-0.3994226456 -0.028318014 -0.1547080576 1.551683013e-38
0.1019077897 -0.06102518737 0.1256830841 1.551683013e-38
-0.2360197753 -0.004138140474 0.1428847462 1.551683013e-38
-0.0803077668 -0.02573345043 0.1048234776 1.551683013e-38
-0.4716598094 0.004668887239 0.0133310724 1.551683013e-38
-0.03781363368 -0.03672211245 -0.08025527745 1.551683013e-38
-0.467784673 0.02027408779 0.09052780271 1.551683013e-38
-0.2096648663 -0.1105632484 -0.05908758193 1.551683013e-38
-0.4715008736 -0.01134822238 -0.0791817829 1.551683013e-38
0.0718966946 -0.09539560229 -0.02159401402 1.551683013e-38
-0.3866484463 -0.02417467348 0.1436154693 1.551683013e-38
-0.241222769 -0.1108157411 -0.101883173 1.551683013e-38
-0.464717716 -0.02181236073 -0.1293179393 1.551683013e-38
0.0472083278 -0.1136715412 0.01579765044 1.551683013e-38
-0.3552919626 0.03060272336 0.1502905041 1.551683013e-38
-0.1871068925 -0.07112941891 0.0002583302557 1.551683013e-38
-0.4761427343 0.004776858725 -0.04258637875 1.551683013e-38
-0.01454721577 -0.1050175726 -0.07296071202 1.551683013e-38
-0.4390948117 0.04613244534 0.1328682601 1.551683013e-38
-0.2527038157 -0.02638070472 -0.05982594565 1.551683013e-38
-0.342682749 -0.09098657221 -0.1372821778 1.551683013e-38
-0.06639994681 -0.07176862657 0.05782536417 1.551683013e-38
-0.2498218566 0.04076441005 0.05066890642 1.551683013e-38
-0.1576268077 0.04505332932 0.1175950542 1.551683013e-38
-0.4143362641 -0.06834263355 0.005452366546 1.551683013e-38
-0.09042946249 -0.04324958101 0.02534344979 1.551683013e-38
-0.3946692944 -0.006516729482 0.05179495364 1.551683013e-38
-0.3026151359 0.00988654606 -0.07376451045 1.551683013e-38
-0.418079704 -0.03433198109 -0.06144971773 1.551683013e-38
-0.2486876696 -0.05316008627 -0.1003999412 1.625043089e-38
-0.271030426 0.03087361157 -0.1428510994 1.625043089e-38
-0.3817360997 -0.07453536987 -0.08869997412 1.625043089e-38
-0.4023546875 0.04957655817 0.06295132637 1.625043089e-38
-0.1853862107 -0.002214297652 -0.1524182707 1.625043089e-38
-0.1232959852 0.03372812644 -0.1163940728 1.625043089e-38
-0.4653681219 -0.07641708106 0.01088694669 1.625043089e-38
-0.4758783281 -0.03979112208 0.139189899 1.625043089e-38
-0.3668165803 -0.1098233759 -0.147312507 1.625043089e-38
-0.4158615172 0.002063487424 -0.09691387415 1.625043089e-38
-0.4537034631 -0.08665478975 -0.06675034016 1.625043089e-38
-0.4326716363 -0.05226726085 0.05423207209 1.625043089e-38
-0.2934018672 -0.1064657569 -0.1522429138 1.625043089e-38
-0.2921518981 0.00566276256 -0.08296729624 1.625043089e-38
-0.4150220752 -0.08128318191 -0.07368899137 1.625043089e-38
-0.4287430048 0.02540199459 0.07521358877 1.625043089e-38
-0.2495407611 -0.0885354355 -0.1553266644 1.625043089e-38
-0.2511815429 0.046391204 -0.09482888132 1.625043089e-38
-0.4600172937 -0.08825396001 -0.04132926837 1.625043089e-38
-0.465438813 -0.01916838624 0.1067631766 1.625043089e-38
-0.3245910406 -0.1096851677 -0.1646877527 1.625043089e-38
-0.3896799684 0.05268831179 -0.08300212026 1.625043089e-38
-0.3096097708 -0.05002670735 -0.1055546105 1.625043089e-38
-0.4491069913 0.05386568233 0.02573799342 1.625043089e-38
-0.207849279 -0.06886079907 -0.1612217724 1.625043089e-38
-0.196419999 0.06401720643 -0.1441548616 1.625043089e-38
-0.375571698 0.02836629748 -0.131943047 1.625043089e-38
-0.4652516544 -0.007677426562 -0.03967794031 1.625043089e-38
-0.3307993412 -0.09226475656 -0.08364386857 1.625043089e-38
-0.4580756724 0.03544092551 -0.0595642291 1.625043089e-38
-0.220215112 0.01300838217 -0.09822606295 1.625043089e-38
-0.3698801696 0.01019229647 -0.006978041027 1.625043089e-38
0.1635763645 -0.09939159453 -0.1088071316 1.698367293e-38
0.08859594911 0.1078521535 -0.1221654266 1.698367293e-38
0.360978663 -0.1292938888 -0.1011293679 1.698367293e-38
-0.1410717368 0.03681505471 -0.1274593621 1.698367293e-38
0.01851761155 -0.08782603592 -0.1275783479 1.698367293e-38
0.1584854126 0.05249803513 -0.1529411972 1.698367293e-38
0.1396318972 -0.09160364419 0.1450490355 1.698367293e-38
-0.4386754632 0.03451060504 -0.1235272139 1.698367293e-38
0.3596349955 -0.07869138569 -0.1514008641 1.698367293e-38
-0.07951173186 0.1212200671 -0.08499950916 1.698367293e-38
0.2672249973 -0.1250152439 0.06744638085 1.698367293e-38
-0.2729404867 -0.02191578411 -0.1380062848 1.698367293e-38
0.1714155972 -0.07150504738 -0.1451828182 1.698367293e-38
0.02434148267 0.1184520051 -0.09985785931 1.698367293e-38
0.2808080018 -0.1096927971 -0.001617191825 1.698367293e-38
-0.2165572047 -0.02409144677 -0.145994246 1.698367293e-38
0.09253124893 -0.07535585016 -0.1550748497 1.698367293e-38
0.03383548558 0.08161900192 -0.1303150207 1.698367293e-38
0.2356729656 -0.1175366864 0.1148984656 1.698367293e-38
-0.3665561676 -0.0657544136 -0.1545499265 1.698367293e-38
0.274335593 -0.05932490528 -0.1630764157 1.698367293e-38
-0.05535332114 0.1332681775 -0.1064151302 1.698367293e-38
0.2462491691 -0.08715851605 -0.0702721402 1.698367293e-38
-0.1754906178 -0.08456280828 -0.1235095114 1.698367293e-38
0.07210541517 -0.1009795815 -0.1279685795 1.698367293e-38
0.0490154326 -0.04636695608 -0.1528467834 1.698367293e-38
-0.03044211306 -0.06113239005 0.0524729453 1.698367293e-38
-0.08852030337 -0.07344332337 -0.1319597811 1.698367293e-38
0.08611282706 -0.066310063 -0.04260595143 1.698367293e-38
-0.04316855222 -0.03875034675 -0.02540907077 1.698367293e-38
0.1666149199 -0.07289323211 0.0153983729 1.698367293e-38
-0.1738906801 -0.04263855517 -0.04936670884 1.698367293e-38
-0.02932713181 -0.08703989536 0.1512832642 1.771655483e-38
0.1455261856 -0.08814933896 -0.04759801924 1.771655483e-38
0.3516575992 -0.1042038724 0.116679363 1.771655483e-38
0.3234084249 -0.1319598854 -0.1503980011 1.771655483e-38
-0.1380516887 -0.07709803432 0.1371222883 1.771655483e-38
0.1154465228 -0.05779489875 0.01368277427 1.771655483e-38
0.4336592257 -0.09234180301 -0.03535816818 1.771655483e-38
0.4589081407 -0.08670522273 -0.1045398042 1.771655483e-38
0.3156476915 -0.1430813968 0.1392130107 1.771655483e-38
0.2863328457 -0.1171428785 -0.1340703666 1.771655483e-38
0.3492491245 -0.1014949083 -0.04027427733 1.771655483e-38
0.3524637818 -0.1134684086 -0.1144008413 1.771655483e-38
0.1049571782 -0.0931346491 0.1363304555 1.771655483e-38
0.1951748729 -0.1089407951 -0.09427944571 1.771655483e-38
0.3008144498 -0.1013018191 -0.04207394645 1.771655483e-38
0.3447145522 -0.1134573668 -0.1278392971 1.771655483e-38
-0.006479947362 -0.1071135998 0.1294289678 1.771655483e-38
0.1673663557 -0.1049543023 -0.08014254272 1.771655483e-38
0.3891996741 -0.1020987257 -0.03866804391 1.771655483e-38
0.4149782658 -0.1088226885 -0.15182136 1.771655483e-38
0.2305176407 -0.1244010404 0.140359059 1.771655483e-38
0.2655270696 -0.134068042 -0.1423963606 1.771655483e-38
0.2906998694 -0.09984380752 0.03235321864 1.771655483e-38
0.2362912148 -0.05743236095 0.1047133356 1.771655483e-38
-0.04175020009 -0.07176972181 0.08448901027 1.771655483e-38
-0.08372805268 -0.07984820753 -0.001582997502 1.771655483e-38
0.2309778184 -0.03137861937 0.0408879444 1.771655483e-38
0.3782350123 -0.073542431 0.09219159186 1.771655483e-38
0.05103047565 -0.07446359843 0.07315847278 1.771655483e-38
-0.02638885006 -0.09056615084 -0.06687218696 1.771655483e-38
0.150568381 -0.06721594185 0.01713165268 1.771655483e-38
0.1122032478 -0.06883779168 0.07415787876 1.771655483e-38
-0.281560719 0.03210902959 -0.06553929299 1.844943813e-38
-0.3630023301 -0.06676852703 -0.1041167229 1.844943813e-38
-0.4874334335 -0.07036924362 -0.01978014968 1.844943813e-38
-0.1074434072 0.03965087608 -0.002030280419 1.844943813e-38
-0.2125526369 0.01094161253 0.03367862105 1.844943813e-38
-0.2787224054 -0.04287565872 -0.1244381219 1.844943813e-38
-0.4743462503 -0.05764649808 0.1143064126 1.844943813e-38
-0.2997523844 -0.138883248 -0.1527421772 1.844943813e-38
-0.3623843193 -0.02179083228 0.09206813574 1.844943813e-38
-0.4905295968 -0.06323117018 -0.08611178398 1.844943813e-38
-0.4852975011 -0.09131488204 0.05081599951 1.844943813e-38
-0.1719824523 -0.1136819124 -0.1405509859 1.844943813e-38
-0.3124100864 -0.04469325393 0.0215064045 1.844943813e-38
-0.4305121899 -0.07432147115 -0.1545361727 1.844943813e-38
-0.4814721048 -0.09128054976 0.01222022157 1.844943813e-38
-0.1599000841 -0.06649223715 -0.1092921123 1.844943813e-38
-0.3090116382 0.03272520006 -0.03327040747 1.844943813e-38
-0.3793324828 -0.06616979837 -0.1692451388 1.844943813e-38
-0.4834073484 -0.08607999235 0.08196585625 1.844943813e-38
-0.2455491424 -0.1339554489 -0.1749983579 1.844943813e-38
-0.3413996696 0.04403969646 0.06442122906 1.844943813e-38
-0.4746522307 -0.06296368688 -0.1516162753 1.844943813e-38
-0.4158584177 -0.08599510044 0.06168733537 1.844943813e-38
-0.2322066128 -0.02072494291 -0.08696059138 1.844943813e-38
-0.2722236216 0.02394014597 -0.03567501158 1.844943813e-38
-0.335686326 -0.04128539562 -0.1704605669 1.844943813e-38
-0.2774158716 -0.006001348142 0.1130931005 1.844943813e-38
-0.3401127458 -0.03018650226 -0.09929528087 1.844943813e-38
-0.3979756832 -0.01744829305 0.001761151478 1.844943813e-38
-0.4464237988 -0.06668571383 -0.07814965397 1.844943813e-38
-0.3985546231 -0.07691571116 -0.03191407025 1.844943813e-38
-0.1254438609 -0.03212973103 -0.04798777401 1.844943813e-38
-0.2458503097 0.02799443901 0.1598767191 1.91819627e-38
0.3129962981 0.0130156083 0.1521696746 1.91819627e-38
0.1742902249 0.001121028792 0.1570248753 1.91819627e-38
0.3995704055 0.03741073236 0.1078867316 1.91819627e-38
-0.1501838118 0.09963528812 0.1336808503 1.91819627e-38
0.2483573258 0.01627584547 0.07048623264 1.91819627e-38
0.3561440706 -0.1078014374 0.1429046094 1.91819627e-38
0.4974770248 -0.04637677595 0.006595575716 1.91819627e-38
0.1488277763 0.04564310238 0.1500816196 1.91819627e-38
0.4607313573 -0.03587565199 0.1209994331 1.91819627e-38
0.2464557588 -0.07351028919 0.1333788335 1.91819627e-38
0.4577709436 -0.005016344599 0.06549727917 1.91819627e-38
0.0007739363355 0.02988782525 0.1624300033 1.91819627e-38
0.3384233117 -0.03520841897 0.08167781681 1.91819627e-38
0.182370767 -0.05707995221 0.1484970897 1.91819627e-38
0.4149694443 0.007524363231 0.0753346011 1.91819627e-38
-0.1567720324 -0.006197194569 0.1575633734 1.91819627e-38
0.2769386768 -0.05096592009 0.03643082827 1.91819627e-38
0.3042214513 -0.112168625 0.1567403972 1.91819627e-38
0.4872634113 -0.0355123654 0.050489299 1.91819627e-38
0.02358422428 0.03688039631 0.1598952562 1.91819627e-38
0.4440843463 -0.04132361338 0.1445713341 1.91819627e-38
0.1310073137 0.04091213271 0.07671131939 1.91819627e-38
0.3554899096 0.02960145473 0.05591590703 1.91819627e-38
-0.04569219798 0.1083040014 0.1265963018 1.91819627e-38
0.06835916638 -0.04281304404 -0.03103609197 1.91819627e-38
0.2000674158 0.0641336441 0.02002177201 1.91819627e-38
0.4616815746 0.001724733156 0.006626434624 1.91819627e-38
0.2282131165 0.04416944459 0.1036408842 1.91819627e-38
0.3027845323 -0.03358510137 -0.1131471097 1.91819627e-38
0.02238759212 0.006988590583 0.04919001088 1.91819627e-38
0.3186756968 0.0006567238597 -0.02869521454 1.91819627e-38
0.09194727242 -0.09107201546 -0.07827148587 1.991448586e-38
0.2564074099 -0.08635096997 0.1188453734 1.991448586e-38
0.1547477096 -0.08652561903 0.05385168642 1.991448586e-38
0.3311673403 -0.05499346182 0.1580760777 1.991448586e-38
0.006284064613 -0.09058057517 -0.1070717424 1.991448586e-38
0.2204760015 -0.05151805654 0.1032031327 1.991448586e-38
-0.1106565073 -0.09133601189 0.003122647293 1.991448586e-38
0.4698686302 -0.02362778224 0.1103127822 1.991448586e-38
0.3247648776 -0.1057519242 0.005445642397 1.991448586e-38
0.3876297474 -0.02430913597 0.08414337039 1.991448586e-38
0.007254190277 -0.1006698608 0.01278287545 1.991448586e-38
0.3993901908 -0.04494680837 0.126695171 1.991448586e-38
0.245471701 -0.1009082124 0.02179078385 1.991448586e-38
0.2851557732 -0.04102179781 0.1144275069 1.991448586e-38
0.08461474627 -0.09411431104 0.0276252348 1.991448586e-38
0.3586080372 -0.03042848781 0.1371622831 1.991448586e-38
0.2116209269 -0.1042694971 0.03521260247 1.991448586e-38
0.267929852 -0.04527644813 0.1203068867 1.991448586e-38
-0.06245305017 -0.1058587208 0.007521047723 1.991448586e-38
0.4383437634 -0.02959848568 0.1409835368 1.991448586e-38
0.304484874 -0.1114574149 0.008402820677 1.991448586e-38
0.3464553058 -0.03864149377 0.0976074785 1.991448586e-38
0.108107388 -0.08028104156 0.07112014294 1.991448586e-38
0.3098571301 -0.1279424578 0.1724892706 1.991448586e-38
0.1626379192 -0.09510986507 -0.06027177721 1.991448586e-38
0.1621677727 -0.05140964687 0.1315219551 1.991448586e-38
-0.2183827609 -0.09229084104 0.005368531216 1.991448586e-38
0.4546190798 -0.02861597575 0.03785276785 1.991448586e-38
0.03660437465 -0.08018792421 0.1007961854 1.991448586e-38
0.3527335823 -0.09882730991 0.03229886666 1.991448586e-38
0.2191896439 -0.07554452121 -0.04172005504 1.991448586e-38
0.3896956146 -0.0610720329 0.03604932874 1.991448586e-38
0.3670701087 -0.03726259992 -0.1002412289 2.06466517e-38
0.2312482297 0.03441004455 -0.1472287774 2.06466517e-38
0.4812745154 -0.03194437549 -0.0554362312 2.06466517e-38
0.01987051219 0.112891756 -0.135610953 2.06466517e-38
0.3811438978 -0.002139073331 -0.1654224098 2.06466517e-38
0.2146568149 0.05356320739 -0.1487829089 2.06466517e-38
0.4743062854 -0.0583100915 0.101140134 2.06466517e-38
0.1828944832 0.05012528598 -0.1403353661 2.06466517e-38
0.4672557116 -0.05689332634 -0.108738251 2.06466517e-38
0.3650951087 0.0265733134 -0.1533316672 2.06466517e-38
0.4779689014 -0.06416767091 0.0278918352 2.06466517e-38
0.1019155607 0.07398121804 -0.1275209188 2.06466517e-38
0.4104703367 -0.02406878024 -0.1215302646 2.06466517e-38
0.2535421252 0.0325836502 -0.1329577267 2.06466517e-38
0.4789783061 -0.07101231813 -0.00907026697 2.06466517e-38
0.06020988151 0.07253518701 -0.1201877296 2.06466517e-38
0.3846067786 -0.02742120065 -0.1529609263 2.06466517e-38
0.234311372 0.02199910767 -0.1362660676 2.06466517e-38
0.4790273607 -0.0695079267 0.06808252633 2.06466517e-38
0.1526668221 0.06394878775 -0.1485574245 2.06466517e-38
0.4639704227 -0.05020331219 -0.1361646801 2.06466517e-38
0.3272390664 0.02567552589 -0.1511354893 2.06466517e-38
0.4834886789 -0.04596044868 -0.08132726699 2.06466517e-38
0.04385163635 0.1007412896 -0.1298986673 2.06466517e-38
0.3412722349 -0.01390434615 -0.1117051765 2.06466517e-38
0.1777988672 -0.01599675976 -0.07590159774 2.06466517e-38
0.4758388698 -0.007142377552 -0.02037283406 2.06466517e-38
0.1193964183 -0.0248657316 -0.1021905765 2.06466517e-38
0.4077906609 0.02083532698 -0.04456208274 2.06466517e-38
0.2472586036 -0.03600749001 -0.1075120345 2.06466517e-38
0.2672275901 -0.0731606558 -0.04586036131 2.06466517e-38
0.01415213291 -0.03493092954 -0.06701882184 2.06466517e-38
-0.2545079291 0.02792226896 0.0006134062423 2.137881613e-38
0.02950057946 0.1333098114 0.05251093954 2.137881613e-38
-0.2267357856 -0.03817302734 0.1478679627 2.137881613e-38
0.2313461006 0.07273170352 -0.07840839028 2.137881613e-38
-0.1779121459 0.07052852958 0.01703684218 2.137881613e-38
-0.02413198352 0.135511592 0.02217098698 2.137881613e-38
-0.4341329932 -0.08790720999 0.1464666873 2.137881613e-38
0.003469989635 0.1453844756 0.009131391533 2.137881613e-38
-0.342260927 -0.05988497287 0.08827674389 2.137881613e-38
-0.08283098787 0.08759514242 0.1193551868 2.137881613e-38
-0.3085630536 -0.1229318455 0.1422853321 2.137881613e-38
0.1031770259 0.1118864864 -0.01449241303 2.137881613e-38
-0.2382062972 -0.05522294343 0.09559464455 2.137881613e-38
0.003449292155 0.1036278978 0.08971751481 2.137881613e-38
-0.2620354891 -0.09322017431 0.1550850421 2.137881613e-38
0.1240642741 0.09047517926 -0.04062285647 2.137881613e-38
-0.205481872 0.01231773477 0.07137621194 2.137881613e-38
-0.08166291565 0.132276535 0.03065368161 2.137881613e-38
-0.3504401147 -0.09581141919 0.1644362807 2.137881613e-38
0.04336835817 0.1390837282 0.006963706575 2.137881613e-38
-0.3095965683 -0.01385783311 0.08297307789 2.137881613e-38
-0.06691943854 0.129125759 0.1117697209 2.137881613e-38
-0.2008675486 -0.06311518699 0.1294988543 2.137881613e-38
0.1758930683 0.08478496224 -0.05640317127 2.137881613e-38
-0.1672547609 0.01577446051 0.10455136 2.137881613e-38
-0.1729797274 0.03135697544 -0.01283669006 2.137881613e-38
-0.4565838277 0.003913777415 0.1068685427 2.137881613e-38
-0.05350743607 0.02110026404 -0.06531472504 2.137881613e-38
-0.3687129617 -0.01539881248 0.0309563037 2.137881613e-38
-0.1863683313 -0.02819821611 0.02251721174 2.137881613e-38
-0.2885235548 -0.03136888146 0.03010066785 2.137881613e-38
0.01295240782 -0.02094747685 -0.03424858302 2.137881613e-38
0.02589681558 0.1229370087 0.06972905248 2.211062324e-38
-0.1089559346 0.1271031648 0.008129196241 2.211062324e-38
0.1411829144 0.1107298806 -0.04944590852 2.211062324e-38
-0.3271411359 0.02643484809 -0.008133673109 2.211062324e-38
0.02885503694 0.1384243965 0.02190611325 2.211062324e-38
0.002219658345 0.1426829547 0.07387088984 2.211062324e-38
0.4431690276 0.006261534989 -0.1429020911 2.211062324e-38
-0.4770946205 -0.01489333902 0.1243517697 2.211062324e-38
0.2453668714 0.06241149083 0.03075776435 2.211062324e-38
-0.1552134752 0.09085264057 0.1292358339 2.211062324e-38
0.319314003 0.04157689959 -0.1003694981 2.211062324e-38
-0.3941809833 -0.01795517653 0.1109872013 2.211062324e-38
0.1592023075 0.08537103236 0.05158584937 2.211062324e-38
-0.1106601432 0.1093008146 0.08293006569 2.211062324e-38
0.2509028614 0.04036906362 -0.1039658859 2.211062324e-38
-0.3892448545 0.03276399896 0.05370224267 2.211062324e-38
0.1051109508 0.10215801 0.04922219366 2.211062324e-38
-0.1188861579 0.1181260869 0.0510241203 2.211062324e-38
0.375939697 0.01984212175 -0.1248180717 2.211062324e-38
-0.4588167965 0.0341636315 0.08934985101 2.211062324e-38
0.1929896772 0.0664395541 0.05322766677 2.211062324e-38
-0.1638577878 0.1379025728 0.07776147872 2.211062324e-38
0.1854777783 0.06081018969 -0.08910126984 2.211062324e-38
-0.3906721175 0.03115350381 -0.01820381358 2.211062324e-38
0.08295689523 0.1150527224 0.05501319095 2.211062324e-38
-0.0593293868 0.04954245687 0.1115016416 2.211062324e-38
0.2021780014 -0.03525320068 -0.1135708019 2.211062324e-38
-0.4365360737 0.004176711664 -0.01730888709 2.211062324e-38
0.08348933607 0.05484756082 -0.02836991102 2.211062324e-38
-0.2658006847 -0.005796069745 0.02266889438 2.211062324e-38
0.2102450877 -0.03839340806 -0.03286070749 2.211062324e-38
-0.3113851547 0.003798496444 0.07513918728 2.211062324e-38
0.348393172 0.01398955099 0.1314788759 2.284242894e-38
0.4562611282 0.01083938312 0.01746876165 2.284242894e-38
0.2267953455 0.0606822744 0.06778466702 2.284242894e-38
0.2848987877 -0.005589814391 -0.1394118965 2.284242894e-38
0.4329600334 0.02659036592 0.08243089914 2.284242894e-38
0.3077377975 0.06040003896 -0.02616998553 2.284242894e-38
0.09123660624 0.1043295637 0.12130481 2.284242894e-38
0.3653829396 -0.1294102222 -0.1513707042 2.284242894e-38
0.2505222559 0.05531411991 -0.1046338528 2.284242894e-38
0.454537034 -0.0003812210343 -0.1026037261 2.284242894e-38
0.1409654617 0.08733391017 0.1072886139 2.284242894e-38
0.2928884923 -0.0697363019 -0.1313645691 2.284242894e-38
0.2199106812 0.04423253611 -0.00324316672 2.284242894e-38
0.3739262521 0.02185656503 -0.08094084263 2.284242894e-38
0.1451157629 0.06838795543 0.1030020937 2.284242894e-38
0.2838390172 -0.02184371464 -0.1416602433 2.284242894e-38
0.2111482471 0.03814710304 0.02409709804 2.284242894e-38
0.3443966806 0.01636143029 -0.06074181199 2.284242894e-38
0.116337426 0.09328002483 0.1313236803 2.284242894e-38
0.3393631279 -0.1077153385 -0.166239202 2.284242894e-38
0.2254505306 0.04425306991 -0.07644279301 2.284242894e-38
0.4155064821 0.002661884995 -0.1013033092 2.284242894e-38
0.1731529981 0.04422447085 0.06186808646 2.284242894e-38
0.252795577 0.02160366252 -0.149785161 2.284242894e-38
0.4193218946 0.01725285314 0.03731186688 2.284242894e-38
0.3212624788 0.03495731577 -0.06156545505 2.284242894e-38
0.1040368229 0.03284428269 0.05604818463 2.284242894e-38
0.3302705288 0.03786728904 0.03978005797 2.284242894e-38
0.005994248204 0.03553816676 0.01085380279 2.284242894e-38
0.479126662 -0.03237923607 -0.02738793381 2.284242894e-38
0.1276065409 0.001137329731 -0.02298472635 2.284242894e-38
0.2145929486 -0.01529523451 0.04454356804 2.284242894e-38
0.3639399409 -0.03237458318 -0.1458234042 2.348204041e-38
0.2918320298 -0.1359633207 -0.1273108721 2.348204041e-38
-0.03701650351 -0.07476556301 -0.07614961267 2.348204041e-38
0.1615474224 -0.03507104889 -0.02960954607 2.348204041e-38
0.4051035345 -0.008982670493 -0.1506284773 2.348204041e-38
0.2883436978 -0.1301609576 -0.1599338651 2.348204041e-38
0.2243871987 -0.1176105365 -0.1455248147 2.348204041e-38
0.2980901301 -0.01879551262 -0.06690690666 2.348204041e-38
0.4904460311 -0.06050943211 -0.06457626075 2.348204041e-38
0.4007923603 -0.117581524 -0.1220391244 2.348204041e-38
0.0516763851 -0.1158067733 -0.09899177402 2.348204041e-38
0.2087351233 -0.04229605943 -0.03045329265 2.348204041e-38
0.4439997971 -0.05448834226 -0.1046857908 2.348204041e-38
0.3192211688 -0.1311267912 -0.1030178294 2.348204041e-38
-0.03210760653 -0.110636659 -0.09508156031 2.348204041e-38
0.2072870582 -0.05384919047 -0.08786874264 2.348204041e-38
0.4381401241 -0.05443285033 -0.1392325908 2.348204041e-38
0.3132806122 -0.1424639374 -0.1307920963 2.348204041e-38
0.1141416654 -0.1056016833 -0.1262372881 2.348204041e-38
0.3072378039 -0.03104401194 -0.12538068 2.348204041e-38
0.477650702 -0.07252887636 -0.1060240492 2.348204041e-38
0.3656409383 -0.1363958716 -0.1336547285 2.348204041e-38
-0.1366359442 -0.0816359818 -0.04751973599 2.348204041e-38
0.1073863283 -0.02342923358 0.005139827263 2.348204041e-38
0.4373741448 0.001805810141 -0.1445196271 2.348204041e-38
0.1807678491 -0.09998966008 -0.03852676973 2.348204041e-38
-0.0551495105 -0.01663668454 -0.009462640621 2.348204041e-38
0.0437871404 -0.04229939356 0.07049484551 2.348204041e-38
0.3615299463 -0.04184710979 -0.1056537256 2.348204041e-38
0.2303913236 -0.08103564382 0.01087646466 2.348204041e-38
-0.1401595622 -0.0664107278 0.0003394335508 2.348204041e-38
0.08389849216 -0.04819628969 -0.0902281478 2.348204041e-38
-0.3168365061 -0.03287395462 -0.1482400596 2.347880341e-38
-0.1949190199 -0.1092451364 -0.1451175809 2.347880341e-38
-0.4530547559 -0.08270075917 -0.08545037359 2.347880341e-38
0.1480904222 -0.09021031111 -0.07108178735 2.347880341e-38
-0.2890829146 -0.08815095574 -0.1255645305 2.347880341e-38
-0.1572269946 -0.1018606126 -0.1305125356 2.347880341e-38
-0.4724597633 -0.03074774705 0.07205325365 2.347880341e-38
-0.0824220404 -0.08785243332 -0.06871483475 2.347880341e-38
-0.385209769 -0.02970665321 -0.05746627599 2.347880341e-38
-0.314419657 -0.1245087907 -0.1156563088 2.347880341e-38
-0.4796792567 -0.07605092973 -0.01633720845 2.347880341e-38
-0.0002658963203 -0.1102624089 -0.0110662682 2.347880341e-38
-0.3645653129 -0.06277756393 -0.1077258065 2.347880341e-38
-0.2525499761 -0.1299900562 -0.09940226376 2.347880341e-38
-0.4786834717 -0.07503160834 -0.05782478675 2.347880341e-38
0.02918528952 -0.1134177148 -0.03181368485 2.347880341e-38
-0.3442548513 -0.04794356227 -0.1276003569 2.347880341e-38
-0.2203309238 -0.1242463291 -0.142398864 2.347880341e-38
-0.4819019437 -0.02794901095 0.0166658368 2.347880341e-38
-0.05838551745 -0.1006958336 -0.1449226737 2.347880341e-38
-0.3546150327 0.02477560379 -0.07360029221 2.347880341e-38
-0.3044934869 -0.1430171579 -0.1679308861 2.347880341e-38
-0.4515756965 -0.08725355566 -0.1463907212 2.347880341e-38
0.07739625126 -0.08166888356 -0.01373948157 2.347880341e-38
-0.3025318086 -0.05229371414 -0.1064601541 2.347880341e-38
-0.2272995263 -0.09898363799 -0.07541620731 2.347880341e-38
-0.4730935395 0.00623919908 -0.133455947 2.347880341e-38
-0.1910858899 -0.02163407765 0.05403394625 2.347880341e-38
-0.3704555631 -0.08089256287 -0.008699048311 2.347880341e-38
-0.3199545443 -0.094971627 0.001624120865 2.347880341e-38
-0.3995346129 -0.03577088937 0.04530567303 2.347880341e-38
0.04800779372 -0.06408129632 0.0303605441 2.347880341e-38
0.2723887265 -0.04396818951 -0.1265331507 2.347520768e-38
-0.4684916139 -0.01691473834 -0.1113737077 2.347520768e-38
-0.07108990848 -0.08193708956 -0.1407759041 2.347520768e-38
-0.2486984581 -0.03287487477 -0.1633008569 2.347520768e-38
0.3639836013 -0.03885183856 -0.1261053085 2.347520768e-38
-0.4281508923 -0.002968274755 -0.1573936343 2.347520768e-38
-0.2489936203 -0.1196396053 -0.1536306292 2.347520768e-38
-0.3838904202 -0.01535066124 -0.1575316489 2.347520768e-38
-0.0114068212 -0.09393516928 -0.1528112739 2.347520768e-38
-0.4721832871 0.0188454967 0.02692467347 2.347520768e-38
-0.178432256 -0.104122065 -0.1467648894 2.347520768e-38
-0.3337872922 -0.0288451165 -0.1614738256 2.347520768e-38
0.07599799335 -0.09273377061 -0.1398411691 2.347520768e-38
-0.4788942635 -0.007115338929 -0.08013445139 2.347520768e-38
-0.1497531831 -0.1039355695 -0.1458928734 2.347520768e-38
-0.3006837368 -0.02225613408 -0.1612284034 2.347520768e-38
0.1251330376 -0.09327887744 -0.1427073479 2.347520768e-38
-0.4657352567 0.002765518147 -0.1108124703 2.347520768e-38
-0.227871716 -0.1083324403 -0.1732042879 2.347520768e-38
-0.363140732 -0.01434350759 -0.1653098762 2.347520768e-38
0.0164516326 -0.09924770147 -0.1625001431 2.347520768e-38
-0.4655522406 0.02767583728 -0.004289139062 2.347520768e-38
-0.1193998381 -0.09421928227 -0.1587640792 2.347520768e-38
-0.2905665636 -0.04475971311 -0.170631215 2.347520768e-38
0.1848282069 -0.07700058073 -0.142536521 2.347520768e-38
-0.4620431662 -0.01699034125 -0.1463671178 2.347520768e-38
-0.1761306822 -0.05693306029 -0.09065868706 2.347520768e-38
-0.4189879596 -0.007368938997 -0.1714458913 2.347520768e-38
-0.1020083502 -0.05966486782 -0.06119806319 2.347520768e-38
-0.4830619097 -0.03771820292 -0.04062546417 2.347520768e-38
-0.02365521714 -0.04379982874 -0.0826697126 2.347520768e-38
-0.2325515896 -0.02009859122 -0.04248474166 2.347520768e-38
0.3018330038 -0.01461538114 0.1126940697 2.347161195e-38
0.4655500352 -0.007369079627 -0.07946801186 2.347161195e-38
0.3215914369 0.0498537086 0.06280808151 2.347161195e-38
0.1844419986 0.08635602891 0.04012198746 2.347161195e-38
0.2425540984 -0.03950777277 0.167091012 2.347161195e-38
0.4443932176 -0.02150939219 -0.1461122483 2.347161195e-38
0.4558055699 0.01817021519 0.03908561915 2.347161195e-38
0.3762436509 -0.08444661647 -0.1226946935 2.347161195e-38
0.4444431067 -0.04211784899 0.1384439766 2.347161195e-38
0.4811224043 -0.0362986587 0.0757438615 2.347161195e-38
0.4135231674 0.0149411764 0.09160812944 2.347161195e-38
0.2853349149 -0.03170711547 -0.06661115587 2.347161195e-38
0.343943119 -0.04968971759 0.1364756078 2.347161195e-38
0.4644916952 -0.04885083437 -0.0386155583 2.347161195e-38
0.3626233041 0.0248350054 0.09101983905 2.347161195e-38
0.2335190028 0.01950515807 -0.03583255783 2.347161195e-38
0.299511224 -0.03504858539 0.1523162574 2.347161195e-38
0.4794905484 -0.03822657838 -0.06124062091 2.347161195e-38
0.4353073239 0.01012080628 0.08573381603 2.347161195e-38
0.3374068439 -0.06859494746 -0.1281627715 2.347161195e-38
0.3936667442 -0.06162526086 0.1533619612 2.347161195e-38
0.4893493056 -0.06663909554 0.04758536071 2.347161195e-38
0.2921189964 0.04305353388 0.01618939638 2.347161195e-38
0.188667044 0.05069900304 -0.05724536628 2.347161195e-38
0.2618999779 -0.01957318559 0.1365848184 2.347161195e-38
0.2513332665 0.02968615294 0.02824435756 2.347161195e-38
0.4170141816 0.03099146485 -0.001404289622 2.347161195e-38
0.2259745449 0.04936136678 -0.1260464787 2.347161195e-38
0.3553688526 0.04167513922 -0.0211329665 2.347161195e-38
0.1579943299 -0.03208869696 0.1258830577 2.347161195e-38
0.3632158339 0.01463315077 0.04402935505 2.347161195e-38
0.04836878181 -0.02351674438 0.033773873 2.347161195e-38
-0.3529959023 -0.0820748955 0.1051025987 2.346801622e-38
-0.1341136247 0.1078947634 -0.06180932745 2.346801622e-38
-0.4870629609 -0.03629976884 0.04823248833 2.346801622e-38
0.0002698302269 0.144301638 0.03210342675 2.346801622e-38
-0.4609700143 -0.0667855069 0.08540705591 2.346801622e-38
-0.1398099512 0.02057664283 -0.09398490191 2.346801622e-38
-0.481308043 -0.04861074314 -0.1105070636 2.346801622e-38
0.1784007251 0.09037131816 0.03070353158 2.346801622e-38
-0.2296992391 -0.1401934773 0.1302143484 2.346801622e-38
-0.00580429472 0.09849944711 -0.001144140493 2.346801622e-38
-0.4804981649 -0.06666632742 -0.0345181115 2.346801622e-38
0.07216849178 0.1116653383 0.04523536563 2.346801622e-38
-0.3462933302 -0.1074118689 0.1168648228 2.346801622e-38
-0.08645145595 0.06873141229 -0.03162087873 2.346801622e-38
-0.4845718741 -0.05362246931 0.003568634158 2.346801622e-38
-0.008024706505 0.1100603938 0.05769237131 2.346801622e-38
-0.4022900462 -0.09670116007 0.1020169705 2.346801622e-38
-0.1965436339 0.05295557529 -0.02128304914 2.346801622e-38
-0.4816471338 -0.05362652615 -0.07782638073 2.346801622e-38
0.1017214954 0.1184462979 0.05442672968 2.346801622e-38
-0.2868220806 -0.1335160434 0.1396512091 2.346801622e-38
-0.06850069761 0.1452607661 -0.002733834786 2.346801622e-38
-0.4760490954 -0.01960942522 0.01664556377 2.346801622e-38
-0.1840702593 -0.04346360639 0.1341932118 2.346801622e-38
-0.4610616565 -0.07891604304 0.1192317531 2.346801622e-38
-0.3054623604 0.01743177325 0.01126551628 2.346801622e-38
-0.4770741463 -0.002527022967 -0.03021801077 2.346801622e-38
-0.06102541089 -0.04080080986 0.08659133315 2.346801622e-38
-0.2529173791 -0.04713958129 0.07067207992 2.346801622e-38
-0.2234174609 -0.003053297987 0.07671642303 2.346801622e-38
-0.4649540186 -0.02815527469 0.0676939562 2.346801622e-38
-0.0948734954 -0.01318359002 0.02935662493 2.346801622e-38
0.190343827 0.002538280794 -0.1687436551 2.346406175e-38
0.02118784375 0.04517887905 -0.1536212265 2.346406175e-38
0.2934671342 0.02703832835 -0.1259092838 2.346406175e-38
-0.1486054361 0.05674598366 -0.1549653709 2.346406175e-38
0.2311754227 0.01483232621 -0.1601797044 2.346406175e-38
0.1219406947 0.1108999178 -0.09744167328 2.346406175e-38
0.437982887 -0.0245146174 -0.1395261437 2.346406175e-38
-0.3653717041 0.04977127165 -0.1432220042 2.346406175e-38
0.07681879401 0.05697184429 -0.1408437639 2.346406175e-38
-0.1275776923 0.0328024067 -0.1591517776 2.346406175e-38
0.3322587013 -0.0154436538 -0.1424184144 2.346406175e-38
-0.2535310388 0.02120731957 -0.1488329768 2.346406175e-38
0.1212378591 0.02250610292 -0.1435304433 2.346406175e-38
-0.05945683643 0.02419232018 -0.1599069536 2.346406175e-38
0.2897869349 -0.01138150692 -0.1621489525 2.346406175e-38
-0.2073152959 0.04210295528 -0.1538193673 2.346406175e-38
0.1486377269 0.02485585213 -0.1527498066 2.346406175e-38
-0.04656457156 0.02425967343 -0.1537125558 2.346406175e-38
0.3855320811 -0.0361882709 -0.1626387835 2.346406175e-38
-0.328645438 0.05447650701 -0.1503492743 2.346406175e-38
0.1105750501 0.03929869831 -0.1518018097 2.346406175e-38
-0.1056712046 0.03168547899 -0.1658194065 2.346406175e-38
0.2483540773 -0.008619087748 -0.1714326441 2.346406175e-38
-0.1825262457 0.04979626834 -0.1620910317 2.346406175e-38
0.1985470057 0.03643018752 -0.1581472009 2.346406175e-38
-0.02190042287 0.02076859772 -0.1613041908 2.346406175e-38
0.2881201506 -0.04709850252 -0.1275376976 2.346406175e-38
-0.277647227 -0.05388863385 -0.1289464384 2.346406175e-38
0.02221121639 -0.02898050472 -0.1434628665 2.346406175e-38
-0.2222251594 -0.03257176653 -0.1719374806 2.346406175e-38
0.04720263556 -0.0175718721 -0.1416787505 2.346406175e-38
-0.07261221856 -0.03497131169 -0.08393722028 2.346406175e-38
0.01907246932 -0.03062003106 0.1369697005 2.346010729e-38
-0.1045253947 0.1218860969 0.07468320429 2.346010729e-38
0.09232483804 0.1212829277 -0.08824589103 2.346010729e-38
-0.1296750605 0.1103127897 -0.1285518855 2.346010729e-38
-0.1766061038 -0.01870303787 0.06563735753 2.346010729e-38
0.03546096757 0.1262723505 0.08884560317 2.346010729e-38
0.3427596688 0.03810270876 0.01699207164 2.346010729e-38
-0.009531348012 0.1340151429 -0.07210552692 2.346010729e-38
0.3301858902 -0.07225907594 0.1584873796 2.346010729e-38
-0.007340195123 0.1207778454 -0.05407926068 2.346010729e-38
0.2129472643 0.06478080899 -0.01029460039 2.346010729e-38
-0.03784230724 0.1258102357 -0.106953077 2.346010729e-38
0.1002619714 -0.08309864253 0.1367968321 2.346010729e-38
-0.004121553618 0.1265010238 0.02372755483 2.346010729e-38
0.1528548896 0.04337960482 -0.04663731158 2.346010729e-38
-0.1398582757 0.07194956392 -0.1174612641 2.346010729e-38
-0.0329946503 -0.08107341081 0.1374299228 2.346010729e-38
-0.01353164576 0.1132075861 0.0547148101 2.346010729e-38
0.2523116469 0.05185613409 0.00312979985 2.346010729e-38
-0.0193795599 0.1353724748 -0.1066172048 2.346010729e-38
0.2092206329 -0.07170067728 0.1492460966 2.346010729e-38
-0.01190513559 0.1377761364 -0.005346877035 2.346010729e-38
0.1553364843 0.04612651095 -0.1152916476 2.346010729e-38
-0.2527170777 0.05130644888 -0.1257352382 2.346010729e-38
-0.1891353875 -0.07205419987 0.1046831757 2.346010729e-38
-0.01782774553 -0.02054886334 0.1126742885 2.346010729e-38
0.1600707024 0.06964533776 0.1047721803 2.346010729e-38
-0.2222829163 -0.02705266885 -0.01098196767 2.346010729e-38
0.2138493657 -0.02822760679 0.1065761149 2.346010729e-38
-0.1248421445 0.01370893978 -0.04134962335 2.346010729e-38
0.100914754 0.01411359198 0.03074023128 2.346010729e-38
-0.2635819614 -0.02350517176 -0.04261843115 2.346010729e-38
0.4441382885 -0.0817040801 0.1216496974 2.345615283e-38
0.473729223 -0.07178575546 0.004682585131 2.345615283e-38
0.07023461163 -0.07482254505 0.09951357543 2.345615283e-38
0.07945410907 0.1332515031 0.09747502953 2.345615283e-38
0.4673751593 -0.06895252317 0.04872265458 2.345615283e-38
0.3003838658 0.0433380194 0.09531981498 2.345615283e-38
-0.2720766068 -0.08862953633 0.1209458336 2.345615283e-38
0.1127600595 0.1193957999 -0.0800306052 2.345615283e-38
0.1185961217 -0.08686668426 0.1586235166 2.345615283e-38
0.4314527214 0.02079269476 -0.04774857312 2.345615283e-38
-0.04974966496 -0.08742190152 0.1414579004 2.345615283e-38
0.09604919702 0.1191962659 -0.01261696313 2.345615283e-38
0.2410722822 -0.1015648097 0.1378436387 2.345615283e-38
0.3075976372 0.03706638888 0.02982162684 2.345615283e-38
0.002173505956 -0.08793649077 0.1374917924 2.345615283e-38
0.05114078149 0.1134463996 0.04003730416 2.345615283e-38
0.2953714132 -0.1273493767 0.1066562831 2.345615283e-38
0.243116349 0.03672314808 0.05614684522 2.345615283e-38
-0.1376944035 -0.08241070062 0.1456630528 2.345615283e-38
0.09428054094 0.1205365956 -0.04180653766 2.345615283e-38
0.1872391552 -0.1126119941 0.1353804171 2.345615283e-38
0.3876205981 0.02490004525 -0.01105977967 2.345615283e-38
-0.07342156768 -0.06464099884 0.07804054022 2.345615283e-38
0.1847836524 0.06860101968 0.03660824895 2.345615283e-38
0.3453387022 -0.08296006918 0.03974007443 2.345615283e-38
0.2129693478 0.0434082374 0.114329353 2.345615283e-38
-0.2199132591 -0.03621570021 0.07929482311 2.345615283e-38
0.2618364692 0.04976336285 -0.01334913168 2.345615283e-38
-0.1320685297 -0.0003492459655 0.06200787053 2.345615283e-38
0.237121731 -0.004567472264 -0.1050931364 2.345615283e-38
-0.08994206786 -0.04301637411 0.0254952535 2.345615283e-38
0.1404024512 -0.0328588821 0.03358362615 2.345615283e-38
0.0009746697615 0.1149100959 -0.1015028954 2.345219836e-38
0.2031590939 0.06057448313 -0.07068329304 2.345219836e-38
-0.08444143087 0.1215062365 -0.09583485872 2.345219836e-38
0.3673838377 0.04805873707 -0.09661768377 2.345219836e-38
-0.03179680184 0.1387755126 -0.07115824521 2.345219836e-38
0.1506007165 0.1108723357 -0.07724396139 2.345219836e-38
-0.4010388851 0.0437759459 -0.1154115498 2.345219836e-38
0.4725856781 -0.02714223042 -0.02819566615 2.345219836e-38
0.1263824701 0.1136578247 -0.05279121548 2.345219836e-38
0.2862232029 0.04278776795 -0.07624813914 2.345219836e-38
-0.2412790656 0.04279538989 -0.100007385 2.345219836e-38
0.4228494763 0.02071101964 -0.06679604948 2.345219836e-38
0.0554423593 0.1094274297 -0.09145647287 2.345219836e-38
0.2178886682 0.05268725008 -0.09232492745 2.345219836e-38
-0.1879951954 0.05476372316 -0.08181968331 2.345219836e-38
0.3874121904 0.007316041738 -0.08504724503 2.345219836e-38
0.03851088509 0.1169677004 -0.08820032328 2.345219836e-38
0.1716315895 0.04371808097 -0.09721650928 2.345219836e-38
-0.3368502259 0.05093004182 -0.117832914 2.345219836e-38
0.4521254003 -0.009356676601 -0.05417847261 2.345219836e-38
0.09642998874 0.115995869 -0.08290150762 2.345219836e-38
0.2563477159 0.03743844852 -0.09180643409 2.345219836e-38
-0.1098014861 0.07545149326 -0.1436837763 2.345219836e-38
0.3303288817 0.033582367 -0.0901343897 2.345219836e-38
-0.001324596931 0.1120406836 -0.06982696056 2.345219836e-38
0.1576526463 0.06909675151 -0.08126044273 2.345219836e-38
-0.2104668021 0.05022120476 -0.03397495672 2.345219836e-38
0.3720348179 0.04119516164 -0.0014468421 2.345219836e-38
-0.06055858359 0.02720124647 -0.1157012507 2.345219836e-38
0.3019854128 0.03278496489 -0.03439747915 2.345219836e-38
0.03470703214 -0.004501319956 -0.001006491133 2.345219836e-38
0.2278724909 -0.00174403016 -0.02190452628 2.345219836e-38
0.3070364892 -0.08278232068 0.09850669652 2.344788516e-38
-0.2665864527 -0.1194659993 0.1621020287 2.344788516e-38
0.01688980125 -0.09363372624 -0.03143149987 2.344788516e-38
0.08011429012 -0.08290463686 0.1216577441 2.344788516e-38
0.2464604378 -0.08948564529 0.1253208965 2.344788516e-38
-0.1929282546 -0.1068065539 0.09918092191 2.344788516e-38
-0.3594021797 -0.08284156024 -0.01789912581 2.344788516e-38
0.3188324869 -0.132968232 -0.1506088525 2.344788516e-38
0.4316086769 -0.009687724523 -0.07144545764 2.344788516e-38
-0.4471670389 -0.07609564066 0.1061814427 2.344788516e-38
-0.2284508795 -0.1246538311 -0.02270578407 2.344788516e-38
0.1148060188 -0.09460575134 -0.09499429166 2.344788516e-38
0.2206906825 -0.06591186672 -0.0623995401 2.344788516e-38
-0.322753638 -0.09915726632 0.09506487846 2.344788516e-38
-0.1409424692 -0.1035908386 -0.02870377712 2.344788516e-38
0.09131900221 -0.09750281274 -0.03957222402 2.344788516e-38
0.09540151805 -0.09756977111 -0.05461506918 2.344788516e-38
-0.2831200659 -0.09910551459 0.08793524653 2.344788516e-38
-0.2942388654 -0.09832267463 -0.02298801206 2.344788516e-38
0.1942815036 -0.1151393279 -0.1401394457 2.344788516e-38
0.3585570455 -0.03358878568 -0.09785687923 2.344788516e-38
-0.3897287846 -0.1054699942 0.1182641387 2.344788516e-38
-0.05114675686 -0.09786066413 -0.03025332466 2.344788516e-38
0.08166344464 -0.0963248834 0.01544802636 2.344788516e-38
0.08900854737 -0.09904959053 0.07433305681 2.344788516e-38
-0.240392819 -0.1000776738 0.06363519281 2.344788516e-38
-0.01867357828 -0.04156088829 0.02623985521 2.344788516e-38
0.2088130713 -0.09038956463 -0.01198668778 2.344788516e-38
-0.1548731327 -0.09646310657 0.03179775923 2.344788516e-38
-0.448505491 -0.07869186997 0.01950669847 2.344788516e-38
0.02695759758 -0.08390410244 -0.1035308465 2.344788516e-38
0.02548436262 -0.07391945273 0.0607598573 2.344788516e-38
0.08327151835 -0.01770222001 -0.1579443961 2.344357197e-38
0.3780089021 -0.06807267666 -0.1161716208 2.344357197e-38
0.02700407431 -0.007011373062 -0.1593631357 2.344357197e-38
0.2097946256 0.06912567466 -0.01533358265 2.344357197e-38
0.09508200735 -0.05609627441 -0.1454000324 2.344357197e-38
0.3557401896 -0.08654300123 -0.1460707933 2.344357197e-38
-0.3063182831 0.0001827850938 -0.1325745583 2.344357197e-38
0.3861521184 0.0349843353 0.01106385421 2.344357197e-38
0.3194687068 -0.1461088657 -0.1622647643 2.344357197e-38
0.472032249 -0.08097606152 0.04122678936 2.344357197e-38
-0.1690068841 -0.01786264777 -0.1300666481 2.344357197e-38
0.298158884 0.0398362726 0.002339612227 2.344357197e-38
0.2066856623 -0.07965423167 -0.1602468193 2.344357197e-38
0.4233619273 -0.1005834416 -0.03797458112 2.344357197e-38
-0.1064471304 -0.00744927302 -0.1517307311 2.344357197e-38
0.2545398176 0.03333613649 -0.002136510331 2.344357197e-38
0.1591437161 -0.09222844988 -0.1641860455 2.344357197e-38
0.407409966 -0.1020446569 -0.05441174656 2.344357197e-38
-0.2412091494 -0.01736599766 -0.1622064114 2.344357197e-38
0.3459619284 0.03212510794 0.005784268025 2.344357197e-38
0.268740207 -0.1392849982 -0.1621628553 2.344357197e-38
0.463840574 -0.1059508473 0.01300589461 2.344357197e-38
