# .PCD v0.7 - Point Cloud Data file format
VERSION 0.7
FIELDS x y z rgb
SIZE 4 4 4 4
TYPE F F F F
COUNT 1 1 1 1
WIDTH 833
HEIGHT 1
VIEWPOINT 0 0 0 1 0 0 0
POINTS 833
DATA ascii
-0.05004537851 -0.2485689968 0.4338072538 9.472685133e-39
0.1577963382 -0.04103605077 0.4439289272 9.472685133e-39
-0.002274606144 -0.2171610594 0.1770991385 9.472685133e-39
0.0266608987 -0.207147032 0.3831697702 9.472685133e-39
-0.03067575209 -0.1976096332 0.3615697622 9.472685133e-39
0.1836011708 -0.1095528454 0.3957135379 9.472685133e-39
-0.03815056011 -0.09065644443 0.2249339074 9.472685133e-39
0.08987913281 -0.1608784348 0.35117805 9.472685133e-39
0.008182387799 -0.1714441925 0.24275814 9.472685133e-39
0.1423138231 -0.1021543741 0.3513219059 9.472685133e-39
-0.06015385315 -0.0836924687 0.2783098519 9.472685133e-39
0.1022842601 -0.187848419 0.3233104348 9.472685133e-39
0.04443136603 -0.1505501717 0.2277208567 9.472685133e-39
0.135726586 -0.131301105 0.3102403879 9.472685133e-39
-0.09532372653 -0.1276456118 0.3391614258 9.472685133e-39
0.09684234858 -0.02677433938 0.3142629266 9.472685133e-39
0.1080379859 -0.1082738712 0.09655795246 9.472685133e-39
-0.0323696509 -0.006041140296 0.434887737 9.472685133e-39
-0.1393550336 -0.2840932012 0.3552806377 9.472685133e-39
0.08946516365 -0.04979089275 0.1575814188 9.472685133e-39
-0.1238872483 -0.1516734213 0.3312783241 9.472685133e-39
-0.1107431054 -0.2924510837 -0.4332506359 8.742304551e-39
0.1221212 -0.3234851062 -0.4106065631 8.742304551e-39
-0.03195694834 -0.3209852874 -0.3474092782 8.742304551e-39
-0.207836017 0.1342773885 -0.2790849209 8.742304551e-39
-0.1466317326 -0.1169503033 -0.355047971 8.742304551e-39
0.06106487662 -0.1097069159 -0.3770360649 8.742304551e-39
0.01868247427 -0.297673285 0.01847375929 8.742304551e-39
-0.04467352107 0.1747280359 -0.3744278848 8.742304551e-39
-0.0606219098 -0.2696685791 -0.4754544497 8.742304551e-39
0.1492488086 -0.3459199071 -0.4467951357 8.742304551e-39
-0.04367985949 -0.2252984792 -0.1332433522 8.742304551e-39
-0.08956900239 -0.2214735448 -0.2719097733 8.742304551e-39
-0.1873267144 -0.1971045732 -0.4235731959 8.742304551e-39
0.1202411875 -0.104078047 -0.3292989135 8.742304551e-39
-0.09356642514 -0.2401798218 -0.1589540243 8.742304551e-39
-0.177839905 -0.08509819955 -0.2383039147 8.742304551e-39
-0.1797324866 -0.09033750743 -0.3193139732 8.742304551e-39
0.112583071 -0.04337758198 -0.2973008752 8.742304551e-39
-0.1182007715 -0.2038037032 -0.06127018109 8.742304551e-39
-0.1250265986 -0.09650461376 -0.1801955402 8.742304551e-39
-0.1023161337 -0.069255054 -0.4008174241 8.742304551e-39
0.1088888794 0.002596089384 -0.3666384518 8.742304551e-39
-0.1582763791 -0.2155219764 -0.03873574361 8.742304551e-39
-0.1027105451 -0.1438239366 -0.1992249042 8.742304551e-39
-0.09300228208 -0.1078971848 -0.3591328561 8.742304551e-39
0.1006525606 -0.02941623703 -0.3869699538 8.742304551e-39
-0.1288919896 -0.005486686714 -0.1969880611 8.742304551e-39
-0.002489636187 -0.03262427077 -0.2647588849 8.742304551e-39
-0.05088307709 -0.2487375438 -0.1790894866 8.742304551e-39
-0.08564575762 -0.1430654675 -0.3959234953 8.742304551e-39
-0.02161942236 -0.1481431872 -0.3726711869 8.742304551e-39
0.07354097813 -0.02172097191 -0.4121320248 8.742304551e-39
0.05921181664 -0.0587654151 0.486215204 8.012284103e-39
-0.08917175233 0.1214915738 0.4296385348 8.012284103e-39
-0.01509852707 -0.2163965106 0.4585659206 8.012284103e-39
-0.09457153082 0.1829718798 0.4487096667 8.012284103e-39
0.06067262962 -0.3750561774 0.3794213831 8.012284103e-39
0.1377400756 0.06440781057 0.420183748 8.012284103e-39
-0.134482801 -0.2512087524 0.4406455755 8.012284103e-39
-0.1583160907 0.0298085697 0.4398238659 8.012284103e-39
0.1474458277 -0.1443508267 0.4278256893 8.012284103e-39
-0.1655274481 -0.08933860809 0.3164417446 8.012284103e-39
-0.1397080123 -0.1388485581 0.4672606885 8.012284103e-39
-0.1429967731 0.1055785716 0.4855049253 8.012284103e-39
0.1523574442 -0.1928597838 0.4392263889 8.012284103e-39
0.0137043586 -0.01507709641 0.3981316984 8.012284103e-39
-0.09794507921 -0.11444325 0.3683386445 8.012284103e-39
-0.07123598456 0.1050560996 0.4582161605 8.012284103e-39
0.1250493973 -0.2097459733 0.3684657514 8.012284103e-39
0.05254093558 -0.02550929226 0.3765194118 8.012284103e-39
-0.06554381549 -0.1309164315 0.3201028407 8.012284103e-39
-0.05715699121 0.05920074135 0.4815298617 8.012284103e-39
0.05613918975 -0.1109169051 0.4585228562 8.012284103e-39
0.01539939363 -0.02315053158 0.3629009426 8.012284103e-39
-0.06046489254 -0.2064437717 0.3116322458 8.012284103e-39
-0.06343374401 0.002955487696 0.4938845038 8.012284103e-39
-0.03179033846 -0.1087430492 0.4268729389 8.012284103e-39
-0.08485601097 -0.01091291104 0.3313610852 8.012284103e-39
-0.004141478334 -0.1859886646 0.3834598958 8.012284103e-39
-0.04832657427 -0.0565998666 0.3936341405 8.012284103e-39
-0.1063704938 -0.1319748014 0.4116541445 8.012284103e-39
-0.1057773158 -0.03071645275 0.4291109145 8.012284103e-39
0.0629562363 -0.04596483707 0.4246824384 8.012284103e-39
-0.08827283978 -0.04422243312 0.3401251137 8.012284103e-39
0.02739242837 0.04626706615 0.06195685267 7.281903522e-39
-0.09847508371 0.1865765154 -0.1422345787 7.281903522e-39
0.0923070237 -0.2980965674 0.2952527106 7.281903522e-39
-0.1255596876 0.3801777661 0.2990549505 7.281903522e-39
-0.1436699927 0.3276159763 0.1624835432 7.281903522e-39
-0.1363240182 0.2884161174 0.05207711458 7.281903522e-39
-0.08402507752 -0.3990482688 0.3736000955 7.281903522e-39
-0.1291315109 0.2483257204 0.3907419443 7.281903522e-39
-0.133827433 0.3661874533 0.07154833525 7.281903522e-39
-0.1206412166 0.3687348962 -0.141928494 7.281903522e-39
0.04893308133 -0.2305234373 0.3550247252 7.281903522e-39
-0.1459460855 0.2477816194 0.3408783078 7.281903522e-39
-0.150033474 0.2963416278 0.07376848161 7.281903522e-39
-0.1428083926 0.04681966081 -0.07141071558 7.281903522e-39
0.01928939112 -0.2200346291 0.2368360758 7.281903522e-39
-0.1111748219 0.1954183578 0.2749301791 7.281903522e-39
-0.1075112745 0.1744015962 0.1557081789 7.281903522e-39
-0.1135963649 0.003129725344 -0.001448362018 7.281903522e-39
0.1018923223 -0.1742623597 0.2154240161 7.281903522e-39
-0.06616360694 0.1374771446 0.3413328826 7.281903522e-39
-0.05676659197 0.03703334183 0.2274197489 7.281903522e-39
-0.06546126306 0.02703081816 0.01209060755 7.281903522e-39
0.113624081 -0.2034829259 0.1423090994 7.281903522e-39
-0.05697349459 0.09374199808 0.3800901175 7.281903522e-39
-0.08997970074 0.05674197525 0.22939457 7.281903522e-39
-0.1546685249 0.1984539479 0.1222669333 7.281903522e-39
-0.05736741796 -0.09450363368 0.07353135943 7.281903522e-39
-0.008920097724 0.01836099476 0.27097857 7.281903522e-39
-0.1703664511 -0.1848087013 0.1901312619 7.281903522e-39
-0.15091151 0.1536105573 0.2297931463 7.281903522e-39
-0.1079342812 0.2948997319 0.1483007669 7.281903522e-39
-0.1096598506 0.305965364 -0.02804731205 7.281903522e-39
-0.1176702753 -0.3255320787 -0.1001291499 6.55152294e-39
-0.1058446467 -0.1024039015 -0.2760689557 6.55152294e-39
-0.1173803285 -0.3074887097 0.07438834012 6.55152294e-39
-0.1185637116 0.3734617531 -0.3955546618 6.55152294e-39
-0.130687952 -0.3778692782 -0.02125401236 6.55152294e-39
-0.1116360873 -0.2501547337 -0.2108876109 6.55152294e-39
-0.1495149732 -0.2596976161 0.3375905454 6.55152294e-39
-0.1421995759 0.1761300415 -0.230479598 6.55152294e-39
-0.1378671825 -0.3099390864 -0.1888562143 6.55152294e-39
-0.1280643493 -0.01312993653 -0.3570298851 6.55152294e-39
-0.1467982233 -0.1184182093 0.1957401186 6.55152294e-39
-0.1303714365 0.2331605256 -0.321523726 6.55152294e-39
-0.1373032033 -0.2531597316 -0.1120493636 6.55152294e-39
-0.1616437435 -0.1606415659 -0.2657699585 6.55152294e-39
-0.1388434023 -0.09557094425 0.1606533974 6.55152294e-39
-0.09624698758 0.1997549832 -0.3554778397 6.55152294e-39
-0.1503599733 -0.1601807028 -0.07225678116 6.55152294e-39
-0.1507960111 -0.1480372697 -0.2068175524 6.55152294e-39
-0.1143505797 -0.09113508463 0.2320342213 6.55152294e-39
-0.07781542838 0.1204243526 -0.3130602539 6.55152294e-39
-0.1159816459 -0.0993142873 -0.01102360431 6.55152294e-39
-0.1331311762 -0.1354025304 -0.2863321602 6.55152294e-39
-0.141316399 -0.1017715782 0.2383851558 6.55152294e-39
-0.100254789 -0.0219577793 -0.2823774517 6.55152294e-39
-0.1683773398 -0.1098892316 0.01955811866 6.55152294e-39
-0.1620209515 -0.1324598938 -0.3437895179 6.55152294e-39
-0.1239296868 -0.1785671413 0.192791 6.55152294e-39
-0.1002156138 -0.1171380952 -0.2368298471 6.55152294e-39
-0.1168555841 -0.07512116432 0.150302127 6.55152294e-39
-0.1127065793 0.2071659565 -0.2988468111 6.55152294e-39
-0.09230072796 -0.1683696359 -0.2006621957 6.55152294e-39
-0.1099655181 0.09936782718 -0.2510526478 6.55152294e-39
-0.1025799587 -0.3038858771 0.4631749392 5.820783626e-39
-0.01562223863 -0.1101476923 0.3891714513 5.820783626e-39
0.02929873206 -0.3251648247 0.3569596112 5.820783626e-39
0.0388912186 -0.2363488972 0.4131123424 5.820783626e-39
-0.05509191379 -0.2313717753 0.4103079736 5.820783626e-39
-0.1307531893 0.172621727 0.4266192913 5.820783626e-39
-0.1303843409 -0.3251972198 0.08482376486 5.820783626e-39
0.1544562131 -0.4016496241 0.2261275798 5.820783626e-39
-0.1205537319 -0.3466167748 0.3888651133 5.820783626e-39
-0.1339546293 0.2672452927 0.4235727489 5.820783626e-39
-0.0484135747 -0.2133566737 0.2411880046 5.820783626e-39
0.0678082034 -0.1986774802 0.3426649868 5.820783626e-39
-0.1537380219 -0.1396591663 0.3411940336 5.820783626e-39
-0.1576221138 0.242918998 0.3776620328 5.820783626e-39
-0.01104970742 -0.1628521383 0.1536787599 5.820783626e-39
0.01805107109 -0.0455436334 0.2726463079 5.820783626e-39
-0.137633279 -0.08394920081 0.296235621 5.820783626e-39
-0.1411203891 0.1024142727 0.2981234193 5.820783626e-39
0.0636067912 -0.1532076597 0.1674569845 5.820783626e-39
0.03702200949 -0.04361325502 0.1962426305 5.820783626e-39
-0.07826595753 -0.01189584378 0.2643364668 5.820783626e-39
-0.1017930359 0.02563188598 0.3857275546 5.820783626e-39
0.1587881446 -0.1819163859 0.2088208646 5.820783626e-39
0.006605223753 -0.1131170392 0.1141555011 5.820783626e-39
-0.1049435139 0.01400772762 0.2208200544 5.820783626e-39
-0.06954745203 -0.0004233475483 0.3660076261 5.820783626e-39
0.1344619095 -0.1417760402 0.2129788399 5.820783626e-39
-0.08595030755 -0.05675349012 0.3458912969 5.820783626e-39
-0.1587100029 -0.1637271941 0.1122248024 5.820783626e-39
0.00597082451 -0.2436831295 0.09747052938 5.820783626e-39
-0.06362989545 -0.2658669949 0.3823842704 5.820783626e-39
-0.1299553812 0.2714875638 0.3612022996 5.820783626e-39
0.1005061716 -0.2034516782 0.2262893915 5.090401643e-39
0.1095104069 -0.3062734604 0.4138072729 5.090401643e-39
-0.1539984345 0.0008592305239 0.3927438855 5.090401643e-39
-0.1537591517 -0.2665444613 0.4601907134 5.090401643e-39
0.1161450297 -0.07061974704 0.3240622282 5.090401643e-39
0.02426104248 -0.3469522297 0.4403415322 5.090401643e-39
-0.03627220169 -0.1135591492 0.4392341077 5.090401643e-39
-0.03561799228 -0.2914165556 0.4497703314 5.090401643e-39
0.1710406989 -0.1846196502 0.09686362743 5.090401643e-39
0.1545762718 -0.3181208968 0.3606113493 5.090401643e-39
-0.1261136234 -0.01148433425 0.450635314 5.090401643e-39
-0.107213147 -0.206699267 0.3891572654 5.090401643e-39
0.1657751948 -0.111005798 0.2528014779 5.090401643e-39
0.07314354926 -0.2283417881 0.4040729702 5.090401643e-39
-0.1250579655 0.1838585436 0.3662426174 5.090401643e-39
-0.1663996726 -0.1738581657 0.333445251 5.090401643e-39
0.182256043 -0.06134473532 0.2967718542 5.090401643e-39
0.05577027053 -0.1966448575 0.3210809231 5.090401643e-39
-0.01601604559 0.1000501364 0.2870180011 5.090401643e-39
-0.09252125025 -0.1447729915 0.3462888896 5.090401643e-39
0.1107432917 0.004990975838 0.3773734272 5.090401643e-39
0.02700326033 -0.1130366251 0.3553012311 5.090401643e-39
0.03259832412 -0.002465422032 0.3509958982 5.090401643e-39
0.01017478015 -0.1561583281 0.4216851592 5.090401643e-39
0.0347295031 0.02398556098 0.3582653105 5.090401643e-39
-0.02788299881 -0.05310486257 0.4083302021 5.090401643e-39
0.08014839888 -0.0825272724 0.2485566735 5.090401643e-39
0.0828358978 -0.09338263422 0.3707901835 5.090401643e-39
-0.1342849433 -0.03802481294 0.4190664887 5.090401643e-39
-0.05482659861 -0.1071101204 0.4758377075 5.090401643e-39
0.09279432893 -0.1951565742 0.1006644964 5.090401643e-39
0.04909118265 -0.1922424138 0.3709727526 5.090401643e-39
-0.0294425264 -0.3245923817 0.3082039952 4.359662329e-39
0.1304943562 -0.2173116803 0.2166964263 4.359662329e-39
0.01704553887 -0.1697176546 0.4387180805 4.359662329e-39
0.1263373941 -0.3868874907 0.2513706088 4.359662329e-39
0.0191857405 -0.3532340527 0.1025472581 4.359662329e-39
0.1401974708 -0.2123277932 0.3980338871 4.359662329e-39
-0.1865125895 -0.05128258094 0.4297959805 4.359662329e-39
0.1694977283 -0.3183267415 0.06997098029 4.359662329e-39
-0.1631517857 -0.312473774 0.2844660282 4.359662329e-39
0.1745946407 -0.2093339562 0.2264163047 4.359662329e-39
-0.02205309644 0.01195764169 0.4676077664 4.359662329e-39
0.1637100428 -0.1790867001 0.1588504165 4.359662329e-39
-0.05774100497 -0.2269121557 0.1228191331 4.359662329e-39
0.1737596691 -0.1247363612 0.3749582171 4.359662329e-39
0.02436544001 2.419948578e-05 0.3825343847 4.359662329e-39
0.1430421621 -0.1959534585 0.2022891343 4.359662329e-39
-0.00405568257 -0.2295010537 0.09172835201 4.359662329e-39
0.1536943465 -0.03230475634 0.3469161093 4.359662329e-39
0.04286794364 0.01074864343 0.364803791 4.359662329e-39
0.1059533358 -0.169296205 0.1816730648 4.359662329e-39
-0.04153050855 -0.1102376282 0.2941075861 4.359662329e-39
0.07633000612 -0.01901549287 0.2881993055 4.359662329e-39
0.002548901364 -0.04655675963 0.3361513615 4.359662329e-39
0.0603935197 -0.1639973968 0.2056783587 4.359662329e-39
-0.06729836762 -0.07997056842 0.3132613897 4.359662329e-39
0.09831015021 -0.05888044089 0.2664382756 4.359662329e-39
0.009555049241 -0.198092103 0.2346215844 4.359662329e-39
0.09334881604 -0.1267358363 0.2789477408 4.359662329e-39
-0.1384370178 -0.07266724855 0.352026701 4.359662329e-39
0.08712434024 -0.1627668887 0.09753187746 4.359662329e-39
-0.1658404619 -0.1569079906 0.201003015 4.359662329e-39
0.110439457 -0.07797043025 0.213825509 4.359662329e-39
-0.09247615933 0.3458752632 0.1850281656 3.628921614e-39
-0.1223891452 0.1844861507 -0.02954616025 3.628921614e-39
-0.1639464945 -0.13350375 -0.08426514268 3.628921614e-39
-0.1517895758 0.349352628 -0.2516938746 3.628921614e-39
-0.1035952419 0.22133407 0.3329569399 3.628921614e-39
-0.1474629194 0.01448433474 0.220610857 3.628921614e-39
-0.1722059697 -0.09246300906 0.1497166604 3.628921614e-39
-0.1554282159 0.04654978216 -0.3696937561 3.628921614e-39
-0.144308567 0.3647868335 0.02563739382 3.628921614e-39
-0.1606901884 0.289857775 -0.05879103392 3.628921614e-39
-0.164825663 -0.1733038425 0.03550801054 3.628921614e-39
-0.1760240942 0.1395032853 -0.3094843626 3.628921614e-39
-0.1649168283 0.2319087386 0.2414654642 3.628921614e-39
-0.1799215376 0.04447331652 0.141563192 3.628921614e-39
-0.1655373871 -0.09390435368 0.001885911101 3.628921614e-39
-0.1667244583 0.06522741914 -0.1825613081 3.628921614e-39
-0.1589129567 0.1694976389 0.2644126117 3.628921614e-39
-0.1703798473 -0.04118909314 0.1744217277 3.628921614e-39
-0.1139732748 -0.1591754705 0.07604181021 3.628921614e-39
-0.1349823326 -0.07984441519 -0.221186623 3.628921614e-39
-0.154386431 -0.0372174941 0.2283064574 3.628921614e-39
-0.08616378158 0.03764811158 0.07888829708 3.628921614e-39
-0.1589744985 -0.1656451821 0.06284308434 3.628921614e-39
-0.1444499791 -0.1569368243 -0.1628741473 3.628921614e-39
-0.181370452 -0.04548019543 0.2330657244 3.628921614e-39
-0.1848709136 0.06649503857 -0.1286673695 3.628921614e-39
-0.102365315 0.04246242717 0.2906366885 3.628921614e-39
-0.08369508386 0.01316685509 -0.009373904206 3.628921614e-39
-0.128061831 0.06161019951 -0.008191543631 3.628921614e-39
-0.1035792381 0.1160605773 -0.2183051556 3.628921614e-39
-0.1095493734 0.2598396838 0.01151670236 3.628921614e-39
-0.118863374 0.268286556 -0.1161294878 3.628921614e-39
-0.08766636997 0.3532269299 0.3892203271 2.898180898e-39
0.1116688699 -0.0951558724 0.3680998385 2.898180898e-39
0.1442768425 -0.2064766735 0.05849219486 2.898180898e-39
0.1299069226 -0.3098710477 0.4053476453 2.898180898e-39
-0.0514331758 -0.0153308874 0.4466740191 2.898180898e-39
0.05529748648 -0.07736390084 0.4283902049 2.898180898e-39
0.1633805633 -0.2415511459 -0.1850004792 2.898180898e-39
0.1219070777 -0.2544412315 0.1911520958 2.898180898e-39
-0.1672904491 0.3969081044 0.364272505 2.898180898e-39
0.1585093439 -0.1741387695 0.3471283913 2.898180898e-39
0.1622173935 -0.1173004657 -0.01645064913 2.898180898e-39
0.165356636 -0.1328847557 0.2626246512 2.898180898e-39
-0.105156377 0.09281210601 0.4030114412 2.898180898e-39
0.06698789448 -0.07698363066 0.3912198246 2.898180898e-39
0.165239349 -0.105772756 0.03694151714 2.898180898e-39
0.181665048 -0.07939507067 0.3006182015 2.898180898e-39
-0.05401958525 0.02692331374 0.3986173272 2.898180898e-39
0.05404440686 -0.04556077346 0.3466622233 2.898180898e-39
0.1160842925 -0.06563126296 0.06802462786 2.898180898e-39
0.07593925297 -0.06879020482 0.2013178915 2.898180898e-39
-0.07528033853 0.03408728912 0.3903861046 2.898180898e-39
0.04870244861 -0.1258841157 0.3991152048 2.898180898e-39
0.02493396029 -0.08696655184 0.08472918719 2.898180898e-39
0.03776391968 -0.05922535807 0.2035731226 2.898180898e-39
-0.0910512656 -0.03002028912 0.301304996 2.898180898e-39
0.08931949735 -0.130044803 0.4667567015 2.898180898e-39
-0.06519117206 -0.04591381922 0.4378935695 2.898180898e-39
-0.01367411483 -0.04549023882 0.248136282 2.898180898e-39
0.1098836884 -0.1854283661 -0.02953480743 2.898180898e-39
0.06994437426 -0.2621377409 0.3851006329 2.898180898e-39
-0.08714323491 0.3095628321 0.3409328759 2.898180898e-39
0.05328409374 -0.05685823411 0.3445513546 2.898180898e-39
-0.1075603291 0.2713088691 -0.257119 2.167082852e-39
-0.04196083173 0.246876657 0.3948226273 2.167082852e-39
-0.06495878845 -0.03865944222 -0.2279563248 2.167082852e-39
-0.1380104721 0.3550007343 0.1698570848 2.167082852e-39
-0.1174847111 0.2844560146 -0.05076599121 2.167082852e-39
-0.1252356768 0.1807243079 0.222043097 2.167082852e-39
-0.1616155803 -0.04512635991 -0.3923604488 2.167082852e-39
-0.1585800797 0.4386578202 -0.02660306357 2.167082852e-39
-0.1457989365 0.3002191186 -0.2515140474 2.167082852e-39
-0.1239795834 0.3219302893 0.3666276634 2.167082852e-39
-0.07748699933 -0.05001824349 -0.3448198438 2.167082852e-39
-0.1586011201 0.1166400388 0.1195993423 2.167082852e-39
-0.1189349517 0.2164063603 -0.1278490871 2.167082852e-39
-0.1506937891 0.03768817335 0.2975316048 2.167082852e-39
-0.1019781455 -0.0576159358 -0.1477380693 2.167082852e-39
-0.0879072994 0.0439600274 0.1309853196 2.167082852e-39
-0.1072124019 0.1363699287 -0.04196291789 2.167082852e-39
-0.1074558496 0.03025393561 0.2037614733 2.167082852e-39
-0.04924508557 -0.04113975167 -0.06466700137 2.167082852e-39
0.01582400873 -0.01096894592 0.07166819274 2.167082852e-39
-0.1347610354 0.04928539693 -0.02597417124 2.167082852e-39
-0.0971898064 0.03115851991 0.2451196015 2.167082852e-39
-0.07412821054 -0.05917162821 -0.04105914384 2.167082852e-39
0.04380537942 -0.05260481313 0.09538687766 2.167082852e-39
-0.181047529 0.06329117715 -0.02467236109 2.167082852e-39
-0.1560069025 -0.03151063249 0.2677178979 2.167082852e-39
-0.1146578416 0.04504356161 -0.09258189052 2.167082852e-39
-0.04824778065 0.004333111458 0.001333597233 2.167082852e-39
-0.1314976364 -0.06259188801 -0.2153325677 2.167082852e-39
-0.1158076301 0.1723376662 0.2273175567 2.167082852e-39
-0.09466402978 0.3252003789 -0.1603936255 2.167082852e-39
-0.08597268909 0.3364164233 0.2558048666 2.167082852e-39
-0.1231357232 0.07871776819 0.05637826398 1.435982003e-39
-0.1377035975 0.2182797641 0.3318975866 1.435982003e-39
-0.127854079 -0.2092137039 -0.08580489457 1.435982003e-39
-0.1142692715 -0.2769592404 0.3008810282 1.435982003e-39
-0.1236549988 -0.4027056694 0.04194191471 1.435982003e-39
-0.1393378377 -0.05317287147 0.3770369887 1.435982003e-39
-0.1136729047 -0.4448865056 -0.3638973534 1.435982003e-39
-0.1216642112 0.25208655 0.1962883919 1.435982003e-39
-0.1587997377 0.1156040281 0.1884916574 1.435982003e-39
-0.1511306465 0.2516466677 0.3723340333 1.435982003e-39
-0.1446439028 -0.1997164041 -0.2060134709 1.435982003e-39
-0.1831893027 -0.1367096305 0.2956900299 1.435982003e-39
-0.1687723547 0.04096352682 0.08502390981 1.435982003e-39
-0.1654622853 0.0834454447 0.3331559598 1.435982003e-39
-0.1378380805 -0.2194806188 -0.1034995914 1.435982003e-39
-0.1537128836 -0.1389893144 0.2432551682 1.435982003e-39
-0.1564667821 -0.1317960322 0.09506821632 1.435982003e-39
-0.1580969095 0.09138514102 0.2783395946 1.435982003e-39
-0.1096066013 -0.1804605573 -0.1837045997 1.435982003e-39
-0.1042932346 -0.1552074701 0.2119199634 1.435982003e-39
-0.1491222829 0.001385248266 0.1269340515 1.435982003e-39
-0.1155718938 -0.1039257646 0.38468045 1.435982003e-39
-0.1365470737 -0.175492689 -0.1291277856 1.435982003e-39
-0.1017059684 -0.1531253606 0.1964739412 1.435982003e-39
-0.1682129651 -0.02128404006 0.1388090849 1.435982003e-39
-0.1434951872 -0.1899595261 0.3065003157 1.435982003e-39
-0.1570611447 -0.02718987502 -0.09699384123 1.435982003e-39
-0.06503209472 -0.1419318169 0.3400300145 1.435982003e-39
-0.1417989582 -0.01799100265 -0.1049959287 1.435982003e-39
-0.1230151355 0.02712691948 0.2671726048 1.435982003e-39
-0.1269729435 0.1740478128 0.1502042413 1.435982003e-39
-0.08311288804 0.1168375015 0.3647127748 1.435982003e-39
0.09655049443 -0.1000355184 0.4184530079 7.045238224e-40
-0.1143901497 0.3544433117 0.2410122305 7.045238224e-40
-0.00789023377 -0.0753383562 0.01560657378 7.045238224e-40
-0.06385208666 0.01045201998 0.36656937 7.045238224e-40
0.1164590567 -0.2163775414 0.03028778918 7.045238224e-40
-0.1279330999 0.2155542672 0.02436304651 7.045238224e-40
-0.1561473012 -0.08677756041 -0.00930096209 7.045238224e-40
-0.1087184697 0.225489229 0.3512722552 7.045238224e-40
-0.09455852211 -0.2344751656 0.4178245962 7.045238224e-40
-0.1642754674 0.3153688014 0.3324026763 7.045238224e-40
-0.02913854457 -0.05310086906 0.1036495119 7.045238224e-40
-0.1104666442 -0.01895689406 0.3274183869 7.045238224e-40
0.1661294848 -0.1387240291 0.23965846 7.045238224e-40
-0.1467086375 0.2272271514 0.1230469346 7.045238224e-40
-0.02286579832 -0.03772967309 0.05450145155 7.045238224e-40
-0.02253353409 -0.03260657191 0.310780704 7.045238224e-40
0.1932754368 -0.07956462353 0.1649237722 7.045238224e-40
-0.1120200157 0.1313631237 0.05997379869 7.045238224e-40
-0.06592891365 -0.007562038489 -0.0345451422 7.045238224e-40
0.03722880781 -0.01172262337 0.2434508502 7.045238224e-40
0.125899747 -0.06087687612 0.2075112313 7.045238224e-40
-0.09388940781 0.06333723664 0.1156031936 7.045238224e-40
-0.0684440136 -0.04519716278 -0.07006275654 7.045238224e-40
-0.03260005265 -0.06224171072 0.2050513625 7.045238224e-40
0.08195653558 -0.08343879133 0.1999065876 7.045238224e-40
-0.03400304914 0.07365459204 0.2718966007 7.045238224e-40
0.08574477583 -0.03332753479 -0.002154853661 7.045238224e-40
-0.06905020028 -0.01476459205 0.09072328359 7.045238224e-40
-0.1536811292 -0.09869392961 0.1403992921 7.045238224e-40
-0.1188011393 0.1137765497 0.4040782154 7.045238224e-40
-0.01133922301 -0.0318797864 0.4104832411 7.045238224e-40
-0.1254364848 0.328283757 0.137332648 7.045238224e-40
0.1431076974 -0.1655672491 -0.07952226698 6.490113838e-41
0.08817055821 -0.07975548506 0.2425867468 6.490113838e-41
-0.02770580351 -0.01082069706 0.4642034173 6.490113838e-41
0.1284715235 -0.295393765 -0.1055516079 6.490113838e-41
0.1137108058 -0.1979648173 0.04537491873 6.490113838e-41
0.09759728611 -0.1699112058 0.1144235507 6.490113838e-41
0.0883956477 -0.1653632522 0.3700665832 6.490113838e-41
0.1385345906 -0.3329068124 -0.3830478787 6.490113838e-41
0.1310132146 -0.1922726929 -0.1624484062 6.490113838e-41
0.01826148853 -0.1137845814 0.2613922656 6.490113838e-41
0.02337055467 -0.09937101603 0.4017145336 6.490113838e-41
0.15527758 -0.2105032653 -0.2484990656 6.490113838e-41
0.1932110637 -0.1449396461 -0.04211972281 6.490113838e-41
0.1387841254 -0.05032819882 0.1694651395 6.490113838e-41
-0.00896143727 -0.007465044968 0.3752134442 6.490113838e-41
0.1269191355 -0.1707643718 -0.1735061705 6.490113838e-41
0.1066016257 -0.08371343464 0.01059553213 6.490113838e-41
0.1075478867 -0.0342357941 0.1167683452 6.490113838e-41
-0.01459055394 0.04455265403 0.3015732169 6.490113838e-41
0.1038343757 -0.08762476593 -0.1518537253 6.490113838e-41
-0.01654484309 -0.03209296241 0.01725876331 6.490113838e-41
0.05182671547 -0.02848953381 0.175606817 6.490113838e-41
0.002082210733 -0.03105283156 0.2859534025 6.490113838e-41
0.08872725815 -0.137239188 -0.04267138988 6.490113838e-41
-0.05728663877 -0.03821785003 0.01587410644 6.490113838e-41
0.03771004826 -0.05681343004 0.2193380445 6.490113838e-41
0.06447083503 -0.2015115023 0.1651983112 6.490113838e-41
0.1139182821 -0.1206801087 0.1170626879 6.490113838e-41
0.08935472369 -0.1070719585 0.1101115867 6.490113838e-41
0.06040127203 -0.1721678972 -0.2924446464 6.490113838e-41
0.09028892219 -0.1794297397 -0.1273817569 6.490113838e-41
0.04219379649 -0.06184020266 0.1449059695 6.490113838e-41
-0.114768602 -0.3447502553 0.1803559214 8.028094954e-40
-0.07339996099 -0.3066161275 -0.3216388226 8.028094954e-40
0.02814389206 -0.3126691282 -0.3996326029 8.028094954e-40
0.1466568112 -0.3149597347 0.420817703 8.028094954e-40
-0.1320233792 -0.3507308066 -0.01733979024 8.028094954e-40
0.05628987774 -0.3133068085 -0.01891150139 8.028094954e-40
-0.168647036 0.149756819 -0.4075607657 8.028094954e-40
0.1644596308 -0.2829773128 0.1196615919 8.028094954e-40
-0.1112252325 -0.407205224 0.2983129025 8.028094954e-40
0.02897057496 -0.3145884573 -0.3000776768 8.028094954e-40
-0.04818177968 -0.05874253437 -0.3682824373 8.028094954e-40
0.1836842 -0.1889360398 0.2976246178 8.028094954e-40
-0.1050134897 -0.2067182362 0.1053565145 8.028094954e-40
-0.05419979244 -0.2668533027 -0.102037169 8.028094954e-40
-0.1134730875 -0.1660324931 -0.3117938936 8.028094954e-40
0.1521490961 -0.1798335016 0.3745322824 8.028094954e-40
-0.07996248454 -0.2461070865 0.03898955137 8.028094954e-40
0.1474785954 -0.1749221534 -0.01521001384 8.028094954e-40
-0.1385248303 -0.04788704589 -0.2697284818 8.028094954e-40
-0.02770892717 -0.1415565461 0.4072436094 8.028094954e-40
0.01042949595 -0.1085744649 0.1304991841 8.028094954e-40
0.1120071933 -0.08864326775 0.01787573472 8.028094954e-40
-0.1755950749 -0.06001855806 -0.2354969978 8.028094954e-40
-0.0502795279 -0.154682219 0.4175055325 8.028094954e-40
0.0457239598 -0.1003602669 0.1382269561 8.028094954e-40
0.1653485298 -0.01960897818 0.2746884525 8.028094954e-40
-0.1401452869 -0.09430269897 -0.03820478916 8.028094954e-40
-0.1446656436 -0.1001465991 0.07710395753 8.028094954e-40
-0.1080966964 -0.1280201823 -0.09172265232 8.028094954e-40
0.09494941682 -0.05552672222 0.2903443277 8.028094954e-40
-0.105346337 -0.3540951312 0.238462761 8.028094954e-40
0.1153342575 -0.1124318168 -0.1018929332 8.028094954e-40
0.07461725175 -0.2527538836 -0.2573108077 1.540360521e-39
-0.06603163481 -0.01737690903 -0.3742603362 1.540360521e-39
0.1035383418 -0.2984434962 -0.09919700772 1.540360521e-39
-0.1283592135 0.2669791877 -0.2998282909 1.540360521e-39
0.09133374691 -0.2936679721 -0.2217675447 1.540360521e-39
-0.09287805855 -0.2035583854 -0.2289435714 1.540360521e-39
0.1222966909 -0.312443912 0.08083993196 1.540360521e-39
-0.174531281 0.3738282919 -0.3650881946 1.540360521e-39
0.01294953283 -0.2756929696 -0.3735321462 1.540360521e-39
-0.1442082971 -0.05132035166 -0.3991173506 1.540360521e-39
0.1435586661 -0.2300380915 -0.04612199217 1.540360521e-39
-0.1576028913 0.2486341149 -0.2933501303 1.540360521e-39
0.1300411224 -0.2054220438 -0.3199403882 1.540360521e-39
-0.06091059744 -0.0626456216 -0.3008464575 1.540360521e-39
0.07979696989 -0.2253458351 -0.06525306404 1.540360521e-39
-0.135944277 0.1585975438 -0.2152058333 1.540360521e-39
0.1136107296 -0.2044235319 -0.2744481266 1.540360521e-39
-0.06725660712 -0.0964583084 -0.244332388 1.540360521e-39
-0.07307140529 -0.1615401953 -0.05802283436 1.540360521e-39
-0.1367352456 0.1190726832 -0.1581541896 1.540360521e-39
0.05553106591 -0.1421991885 -0.2583091259 1.540360521e-39
-0.003634988097 0.03505472839 -0.3419240117 1.540360521e-39
-0.1341117918 -0.1662604064 -0.08069762588 1.540360521e-39
-0.1388119161 0.08254995197 -0.1432687044 1.540360521e-39
0.002662309678 -0.116152145 -0.200777933 1.540360521e-39
0.01809472591 0.05224756151 -0.3938032389 1.540360521e-39
0.007336842362 -0.1587591618 -0.1948882937 1.540360521e-39
-0.1377493441 -0.08587168902 -0.13195014 1.540360521e-39
0.05422147363 -0.2374748439 -0.007335307542 1.540360521e-39
-0.1285704225 0.2533555627 -0.3815537095 1.540360521e-39
0.03655739501 -0.1760542989 -0.3646809161 1.540360521e-39
-0.1226391047 -0.02536038309 -0.2237699777 1.540360521e-39
-0.1079195961 -0.007241971791 0.3362894356 2.277910146e-39
-0.07279282808 -0.3361391127 0.3925396502 2.277910146e-39
-0.1344129294 -0.3412972987 -0.1098053902 2.277910146e-39
-0.1206886321 -0.3062261641 0.1892927885 2.277910146e-39
-0.1020286232 0.1136179417 0.1105796918 2.277910146e-39
-0.0763085708 -0.35951069 0.2582016885 2.277910146e-39
-0.1600521356 0.04534532502 -0.3170804083 2.277910146e-39
-0.1576476395 0.2969818115 -0.008748775348 2.277910146e-39
-0.1346344054 -0.01947644353 0.3665136099 2.277910146e-39
-0.05520349741 -0.3116884828 0.4273577034 2.277910146e-39
-0.158871606 -0.09308310598 -0.2487633526 2.277910146e-39
-0.1547746658 -0.2196616828 0.06473528594 2.277910146e-39
-0.155009523 0.1055671424 0.280108124 2.277910146e-39
-0.157069087 -0.2160893083 0.4060103595 2.277910146e-39
-0.1686718464 -0.1451002955 -0.1383460611 2.277910146e-39
-0.1290513426 -0.1598412544 0.1568604708 2.277910146e-39
-0.1293476969 0.1302540302 0.2199386805 2.277910146e-39
-0.09807167947 -0.1719828844 0.3182579279 2.277910146e-39
-0.1332915276 -0.07589925081 -0.08894974738 2.277910146e-39
-0.1052303016 -0.1413391978 0.1216533408 2.277910146e-39
-0.1158266664 0.0705775544 0.2356002927 2.277910146e-39
-0.06536858529 -0.1535531282 0.2798298299 2.277910146e-39
-0.1688275039 -0.0892887041 -0.03975485638 2.277910146e-39
-0.1025460511 -0.1713927835 0.1002898812 2.277910146e-39
-0.1467378139 0.05619163811 0.2328982055 2.277910146e-39
-0.1236327291 -0.1531331986 0.2696855068 2.277910146e-39
-0.1074105725 0.03678166866 0.05387646332 2.277910146e-39
-0.1356669813 -0.07592178136 0.1474800408 2.277910146e-39
-0.1151109263 0.09791138768 -0.1741906255 2.277910146e-39
-0.1203945875 -0.1336719245 0.2229055911 2.277910146e-39
-0.1042938754 0.04060468823 0.2210845202 2.277910146e-39
-0.1061834767 -0.3177915215 0.21137546 2.277910146e-39
0.06146234274 -0.2613981664 -0.1008894295 3.015101038e-39
-0.1187124327 -0.2852773964 -0.1786477417 3.015101038e-39
-0.01334903855 -0.3503798842 -0.08424070477 3.015101038e-39
0.03743929416 -0.2901463211 -0.4504398108 3.015101038e-39
0.134254232 -0.2698619366 -0.07348304987 3.015101038e-39
-0.06652977318 -0.2917209566 0.02292807773 3.015101038e-39
-0.1187791377 -0.402797997 -0.2441212237 3.015101038e-39
-0.1365597993 -0.3920595348 -0.4322727025 3.015101038e-39
-0.04121151194 -0.2920954823 -0.2136030644 3.015101038e-39
-0.1932372749 -0.2442230731 -0.1772370487 3.015101038e-39
-0.1147045195 -0.2054335922 -0.1383204013 3.015101038e-39
-0.02431928553 -0.2217745781 -0.4374795258 3.015101038e-39
0.07529301941 -0.2182037234 -0.1530480981 3.015101038e-39
-0.1181939095 -0.07124002278 0.02558665164 3.015101038e-39
-0.09245108813 -0.1979303509 -0.09943477064 3.015101038e-39
0.01942341775 -0.1507182717 -0.4050018191 3.015101038e-39
0.1132177413 -0.2041812986 -0.2433186024 3.015101038e-39
-0.05635872856 -0.0628997758 -0.01359739527 3.015101038e-39
-0.01832677796 -0.1512064934 -0.0321916379 3.015101038e-39
0.0815198943 -0.1347687244 -0.3649770021 3.015101038e-39
0.05846366659 -0.09227936715 -0.2955029011 3.015101038e-39
0.0204353258 -0.08917609602 -0.1433760822 3.015101038e-39
0.03889807686 -0.1718059927 0.001932186424 3.015101038e-39
0.1218995899 -0.1445437968 -0.3474780321 3.015101038e-39
0.04027088359 -0.07356328517 -0.2832520902 3.015101038e-39
-0.06311183423 -0.155448243 -0.3329434693 3.015101038e-39
0.09249494225 -0.1637001634 -0.01246292423 3.015101038e-39
0.1440182775 -0.1265172511 -0.1300771236 3.015101038e-39
-0.1220337078 -0.3507779241 -0.319042474 3.015101038e-39
-0.1206044108 -0.2170575261 -0.3860117495 3.015101038e-39
-0.0574706234 -0.1330877095 -0.2054961622 3.015101038e-39
-0.1206868067 -0.1092910171 -0.3039453626 3.015101038e-39
0.06745219231 -0.2341039926 0.4722228944 3.75229193e-39
0.1485829651 -0.09231680632 0.2430184782 3.75229193e-39
-0.04184043035 0.06534349918 0.485252589 3.75229193e-39
0.1329339892 -0.3347157538 0.4173486531 3.75229193e-39
-0.1104153022 -0.2718279362 0.4635870755 3.75229193e-39
0.09934277087 0.01129405946 0.4482589066 3.75229193e-39
-0.1534032375 -0.04213663936 0.4350928664 3.75229193e-39
0.1198288947 -0.2227268368 0.2064228505 3.75229193e-39
0.09021542966 -0.2170592993 0.4316060841 3.75229193e-39
0.1636711806 -0.137704283 0.1284559965 3.75229193e-39
-0.1312678903 0.08368967474 0.4726082683 3.75229193e-39
0.1794717312 -0.1518728882 0.3859100342 3.75229193e-39
0.009661433287 -0.2262282223 0.4132498205 3.75229193e-39
0.1311633289 -0.08459344506 0.2680371702 3.75229193e-39
-0.06743838638 0.0830886364 0.3827061951 3.75229193e-39
0.1453980058 -0.2043482363 0.3799372911 3.75229193e-39
-0.0664305985 -0.2021230161 0.3415582478 3.75229193e-39
0.137126103 -0.0236731451 0.2701093256 3.75229193e-39
0.02284586616 0.03715204448 0.4318497777 3.75229193e-39
0.1006661803 -0.1110738963 0.3682777882 3.75229193e-39
-0.08791567385 -0.1126751974 0.4871833026 3.75229193e-39
0.09464767575 -0.01555290166 0.3357205093 3.75229193e-39
-0.02353710309 -0.01984644495 0.465478152 3.75229193e-39
0.06169457361 -0.03793057799 0.470041126 3.75229193e-39
-0.1131724641 -0.0664627105 0.4633820057 3.75229193e-39
0.1416164935 -0.01269375905 0.3615413308 3.75229193e-39
-0.02253629081 -0.1743704826 0.3684535921 3.75229193e-39
0.07216814905 0.05550858378 0.4423876405 3.75229193e-39
-0.08988657594 -0.06061656773 0.4130272865 3.75229193e-39
0.08003304899 -0.1109237745 0.2936620116 3.75229193e-39
0.05053238571 -0.1129300818 0.3891021311 3.75229193e-39
0.04927355051 -0.03053448349 0.3471586704 3.75229193e-39
-0.07767168432 0.0867729187 -0.0321980007 4.48912409e-39
-0.03513797 0.09319471568 0.3482480347 4.48912409e-39
-0.02088298276 0.005127377808 -0.4039629102 4.48912409e-39
0.1077528 -0.4031076133 -0.1177635714 4.48912409e-39
-0.1031310782 0.1000613049 -0.2954610586 4.48912409e-39
-0.171988681 -0.1707137078 0.06807941943 4.48912409e-39
-0.1674796045 0.03639408574 -0.3945466876 4.48912409e-39
0.05054598674 -0.379268676 0.2314684391 4.48912409e-39
-0.1225239336 0.3212236166 -0.04894961044 4.48912409e-39
-0.1335544139 0.1721491218 0.4044748545 4.48912409e-39
-0.1112764552 0.01291983947 -0.4061748981 4.48912409e-39
0.147638917 -0.2135910392 0.04474101588 4.48912409e-39
-0.1373179555 0.1816491634 -0.1386057287 4.48912409e-39
-0.1303771138 -0.0674739629 0.1911976039 4.48912409e-39
0.04314729944 -0.03887748718 -0.3291592896 4.48912409e-39
0.1385165304 -0.1938475221 -0.08906521648 4.48912409e-39
-0.1124246493 0.1292639077 -0.2031478137 4.48912409e-39
-0.1344167441 -0.04606769606 0.1122625768 4.48912409e-39
0.005550379865 -0.01766678877 -0.236246109 4.48912409e-39
0.04124043882 -0.1605397612 -0.04029885679 4.48912409e-39
-0.08218724281 0.1011762917 -0.2034492344 4.48912409e-39
0.01482839976 -0.01202933583 0.2649706006 4.48912409e-39
0.008736626245 -0.03060578369 -0.2113363147 4.48912409e-39
0.007451105863 -0.1722848415 -0.06093342602 4.48912409e-39
-0.09091023356 -0.08692194521 -0.1297316551 4.48912409e-39
0.03793096915 -0.02861161157 0.2162922919 4.48912409e-39
-0.0911417827 -0.1019986272 -0.1493041962 4.48912409e-39
-0.1276960671 -0.1002812013 -0.03428127989 4.48912409e-39
-0.145723775 -0.04885800555 -0.1490573734 4.48912409e-39
0.101476416 -0.1265481859 0.1183565035 4.48912409e-39
-0.1006029025 0.2305084616 -0.01620512828 4.48912409e-39
-0.1132112741 0.3072867095 0.0228960868 4.48912409e-39
0.03172542155 -0.007504545618 -0.4929500818 5.225597518e-39
0.1029985771 -0.2885335386 -0.4253913164 5.225597518e-39
0.09919648618 -0.09631218761 -0.4752893448 5.225597518e-39
-0.1363525838 -0.3610963225 -0.4484281838 5.225597518e-39
-0.1013797075 -0.04044567049 -0.4634171426 5.225597518e-39
-0.0135971047 -0.3186857998 -0.4306186438 5.225597518e-39
0.1106053516 -0.3474009931 -0.4269191325 5.225597518e-39
-0.1422068626 -0.09378496557 -0.425511986 5.225597518e-39
0.0300015416 -0.1438052654 -0.4407967627 5.225597518e-39
0.1714173406 -0.2842554152 -0.4114973545 5.225597518e-39
0.1220735759 -0.06218276918 -0.4635568559 5.225597518e-39
-0.1705721468 -0.144532904 -0.3798044622 5.225597518e-39
-0.01497477107 -0.05779142305 -0.4649835527 5.225597518e-39
0.03696683794 -0.2552488744 -0.3853104711 5.225597518e-39
0.1227845103 -0.01883200742 -0.4329273403 5.225597518e-39
-0.116006434 -0.154448241 -0.369078815 5.225597518e-39
-0.02802695706 0.0285187494 -0.4067295492 5.225597518e-39
0.02633520961 -0.2615181208 -0.2994211912 5.225597518e-39
0.08208824694 -0.02196390741 -0.4487420022 5.225597518e-39
-0.03433085606 -0.1081239879 -0.3567839563 5.225597518e-39
-0.0463523604 -0.004682193976 -0.4802092016 5.225597518e-39
-0.02962324396 -0.1333817542 -0.3793748319 5.225597518e-39
0.07821971923 -0.06160912663 -0.4795255065 5.225597518e-39
-0.01317470986 -0.1020209715 -0.3761557937 5.225597518e-39
-0.0549220629 -0.08200514317 -0.4320784807 5.225597518e-39
-0.08477571607 -0.1712916493 -0.4039512575 5.225597518e-39
-0.109600693 -0.0201537367 -0.4688279033 5.225597518e-39
0.02995808795 -0.1314090937 -0.3902597725 5.225597518e-39
0.1060513258 -0.1642735302 -0.4109594524 5.225597518e-39
-0.09689054638 -0.07579745352 -0.4127133787 5.225597518e-39
0.01985399239 -0.0418668054 -0.3956598043 5.225597518e-39
0.09543887526 -0.4055501819 -0.3033038676 5.225597518e-39
0.1283491552 -0.2962462902 0.06529495865 5.962428276e-39
-0.03605468199 -0.07645189017 -0.4015180767 5.962428276e-39
0.170203656 -0.1409306377 -0.07937093824 5.962428276e-39
-0.177138567 0.02368702181 0.04543150589 5.962428276e-39
-0.04684187099 -0.3698244691 -0.04556103051 5.962428276e-39
-0.02129098773 -0.1933292896 -0.104475297 5.962428276e-39
0.1520276815 -0.1996552348 -0.3050450683 5.962428276e-39
-0.1844390929 0.02864513919 -0.2592175901 5.962428276e-39
0.149777323 -0.317928642 0.1674615443 5.962428276e-39
0.04675219953 -0.1145004481 -0.3601599932 5.962428276e-39
0.1643050015 -0.1107575968 -0.1361160427 5.962428276e-39
-0.1842207164 -0.19869712 -0.01065734308 5.962428276e-39
0.04245318472 -0.231641531 0.08486513048 5.962428276e-39
-0.01505389344 -0.09424111247 -0.2607098222 5.962428276e-39
0.1372591853 -0.06524378061 -0.1917848289 5.962428276e-39
-0.1218018159 -0.1229707897 -0.01289593801 5.962428276e-39
-0.06257075071 -0.2245830894 0.06989001483 5.962428276e-39
0.06595280021 -0.07483743131 -0.05408195034 5.962428276e-39
0.1048300117 -0.05384337157 -0.2650299966 5.962428276e-39
-0.1077157035 0.01743652113 -0.1696121544 5.962428276e-39
-0.03735481203 -0.1196390912 0.1565456688 5.962428276e-39
0.05092026293 -0.02365204506 -0.05263444036 5.962428276e-39
0.1052086428 -0.06092588976 -0.2605177164 5.962428276e-39
-0.09386177361 0.01190907788 -0.2481102198 5.962428276e-39
-0.08364119381 -0.0768712908 0.1794411242 5.962428276e-39
-0.1007263884 -0.1847126633 0.09999015927 5.962428276e-39
-0.04995443299 -0.1989628673 -0.1488905847 5.962428276e-39
-0.08254369348 -0.01948869787 -0.3634736836 5.962428276e-39
0.1173221394 -0.1099893823 0.01016309857 5.962428276e-39
-0.1410357505 -0.1447001696 -0.1071462035 5.962428276e-39
0.1362817138 -0.1963296831 0.03100198694 5.962428276e-39
0.09377904236 -0.03901749104 -0.06667806953 5.962428276e-39
0.06269753724 -0.1160520315 0.4870768189 6.698542971e-39
0.1278236359 -0.1786689609 0.4465447068 6.698542971e-39
-0.0408866927 -0.09171302617 0.4371568263 6.698542971e-39
0.1147322729 -0.3045468926 0.4566601813 6.698542971e-39
0.04968111217 -0.05422519147 0.455645889 6.698542971e-39
0.1166709214 -0.08213000745 0.4618871808 6.698542971e-39
-0.1447265148 0.04682368785 0.4559472501 6.698542971e-39
0.1193206608 -0.394449681 0.4133538008 6.698542971e-39
0.1042873859 -0.2428690046 0.413226068 6.698542971e-39
0.1809008569 -0.1641904563 0.4179489017 6.698542971e-39
-0.01942515373 0.01740817726 0.4415229261 6.698542971e-39
0.1621094048 -0.2014141828 0.4408485293 6.698542971e-39
0.1207022369 -0.05492670834 0.452752918 6.698542971e-39
0.1782096177 -0.04944224656 0.4234752953 6.698542971e-39
-0.02183561027 -0.05080512911 0.3572949767 6.698542971e-39
0.08895032853 -0.1931575239 0.3613804579 6.698542971e-39
0.1448494494 0.03535063565 0.4044788182 6.698542971e-39
0.1627990752 -0.05619867891 0.3316118419 6.698542971e-39
-0.04465445504 0.04072634131 0.3755688369 6.698542971e-39
0.05003288388 -0.1813255399 0.3633587062 6.698542971e-39
0.07453292608 0.0369129926 0.4700573683 6.698542971e-39
0.1276053041 -0.06903029233 0.3745715022 6.698542971e-39
-0.1163691878 -0.02504334599 0.3833398521 6.698542971e-39
0.02152056992 -0.1678952426 0.4644602239 6.698542971e-39
0.0718850866 0.02991644666 0.4578269124 6.698542971e-39
0.1531845927 -0.08302757889 0.4516504705 6.698542971e-39
-0.04052093998 -0.07301720977 0.4194018841 6.698542971e-39
0.05472514406 -0.08335654438 0.3992422223 6.698542971e-39
-0.06427530944 -0.1068554223 0.4192092419 6.698542971e-39
0.09070949256 -0.2503659129 0.4424453974 6.698542971e-39
0.08895279467 -0.1087139845 0.4004786313 6.698542971e-39
0.1017410308 -0.1513614357 0.3804477155 6.698542971e-39
0.08466877043 -0.2863115668 0.07803839445 7.434656265e-39
-0.1098788455 0.07893773913 -0.2679411769 7.434656265e-39
0.09297643602 -0.02091228031 -0.4099936783 7.434656265e-39
-0.1039504856 0.03693660721 0.1865924597 7.434656265e-39
0.09469781816 -0.3182633519 -0.1155887321 7.434656265e-39
-0.1137635335 -0.06482036412 -0.1408546269 7.434656265e-39
0.1001385301 -0.143010065 -0.1321297288 7.434656265e-39
-0.1287603229 0.1236441731 -0.06959406286 7.434656265e-39
0.1487667412 -0.3183347285 0.3077945411 7.434656265e-39
-0.1603357196 0.1708321273 -0.2468844503 7.434656265e-39
0.1502713412 -0.06172097847 -0.362900883 7.434656265e-39
-0.1200910062 0.01620008424 0.03600107878 7.434656265e-39
0.15159522 -0.1962781996 0.1507600397 7.434656265e-39
-0.1230826825 0.0114142336 -0.1875451505 7.434656265e-39
0.03023733944 -0.05860914662 -0.3162737787 7.434656265e-39
-0.06040600315 -0.01590963453 0.1451792568 7.434656265e-39
0.1705036908 -0.1826767772 0.06329852343 7.434656265e-39
-0.07670133561 -0.01308102626 -0.1414120942 7.434656265e-39
0.0972308889 -0.02675842308 -0.2370084822 7.434656265e-39
0.04403001443 -0.0247651618 0.05432317778 7.434656265e-39
0.1395298243 -0.1017735228 0.1348202229 7.434656265e-39
-0.03754955903 0.05841856822 -0.09801726788 7.434656265e-39
0.1306026727 -0.04002327099 -0.2249217778 7.434656265e-39
0.05916344002 -0.05616378784 0.02856294066 7.434656265e-39
0.1282795221 -0.1004361436 0.1510619372 7.434656265e-39
-0.01592979766 -0.001241622842 -0.03544994444 7.434656265e-39
0.1240564734 -0.1634525955 -0.0494751744 7.434656265e-39
0.09566942602 -0.01446954254 -0.08275149763 7.434656265e-39
-0.00376620423 -0.17173706 -0.01692066528 7.434656265e-39
-0.1309575737 0.02522242069 0.002727412386 7.434656265e-39
0.1006249115 -0.2704903185 0.2857557535 7.434656265e-39
-0.1298961937 0.1588620842 -0.1244607046 7.434656265e-39
-0.0981438607 -0.1290608495 -0.3479927778 8.170410826e-39
-0.1800715178 0.2193937898 -0.08223476261 8.170410826e-39
0.1465497315 -0.2491150498 -0.3055456281 8.170410826e-39
-0.1292098612 0.03078713082 0.1767543107 8.170410826e-39
-0.1282105744 -0.3065826893 -0.2609328926 8.170410826e-39
-0.1240726784 0.2639185786 -0.2246233374 8.170410826e-39
0.04511945322 -0.4364609122 -0.4517791271 8.170410826e-39
-0.1333044916 0.3142455518 0.3497232795 8.170410826e-39
0.03566103801 -0.210504055 -0.1834094524 8.170410826e-39
-0.1676151752 0.2569427788 -0.01935057901 8.170410826e-39
0.1311913729 -0.1733120978 -0.3708995283 8.170410826e-39
-0.1842107773 0.1369972527 0.2070164084 8.170410826e-39
-0.1222633347 -0.2331660241 -0.08359201998 8.170410826e-39
-0.1534058154 0.1546744406 -0.1436258852 8.170410826e-39
0.1194710135 -0.02291446552 -0.2973526716 8.170410826e-39
-0.132377103 0.07668581605 0.06963227689 8.170410826e-39
-0.1240721941 -0.2168680727 0.01886472479 8.170410826e-39
-0.1059581637 0.05950775743 -0.1603307724 8.170410826e-39
0.1016047969 -0.01130413543 -0.2736190557 8.170410826e-39
-0.1117563322 -0.001426148228 0.004959356505 8.170410826e-39
0.01994374581 -0.03407306969 -0.08583441377 8.170410826e-39
-0.01832174882 0.03543030843 -0.07689433545 8.170410826e-39
0.02135025151 -0.02499892376 -0.2787246406 8.170410826e-39
-0.0699602291 -0.05312950909 -0.006548374426 8.170410826e-39
0.0192735251 -0.04157083109 -0.09872345626 8.170410826e-39
-0.09274710715 -0.07428603619 0.125186801 8.170410826e-39
-0.1146540046 -0.04106489569 -0.281096518 8.170410826e-39
-0.1074334532 -0.03046160005 -0.2223141193 8.170410826e-39
0.08298020065 -0.2675395012 -0.3221369982 8.170410826e-39
-0.09140772372 0.004062984139 0.2511422336 8.170410826e-39
0.02692371234 -0.08705108613 -0.2103584856 8.170410826e-39
-0.1182172969 0.03935385123 -0.166078791 8.170410826e-39
-0.1328792721 -0.2943533063 0.1370235384 8.906165387e-39
-0.1112079844 -0.3186509907 -0.2782326937 8.906165387e-39
-0.031864658 -0.3352812529 0.0283133015 8.906165387e-39
-0.1299897879 0.3022622764 -0.4064139724 8.906165387e-39
-0.1441034824 -0.2921561003 -0.151188314 8.906165387e-39
-0.1054458916 -0.3793306947 -0.1299929023 8.906165387e-39
-0.1471217871 -0.3880729675 0.3544562161 8.906165387e-39
-0.1312298328 0.3796940148 -0.05630006269 8.906165387e-39
-0.1436282098 -0.07978136092 0.2050966024 8.906165387e-39
-0.1325370669 -0.2953985631 -0.2371018231 8.906165387e-39
-0.07989186049 -0.2218366861 0.1992693692 8.906165387e-39
-0.1448990405 0.2307538241 -0.2830519974 8.906165387e-39
-0.1827040613 0.05985033512 0.004928515293 8.906165387e-39
-0.02239703201 -0.2462355644 -0.2207743824 8.906165387e-39
-0.070587717 -0.1843194216 0.0684511438 8.906165387e-39
-0.1032751799 0.1640213579 -0.343740195 8.906165387e-39
-0.1525072753 0.04083221406 -0.05886517093 8.906165387e-39
-0.08179218322 -0.19860062 -0.09364644438 8.906165387e-39
-0.02510282956 -0.1692055613 0.07185097039 8.906165387e-39
-0.07202359289 -0.08976256847 -0.2621732652 8.906165387e-39
-0.1366603374 0.01584923826 0.008913709782 8.906165387e-39
-0.07168675214 -0.03213846311 -0.21334894 8.906165387e-39
-0.03436181322 -0.17326805 0.02797757648 8.906165387e-39
-0.04079673439 -0.1690168977 -0.1622585505 8.906165387e-39
-0.1209526882 0.01736889407 -0.002707988955 8.906165387e-39
-0.1417091936 0.056812305 -0.1976939291 8.906165387e-39
-0.1438216716 -0.1558557898 0.02587922849 8.906165387e-39
-0.1027171239 -0.07983233035 -0.01103701163 8.906165387e-39
-0.1477713734 -0.19116202 0.3428971171 8.906165387e-39
-0.1333632767 0.1844462603 -0.06052277237 8.906165387e-39
-0.1200988144 0.03689865395 0.180261761 8.906165387e-39
-0.1120406166 -0.07288172841 -0.3469183147 8.906165387e-39
0.109769091 -0.06583092362 0.1832415015 9.641561216e-39
-0.1542352587 -0.1166250035 0.168266803 9.641561216e-39
0.1145685464 -0.03570564464 -0.03197330981 9.641561216e-39
-0.05358923227 -0.02419549972 0.4714434147 9.641561216e-39
0.02676148154 -0.2157037705 -0.02998481132 9.641561216e-39
0.1170306727 -0.09146521986 0.312197715 9.641561216e-39
0.1215965301 -0.1069441736 -0.2394356728 9.641561216e-39
-0.1184186041 -0.3275085688 0.4667604864 9.641561216e-39
0.1407531351 -0.09739834815 0.2451162338 9.641561216e-39
-0.1194819361 -0.1725907624 0.09394449741 9.641561216e-39
0.1116246805 -0.03118510544 -0.1053503305 9.641561216e-39
-0.08057636768 -0.05290330946 0.4689814448 9.641561216e-39
