# .PCD v0.7 - Point Cloud Data file format
VERSION 0.7
FIELDS x y z rgb
SIZE 4 4 4 4
TYPE F F F F
COUNT 1 1 1 1
WIDTH 817
HEIGHT 1
VIEWPOINT 0 0 0 1 0 0 0
POINTS 817
DATA ascii
-0.07697341591 -0.0392749384 0.1302509308 6.55152294e-39
-0.03158047795 0.08809103072 -0.4025833309 6.55152294e-39
-0.08327077329 -0.04262148961 0.04247789085 6.55152294e-39
-0.1106405333 -0.06886908412 -0.1658406258 6.55152294e-39
-0.08882260323 -0.03165125847 0.3798502982 6.55152294e-39
-0.0311730504 0.09244823456 -0.2570976019 6.55152294e-39
-0.1077391654 -0.08471591771 -0.1259688586 6.55152294e-39
-0.09048944712 -0.1072376221 -0.3553538322 6.55152294e-39
-0.09035278857 -0.03237202391 0.2212142944 6.55152294e-39
-0.05199950561 0.0792998597 -0.3543120325 6.55152294e-39
-0.09693717957 -0.05888356268 -0.04295873269 6.55152294e-39
-0.09964523464 -0.08253247291 -0.2102919668 6.55152294e-39
-0.1179622263 -0.0221732799 0.3244915903 6.55152294e-39
-0.06253422797 0.08201064914 -0.2848056257 6.55152294e-39
-0.1169098094 -0.08581253141 -0.1035618186 6.55152294e-39
-0.1051171049 -0.09720136225 -0.259470731 6.55152294e-39
-0.1280508786 -0.05567537621 0.1462481767 6.55152294e-39
-0.09095963091 0.06409134716 -0.3958524764 6.55152294e-39
-0.1446657032 -0.06328606606 0.002068173839 6.55152294e-39
-0.1361178011 -0.1129892319 -0.2032613307 6.55152294e-39
-0.1456875652 -0.04246936366 0.2066989243 6.55152294e-39
-0.111075595 -0.0292523317 -0.3545428813 6.55152294e-39
-0.132608667 -0.06913690269 0.03785284236 6.55152294e-39
-0.1305994242 -0.09542252868 -0.3031868935 6.55152294e-39
-0.09379191697 -0.04859211296 0.2700383365 6.55152294e-39
-0.05180238932 -0.07925163209 -0.2804279923 6.55152294e-39
-0.07817946374 -0.06964090466 0.02119022794 6.55152294e-39
-0.05082420632 -0.03024373762 -0.3363224566 6.55152294e-39
-0.0530965887 -0.09317154437 -0.08411641419 6.55152294e-39
-0.05625489354 -0.07704913616 -0.3429266214 6.55152294e-39
-0.1112388 -0.1291667968 0.4237827659 5.820783626e-39
0.04887365177 -0.02159938216 0.359805882 5.820783626e-39
-0.01074289903 -0.09155634046 0.2809812129 5.820783626e-39
-0.006032058503 0.002666264074 0.3180938959 5.820783626e-39
-0.08570028096 -0.04882767051 0.4258010983 5.820783626e-39
-0.09709888697 0.09379248321 0.3128964305 5.820783626e-39
-0.0744978264 -0.1202471852 0.1669148207 5.820783626e-39
0.08045392483 0.0001586005092 0.2767662406 5.820783626e-39
-0.08553014696 -0.09610077739 0.200571686 5.820783626e-39
0.0316807963 0.01588547789 0.3568483591 5.820783626e-39
-0.02627228759 -0.101064153 0.2400856167 5.820783626e-39
0.04736204073 -0.00144049048 0.351334691 5.820783626e-39
-0.1085281745 -0.006946941838 0.2996410728 5.820783626e-39
-0.05940331519 0.07488248497 0.3415267766 5.820783626e-39
-0.05305865407 -0.07433400303 0.1981585771 5.820783626e-39
0.08441034704 -0.001532849623 0.3339508772 5.820783626e-39
-0.1306154877 -0.05030548945 0.2161614597 5.820783626e-39
-0.02020030655 -0.02077795565 0.3240398765 5.820783626e-39
0.05522603169 -0.1112783104 0.2891412675 5.820783626e-39
0.002236124128 -0.01213946193 0.2348216623 5.820783626e-39
-0.1269811839 -0.0137699442 0.3190084696 5.820783626e-39
-0.1239303127 0.009318119846 0.4368671775 5.820783626e-39
0.07325968891 -0.09555524588 0.2694707811 5.820783626e-39
-0.03107652441 0.004962921143 0.2496691048 5.820783626e-39
-0.1173759177 -0.002399270423 0.244652912 5.820783626e-39
-0.09927551448 0.00494786771 0.4044391811 5.820783626e-39
0.01423587557 -0.06022761017 0.2668752074 5.820783626e-39
-0.04795347154 -0.01997650601 0.3256791234 5.820783626e-39
-0.08892378211 -0.06779327989 0.188060239 5.820783626e-39
-0.05164889991 -0.09253070503 0.01774515212 5.820783626e-39
-0.08372959495 -0.06520648301 0.3102499843 5.820783626e-39
-0.06812350452 -0.01101996098 0.3839598 5.820783626e-39
0.06613691896 -0.03380587325 0.3257599175 5.090401643e-39
0.06963549554 -0.08254271001 0.3049365282 5.090401643e-39
-0.1000018865 0.1132349074 0.4685924947 5.090401643e-39
-0.066977337 -0.1033792272 0.4476623833 5.090401643e-39
0.1140199602 -0.03471109644 0.3907033801 5.090401643e-39
0.0452805087 -0.111184977 0.4050350785 5.090401643e-39
-0.03280308843 0.07585205883 0.3697091341 5.090401643e-39
-0.01217788644 -0.1133388951 0.403177321 5.090401643e-39
0.1252128631 -0.01955359802 0.08088400215 5.090401643e-39
0.08468876779 -0.1001407132 0.2876686752 5.090401643e-39
-0.09570366144 0.05031920969 0.4305434823 5.090401643e-39
-0.04778768867 -0.09660468996 0.4270610809 5.090401643e-39
0.1177837923 -0.07105471939 0.2558630705 5.090401643e-39
0.05413627252 -0.08984766155 0.3522802591 5.090401643e-39
-0.06397552043 0.0815077126 0.4445469081 5.090401643e-39
-0.02964021638 -0.1070335731 0.3920043409 5.090401643e-39
0.1332763731 -0.05101750791 0.181930393 5.090401643e-39
0.0887029022 -0.08292329311 0.3313211501 5.090401643e-39
-0.1335925013 0.07947299629 0.4403965473 5.090401643e-39
-0.133866027 -0.09831270576 0.3883245587 5.090401643e-39
0.1042858958 -0.05965549499 0.3279799223 5.090401643e-39
0.01231797319 -0.08430909365 0.3688463867 5.090401643e-39
-0.05860354751 0.01875142753 0.4316215515 5.090401643e-39
-0.007940289564 -0.07873117179 0.4651468992 5.090401643e-39
0.05192591995 -0.02679620497 0.3814666271 5.090401643e-39
-0.006605596282 -0.01178012695 0.3848671317 5.090401643e-39
0.01105396915 0.002786375815 0.4225529432 5.090401643e-39
0.05627477914 -0.0589148663 0.4867340326 5.090401643e-39
-0.01880568638 0.03865905106 0.4382240176 5.090401643e-39
-0.03900766373 -0.07744804025 0.474601984 5.090401643e-39
0.0628099069 -0.07683379203 0.1557119489 5.090401643e-39
-0.07367929071 -0.01432929467 0.4618214071 5.090401643e-39
0.04630633444 -0.107653968 0.387561202 4.359662329e-39
0.06531905383 -0.05935022607 0.2000343949 4.359662329e-39
0.07555675507 0.03590746969 0.4306556582 4.359662329e-39
0.05968794972 -0.1190259308 0.1970388442 4.359662329e-39
0.03603489697 -0.128589347 0.1320299357 4.359662329e-39
0.09808178991 -0.02044261806 0.3897922039 4.359662329e-39
-0.07803667337 0.03739714622 0.4543971717 4.359662329e-39
0.07480752468 -0.0586565733 0.03448008373 4.359662329e-39
-0.07477544248 -0.09569610655 0.3550828993 4.359662329e-39
0.06858187914 -0.03721444681 0.1493932009 4.359662329e-39
0.02284352481 0.04119209945 0.4640025496 4.359662329e-39
0.06686715037 -0.07576323301 0.09432627261 4.359662329e-39
-0.03219044209 -0.108893536 0.1707814485 4.359662329e-39
0.09205000848 -0.01643120125 0.3333651721 4.359662329e-39
-0.051357802 0.01746750996 0.4658733308 4.359662329e-39
0.05750015005 -0.06750526279 0.053557612 4.359662329e-39
-0.07797861844 -0.07704535127 0.2706765532 4.359662329e-39
0.1271961927 -0.03471366316 0.3163337708 4.359662329e-39
0.01543710288 0.00704211276 0.40042606 4.359662329e-39
0.05335273594 -0.1097937897 0.1414022297 4.359662329e-39
-0.03396284953 -0.1125521213 0.1769904494 4.359662329e-39
0.08213258535 -0.01856213622 0.3629897535 4.359662329e-39
-0.01327371504 -0.02457772568 0.3414716721 4.359662329e-39
0.01903922297 -0.08538199216 0.1465054452 4.359662329e-39
-0.09856374562 -0.06247733161 0.3527853787 4.359662329e-39
0.05901852623 -0.01734332368 0.2874312997 4.359662329e-39
-0.02127162926 -0.08234412968 0.3010524809 4.359662329e-39
0.009248946793 -0.07674822956 0.1254088283 4.359662329e-39
-0.09232550859 -0.07172125578 0.4267539084 4.359662329e-39
0.06359666586 -0.07367595285 0.002510676393 4.359662329e-39
-0.0394240357 -0.09736546129 0.2702499032 4.359662329e-39
0.06751137227 -0.04608909413 0.1692825407 4.359662329e-39
-0.06602487713 0.1294322908 0.1908775717 3.628921614e-39
-0.09650468826 -0.04932024702 -0.0010464933 3.628921614e-39
-0.09029505402 -0.05998223647 -0.04990822822 3.628921614e-39
-0.03957468644 0.07312776148 -0.1380986571 3.628921614e-39
-0.08193274587 0.0269002337 0.3288309872 3.628921614e-39
-0.1119028628 -0.0615538694 0.2217188179 3.628921614e-39
-0.06084185466 -0.09371165931 0.1392193884 3.628921614e-39
-0.0707796216 0.004509936087 -0.328650713 3.628921614e-39
-0.09203072637 0.09064100683 0.1289153546 3.628921614e-39
-0.09722261131 0.02225335129 0.008167971857 3.628921614e-39
-0.06062122434 -0.07916180044 0.05764053017 3.628921614e-39
-0.0862633884 0.03143248335 -0.2558118701 3.628921614e-39
-0.09555263072 0.02831312642 0.2634811699 3.628921614e-39
-0.09437277168 -0.01866700128 0.1067712232 3.628921614e-39
-0.0806857273 -0.06099224836 0.1127037108 3.628921614e-39
-0.1088347957 0.002128422726 -0.289458245 3.628921614e-39
-0.1300194114 0.05252655596 0.1872873604 3.628921614e-39
-0.1348682791 -0.01617820188 0.03472794592 3.628921614e-39
-0.1418287754 -0.08971585333 -0.02589684539 3.628921614e-39
-0.1365270764 -0.02579249255 -0.1394407302 3.628921614e-39
-0.1473733783 -0.03160145506 0.3117602766 3.628921614e-39
-0.1431530714 -0.01153708063 0.1777258515 3.628921614e-39
-0.14713341 -0.07860588282 0.07631273568 3.628921614e-39
-0.1590611935 -0.08110988885 -0.1952658594 3.628921614e-39
-0.1605833918 -0.04949039966 0.2608680427 3.628921614e-39
-0.1440406889 0.05064919963 -0.1207310185 3.628921614e-39
-0.1052414998 0.003153242869 0.2381379008 3.628921614e-39
-0.07094042748 -0.07445858419 -0.2281419486 3.628921614e-39
-0.07603283972 -0.0445487909 0.02902009338 3.628921614e-39
-0.09049133956 0.07760980725 -0.2149272859 3.628921614e-39
-0.01766633429 0.07704560459 0.06657801569 3.628921614e-39
-0.09474670887 0.01827617176 -0.09115569293 3.628921614e-39
-0.07394912094 0.1438316107 0.3518286943 2.898180898e-39
0.08794656396 -0.03199566156 0.3677368164 2.898180898e-39
0.0545598641 -0.03017856367 0.09391694516 2.898180898e-39
0.09921063483 -0.101051107 0.3595602214 2.898180898e-39
0.04911354929 0.0110289827 0.4784162045 2.898180898e-39
0.0731594786 0.04465692118 0.4376405478 2.898180898e-39
0.09381616861 -0.04704445228 -0.120962657 2.898180898e-39
0.08700811863 -0.03070331179 0.1505426913 2.898180898e-39
-0.1007108614 0.08680102229 0.4422452152 2.898180898e-39
0.04853300378 -0.0966405794 0.2830420434 2.898180898e-39
0.07649957389 -0.1014314592 -0.03067217954 2.898180898e-39
0.1082589477 -0.0744105801 0.2465464324 2.898180898e-39
0.000274643302 0.03069758788 0.471321553 2.898180898e-39
0.06035434827 -0.02855101787 0.3825583756 2.898180898e-39
0.08869557828 -0.06978674233 -0.0809398219 2.898180898e-39
0.1355879158 -0.04251877591 0.198924765 2.898180898e-39
-0.05772077292 0.04706181958 0.4787586033 2.898180898e-39
0.08411119878 -0.04931654781 0.3370240331 2.898180898e-39
0.05220578611 -0.05743099004 0.03699965775 2.898180898e-39
0.1163075492 -0.0470122993 0.2879086733 2.898180898e-39
-0.0164914038 -0.02740570344 0.4908138514 2.898180898e-39
0.03136562556 -0.05048364401 0.4194721282 2.898180898e-39
-0.06059454009 -0.0226354897 0.08796274662 2.898180898e-39
0.06604422629 -0.03995672241 0.2067172378 2.898180898e-39
-0.06608786434 -0.007513607852 0.4009342194 2.898180898e-39
0.08186791837 -0.08944286406 0.4627159238 2.898180898e-39
-0.07214734703 -0.0402475372 0.4116594791 2.898180898e-39
0.04929357395 -0.03391527757 0.2241230607 2.898180898e-39
0.005314525682 -0.06769809127 0.1354355961 2.898180898e-39
0.1021649763 -0.09169349819 0.4141300917 2.898180898e-39
-0.08025586605 -0.0007443752838 0.4734643102 2.898180898e-39
0.03625311702 -0.04590046033 0.3295202553 2.898180898e-39
-0.02949784324 -0.03307415918 -0.2593715787 2.167082852e-39
-0.003436422441 0.04410341009 0.4007801116 2.167082852e-39
0.001196922152 0.004460319877 -0.1857385039 2.167082852e-39
-0.06457387656 0.01086108852 0.231881991 2.167082852e-39
-0.05600111187 0.02019810118 -0.01525034942 2.167082852e-39
0.03728241101 0.01686308905 0.1931107342 2.167082852e-39
-0.005657218397 0.07095102966 -0.3307729065 2.167082852e-39
0.01339683216 0.04236640036 0.02786776982 2.167082852e-39
-0.08184181154 0.05893323943 -0.1937767863 2.167082852e-39
-0.004064376466 0.05939783528 0.4112143517 2.167082852e-39
-0.0198584199 0.007235058118 -0.3017158508 2.167082852e-39
-0.04437649995 0.006614260841 0.1659215093 2.167082852e-39
-0.1032134145 -0.001209198846 -0.05218941346 2.167082852e-39
0.0370156765 -0.006051168311 0.2419194132 2.167082852e-39
-0.04919143021 -0.009711675346 -0.3497283161 2.167082852e-39
-0.04418289289 0.0070977211 0.08538454026 2.167082852e-39
-0.09908170253 -0.01273528952 -0.1338827312 2.167082852e-39
-0.001860826043 -0.02130907029 0.3616916835 2.167082852e-39
-0.0400438793 -0.05101407319 -0.1540944129 2.167082852e-39
-0.03902957961 -0.03573571518 0.1692312211 2.167082852e-39
-0.1338303238 0.06098768488 0.01633464918 2.167082852e-39
-0.09592789412 -0.05254917592 0.2572154999 2.167082852e-39
-0.01278777793 -0.04353313893 -0.1038942188 2.167082852e-39
0.001271332847 -0.0786491558 0.1005557925 2.167082852e-39
-0.1651586145 0.03267532587 -0.02779328823 2.167082852e-39
-0.1131436154 -0.02646833658 0.2904981971 2.167082852e-39
-0.04267898947 -0.02885369025 -0.1567685604 2.167082852e-39
0.02045233734 -0.05236399174 0.02669019997 2.167082852e-39
-0.100645557 -0.04669877887 -0.2451754808 2.167082852e-39
-0.07950079441 -0.1041347533 0.364071101 2.167082852e-39
-0.05972515047 0.03567995504 -0.1197839305 2.167082852e-39
-0.05298514664 0.04893774539 0.2747843266 2.167082852e-39
-0.07462478429 -0.04435917735 0.02555255778 1.435982003e-39
-0.08484888077 0.06859369576 0.4202342629 1.435982003e-39
-0.0332874991 -0.09732414782 -0.03130016103 1.435982003e-39
-0.08688233048 -0.09595312178 0.2473263741 1.435982003e-39
-0.08256100863 -0.07758201659 0.05434430391 1.435982003e-39
-0.08457163721 -0.05174795538 0.3547065258 1.435982003e-39
-0.06801720709 -0.1235569417 -0.393339783 1.435982003e-39
-0.05507867783 -0.0465753749 0.3225262165 1.435982003e-39
-0.109559007 0.05874286965 0.2232364714 1.435982003e-39
-0.07755118608 0.07221401483 0.4168405235 1.435982003e-39
-0.03941766545 -0.09906850755 -0.1944723427 1.435982003e-39
-0.0883275643 -0.06955458969 0.2813937366 1.435982003e-39
-0.09357764572 -0.02319198661 0.1126603708 1.435982003e-39
-0.09990499169 -0.01382766478 0.3705824018 1.435982003e-39
-0.09297288954 -0.07685703784 -0.2893415689 1.435982003e-39
-0.1100410149 -0.06921648234 0.2865462601 1.435982003e-39
-0.1384472847 0.01646681316 0.1923190504 1.435982003e-39
-0.1276256144 0.04325245321 0.3947072327 1.435982003e-39
-0.0767351687 -0.08744479716 -0.03263894096 1.435982003e-39
-0.1489471048 -0.07184850425 0.2049842626 1.435982003e-39
-0.1516189426 -0.07939456403 0.09145940095 1.435982003e-39
-0.1515744179 -0.07869779319 0.3561651111 1.435982003e-39
-0.1331289411 -0.08540757 -0.08178336918 1.435982003e-39
-0.08382117748 -0.07766801864 0.2258198112 1.435982003e-39
-0.1662841439 0.02597940899 0.158122614 1.435982003e-39
-0.1232014745 -0.09136681259 0.3485343158 1.435982003e-39
-0.1090996936 -0.04240215197 -0.156568706 1.435982003e-39
-0.05212457106 -0.0436151959 0.3824507892 1.435982003e-39
-0.1059020907 -0.08007180691 0.119860962 1.435982003e-39
-0.08701105416 -0.06462562829 0.3182914853 1.435982003e-39
-0.09492024779 0.03345533833 0.1794890314 1.435982003e-39
-0.06987099349 -0.01751415059 0.4019031227 1.435982003e-39
0.1105676293 -0.1011734009 0.3782863319 7.045238224e-40
-0.0724151805 0.09844359756 0.2116316557 7.045238224e-40
0.03444773704 0.003638970433 0.05504173785 7.045238224e-40
0.04006073624 0.007536767982 0.2857775986 7.045238224e-40
0.09965834022 -0.02266907506 0.08184830099 7.045238224e-40
-0.07049868256 0.05812021717 0.002700516023 7.045238224e-40
-0.04882173613 0.02538914233 0.05107177794 7.045238224e-40
-0.04581233114 0.01689565368 0.2935227454 7.045238224e-40
0.05982289836 -0.0630614832 0.4282312691 7.045238224e-40
-0.09481246769 0.09411908686 0.2931016386 7.045238224e-40
0.01689147018 -0.009445378557 0.1162706837 7.045238224e-40
-0.006667751819 0.0108802421 0.3070933819 7.045238224e-40
0.06324081868 -0.02784783579 0.1881567091 7.045238224e-40
-0.06618928164 0.103142716 0.1589905322 7.045238224e-40
-0.03023630008 -0.009703868069 0.09874560684 7.045238224e-40
-0.04162544757 -0.007326851599 0.2766900063 7.045238224e-40
0.1006116122 -0.04555766657 0.3207793236 7.045238224e-40
-0.09762575477 0.08280282468 0.2241768241 7.045238224e-40
0.03313568234 -0.01177589502 0.06677918881 7.045238224e-40
0.08067791164 -0.00888741482 0.3167151511 7.045238224e-40
0.1227070019 -0.01496540755 0.1427812576 7.045238224e-40
-0.08448846638 0.003368972102 0.084108226 7.045238224e-40
0.03524372354 -0.02489877678 -0.02722200006 7.045238224e-40
0.01231037453 0.002490053419 0.2061852366 7.045238224e-40
0.09020160139 -0.01549855154 0.2550262511 7.045238224e-40
-0.08371255547 -0.01013218984 0.1893914342 7.045238224e-40
0.07804442197 -0.02377804555 -0.0078327097 7.045238224e-40
-0.01118752826 0.00343487924 0.1712813228 7.045238224e-40
-0.05102335662 -0.04815654829 0.2567615211 7.045238224e-40
-0.08956447989 -0.01158453152 0.360222131 7.045238224e-40
0.04478332773 -0.07526018471 0.2841999531 7.045238224e-40
-0.03692759201 -0.00328198378 0.06647050381 7.045238224e-40
0.1195347458 -0.04736893997 -0.02418716066 6.490113838e-41
0.06550098211 -0.01627048291 0.2563297153 6.490113838e-41
-0.05265174061 0.04999455065 0.447511822 6.490113838e-41
0.03450459987 -0.07776310295 -0.05078505725 6.490113838e-41
0.09137298167 -0.03489584476 0.02795845084 6.490113838e-41
0.08671844006 -0.006803277414 0.08747733384 6.490113838e-41
0.0145275211 0.05458301678 0.3191863596 6.490113838e-41
0.05396040156 -0.06410042197 -0.3531756997 6.490113838e-41
0.06815510243 -0.04677290097 -0.2043577433 6.490113838e-41
0.008043443784 -0.01147295814 0.2647575438 6.490113838e-41
-0.04433850572 0.03225817904 0.378869772 6.490113838e-41
0.05526848882 -0.08436920494 -0.2520442307 6.490113838e-41
0.08211117238 -0.03211853281 -0.03986826539 6.490113838e-41
0.06382034719 -0.008356141858 0.1777878553 6.490113838e-41
-0.01183584239 -0.005689816549 0.3407427669 6.490113838e-41
0.08412054926 -0.05711084232 -0.3594368696 6.490113838e-41
0.07203710824 -0.05219881982 -0.1048903242 6.490113838e-41
0.05388172716 -0.002009899355 0.2174943537 6.490113838e-41
-0.08552567661 -0.009671881795 0.41005826 6.490113838e-41
0.05845277384 -0.07530290633 -0.2123746723 6.490113838e-41
-0.04398838803 -0.03998685628 0.01735544205 6.490113838e-41
-0.002505788812 -0.01378355455 0.1142171621 6.490113838e-41
-0.09785150737 -0.004063103348 0.2954124808 6.490113838e-41
0.06759887934 -0.01517459098 -0.1919296682 6.490113838e-41
-0.1113614142 -0.02720603906 0.009490458295 6.490113838e-41
-0.07270975411 -0.01761421934 0.2146052271 6.490113838e-41
-0.06378548592 -0.01950388402 0.2267527133 6.490113838e-41
0.06511551142 -0.02293596789 -0.1604505479 6.490113838e-41
0.0002623796463 -0.0366361402 -0.007559177931 6.490113838e-41
-0.1156237572 -0.09027164429 -0.06649401039 6.490113838e-41
0.01133712195 -0.07908654958 -0.1169879809 6.490113838e-41
-0.03182595223 -0.08626055717 0.06823977828 6.490113838e-41
-0.08719932288 -0.09567069262 0.2919232249 8.028094954e-40
-0.0590492785 -0.09860686958 -0.2268997431 8.028094954e-40
0.08038527519 -0.06842655689 -0.3142735064 8.028094954e-40
0.09792873263 -0.06205068529 0.4130304754 8.028094954e-40
-0.07403653115 -0.1151440889 0.04789606109 8.028094954e-40
0.02718156576 -0.1158047616 -0.01727401651 8.028094954e-40
-0.07843609154 0.06946864724 -0.4188861549 8.028094954e-40
0.08817202598 -0.01024565008 0.2006508708 8.028094954e-40
-0.00153188291 -0.08558036387 0.2850121558 8.028094954e-40
0.01339878421 -0.1266756207 -0.2452258766 8.028094954e-40
0.02337877639 0.0005999504938 -0.3669260442 8.028094954e-40
0.08889388293 -0.005877516698 0.3407282531 8.028094954e-40
-0.05940416455 -0.0635343045 0.1254089475 8.028094954e-40
-0.03565343097 -0.1018944308 -0.1193625927 8.028094954e-40
-0.09550981224 0.02493987791 -0.4267666638 8.028094954e-40
0.07918415219 -0.01866059937 0.2227758169 8.028094954e-40
0.01208253298 -0.05418581143 0.2138606161 8.028094954e-40
-0.006609805394 -0.1020502225 -0.1849018037 8.028094954e-40
-0.09832382947 -0.09109319001 -0.3106627762 8.028094954e-40
0.02628336288 -0.02629986219 0.3758919239 8.028094954e-40
-0.03314786032 -0.08687976748 0.07101607323 8.028094954e-40
0.09629585594 -0.09385804087 0.07175361365 8.028094954e-40
-0.1433917433 -0.008066710085 -0.2706692219 8.028094954e-40
-0.07952397317 -0.000178463757 0.4034080207 8.028094954e-40
0.0241736155 -0.03445694223 0.2015028596 8.028094954e-40
0.1125734225 -0.02935170382 0.2334882617 8.028094954e-40
-0.1313597858 -0.01875857636 -0.2324239612 8.028094954e-40
-0.08037409186 -0.01439169515 0.2503646612 8.028094954e-40
-0.05476987362 -0.02592273988 0.1609618962 8.028094954e-40
0.07396376133 -0.03845754266 0.2593953907 8.028094954e-40
-0.0257771574 -0.08280938864 0.05024006963 8.028094954e-40
0.03941939026 -0.1091154292 -0.1239819899 8.028094954e-40
0.1273675859 -0.08985584974 -0.1755530238 1.540360521e-39
-0.01848606952 0.05952647701 -0.3982390165 1.540360521e-39
0.07431408763 -0.07329063118 -0.1207309216 1.540360521e-39
-0.0268951077 0.1070015132 -0.2960556746 1.540360521e-39
0.09876770526 -0.08747964352 -0.2027779669 1.540360521e-39
0.004094756674 0.02297941595 -0.2701971829 1.540360521e-39
0.09749541432 -0.09057424217 0.07077287883 1.540360521e-39
-0.0750490278 0.09986693412 -0.3502521813 1.540360521e-39
0.07294330746 -0.1158126742 -0.3407106698 1.540360521e-39
-0.03269788623 0.03731684014 -0.4385884404 1.540360521e-39
0.06998897344 -0.09373395145 -0.02580716275 1.540360521e-39
-0.04526763409 0.0958962813 -0.3300569057 1.540360521e-39
0.09038898349 -0.07000879943 -0.2454778403 1.540360521e-39
-0.039035175 -0.005121730268 -0.2985341847 1.540360521e-39
0.06645826995 -0.0874202475 0.03296076506 1.540360521e-39
-0.1069180965 0.09844329953 -0.3195863962 1.540360521e-39
0.09506465495 -0.09221176058 -0.3256286681 1.540360521e-39
-0.0511094965 -0.007176089566 -0.35627985 1.540360521e-39
0.02665914968 -0.09622342885 -0.04683290794 1.540360521e-39
-0.1376075149 0.06797101349 -0.2157693207 1.540360521e-39
0.06613704562 -0.1031287313 -0.2279844731 1.540360521e-39
-0.003443629947 -0.07215750962 -0.3020078838 1.540360521e-39
-0.07393298298 -0.08359514922 -0.1181860045 1.540360521e-39
-0.1281835437 0.02066002227 -0.1733259559 1.540360521e-39
0.01061906945 -0.07170027494 -0.2350924164 1.540360521e-39
-0.00600415701 -0.05853151157 -0.3717890084 1.540360521e-39
0.02222563885 -0.0851791352 -0.09899229556 1.540360521e-39
-0.07655736804 0.002637618687 -0.1989778131 1.540360521e-39
0.05344631523 -0.09392886609 -0.0387002565 1.540360521e-39
-0.07625180483 -0.01441778149 -0.4234772623 1.540360521e-39
0.005982342642 -0.05103063211 -0.2583180964 1.540360521e-39
-0.07379664481 0.0553131029 -0.1890796721 1.540360521e-39
-0.0648489967 -0.08448673785 0.2838664055 2.277910146e-39
-0.02486960217 -0.09286328405 0.4047009051 2.277910146e-39
-0.09210241586 -0.08175542951 -0.1438028365 2.277910146e-39
-0.04788381234 -0.08956134319 0.2100033909 2.277910146e-39
-0.06802158803 0.08173827827 0.1023653299 2.277910146e-39
-0.02159547247 -0.09124984592 0.3016120195 2.277910146e-39
-0.08418086916 -0.05294364318 -0.310188055 2.277910146e-39
-0.09711856395 -0.07872703671 -0.003706233343 2.277910146e-39
-0.09047176689 0.01609807648 0.3839081824 2.277910146e-39
0.01077765226 -0.1248704568 0.4139671624 2.277910146e-39
-0.09885025024 -0.06062704325 -0.2142870128 2.277910146e-39
-0.05440234393 -0.08086774498 0.1096507162 2.277910146e-39
-0.08193957061 0.05886676535 0.2075602412 2.277910146e-39
-0.03179290518 -0.0900067389 0.3414178193 2.277910146e-39
-0.1260820627 -0.05268377811 -0.2769348323 2.277910146e-39
-0.09630215168 -0.08612465113 0.04882547259 2.277910146e-39
-0.1173788086 0.06795848906 0.2859793007 2.277910146e-39
-0.00727703236 -0.09552899748 0.3721226156 2.277910146e-39
-0.1614201665 -0.07769422978 -0.09318318963 2.277910146e-39
-0.1018107459 -0.1157599911 0.1705099642 2.277910146e-39
-0.1064215153 0.05711660162 0.1437422484 2.277910146e-39
-0.1045240462 -0.1070528999 0.3155100048 2.277910146e-39
-0.1585371196 -0.08604253829 -0.05838915706 2.277910146e-39
-0.125481084 -0.07529594004 0.1170587167 2.277910146e-39
-0.1507633328 0.05511919037 0.2358496487 2.277910146e-39
-0.1494570524 -0.09924153239 0.3011869788 2.277910146e-39
-0.1214351654 -0.03830881789 -0.04331998527 2.277910146e-39
-0.1177817807 -0.05861319602 0.07013387978 2.277910146e-39
-0.07689184695 0.011555098 0.02801000327 2.277910146e-39
-0.04040819034 -0.08304428309 0.2489503771 2.277910146e-39
-0.04377683625 0.01054909453 0.1524162441 2.277910146e-39
-0.05053079128 -0.05306395888 0.2297951281 2.277910146e-39
0.01246267837 -0.09954012185 -0.1656970978 3.015101038e-39
-0.06913626939 -0.00362113025 -0.0788410902 3.015101038e-39
0.007673344109 -0.07284113765 -0.1282732487 3.015101038e-39
0.03101397678 -0.04397852719 -0.4519326389 3.015101038e-39
0.07485250384 -0.1176702976 -0.1142214313 3.015101038e-39
0.03812403977 -0.01578210294 0.1133954823 3.015101038e-39
-0.08009174466 -0.09618390352 -0.2532616556 3.015101038e-39
-0.07426356524 -0.1158263236 -0.4546717107 3.015101038e-39
-0.01398011111 -0.09640628844 -0.2726306319 3.015101038e-39
-0.05328641087 -0.07451102138 -0.1618560106 3.015101038e-39
-0.05797752738 -0.1006301865 -0.1460811496 3.015101038e-39
-0.04642777145 -0.04168399051 -0.4542078376 3.015101038e-39
0.07194913924 -0.105014801 -0.1714694649 3.015101038e-39
-0.04010039195 -0.03239845857 0.1147504672 3.015101038e-39
-0.09888649732 -0.06684418768 -0.2270736545 3.015101038e-39
-0.09112019092 -0.09727841616 -0.4586053193 3.015101038e-39
0.02570339292 -0.09479442239 -0.2618609071 3.015101038e-39
-0.07312303036 -0.02205516398 -0.00490235351 3.015101038e-39
-0.03645330667 -0.0826895833 -0.09362393618 3.015101038e-39
-0.002940951847 -0.02084312402 -0.4165199399 3.015101038e-39
0.08769463748 -0.08952833712 -0.2400095016 3.015101038e-39
0.06678081304 -0.04281490296 0.04239206016 3.015101038e-39
0.008101822808 -0.08536860347 -0.04286947474 3.015101038e-39
0.02183815092 -0.06346017122 -0.3827369809 3.015101038e-39
0.01370523777 -0.01126670837 -0.3527348042 3.015101038e-39
-0.02500036173 -0.001291959779 -0.1890369058 3.015101038e-39
0.02859223448 -0.06281932443 -0.09146207571 3.015101038e-39
-0.07252463698 -0.06673518568 -0.3578262329 3.015101038e-39
-0.09602520615 -0.05676962435 -0.2994322777 3.015101038e-39
-0.110465914 -0.04163464159 -0.3673312962 3.015101038e-39
-0.03191433102 -0.07636681944 -0.1604343802 3.015101038e-39
-0.07415937632 -0.1028982773 -0.2549894452 3.015101038e-39
0.07376074046 -0.09856703132 0.485496223 3.75229193e-39
0.1160191372 -0.02713738382 0.2349381149 3.75229193e-39
0.03559552506 0.06056911871 0.4934651256 3.75229193e-39
0.1061309427 -0.06590501964 0.4701201618 3.75229193e-39
-0.03977977484 -0.09303679317 0.4876019657 3.75229193e-39
0.120869033 0.05091964453 0.413067311 3.75229193e-39
-0.08381156623 0.01842675917 0.4935131073 3.75229193e-39
0.08983335644 -0.004243474919 0.3159287572 3.75229193e-39
0.09436225146 -0.04227526113 0.4896090031 3.75229193e-39
0.09398180991 -0.02731986903 0.1471532881 3.75229193e-39
-0.04055761173 0.04231287539 0.4895842969 3.75229193e-39
0.1048558205 -0.06653545052 0.3967894614 3.75229193e-39
0.02452246845 -0.08626776934 0.4920604527 3.75229193e-39
0.08309991658 -0.0005145891919 0.2701907158 3.75229193e-39
-0.09323776513 0.01741700806 0.4956243634 3.75229193e-39
0.1125602871 -0.03935500234 0.351287663 3.75229193e-39
0.05702660233 -0.06463338435 0.4944460094 3.75229193e-39
0.1094237044 -0.01377588511 0.2649616301 3.75229193e-39
-0.01823781803 0.03360115737 0.4912504256 3.75229193e-39
0.09241102636 -0.08811890334 0.4713037312 3.75229193e-39
-0.1325873435 -0.0749855116 0.4981372952 3.75229193e-39
0.04009399936 -0.0326753296 0.3293120563 3.75229193e-39
-0.04890881851 -0.02184936218 0.4893069565 3.75229193e-39
0.07844230533 0.0007410420803 0.4953874946 3.75229193e-39
-0.1212222353 -0.03341508657 0.4938074946 3.75229193e-39
0.08994600177 -0.01218430791 0.3645693362 3.75229193e-39
-0.05874716118 -0.04312574863 0.4926800728 3.75229193e-39
0.1026832461 0.01943403296 0.4843647182 3.75229193e-39
-0.009737809189 -0.02993157692 0.4953419268 3.75229193e-39
0.08938337862 -0.005536738317 0.4223403931 3.75229193e-39
0.04011680931 -0.02033749968 0.4896963239 3.75229193e-39
0.03760273382 0.01218931749 0.3841096163 3.75229193e-39
-0.01952415705 -0.04849641025 -0.04207193106 4.48912409e-39
-0.02616630681 0.01795370132 0.3001454771 4.48912409e-39
0.04539272562 0.00363078597 -0.3181656003 4.48912409e-39
0.0902903825 -0.0896653235 -0.05533714965 4.48912409e-39
-0.06853742898 0.0871841833 -0.2278049141 4.48912409e-39
-0.06537067145 0.01055176836 0.0882107541 4.48912409e-39
-0.03905080631 0.03737764806 -0.3134164512 4.48912409e-39
0.05978829414 -0.09506575018 0.2162083983 4.48912409e-39
-0.06446556747 0.1257056445 -0.02025708184 4.48912409e-39
-0.008854865097 0.03312046453 0.3688459396 4.48912409e-39
-0.01917986013 0.01372871734 -0.3047882617 4.48912409e-39
0.1095177308 -0.08411446214 0.06215054914 4.48912409e-39
-0.06196175516 0.09870870411 -0.1624383628 4.48912409e-39
-0.02556072176 -0.003471502103 0.1875868291 4.48912409e-39
-0.07707566023 0.01006375533 -0.3148093522 4.48912409e-39
0.08463456482 -0.07541319728 0.1476133466 4.48912409e-39
-0.08661768585 0.08658283204 -0.08257585764 4.48912409e-39
-0.0355268456 -0.003104289295 0.2538316846 4.48912409e-39
0.04958482087 -0.01436717249 -0.2631911039 4.48912409e-39
0.06394509226 -0.1051605418 -0.06302358955 4.48912409e-39
-0.1070233062 0.07775709778 -0.2519488335 4.48912409e-39
-0.09026364237 -0.02867344208 0.1057516932 4.48912409e-39
0.01839283481 0.0008430926246 -0.2146759629 4.48912409e-39
0.04422647133 -0.07405150682 -0.05086921528 4.48912409e-39
-0.114687711 -0.05933871865 -0.1595809162 4.48912409e-39
0.01157118101 -0.01597005688 0.2354289293 4.48912409e-39
-0.07232895494 -0.02038177103 -0.2443291992 4.48912409e-39
-0.00422191713 -0.06450047344 0.05833230913 4.48912409e-39
-0.08986403793 -0.08103922009 -0.07408088446 4.48912409e-39
0.02608981915 -0.09045789391 0.1563856751 4.48912409e-39
-0.08640158921 -0.0280274488 -0.06237730756 4.48912409e-39
-0.08354367316 0.08281963319 0.08012872189 4.48912409e-39
0.02907723933 -0.008123531938 -0.4939440191 5.225597518e-39
0.06182992086 -0.1305465847 -0.399276942 5.225597518e-39
0.07324974984 0.00347043667 -0.4882738888 5.225597518e-39
-0.08041062206 -0.1074281111 -0.420440495 5.225597518e-39
-0.08970908821 0.03975476697 -0.4953325987 5.225597518e-39
0.02444737777 -0.1161725447 -0.4111060798 5.225597518e-39
0.02910623886 -0.09653626382 -0.4843329787 5.225597518e-39
-0.08810282499 0.0164693296 -0.4187219739 5.225597518e-39
0.06178633124 0.03544811532 -0.4895091057 5.225597518e-39
0.1145099178 -0.1089022979 -0.3331274092 5.225597518e-39
0.09306811541 -0.03817953914 -0.4871690273 5.225597518e-39
-0.1047936678 -0.06021469831 -0.4194585979 5.225597518e-39
-0.04883892089 0.02923214436 -0.4890410602 5.225597518e-39
0.05495849997 -0.08444218338 -0.3965757787 5.225597518e-39
0.10584943 -0.05282665417 -0.4921005666 5.225597518e-39
-0.1320439279 -0.009424898773 -0.4355823696 5.225597518e-39
0.001717625302 0.02047033794 -0.4892776608 5.225597518e-39
0.1028142944 -0.09037736803 -0.35272035 5.225597518e-39
0.1011738032 -0.006666621193 -0.4979326427 5.225597518e-39
-0.0753069222 -0.08883973211 -0.388209492 5.225597518e-39
-0.1184236705 -0.0181098599 -0.496837765 5.225597518e-39
0.005144960713 -0.10351035 -0.423076272 5.225597518e-39
-0.01173969824 -0.0307267718 -0.487254709 5.225597518e-39
-0.03465723619 -0.06494364887 -0.4019970298 5.225597518e-39
-0.0769668296 -0.02921169437 -0.4948994815 5.225597518e-39
-0.0289704185 -0.1060880944 -0.4231184721 5.225597518e-39
-0.1019241437 -0.03525455296 -0.4832859635 5.225597518e-39
-0.01082469709 -0.01613398641 -0.42465505 5.225597518e-39
0.04488209262 -0.06874032319 -0.4848354459 5.225597518e-39
-0.0462766625 -0.04754111543 -0.4559711516 5.225597518e-39
-0.02591306902 -0.02554710023 -0.4673428833 5.225597518e-39
0.0819498226 -0.06409585476 -0.3160117865 5.225597518e-39
0.1179339215 -0.08314419538 0.02365626022 5.962428276e-39
-0.03698867559 0.004163919017 -0.3563064933 5.962428276e-39
0.09251522273 -0.02086444572 -0.1106759235 5.962428276e-39
-0.04487395659 -0.007626206614 0.0160767287 5.962428276e-39
-0.03971691802 -0.1246026903 -0.02952900901 5.962428276e-39
-0.03870171309 0.02309212461 -0.2209673822 5.962428276e-39
0.08795205504 -0.02832308412 -0.2960371673 5.962428276e-39
-0.1156154424 0.04149263352 -0.2355117947 5.962428276e-39
0.1034476385 -0.0827626884 0.1516745538 5.962428276e-39
0.02300008014 0.01419216115 -0.3503029346 5.962428276e-39
0.09212593734 -0.04043794051 -0.1526824087 5.962428276e-39
-0.1007272005 -0.07323873788 -0.03016087413 5.962428276e-39
-0.009324116632 -0.06994882226 0.01816635393 5.962428276e-39
-0.04816548526 -0.003595150309 -0.2917762697 5.962428276e-39
0.09002325684 -0.04241480306 -0.2340435386 5.962428276e-39
-0.1236590073 -0.08509010077 -0.1292506009 5.962428276e-39
0.05894102156 -0.07359446585 0.1672302485 5.962428276e-39
0.005280281883 -0.01133982651 -0.2871569395 5.962428276e-39
0.07146286964 -0.02598497085 -0.1717763841 5.962428276e-39
-0.06389906257 -0.06702702492 -0.09645584226 5.962428276e-39
-0.1222689077 -0.07685689628 0.04894628748 5.962428276e-39
0.02305554971 -0.02378401719 -0.04499563947 5.962428276e-39
0.04658648744 -0.04952613264 -0.2237685323 5.962428276e-39
-0.07248163223 0.01067982987 -0.1901084334 5.962428276e-39
-0.1009753421 -0.03366463631 0.1760538816 5.962428276e-39
-0.02030332014 -0.02548217401 0.0008621660527 5.962428276e-39
0.02313680016 -0.06183097512 -0.157844305 5.962428276e-39
-0.1030712575 -0.003003416816 -0.3242339194 5.962428276e-39
0.08446665853 -0.05418843403 0.06245831773 5.962428276e-39
-0.04552439973 -0.04531796277 -0.1874243617 5.962428276e-39
0.07532628626 -0.03046410158 0.01367172319 5.962428276e-39
0.04704258218 -0.03974743932 -0.05455137789 5.962428276e-39
-0.02129414678 -0.04146047682 0.4908215702 6.698542971e-39
0.09367913753 -0.06472454965 0.4288679361 6.698542971e-39
-0.04086824507 -0.02119003423 0.424261421 6.698542971e-39
0.04443822429 -0.09103817493 0.4803668261 6.698542971e-39
0.04585927352 0.01506795641 0.4949085116 6.698542971e-39
0.1027912125 0.03537190333 0.4242856801 6.698542971e-39
-0.08202272654 0.1163730398 0.4367106855 6.698542971e-39
0.08987411857 -0.1423734725 0.4552854598 6.698542971e-39
0.01932833344 -0.05725933239 0.4734248519 6.698542971e-39
0.1054903641 -0.1022103429 0.4039011896 6.698542971e-39
-0.006035239901 0.03564743698 0.4478123188 6.698542971e-39
0.0871225968 -0.09723258764 0.4729015231 6.698542971e-39
0.06432013959 0.01391268894 0.4818029106 6.698542971e-39
0.1107227355 -0.01169011369 0.4386558235 6.698542971e-39
-0.0347141549 0.0618144758 0.4598304927 6.698542971e-39
0.09551751614 -0.1051565409 0.4794601202 6.698542971e-39
0.07840015739 -0.0105163008 0.4800463021 6.698542971e-39
0.1401883215 -0.03896571323 0.4313106835 6.698542971e-39
-0.06968139857 -0.01176128723 0.3839619756 6.698542971e-39
0.05473867804 -0.1039043888 0.4632404745 6.698542971e-39
0.07098465413 0.03684842587 0.4897011817 6.698542971e-39
0.08129025996 -0.01345635206 0.4413512945 6.698542971e-39
-0.1069359854 -0.01564115845 0.3857617974 6.698542971e-39
0.009097995237 -0.08573058248 0.4797970057 6.698542971e-39
0.01428228337 0.03350661695 0.4850455821 6.698542971e-39
0.0892213583 -0.03638760746 0.4478902817 6.698542971e-39
-0.08651881665 -0.006657472346 0.4335274398 6.698542971e-39
-0.004558501765 -0.07551818341 0.4933060408 6.698542971e-39
-0.08293951303 -0.09104227275 0.4792994857 6.698542971e-39
0.05834110081 -0.0799087733 0.4720098674 6.698542971e-39
-0.01302320603 -0.04559911042 0.4398047626 6.698542971e-39
0.04672734067 -0.04925372824 0.3691214323 6.698542971e-39
0.06757119298 -0.0790932402 0.03903770447 7.434656265e-39
-0.06376114488 0.08108355105 -0.2317163497 7.434656265e-39
-0.03602031991 0.008638554253 -0.4051625431 7.434656265e-39
-0.02025052719 0.007479073945 0.1398737133 7.434656265e-39
0.09120543301 -0.06586365402 -0.1086424664 7.434656265e-39
0.01522851735 -0.0003726444847 -0.1229637712 7.434656265e-39
0.05423282087 -0.04452998191 -0.225843519 7.434656265e-39
-0.008684566244 0.07550671697 -0.01757765561 7.434656265e-39
0.09874159843 -0.09000909328 0.2812051773 7.434656265e-39
-0.06444769353 0.1200992689 -0.2036235332 7.434656265e-39
-0.002418451943 0.005182124674 -0.3600270748 7.434656265e-39
-0.01852891222 0.01767568476 0.05116547644 7.434656265e-39
0.0858046636 -0.07901228964 0.08672926575 7.434656265e-39
-0.01981092803 -0.01796614006 -0.1677655578 7.434656265e-39
0.04488216341 -0.01423146855 -0.3189081848 7.434656265e-39
-0.01680155471 -0.004285406321 0.0005502029671 7.434656265e-39
0.1032532454 -0.09281182289 0.2214533389 7.434656265e-39
-0.03096504323 -0.01300634723 -0.2168318927 7.434656265e-39
-0.03819793835 0.0003361981362 -0.3684614003 7.434656265e-39
0.01769211888 -0.01878093556 0.1304369271 7.434656265e-39
0.08816301823 -0.05588460714 -0.0001100823283 7.434656265e-39
0.01638861932 -0.01878097653 -0.1249752641 7.434656265e-39
0.04512929171 -0.01115749776 -0.2548612654 7.434656265e-39
0.002185680205 -0.01334075909 0.06408534944 7.434656265e-39
0.008364208043 -0.04336478561 0.1262857616 7.434656265e-39
-0.01143243443 -0.0113955196 -0.08169615269 7.434656265e-39
0.07037905604 -0.08137074858 -0.1244892105 7.434656265e-39
0.01600676775 -0.007234965917 -0.02200717479 7.434656265e-39
0.0388462767 -0.1086225733 0.115534693 7.434656265e-39
-0.08008335531 -0.007668828126 0.06247008964 7.434656265e-39
0.02925261296 -0.07940387726 0.1633409709 7.434656265e-39
-0.05851979926 -0.004338899627 -0.1397623122 7.434656265e-39
-0.02367390692 0.01016736776 -0.3278624415 8.170410826e-39
-0.1102410853 0.07803551853 -0.08613052964 8.170410826e-39
0.08488614112 -0.004597050138 -0.2543929219 8.170410826e-39
-0.06551717222 0.01441072766 0.09277758747 8.170410826e-39
-0.04160064086 -0.01718598418 -0.1150935069 8.170410826e-39
-0.1090906262 0.04866668954 -0.1762776077 8.170410826e-39
0.07594695687 -0.01616713777 -0.459220916 8.170410826e-39
-0.07559125125 0.03589609265 0.2825560868 8.170410826e-39
0.08544464409 -0.00138331484 -0.1638095975 8.170410826e-39
-0.08126443624 0.03350093588 -0.05265289918 8.170410826e-39
0.1073219329 -0.004537204746 -0.3497724533 8.170410826e-39
-0.1093793511 0.01605934277 0.1479892284 8.170410826e-39
-0.02843424864 0.007977252826 -0.1242194325 8.170410826e-39
-0.1172905117 0.02057760954 -0.1435451359 8.170410826e-39
0.1171592772 -0.01531407423 -0.4171311855 8.170410826e-39
-0.1273244917 0.02325253934 0.2470515966 8.170410826e-39
0.004102287348 -0.0120009752 -0.176946938 8.170410826e-39
-0.1314168274 -0.01933993958 -0.07980499417 8.170410826e-39
0.0908324793 -0.01831186749 -0.2666842937 8.170410826e-39
-0.1012013108 0.05472936109 0.04183393717 8.170410826e-39
-0.01318536419 -0.01152206957 -0.03713553771 8.170410826e-39
-0.1117123663 -0.03064775094 -0.1064896956 8.170410826e-39
-0.06700499356 0.001329573919 -0.3409656584 8.170410826e-39
-0.04869110137 0.005893609021 0.05525717884 8.170410826e-39
-0.002098197816 -0.006585797295 -0.08991779387 8.170410826e-39
-0.08365188539 -0.05510366708 0.09742780775 8.170410826e-39
-0.1229548827 -0.0007251388161 -0.3809657991 8.170410826e-39
0.004695982672 -0.04846221581 0.09943202883 8.170410826e-39
0.07800599188 -0.01509469841 -0.3284337521 8.170410826e-39
-0.0622950606 -0.06282873452 0.1459484696 8.170410826e-39
-0.005596497562 -0.04435585439 -0.2179062366 8.170410826e-39
-0.03855293989 -0.01413080655 -0.1760826558 8.170410826e-39
-0.07975794375 -0.06738571823 0.1666016877 8.906165387e-39
-0.07992695272 -0.02101007849 -0.2584537864 8.906165387e-39
-0.02390445583 -0.1013752967 0.08292169869 8.906165387e-39
-0.04000499845 0.09513455629 -0.4171030223 8.906165387e-39
-0.08917336166 -0.1016312912 -0.0575260371 8.906165387e-39
-0.05176303536 -0.09769877046 -0.03812962398 8.906165387e-39
-0.06853859127 -0.09385298193 0.3947380781 8.906165387e-39
-0.05834518 0.09258552641 -0.1639393717 8.906165387e-39
-0.08806671947 -0.09880612046 0.2300766557 8.906165387e-39
-0.09501168877 0.04526155069 -0.2268510312 8.906165387e-39
-0.03563575447 -0.1061628461 0.2324697673 8.906165387e-39
-0.055362463 0.09341198951 -0.3333610296 8.906165387e-39
-0.1126183793 0.01534124836 0.04176877066 8.906165387e-39
-0.05144226924 -0.07106392086 -0.133627668 8.906165387e-39
-0.0812465325 -0.07686109096 0.3520467877 8.906165387e-39
-0.08606795222 0.08263413608 -0.2421381027 8.906165387e-39
-0.1251132786 0.02285598032 0.108017318 8.906165387e-39
-0.07545956224 -0.07874868065 -0.1812463403 8.906165387e-39
-0.06118445843 -0.08982013166 0.1107447445 8.906165387e-39
-0.06376232952 0.05621299148 -0.3875100017 8.906165387e-39
-0.139221102 -0.01993162744 -0.04872662202 8.906165387e-39
-0.1195629388 -0.1141977981 -0.1121175811 8.906165387e-39
-0.03360919282 -0.09059681743 0.05189440772 8.906165387e-39
-0.02120367065 -0.09327118099 -0.1863725632 8.906165387e-39
-0.1462056041 -0.1176392883 0.01899590157 8.906165387e-39
-0.09726274759 0.007873908617 -0.2220252156 8.906165387e-39
-0.07670794427 -0.05749297887 0.1281208843 8.906165387e-39
-0.07776083797 -0.08845662326 -0.04002542794 8.906165387e-39
-0.08627413213 -0.06856915355 0.268951118 8.906165387e-39
-0.1200287342 0.05357759818 -0.07189659029 8.906165387e-39
-0.08345206827 -0.04481779411 0.1094704494 8.906165387e-39
-0.0738074854 -0.03094374575 -0.2800112665 8.906165387e-39
0.08132746816 0.001422622241 0.1570316851 9.641561216e-39
-0.05244676024 0.006081611384 0.2337243855 9.641561216e-39
0.0590203777 0.008830301464 -0.01634136401 9.641561216e-39
0.01547371037 0.05629363284 0.4611605406 9.641561216e-39
0.01566065289 -0.001270840643 0.03742030263 9.641561216e-39
0.1152160242 -0.006555934902 0.3391472399 9.641561216e-39
0.05890765414 0.0171974767 -0.2096827328 9.641561216e-39
-0.09324353933 -0.05127137154 0.4740792811 9.641561216e-39
0.0614236556 -0.001783586573 0.2290187478 9.641561216e-39
-0.03298132122 0.007225038949 0.1754347682 9.641561216e-39
0.04714998603 -0.0111080436 -0.1309794933 9.641561216e-39
-0.04525654018 -0.003924259916 0.4749258161 9.641561216e-39
0.01552649215 -0.02468616515 0.06709936261 9.641561216e-39
0.02717339993 -0.004227869678 0.2870694399 9.641561216e-39
0.02745501511 -0.01703392155 -0.1778103858 9.641561216e-39
-0.09566584975 -0.03114122152 0.4803557694 9.641561216e-39
0.04619022831 -0.01306713838 0.1737336069 9.641561216e-39
-0.01269278303 -0.007781166583 0.2255750895 9.641561216e-39
0.065120399 -0.01636031643 -0.08831745386 9.641561216e-39
0.001941536902 0.01377745438 0.4529435933 9.641561216e-39
-0.05494298041 -0.02606417611 0.009952290915 9.641561216e-39
0.0493937023 -0.02496537007 0.2947849035 9.641561216e-39
-0.06821975112 0.004900151864 -0.07420364022 9.641561216e-39
0.017983092 0.01311502326 0.4256963432 9.641561216e-39
-0.04264026508 -0.01278976444 0.08110647649 9.641561216e-39
-0.05399998277 -0.006025290117 0.3277694583 9.641561216e-39
-0.03591785952 -0.005191364791 -0.06558003277 9.641561216e-39
0.008238941431 0.006596063729 0.4191389084 9.641561216e-39
0.1064892635 -0.01275930367 0.07641534507 9.641561216e-39
-0.08865463734 -0.07337871194 0.3128770888 9.641561216e-39
0.009322380647 0.0001948066056 0.1411456317 9.641561216e-39
-0.06151984259 0.0005508725881 0.3347066045 9.641561216e-39
-0.05695122108 0.0105448775 -0.3782210648 1.037659831e-38
-0.02956052683 0.05577477068 0.2619602084 1.037659831e-38
-0.01445040572 0.05551565439 0.05682256818 1.037659831e-38
-0.01819323748 0.04871825501 0.3209627569 1.037659831e-38
-0.07554206252 0.01050146017 0.00421450939 1.037659831e-38
-0.06240355223 0.06753649563 0.09444208443 1.037659831e-38
-0.04691473395 0.07239440829 -0.2654638588 1.037659831e-38
0.05015374348 0.0532254912 0.4514240921 1.037659831e-38
-0.07198165357 0.02203109488 -0.4393959939 1.037659831e-38
-0.02483915165 0.02749795653 0.2197552174 1.037659831e-38
-0.02855177037 0.02158257365 -0.08139809221 1.037659831e-38
-0.01556059439 -0.005637004972 0.3796385229 1.037659831e-38
-0.08866134286 -0.007728810422 -0.08366091549 1.037659831e-38
-0.08322311193 -0.02521212958 0.1451812834 1.037659831e-38
-0.0343298465 0.01163044292 -0.2156006098 1.037659831e-38
0.02743685618 -0.02001043782 0.4138762057 1.037659831e-38
-0.1042118743 -0.001204013242 -0.2694961727 1.037659831e-38
-0.111180827 -0.0792228207 0.1791491657 1.037659831e-38
-0.1082411408 0.01608435623 0.1412736028 1.037659831e-38
-0.09576965868 -0.02300845832 0.349159807 1.037659831e-38
-0.118932046 0.03697757423 0.01482341159 1.037659831e-38
-0.1058457792 -0.0880042091 0.09259050339 1.037659831e-38
-0.1518223286 -0.0005263983621 0.06216311455 1.037659831e-38
-0.1651784778 0.0258842539 0.4138020575 1.037659831e-38
-0.1658453047 0.05157444254 -0.1900728643 1.037659831e-38
-0.04656000808 -0.02138443664 0.1984789819 1.037659831e-38
-0.1255968511 0.06575036794 -0.0463655144 1.037659831e-38
-0.1181453615 0.03901406378 0.3869094849 1.037659831e-38
-0.08697953075 0.07171709836 -0.3567605317 1.037659831e-38
0.02994371019 -0.03473589942 0.2795172632 1.037659831e-38
-0.08887070417 0.07375969738 -0.2735977173 1.037659831e-38
-0.1112234816 0.01673034206 0.1857076138 1.037659831e-38
0.0490966253 -0.09362960607 -0.4751958847 1.111163541e-38
-0.06990354508 -0.1011625081 -0.4105022252 1.111163541e-38
-0.04783870652 0.05887513608 -0.4175804257 1.111163541e-38
-0.09843485802 -0.05720661581 -0.4775857925 1.111163541e-38
0.08325527608 -0.05397732556 -0.4842596948 1.111163541e-38
-0.01171839423 -0.08805371076 -0.3885739744 1.111163541e-38
0.08252365887 0.02805052698 -0.4436068237 1.111163541e-38
-0.07666957378 0.07825728506 -0.467415452 1.111163541e-38
-0.01935404353 -0.08879974484 -0.4783047736 1.111163541e-38
-0.0960669741 -0.09734505415 -0.3681233227 1.111163541e-38
-0.01769084111 0.04750970006 -0.4162118435 1.111163541e-38
-0.09716263413 0.01308782957 -0.4830381572 1.111163541e-38
0.05575343221 -0.09256186336 -0.4314326644 1.111163541e-38
-0.04041192681 -0.08341422677 -0.3864878714 1.111163541e-38
0.03652606905 0.02637184411 -0.4480026662 1.111163541e-38
-0.08685926348 0.06111648679 -0.4829374254 1.111163541e-38
0.01587037556 -0.1261987537 -0.4774987996 1.111163541e-38
-0.09461173415 -0.05433316529 -0.4065772295 1.111163541e-38
-0.03498564288 0.02315750904 -0.4280835986 1.111163541e-38
-0.106896095 -0.01624480821 -0.4877876043 1.111163541e-38
0.07311344892 -0.074557513 -0.4860439897 1.111163541e-38
-0.05811355636 -0.08379676938 -0.4230460227 1.111163541e-38
0.04773891717 0.01490738802 -0.4612855315 1.111163541e-38
-0.09640142322 -0.0197113324 -0.4896968603 1.111163541e-38
0.04915370047 -0.0609706454 -0.4896859527 1.111163541e-38
-0.1017932743 -0.08993905038 -0.4559211731 1.111163541e-38
0.121343784 -0.07489811629 -0.4705016911 1.111163541e-38
-0.04145593196 -0.03194668517 -0.4757483006 1.111163541e-38
0.01314085722 -0.05442497879 -0.4914897978 1.111163541e-38
-0.09258192033 -0.02640487254 -0.4680034518 1.111163541e-38
-0.04745813832 -0.06647416949 -0.4337082505 1.111163541e-38
-0.09625145793 -0.06806818396 -0.4189794958 1.111163541e-38
-0.0311717689 0.04395364597 -0.02473990619 1.184631237e-38
-0.09787081182 0.1491346359 -0.2552114427 1.184631237e-38
-0.08379916102 0.1346782148 0.04006004706 1.184631237e-38
-0.03360545635 0.07545258105 0.3501408696 1.184631237e-38
-0.06713154167 0.106252633 -0.02911305428 1.184631237e-38
-0.07290781289 0.1264827996 -0.04339415208 1.184631237e-38
-0.05990612507 0.1203968003 0.2634344697 1.184631237e-38
-0.01340374537 0.07473953813 0.06467151642 1.184631237e-38
0.004266429693 0.07425446808 -0.3625831306 1.184631237e-38
-0.08451011032 0.1091812253 -0.2837459445 1.184631237e-38
-0.09690444916 0.1158767119 0.1385289431 1.184631237e-38
-0.03825565428 0.04210620001 0.2002044171 1.184631237e-38
-0.07059906423 0.08938025683 -0.2444438636 1.184631237e-38
-0.08427667618 0.1040197983 -0.1231372729 1.184631237e-38
-0.07517520338 0.08505856991 0.219431892 1.184631237e-38
-0.06289511919 0.008292276412 0.04982833192 1.184631237e-38
-0.1016841084 0.03620861843 -0.3428342044 1.184631237e-38
-0.09900168329 0.10138686 -0.1752928048 1.184631237e-38
-0.1099867821 0.10431768 0.0540009439 1.184631237e-38
