# .PCD v0.7 - Point Cloud Data file format
VERSION 0.7
FIELDS x y z rgb
SIZE 4 4 4 4
TYPE F F F F
COUNT 1 1 1 1
WIDTH 814
HEIGHT 1
VIEWPOINT 0 0 0 1 0 0 0
POINTS 814
DATA ascii
-0.4201504886 0.0897199586 0.0001162141562 1.625043089e-38
-0.33439821 -0.03190358728 -0.04343049973 1.625043089e-38
-0.3623734713 0.03611341119 -0.002707012929 1.625043089e-38
-0.4124462903 -0.01990419999 0.08104988933 1.625043089e-38
-0.3509451449 0.01271760464 0.008006975055 1.625043089e-38
-0.3823251724 -0.02771396004 -0.01410503685 1.625043089e-38
-0.3209901154 0.0623116605 -0.001808671164 1.625043089e-38
-0.3817400634 -0.0207919199 0.05624821037 1.625043089e-38
-0.3988856673 0.07546785474 0.002126519103 1.625043089e-38
-0.3614776731 -0.02898009121 -0.02302667871 1.625043089e-38
-0.3563649952 0.05290338024 -0.004001596011 1.625043089e-38
-0.2872217 -0.0314986445 -0.007110133301 1.625043089e-38
-0.3518398404 0.088343665 0.00198842329 1.625043089e-38
-0.2736749947 -0.03819517419 -0.05058550835 1.625043089e-38
-0.3151705861 0.02907596529 -0.02011280134 1.625043089e-38
-0.2662718594 -0.03629826009 -0.04182453826 1.625043089e-38
-0.1997763515 -0.0378485024 -0.01903878711 1.625043089e-38
-0.2257371247 -0.05733001232 -0.0325951539 1.625043089e-38
-0.2619132996 0.0135233989 -0.008911321871 1.625043089e-38
-0.1743342578 -0.03644981235 -0.06631807238 1.625043089e-38
-0.1922160834 -0.02222155035 -0.03075645864 1.625043089e-38
0.1173571199 -0.02887704782 -0.09987768531 1.698367293e-38
0.04248315096 -0.003836402437 -0.2118003964 1.698367293e-38
0.1366354078 -0.04947889969 0.04168461263 1.698367293e-38
0.1024162322 -0.01805353351 -0.3716136217 1.698367293e-38
0.02144282125 -0.02267985605 -0.08797442913 1.698367293e-38
0.1227483079 -0.04578730837 -0.1426417679 1.698367293e-38
0.01553167682 -0.05520446226 0.0723792538 1.698367293e-38
0.06427522749 -0.02919780277 -0.1995881647 1.698367293e-38
0.1187938973 -0.06052643806 -0.1693618745 1.698367293e-38
0.005040409043 -0.05284275487 -0.1595099717 1.698367293e-38
0.1609459221 -0.08106154203 0.05869631469 1.698367293e-38
0.01421384141 -0.06434500217 -0.2534864247 1.698367293e-38
0.0324989669 -0.05755319446 -0.09605261683 1.698367293e-38
0.07919088006 -0.05797817558 -0.1317752153 1.698367293e-38
0.0741731897 -0.05329839513 0.1100146174 1.698367293e-38
0.06050445884 -0.05479306728 -0.2121383548 1.698367293e-38
0.1331163794 -0.04733429104 -0.1939311028 1.698367293e-38
-0.0180234313 -0.04045571387 -0.1562508047 1.698367293e-38
0.08691333979 -0.04331533611 0.09267828614 1.698367293e-38
0.1070062369 -0.03492520377 -0.2750641108 1.698367293e-38
0.1009288877 -0.04905228317 -0.1303994656 1.698367293e-38
0.05895538256 -0.04781205952 -0.1402422935 1.698367293e-38
0.1093629301 -0.06850730628 0.01433296688 1.698367293e-38
0.03978516161 -0.02826403454 -0.3005547225 1.698367293e-38
0.001916987356 -0.04869397357 -0.1201718673 1.698367293e-38
0.08858833462 -0.03004751541 -0.1315393448 1.698367293e-38
-0.02151622064 -0.06477123499 0.01587644964 1.698367293e-38
0.106004335 -0.03236379102 -0.1267849207 1.698367293e-38
0.1220786422 -0.03999793157 -0.05964272842 1.698367293e-38
0.006015809253 -0.002940319479 -0.02503856644 1.698367293e-38
0.03960546851 -0.04957322031 0.01400473062 1.698367293e-38
0.05925607681 -0.03058376722 -0.05043087155 1.698367293e-38
0.08540214598 0.01307435334 0.3165857792 1.771655483e-38
0.07435736805 -0.01443145797 0.1870872527 1.771655483e-38
0.2151109874 -0.06388281286 -0.03856290132 1.771655483e-38
0.1768007129 -0.05452271923 0.1009830013 1.771655483e-38
0.06363236904 -0.0203560479 0.3394642174 1.771655483e-38
0.02789872885 -0.005487893708 0.3276495039 1.771655483e-38
0.3729237318 -0.06838223338 -0.03469498828 1.771655483e-38
0.3057468534 -0.07192447782 0.02718332782 1.771655483e-38
0.1516126096 -0.05575864762 0.09952721745 1.771655483e-38
0.0560256578 -0.09187182039 0.0501547046 1.771655483e-38
0.3025268018 -0.08130837232 -0.03938678652 1.771655483e-38
0.2236031741 -0.09307190031 0.02361527085 1.771655483e-38
0.1013541073 -0.06946988404 0.1578005254 1.771655483e-38
-0.007963667624 -0.06839638948 0.1377793252 1.771655483e-38
0.3722603917 -0.07088115811 -0.03506833315 1.771655483e-38
0.2646979988 -0.08710699528 0.03503436223 1.771655483e-38
0.1815682799 -0.05216597393 0.1416928321 1.771655483e-38
0.04679611325 -0.06896130741 0.07455394417 1.771655483e-38
0.3174740374 -0.07006477565 -0.03722849116 1.771655483e-38
0.2433259189 -0.08032374829 0.05138345435 1.771655483e-38
0.1459515691 -0.05381758884 0.153983444 1.771655483e-38
0.0212144386 -0.05235927179 0.1551356465 1.771655483e-38
0.2359915227 -0.07774613053 -0.01481412724 1.771655483e-38
0.06406531483 -0.07562862337 0.05857988074 1.771655483e-38
0.05719315633 -0.04259695485 0.2174014747 1.771655483e-38
-0.01464393362 -0.03550907597 0.2091548145 1.771655483e-38
0.2460249811 -0.08017488569 0.005479649641 1.771655483e-38
0.2083393931 -0.05336319655 0.03412827849 1.771655483e-38
0.1125481278 -0.04891368002 0.1151329353 1.771655483e-38
0.06381862611 -0.08495493978 -0.002912192838 1.771655483e-38
0.1352987736 -0.04190711677 -0.005408316385 1.771655483e-38
0.07687557489 -0.05172976851 0.08297591656 1.771655483e-38
-0.2692358494 0.05290774256 0.004104903899 1.844943813e-38
-0.2376214117 -0.01023621112 -0.02188841067 1.844943813e-38
-0.2501258552 0.02647141926 -0.004493966233 1.844943813e-38
-0.01831456274 -0.05323150009 -0.02372467704 1.844943813e-38
-0.281431824 0.06908942014 0.002852253383 1.844943813e-38
-0.127201125 -0.01650716923 -0.03576554731 1.844943813e-38
-0.3807333708 0.01050199661 -0.005917048082 1.844943813e-38
-0.2102194875 -0.06765831262 -0.02202130854 1.844943813e-38
-0.3723341525 0.09996251762 0.007269343827 1.844943813e-38
-0.2884493768 -0.04438031092 -0.03398358822 1.844943813e-38
-0.3694083393 -0.006784752011 -0.004588974174 1.844943813e-38
-0.1511964947 -0.06469033659 -0.05229560286 1.844943813e-38
-0.3833684027 0.08942811936 0.002386684762 1.844943813e-38
-0.2161767483 -0.02182840928 -0.04689846188 1.844943813e-38
-0.3967615664 0.01360997744 0.0001653283834 1.844943813e-38
-0.1924221516 -0.07012938708 -0.05292352289 1.844943813e-38
-0.3878878653 0.1050951555 0.00470323395 1.844943813e-38
-0.2784379721 -0.01243380457 -0.03676184639 1.844943813e-38
-0.3464728296 0.0175465066 -0.002949780552 1.844943813e-38
-0.1625338048 -0.06436188519 -0.0466330722 1.844943813e-38
-0.3738733232 0.0994483009 0.004185890313 1.844943813e-38
-0.2377893031 -0.01697836071 -0.04047802836 1.844943813e-38
-0.2888415158 0.005572238937 -0.009528929368 1.844943813e-38
-0.07914605737 -0.05752810463 -0.05248058215 1.844943813e-38
-0.2857817411 0.03695505112 -0.008684610948 1.844943813e-38
-0.1373102665 -0.01418308448 -0.04403791204 1.844943813e-38
-0.2625921369 -0.004080235492 0.0721706748 1.844943813e-38
-0.1540202498 -0.0596386604 -0.01328650862 1.844943813e-38
-0.2615725994 0.05075203255 -0.0008926389273 1.844943813e-38
-0.1908707023 -0.04951360077 -0.05354074761 1.844943813e-38
-0.2800375521 -0.003576524323 -0.0205749888 1.844943813e-38
-0.05888870731 -0.03449478 -0.02608604357 1.844943813e-38
0.01965716481 0.004154017661 0.3612587452 1.91819627e-38
0.2305629998 0.01861815341 -0.01598345675 1.91819627e-38
0.05974759534 -0.01923808083 0.3312347531 1.91819627e-38
0.2778495252 0.004144525621 0.01253063977 1.91819627e-38
0.04684213921 -0.007919309661 0.2806616724 1.91819627e-38
0.1164392754 0.006943650544 -0.02720411867 1.91819627e-38
0.1165785417 -0.05209477618 0.1302420348 1.91819627e-38
0.3691968024 -0.0257486552 0.01972014271 1.91819627e-38
0.1033504009 -0.05687380955 0.1058838591 1.91819627e-38
0.2396964431 -0.01549751684 -0.03638950363 1.91819627e-38
0.06563267857 -0.06662849337 0.1281817704 1.91819627e-38
0.3600802422 -0.01664660498 0.00781016564 1.91819627e-38
0.1017863303 -0.07038002461 0.1263923496 1.91819627e-38
0.2030543387 0.002399469726 -0.03445580974 1.91819627e-38
0.1382850707 -0.04132650048 0.1581915021 1.91819627e-38
0.3757666349 -0.01949544623 0.001594884787 1.91819627e-38
0.1154872775 -0.04391466454 0.1250706166 1.91819627e-38
0.2613784373 0.002866990399 -0.02212169394 1.91819627e-38
0.1048770174 -0.03522850946 0.178192392 1.91819627e-38
0.3371046782 -0.0123539241 0.01682940684 1.91819627e-38
0.1363387406 -0.05431262776 0.1425057352 1.91819627e-38
0.2162813395 0.004990059417 -0.03266462311 1.91819627e-38
0.0516278334 -0.05109505728 0.162202701 1.91819627e-38
0.2757372856 0.000307559967 0.006452813745 1.91819627e-38
-0.02801138349 0.0004905610695 0.09889946878 1.91819627e-38
0.09224122763 0.001480012084 -0.03978004307 1.91819627e-38
0.1011121571 -0.0105300229 0.101906918 1.91819627e-38
0.2850030363 -0.0290618632 0.01740565896 1.91819627e-38
-0.03704346716 -0.00988010224 0.03494255245 1.91819627e-38
0.2049014568 4.056096077e-05 -0.05582535267 1.91819627e-38
0.06155910715 -0.02811556496 0.09064374119 1.91819627e-38
0.2587385774 -0.01401821338 -0.02703177929 1.91819627e-38
0.09768331796 -0.01013455074 -0.06803809106 1.991448586e-38
0.2874269783 -0.06120816618 -0.0125655476 1.991448586e-38
0.1355928928 -0.05429589748 0.09165065736 1.991448586e-38
0.2146236151 -0.02219275199 0.08782938123 1.991448586e-38
0.03832517192 -0.0538061671 -0.0597480014 1.991448586e-38
0.15686737 -0.04582700506 0.0396008566 1.991448586e-38
0.0269394815 -0.08162023127 0.01813775301 1.991448586e-38
0.3523046672 -0.03917727992 0.01637518033 1.991448586e-38
0.2841124833 -0.07558705658 -0.03671535105 1.991448586e-38
0.3047346175 -0.0910121873 0.007007745095 1.991448586e-38
0.1375103146 -0.09482947737 0.04003642872 1.991448586e-38
0.3675613403 -0.06973988563 0.04112970829 1.991448586e-38
0.1981710941 -0.08891888708 -0.04105566442 1.991448586e-38
0.2314063013 -0.06767924875 0.04096907377 1.991448586e-38
0.02307016775 -0.0674084276 0.07209605724 1.991448586e-38
0.3843213618 -0.05969389901 0.04180242866 1.991448586e-38
0.2482009381 -0.08262922615 -0.043968793 1.991448586e-38
0.3086260557 -0.0918237865 0.01517723966 1.991448586e-38
0.07713268697 -0.06560587138 0.07302390039 1.991448586e-38
0.350450933 -0.05115696415 0.04236438125 1.991448586e-38
0.203859672 -0.0787531957 -0.04444727302 1.991448586e-38
0.2715748847 -0.08507744968 0.02420357242 1.991448586e-38
0.1538508236 -0.06462763995 0.07955924422 1.991448586e-38
0.2830138206 -0.04686426371 0.06010822952 1.991448586e-38
0.09226879478 -0.06971079856 -0.07498499006 1.991448586e-38
0.1429810226 -0.04761138186 0.05068173259 1.991448586e-38
0.01744123176 -0.0632777065 0.07936213166 1.991448586e-38
0.271388799 -0.0194900427 0.04881450161 1.991448586e-38
0.203562364 -0.04192429781 -0.03915290907 1.991448586e-38
0.2050030977 -0.0484646298 0.01877927221 1.991448586e-38
0.09883414954 -0.03658485413 0.03521164879 1.991448586e-38
0.1852625608 -0.005663215183 0.05733287334 1.991448586e-38
0.1449757367 0.01035656966 -0.02842718922 2.06466517e-38
0.1171612963 -0.02868080884 -0.1731942147 2.06466517e-38
0.3253931999 -0.04072649032 -0.04094291106 2.06466517e-38
0.03535468504 -0.01995706744 -0.360683918 2.06466517e-38
0.104616344 0.003203470493 -0.04053002968 2.06466517e-38
0.04539528117 -0.0304971654 -0.1804325283 2.06466517e-38
0.3841252029 -0.0520388484 -0.01870698482 2.06466517e-38
0.09793903679 -0.03615846857 -0.1987590939 2.06466517e-38
0.3512014449 -0.02993979119 -0.03669919819 2.06466517e-38
0.1903770566 -0.03993615136 -0.07225574553 2.06466517e-38
0.4157626331 -0.06975461543 -0.03342874721 2.06466517e-38
0.03665726259 -0.04557075351 -0.2428116798 2.06466517e-38
0.294313103 -0.03770021722 -0.04452390596 2.06466517e-38
0.1003474742 -0.0324595347 -0.05950778723 2.06466517e-38
0.4330122769 -0.06686878204 -0.01436627936 2.06466517e-38
0.08062370121 -0.0371982418 -0.2206219286 2.06466517e-38
0.3135672212 -0.01117829606 -0.032511089 2.06466517e-38
0.1771062911 -0.01733613573 -0.07126139104 2.06466517e-38
0.4077948928 -0.05788422748 -0.02687480487 2.06466517e-38
0.07495642453 -0.03532369062 -0.2425742 2.06466517e-38
0.2951657176 -0.01448603719 -0.03707100451 2.06466517e-38
0.1352964342 -0.02455763705 -0.06561198086 2.06466517e-38
0.340038687 -0.04975965992 -0.0461688377 2.06466517e-38
0.01014071237 -0.03124415688 -0.2773157656 2.06466517e-38
0.1805227399 -0.02192832716 -0.0448608771 2.06466517e-38
0.09096106142 -0.03438607976 -0.1141197085 2.06466517e-38
0.2600779831 -0.04280799255 -0.02629801631 2.06466517e-38
0.05971989408 -0.03589461371 -0.1952707767 2.06466517e-38
0.1943249851 -0.01274654549 -0.005605922081 2.06466517e-38
0.169768706 -0.03553212062 -0.0545177348 2.06466517e-38
0.1944378763 -0.03738126159 -0.02556033805 2.06466517e-38
0.04813948274 -0.003461753251 -0.0757689625 2.06466517e-38
-0.03440621123 -0.02239514329 -0.01142011117 2.137881613e-38
0.1064207032 -0.02272966877 0.0903172195 2.137881613e-38
-0.2519428134 0.001528843073 0.01379678026 2.137881613e-38
0.1433382332 -0.04603821784 -0.1227386072 2.137881613e-38
0.05463448912 0.003709239652 -0.01042940281 2.137881613e-38
0.01170271821 -0.006831159815 -0.02832217142 2.137881613e-38
-0.2944443226 0.039953731 0.002318784129 2.137881613e-38
0.02826862596 -0.02373578772 -0.04644562304 2.137881613e-38
-0.2102506757 -0.01763281785 0.009730884805 2.137881613e-38
0.06992455572 -0.06901289523 0.1530304104 2.137881613e-38
-0.3210698366 0.02591283061 0.005618665833 2.137881613e-38
0.1102161109 -0.07038348913 -0.09277616441 2.137881613e-38
-0.08480240405 -0.005369671155 -0.01241210848 2.137881613e-38
0.03089054301 -0.00677645253 -0.005376931746 2.137881613e-38
-0.3547641337 0.04268523678 0.004021719564 2.137881613e-38
0.07568252832 -0.03130009398 -0.05188001692 2.137881613e-38
-0.192420885 -0.01026304532 0.01478986815 2.137881613e-38
0.09703991562 -0.04050514102 0.1043795571 2.137881613e-38
-0.3196314275 0.04208866507 0.004870525096 2.137881613e-38
0.06737364829 -0.03302841634 -0.07942441851 2.137881613e-38
-0.1109602898 -0.005188977346 -0.01426929981 2.137881613e-38
0.08093179762 -0.02421473339 0.0436376594 2.137881613e-38
-0.1987565309 -0.0197001677 0.02657575533 2.137881613e-38
0.1054341346 -0.05052283034 -0.1026132852 2.137881613e-38
0.03178260475 0.01220704336 0.005154619925 2.137881613e-38
-0.09045246243 -0.009639604948 -0.02897348814 2.137881613e-38
-0.1783019602 -0.04847909138 0.0319285877 2.137881613e-38
0.01998191327 0.006438799668 -0.0355732888 2.137881613e-38
-0.08371664584 -0.0169183407 0.01300478447 2.137881613e-38
-0.02853830718 -0.0154533824 0.04857695475 2.137881613e-38
-0.06349832565 -0.03400900215 0.08485266566 2.137881613e-38
0.0913747251 0.01878327504 -0.01851491258 2.137881613e-38
0.01677520387 0.001544653089 0.04171797261 2.211062324e-38
-0.06634254754 -0.01526164263 0.03658440337 2.211062324e-38
0.122647658 -0.01273566205 -0.06513205171 2.211062324e-38
-0.219173193 -0.0007668284816 0.009231764823 2.211062324e-38
0.02667102031 0.004638892133 0.03605012968 2.211062324e-38
-0.01984578557 -0.002183076227 0.03790625185 2.211062324e-38
0.2736927271 -0.03494967893 -0.05921594054 2.211062324e-38
-0.372197926 0.05341376737 0.001850150293 2.211062324e-38
0.1290793121 -0.01107429899 0.03837330639 2.211062324e-38
-0.1926977783 -0.04466247186 0.04054940492 2.211062324e-38
0.2058188915 -0.03969693556 -0.05877293274 2.211062324e-38
-0.3408452272 0.02203824371 0.0001358240843 2.211062324e-38
0.04650335014 -0.02793048881 0.04114597663 2.211062324e-38
-0.1061200649 -0.02613044903 0.03727771714 2.211062324e-38
0.2890338302 -0.04472851381 -0.0606460385 2.211062324e-38
-0.3442588151 0.0320944339 0.0110618379 2.211062324e-38
0.1327573359 -0.01867224835 0.04351529852 2.211062324e-38
-0.1855911911 -0.04213385284 0.049172692 2.211062324e-38
0.2327968329 -0.02921356261 -0.05972028151 2.211062324e-38
-0.3118217885 0.03850886971 0.001178485691 2.211062324e-38
0.09222967923 -0.01446311641 0.04113518447 2.211062324e-38
-0.1340268552 -0.03200744092 0.04207372293 2.211062324e-38
0.140000537 -0.005287046544 -0.0668932274 2.211062324e-38
-0.2263473421 -0.0007280408172 0.00865307264 2.211062324e-38
0.03115351126 0.01524830889 0.03558352962 2.211062324e-38
-0.04371642321 -0.006317963358 0.04798939452 2.211062324e-38
0.1367987841 -0.02888928913 -0.08497074246 2.211062324e-38
-0.2538532317 -0.003165160073 0.04399061948 2.211062324e-38
0.0955222249 0.01905648597 0.01557372697 2.211062324e-38
-0.1955087334 -0.001336543937 0.02916461788 2.211062324e-38
0.09755720198 -0.002545664087 -0.04226189852 2.211062324e-38
-0.1921487451 -0.0008719114121 0.04421455041 2.211062324e-38
0.0400884971 -0.02280443534 -0.0107668573 2.284242894e-38
0.3051374257 -0.01074175164 0.03369130194 2.284242894e-38
0.1521273553 -0.05506607145 0.1081774086 2.284242894e-38
0.1626159698 0.01811691001 -0.08791068941 2.284242894e-38
0.0686032027 -0.02352719009 0.09697893262 2.284242894e-38
0.199628219 0.02321540751 0.04832803458 2.284242894e-38
0.07867757976 -0.02912653424 0.1463948786 2.284242894e-38
0.3354206979 -0.02391498908 -0.04752195254 2.284242894e-38
0.09321646392 -0.0630063042 -0.1922579408 2.284242894e-38
0.3571669459 -0.03768939525 -0.003529321635 2.284242894e-38
0.1190893203 -0.05782069266 0.1091119274 2.284242894e-38
0.2279712558 -0.01030077133 -0.02921975031 2.284242894e-38
0.09190236777 -0.08112002909 -0.01201752853 2.284242894e-38
0.3407236338 -0.0100437114 0.02832489274 2.284242894e-38
0.0726692006 -0.05432729796 0.1790920198 2.284242894e-38
0.3009358644 -0.01822128892 -0.05059156939 2.284242894e-38
0.1263976693 -0.06054273248 -0.1506285071 2.284242894e-38
0.3977510333 -0.01808967069 0.00174826954 2.284242894e-38
0.1256254017 -0.05279527232 0.1471689343 2.284242894e-38
0.2735412717 -0.0009642240475 -0.04223573208 2.284242894e-38
0.1129931957 -0.06229448691 -0.09774287045 2.284242894e-38
0.3704088926 -0.01253808662 0.007748072501 2.284242894e-38
0.1644286364 -0.02553545311 0.06176589057 2.284242894e-38
0.1692927629 0.01833650842 -0.04797821492 2.284242894e-38
0.09434712678 -0.03189707547 0.04052445665 2.284242894e-38
0.2325367033 0.007147176191 0.03680672869 2.284242894e-38
0.09695994854 -0.01466046833 0.09372351319 2.284242894e-38
0.1800006628 0.003254826413 -0.007298060693 2.284242894e-38
0.04524622113 -0.03243782371 -0.1449673027 2.284242894e-38
0.2995440662 -0.01445013843 -0.02478318661 2.284242894e-38
0.00842663087 0.009832527488 0.003890029155 2.284242894e-38
0.1939491034 -0.002911927411 0.02025506087 2.284242894e-38
0.1478628516 -0.03140897304 -0.05312260613 2.348204041e-38
0.1132730842 -0.04699138924 -0.08981407434 2.348204041e-38
0.09535250068 -0.007309082896 -0.3082535267 2.348204041e-38
0.03660098836 -0.02577578649 -0.1937971711 2.348204041e-38
0.1728026569 -0.02980061807 -0.05704556033 2.348204041e-38
0.078061454 -0.04854075611 -0.06831625849 2.348204041e-38
0.07036685944 -0.03257101029 -0.2677882314 2.348204041e-38
0.05101914331 -0.06273916364 0.05989091471 2.348204041e-38
0.3801270723 -0.05999118835 -0.03510413319 2.348204041e-38
0.183607474 -0.101083383 0.02231083065 2.348204041e-38
0.04669235274 -0.06603746116 -0.1712997109 2.348204041e-38
-0.004367263988 -0.1100634113 -0.003818344325 2.348204041e-38
0.362814337 -0.0519961305 -0.04612359777 2.348204041e-38
0.1181850955 -0.09034664184 0.03060301393 2.348204041e-38
0.01759516634 -0.03244464844 -0.301199466 2.348204041e-38
0.04401865974 -0.09318765998 0.03689516336 2.348204041e-38
0.379050225 -0.0518036671 -0.03761630133 2.348204041e-38
0.1831757873 -0.07823488116 0.027880162 2.348204041e-38
0.0679224506 -0.02410238422 -0.2713981867 2.348204041e-38
0.04298628494 -0.07825155556 -0.005447750911 2.348204041e-38
0.3358077109 -0.05415811017 -0.03895562142 2.348204041e-38
0.1507117003 -0.08456189185 0.02712164074 2.348204041e-38
0.09889966995 -0.0347844772 -0.1697371304 2.348204041e-38
0.01278037298 -0.07534081489 -0.06663818657 2.348204041e-38
0.2432765812 -0.05603390932 -0.04716323316 2.348204041e-38
0.1328665912 -0.07490466535 -0.01803348586 2.348204041e-38
0.06557517499 -0.02969878539 -0.1886623055 2.348204041e-38
0.03271599486 -0.0467151925 -0.009871833026 2.348204041e-38
0.2859687507 -0.05059582368 -0.02531851456 2.348204041e-38
0.199330762 -0.07880407572 0.0126315942 2.348204041e-38
0.03805287555 -0.03315772116 -0.1013660505 2.348204041e-38
0.06464051455 -0.04692489654 -0.1049294844 2.348204041e-38
-0.1612487882 -0.0196415484 -0.02894147485 2.347880341e-38
-0.02715433948 -0.06585697085 0.001572831185 2.347880341e-38
-0.3383144736 0.01519637555 0.005004989915 2.347880341e-38
0.1836708784 -0.07816848904 0.04500694945 2.347880341e-38
-0.09727431834 -0.02287092432 -0.03962345421 2.347880341e-38
-0.03984585404 -0.07447682321 0.01314860769 2.347880341e-38
-0.3713611364 0.07402361929 -0.002809204161 2.347880341e-38
0.00139287021 -0.08632519841 0.005390442908 2.347880341e-38
-0.2768428922 0.01626227424 -0.01913680509 2.347880341e-38
-0.1783200949 -0.08534478396 0.01920747012 2.347880341e-38
-0.4233054519 0.02195224538 0.001191988005 2.347880341e-38
0.08483354002 -0.1125763506 0.04254776612 2.347880341e-38
-0.2856970131 -0.04274984449 -0.04178627208 2.347880341e-38
-0.1114622802 -0.09338197857 0.01260464173 2.347880341e-38
-0.4391783774 0.06051057577 0.002296488499 2.347880341e-38
0.02458389848 -0.09787616879 0.02393062972 2.347880341e-38
-0.29817909 0.01732783951 -0.02044026367 2.347880341e-38
-0.1498785317 -0.08416114748 0.03509650007 2.347880341e-38
-0.4022096097 0.0426434651 0.0006252526655 2.347880341e-38
0.06412555277 -0.09261772037 0.02791387215 2.347880341e-38
-0.2735985219 0.002822227776 -0.030461004 2.347880341e-38
-0.1176779121 -0.0855133459 0.0228148587 2.347880341e-38
-0.3879615366 0.006331820972 3.699958324e-05 2.347880341e-38
0.1512791812 -0.08854937553 0.03215604648 2.347880341e-38
-0.1372677535 -0.03852758557 -0.04836805537 2.347880341e-38
-0.08613981307 -0.08161236346 0.01517350692 2.347880341e-38
-0.3019815683 0.01179133821 -0.03053896874 2.347880341e-38
0.02543526515 -0.07392027974 0.006955109071 2.347880341e-38
-0.1781937182 -0.008825028315 -0.02095706761 2.347880341e-38
-0.1385413557 -0.05986903608 0.01886599883 2.347880341e-38
-0.261233151 -0.05119980127 0.01837152615 2.347880341e-38
0.1083198786 -0.07180752605 0.0285655316 2.347880341e-38
0.1423092335 -0.003290909575 -0.1757315844 2.347520768e-38
-0.1632500291 0.006570592988 0.01688393019 2.347520768e-38
0.05913612619 -0.07265559584 -0.05182625353 2.347520768e-38
-0.182798028 0.006229236256 -0.002403671853 2.347520768e-38
0.1876428425 -0.03102927282 -0.1253790706 2.347520768e-38
-0.03594920039 0.006669480354 0.01468625851 2.347520768e-38
-0.05971008167 -0.08808269352 0.0003849565692 2.347520768e-38
-0.2735017836 -0.004124914296 -0.03556554019 2.347520768e-38
0.0176474452 -0.07155247033 -0.05862896889 2.347520768e-38
-0.2192485332 0.002452702029 0.03579563275 2.347520768e-38
-0.08601012826 -0.1040162966 -0.02353324555 2.347520768e-38
-0.2773291767 -0.02204140835 -0.02669938095 2.347520768e-38
0.1109420508 -0.08159630001 -0.05685439706 2.347520768e-38
-0.1743078828 0.004741715267 0.006192351691 2.347520768e-38
-0.1039339826 -0.08439554274 -0.02063827589 2.347520768e-38
-0.322906822 -0.01917730272 -0.07361293584 2.347520768e-38
0.05836545303 -0.06794600189 -0.09293223172 2.347520768e-38
-0.2341332883 0.008036557585 0.02280438878 2.347520768e-38
-0.04036466032 -0.08667497337 -0.02097787522 2.347520768e-38
-0.332963109 -0.008064131252 -0.05719970912 2.347520768e-38
0.08354882896 -0.06567551941 -0.07723647356 2.347520768e-38
-0.1872983724 0.008507352322 0.01188882347 2.347520768e-38
-0.006750451401 -0.07707570493 -0.04127065837 2.347520768e-38
-0.186596036 0.002318325918 0.00494279433 2.347520768e-38
0.1582998037 -0.06731445342 -0.08058167994 2.347520768e-38
-0.1169537157 0.008861945011 0.01798960194 2.347520768e-38
-0.0397346057 -0.03344180807 -0.08338937908 2.347520768e-38
-0.1761026829 0.004503758159 -0.01690742187 2.347520768e-38
-0.01024819817 -0.04023920745 -0.07950252295 2.347520768e-38
-0.1421231627 -0.005883122794 0.01056086458 2.347520768e-38
0.02876903303 -0.0273969546 -0.06493186206 2.347520768e-38
-0.09127484262 -0.0004915799364 0.0168360807 2.347520768e-38
0.1629900336 0.01153434347 0.06272346526 2.347161195e-38
0.1836978197 -0.03199989349 0.09194067121 2.347161195e-38
0.3372623622 -0.02795686573 0.03734792396 2.347161195e-38
0.03817404062 -0.005160166882 0.1144403666 2.347161195e-38
0.2354198247 -0.009209774435 0.03295052052 2.347161195e-38
0.1215571314 -0.03114387952 0.1189826652 2.347161195e-38
0.4012804031 -0.04379492626 0.01857185736 2.347161195e-38
0.2170622647 0.01243149117 0.01989409328 2.347161195e-38
0.3325370848 -0.03068547323 0.03543212637 2.347161195e-38
0.178222999 -0.04923748225 0.1374716759 2.347161195e-38
0.4230816662 -0.04665420949 0.03258328885 2.347161195e-38
0.06871942431 -0.01015821937 0.03205787763 2.347161195e-38
0.276468277 -0.02330488339 0.0373916477 2.347161195e-38
0.189554736 -0.01420207229 0.03211936355 2.347161195e-38
0.4406955242 -0.04753281176 0.01813136972 2.347161195e-38
0.1549750268 0.006652111653 0.01153417211 2.347161195e-38
0.3142692447 -0.02279750071 0.03426684812 2.347161195e-38
0.2436144352 -0.01773024723 0.04738026112 2.347161195e-38
0.4011568725 -0.03593157232 0.02420372702 2.347161195e-38
0.1074566692 -0.01990667731 0.04096323624 2.347161195e-38
0.3000280559 -0.01464594435 0.03255873919 2.347161195e-38
0.2115068585 -0.03821233287 0.06097735837 2.347161195e-38
0.3845692277 -0.03012515791 0.0335509479 2.347161195e-38
-0.002317603212 -0.002263553208 0.06816022098 2.347161195e-38
0.2355597615 -0.01583524235 0.03496446833 2.347161195e-38
0.09819635004 -0.01510589384 0.1293417662 2.347161195e-38
0.285782814 -0.03006771393 0.02541777492 2.347161195e-38
0.1728904396 0.003090856131 0.01493701339 2.347161195e-38
0.2831988633 -0.00970478449 0.02957747318 2.347161195e-38
0.1529971957 -0.004472620785 0.1274908632 2.347161195e-38
0.2656280696 -0.02624982223 0.03852453455 2.347161195e-38
0.02338406257 -0.03106126562 0.09566102922 2.347161195e-38
-0.2803906798 0.01498011965 0.05200014263 2.346801622e-38
0.005282680504 -0.007473970298 -0.05240864679 2.346801622e-38
-0.3427456319 0.00795872137 -0.01582943276 2.346801622e-38
0.03209139779 -0.06611465663 -0.02727142163 2.346801622e-38
-0.3158400357 0.005291412584 -0.01653608494 2.346801622e-38
-0.1396211088 0.001062318333 -0.03803128749 2.346801622e-38
-0.3484813869 -0.01902703755 -0.08328530192 2.346801622e-38
0.1262124926 -0.06036531553 -0.01592552103 2.346801622e-38
-0.2981876433 -0.005107373465 0.0590887703 2.346801622e-38
0.03033227287 -0.01623238996 -0.05427965894 2.346801622e-38
-0.4503376186 -0.03005710617 0.006287149154 2.346801622e-38
0.03665229306 -0.0591124557 -0.03421465307 2.346801622e-38
-0.3593775928 -0.01259884611 0.03606392443 2.346801622e-38
-0.1453449726 -0.006279952358 -0.02756628767 2.346801622e-38
-0.3937915862 -0.01646000519 -0.0830308497 2.346801622e-38
0.08599369973 -0.09705864638 -0.02909058332 2.346801622e-38
-0.3386965692 -0.008101450279 0.07098780572 2.346801622e-38
0.001305229263 0.003176529426 -0.03841347992 2.346801622e-38
-0.3697344065 -0.001734433812 -0.05961443111 2.346801622e-38
0.06979124993 -0.08347154409 -0.02579940483 2.346801622e-38
-0.3425177336 0.001960349502 0.04758731276 2.346801622e-38
-0.05621806532 -0.003827448934 -0.03449869156 2.346801622e-38
-0.3542586267 -0.003290492343 -0.002158921678 2.346801622e-38
-0.009740759619 -0.0786402449 -0.03296650946 2.346801622e-38
-0.2730477154 0.001843152335 -0.003220785409 2.346801622e-38
-0.1539643109 0.005985173862 -0.02967572398 2.346801622e-38
-0.1946031153 -0.0113663692 -0.06383097172 2.346801622e-38
0.04761930183 -0.06805732846 0.0007208435563 2.346801622e-38
-0.1629206538 0.00849293638 -0.00888124574 2.346801622e-38
-0.1007172763 0.01470699627 -0.02297852188 2.346801622e-38
-0.1424124688 -0.0111600142 -0.0102071641 2.346801622e-38
-0.04552784562 -0.05638024583 -0.03698977828 2.346801622e-38
0.03538369387 0.001424956135 -0.2795355618 2.346406175e-38
0.07713295519 -0.007740439847 -0.3209285736 2.346406175e-38
0.1176492721 -0.01741229184 -0.1243178323 2.346406175e-38
0.05228832364 -0.0237567164 -0.3162535131 2.346406175e-38
0.11865668 -0.01539311744 -0.2072734833 2.346406175e-38
0.08068813384 0.01056024246 -0.1427395046 2.346406175e-38
0.2670194209 -0.04908725619 -0.04348217696 2.346406175e-38
0.05894303694 -0.03022429347 -0.3832299113 2.346406175e-38
0.03878460452 -0.04104154184 -0.1891507059 2.346406175e-38
0.02980138175 -0.04620591924 -0.2326546758 2.346406175e-38
0.2060169131 -0.05446860194 -0.06870144606 2.346406175e-38
8.864980191e-05 -0.05146880448 -0.1929630637 2.346406175e-38
0.1719937176 -0.05681875348 -0.1241657808 2.346406175e-38
0.008749335073 -0.0616395101 -0.1264083534 2.346406175e-38
0.2839336097 -0.05735719204 -0.05236412957 2.346406175e-38
0.01953332499 -0.03716141358 -0.2806017399 2.346406175e-38
0.1207972094 -0.05183807388 -0.172901094 2.346406175e-38
-0.006142147817 -0.04473404214 -0.1958286911 2.346406175e-38
0.2270206213 -0.0518961139 -0.05699947104 2.346406175e-38
0.05088163912 -0.02099341527 -0.3305293024 2.346406175e-38
0.1555063426 -0.04616872221 -0.1571861356 2.346406175e-38
0.003209828632 -0.04515776411 -0.1757838577 2.346406175e-38
0.1541967243 -0.04512768984 -0.08341380209 2.346406175e-38
0.03113950975 -0.02248382755 -0.2361383289 2.346406175e-38
0.1359335035 -0.02656756528 -0.114167355 2.346406175e-38
0.03738838807 -0.01892597042 -0.1222197935 2.346406175e-38
0.141374439 -0.04284065962 -0.06717295945 2.346406175e-38
0.02169841714 -0.02934072725 -0.3113580346 2.346406175e-38
0.04114084318 -0.02839916013 -0.1115865782 2.346406175e-38
0.004206918646 -0.02869521454 -0.1615480036 2.346406175e-38
0.05658332258 -0.02809756994 -0.04971607029 2.346406175e-38
-0.04505063593 -0.02776752599 -0.05989992619 2.346406175e-38
0.04844161496 -0.007012490649 0.260002315 2.346010729e-38
0.09958955646 -0.03009548597 -0.127867654 2.346010729e-38
0.09813158959 -0.01665152237 0.0354022868 2.346010729e-38
0.06872266531 -0.002640271094 -0.3686260283 2.346010729e-38
0.007913609967 -0.0277089756 0.1836473048 2.346010729e-38
0.127064839 -0.02924116515 0.1014932618 2.346010729e-38
0.3133666515 -0.02168330364 0.0444191508 2.346010729e-38
0.0805279389 -0.04079008475 -0.1823432297 2.346010729e-38
0.1148693636 -0.0709137693 0.1968488246 2.346010729e-38
0.0357253179 -0.04269500449 -0.129960075 2.346010729e-38
0.2519568205 -0.02428094484 0.02902235463 2.346010729e-38
-0.01288786251 -0.05655926466 -0.2309092134 2.346010729e-38
0.08032803982 -0.07762884349 0.1351170838 2.346010729e-38
0.02669346146 -0.09396144748 0.009910076857 2.346010729e-38
0.3339241147 -0.0421998091 0.03955440596 2.346010729e-38
0.05922364071 -0.04744603485 -0.1995391846 2.346010729e-38
0.1329862624 -0.0622915104 0.2100161165 2.346010729e-38
0.04660148546 -0.05089817569 -0.09177383035 2.346010729e-38
0.2763086259 -0.03599241748 0.03957843408 2.346010729e-38
0.07403807342 -0.03985840455 -0.2624642253 2.346010729e-38
0.1250349134 -0.05863307044 0.1911305487 2.346010729e-38
0.05725819245 -0.07288233936 -0.0650600493 2.346010729e-38
0.1769084334 -0.004374178126 0.02514707297 2.346010729e-38
0.0338120833 -0.02860823274 -0.3126685023 2.346010729e-38
-0.02341936715 -0.05691071972 0.0864302516 2.346010729e-38
0.07976684719 -0.04600003362 0.04846736789 2.346010729e-38
0.1485243738 0.003484383924 0.02362190001 2.346010729e-38
0.08163947612 -0.02661813796 -0.1814259589 2.346010729e-38
0.09571735561 -0.03979593143 0.04828549549 2.346010729e-38
0.03672991693 -0.03928188607 -0.1384057552 2.346010729e-38
0.07289443165 -0.004766636528 -0.006780458149 2.346010729e-38
-0.1283036768 -0.00797672011 -0.03853868321 2.346010729e-38
0.2762723267 -0.04923640937 0.04407335073 2.345615283e-38
0.306525141 -0.007507332135 -0.003184352536 2.345615283e-38
0.0813312307 -0.04009597376 0.03769824654 2.345615283e-38
0.1254973263 -0.004775420763 0.1975428611 2.345615283e-38
0.3057167828 -0.06102364138 0.02909556776 2.345615283e-38
0.2220475376 0.005801441148 0.02511135675 2.345615283e-38
0.04739074409 -0.06872852147 0.07879843563 2.345615283e-38
0.1453214586 0.007909878157 -0.003486730857 2.345615283e-38
0.1651566029 -0.06098967418 0.06255948544 2.345615283e-38
0.2740764022 -0.0001881495118 -0.05508358032 2.345615283e-38
0.05453088507 -0.09098229557 0.06691520661 2.345615283e-38
0.07455670834 -0.0757099241 0.08924300224 2.345615283e-38
0.258146584 -0.07690622658 0.04987565428 2.345615283e-38
0.2500074208 -0.001350141247 0.00314491312 2.345615283e-38
-0.02415824682 -0.06007973105 0.09130386263 2.345615283e-38
0.1118285283 -0.006218070164 0.02470324747 2.345615283e-38
0.1835716963 -0.06571846455 0.06636173278 2.345615283e-38
0.2709249556 0.01241463702 -0.03304736316 2.345615283e-38
0.03762793168 -0.034420982 0.08454652131 2.345615283e-38
0.1065977812 -0.02350750379 0.04634951428 2.345615283e-38
0.2207795084 -0.06461074203 0.05721547455 2.345615283e-38
0.2850798368 0.019093927 -0.001903796103 2.345615283e-38
0.03843649849 -0.07045707852 0.05185937881 2.345615283e-38
0.07369004935 -0.06134814024 0.1199395135 2.345615283e-38
0.2663343847 -0.05880857259 0.0468217209 2.345615283e-38
0.2055073678 0.01097836904 0.01967682131 2.345615283e-38
-0.004156740848 -0.04272954911 0.09067457169 2.345615283e-38
0.1134824753 0.01553530805 0.005601861514 2.345615283e-38
0.1107842997 -0.01511733513 0.09264910966 2.345615283e-38
0.263671279 -0.001333124121 -0.03000282496 2.345615283e-38
0.02345100977 -0.08229777962 0.08135256171 2.345615283e-38
0.061465431 -0.006417529192 0.02869955637 2.345615283e-38
0.07260894775 0.03019426763 -0.0002348199487 2.345219836e-38
0.1936849654 0.01886240952 -0.004770905711 2.345219836e-38
0.002626513597 0.01872774214 -0.01737973839 2.345219836e-38
0.2611868083 0.009790487587 -0.03719782084 2.345219836e-38
0.0664344579 0.01462520659 0.03839967027 2.345219836e-38
0.08030448109 0.009678125381 -0.04354771972 2.345219836e-38
-0.1414484233 -0.007796885911 0.01551113278 2.345219836e-38
0.3587613404 -0.01205873489 -0.0001557096839 2.345219836e-38
0.1239086166 -0.006427780725 0.01721157692 2.345219836e-38
0.2517048717 0.007771480829 -0.01701626927 2.345219836e-38
-0.06092350185 -0.0076018041 0.01572389156 2.345219836e-38
0.3147332966 -0.01626855694 -0.02892886661 2.345219836e-38
0.07412867993 -0.008058660664 0.01453609485 2.345219836e-38
0.1598738134 0.007610319182 -0.02875019424 2.345219836e-38
-0.1981981248 0.00311917183 -0.002600909909 2.345219836e-38
0.3604658246 -0.01522671804 -0.01279676147 2.345219836e-38
0.1322087049 -0.008225453086 0.0266790837 2.345219836e-38
0.2344631404 0.01727684774 -0.01583442278 2.345219836e-38
-0.1019555703 0.002610349795 0.006826540455 2.345219836e-38
0.3343972564 -0.00989585463 -0.01396211796 2.345219836e-38
0.09475707263 0.002058600076 0.00642784033 2.345219836e-38
0.2064566463 0.01118956413 -0.008981068619 2.345219836e-38
-0.01525705773 0.001756081358 -0.008262803778 2.345219836e-38
0.2702601552 -0.00279111811 -0.02721957676 2.345219836e-38
0.09003479034 0.0008172502858 0.0452856943 2.345219836e-38
0.1201333553 0.01063717622 -0.03761178255 2.345219836e-38
-0.1159484237 0.0160532631 -0.00265335408 2.345219836e-38
0.2612550259 0.01289480645 -0.01539952774 2.345219836e-38
0.1292950511 0.01404184569 -0.00447922945 2.345219836e-38
0.2313961834 0.009477778338 0.01553876791 2.345219836e-38
-0.03808972985 0.001515674172 -0.009648404084 2.345219836e-38
0.2112005353 0.01195649058 -0.03521154821 2.345219836e-38
0.1357923448 -0.0152212698 -0.1184614003 2.344788516e-38
-0.1432554424 -0.07089404762 0.03080345877 2.344788516e-38
0.09791719913 -0.08367671072 -0.06562187523 2.344788516e-38
0.08759380877 -0.07656685263 0.1165204421 2.344788516e-38
-0.004929601215 -0.03952293471 0.1420309395 2.344788516e-38
0.1103051007 -0.03020205162 0.002733417554 2.344788516e-38
-0.06156470999 -0.0674450472 -0.03547299281 2.344788516e-38
0.2586962283 -0.09606552124 -0.04223738611 2.344788516e-38
0.1175982952 -0.07419089973 -0.1778710037 2.344788516e-38
-0.2332730591 -0.05582526326 0.02788950503 2.344788516e-38
-0.07535101473 -0.09168483317 -0.03733649477 2.344788516e-38
0.09873519838 -0.09796274453 0.08866741508 2.344788516e-38
0.1051365361 -0.09021826088 -0.1031123623 2.344788516e-38
-0.2061936259 -0.05539744347 0.04882720858 2.344788516e-38
-0.1342425197 -0.07971313596 -0.03184196725 2.344788516e-38
0.1424924135 -0.09022621065 -0.009232096374 2.344788516e-38
0.1691420674 -0.06838836521 -0.1592579335 2.344788516e-38
-0.2549396157 -0.03931492567 0.04618749395 2.344788516e-38
-0.03684639186 -0.08196464926 -0.03694459796 2.344788516e-38
0.1328552812 -0.08469563723 0.03069278784 2.344788516e-38
0.1415502578 -0.08195108175 -0.126448676 2.344788516e-38
-0.1592009813 -0.05228996277 0.03929326683 2.344788516e-38
0.0357590802 -0.08492895216 -0.03789867088 2.344788516e-38
0.09086738527 -0.08895038068 0.1034711897 2.344788516e-38
0.03341720626 -0.07116251439 0.1114994958 2.344788516e-38
-0.07647957653 -0.05915605649 0.08081609756 2.344788516e-38
-0.08970236033 -0.05998246372 0.01933331601 2.344788516e-38
0.16631639 -0.06899984926 0.001136887353 2.344788516e-38
0.05662531778 -0.05533535406 0.01142541878 2.344788516e-38
-0.2392943799 -0.05155142769 0.01867844909 2.344788516e-38
-0.02905007452 -0.063949503 -0.01103312988 2.344788516e-38
0.1040568724 -0.06977245957 0.03544285893 2.344788516e-38
0.0675303787 -0.007452506572 -0.1824889928 2.344357197e-38
0.2762041092 -0.0512599051 -0.01267594751 2.344357197e-38
0.05804339051 -0.01016758382 -0.2683191895 2.344357197e-38
0.1372797489 0.001180171384 -0.04344872013 2.344357197e-38
0.0920637846 -0.01039232872 -0.2217660993 2.344357197e-38
0.2266734242 -0.06830536574 -0.04840319976 2.344357197e-38
0.001959544839 -0.03509500623 -0.2616775036 2.344357197e-38
0.2658459842 -0.00995287206 -0.03692689165 2.344357197e-38
0.1372150928 -0.06306907535 -0.1154078841 2.344357197e-38
0.3333423436 -0.09563953429 0.003226581961 2.344357197e-38
0.03042250499 -0.04775146767 -0.1894193888 2.344357197e-38
0.186291784 -0.020262843 -0.0306947194 2.344357197e-38
0.1365276575 -0.07118979841 -0.1602524221 2.344357197e-38
0.3378451765 -0.09299980849 -0.02895149402 2.344357197e-38
-0.02438083664 -0.04409842193 -0.2671488523 2.344357197e-38
0.2369603366 -0.01220757235 -0.03271496668 2.344357197e-38
0.1705738902 -0.06855089962 -0.1598033607 2.344357197e-38
0.3598801196 -0.09156561643 -0.009905967861 2.344357197e-38
0.01388062071 -0.03660875559 -0.2493182868 2.344357197e-38
0.2056265771 -0.005898444448 -0.03288802132 2.344357197e-38
0.1471281797 -0.06159868836 -0.1611025184 2.344357197e-38
0.3467068076 -0.08770760894 -0.02319341712 2.344357197e-38
0.04769636318 -0.04217841104 -0.1886669695 2.344357197e-38
0.1413366348 -0.001905811485 -0.03295541927 2.344357197e-38
0.08999574184 -0.03392629698 -0.1152931452 2.344357197e-38
0.2595209479 -0.07824940234 -0.03418974951 2.344357197e-38
0.06393738836 -0.02630258724 -0.2059478313 2.344357197e-38
0.2165074795 -0.006012352183 -0.03774047643 2.344357197e-38
0.04535160586 0.003444941016 -0.0349663645 2.344357197e-38
0.2836515009 -0.04513086006 0.008253104053 2.344357197e-38
-0.01135766134 -0.02608121559 -0.1107738987 2.344357197e-38
0.1174004599 -0.005324171856 -0.02830398828 2.344357197e-38
0.06773526222 0.01169202849 0.3826768994 2.343925737e-38
0.06250145286 -0.02439073101 0.4206225872 2.343925737e-38
0.13519907 -0.03608796373 0.1669015586 2.343925737e-38
0.1146839336 -0.01443402097 0.1066431552 2.343925737e-38
0.07399117947 -0.006879094522 0.3026768565 2.343925737e-38
0.0315479748 -0.001634819782 0.3865334988 2.343925737e-38
0.0304521881 -0.04767828807 0.1563225836 2.343925737e-38
0.2450321466 -0.06942223758 0.0423591882 2.343925737e-38
0.03793816268 -0.04641177133 0.2742366493 2.343925737e-38
0.02433962934 -0.0481065847 0.3229581416 2.343925737e-38
0.05874918029 -0.07361119986 0.1503240466 2.343925737e-38
0.1524187028 -0.07189822942 0.04651517048 2.343925737e-38
0.06548104435 -0.05103391409 0.2227317095 2.343925737e-38
0.01517528016 -0.03972458839 0.238867417 2.343925737e-38
0.005351469852 -0.04720213637 0.1743517518 2.343925737e-38
0.2309339941 -0.06707311422 0.05116327479 2.343925737e-38
0.07011509687 -0.04146166146 0.2791184783 2.343925737e-38
0.03283944726 -0.02665303275 0.3102920055 2.343925737e-38
0.03099615686 -0.04975801334 0.1690017283 2.343925737e-38
0.1726375967 -0.06618768722 0.04786523432 2.343925737e-38
0.06937740743 -0.04214019701 0.2441113293 2.343925737e-38
0.04960098863 -0.02885650471 0.2848868668 2.343925737e-38
0.06833016127 -0.0416931957 0.1371417344 2.343925737e-38
0.1138229817 -0.05161977932 0.05795125291 2.343925737e-38
0.06763204932 -0.03488527238 0.2276944816 2.343925737e-38
-0.01061215997 -0.03872631118 0.2739927173 2.343925737e-38
0.04450100288 -0.02102888934 0.1510742307 2.343925737e-38
0.1862858534 -0.04619560391 0.0838008523 2.343925737e-38
0.009316227399 -0.03703042492 0.1594921947 2.343925737e-38
0.07538424432 -0.03296785057 0.2001934648 2.343925737e-38
0.03584034368 -0.02223283984 0.06578291208 2.343925737e-38
0.09675367177 -0.01697316952 0.06610327214 2.343925737e-38
0.06078456342 -0.01508692559 0.1495970041 2.343458544e-38
0.05998883396 -0.02692756429 0.164237082 2.343458544e-38
-0.2361039817 -0.01327204611 0.04132120684 2.343458544e-38
0.1681830734 -0.03704313189 0.1760129035 2.343458544e-38
0.05097983032 -0.07198978215 0.04906789213 2.343458544e-38
0.05894846097 -0.03091342375 0.2920699716 2.343458544e-38
-0.2792545855 -0.02411825024 -0.03895749524 2.343458544e-38
0.0395816043 -0.05708551407 0.1351073384 2.343458544e-38
-0.06400360912 -0.09961310029 0.006757707801 2.343458544e-38
0.008216657676 -0.03565592319 0.07624556124 2.343458544e-38
-0.3403136134 -0.0321055837 0.03885529935 2.343458544e-38
0.1247277409 -0.1044046953 0.1208779812 2.343458544e-38
-0.004146164749 -0.1019140929 0.03089844063 2.343458544e-38
0.01375353057 -0.05922488123 0.08699987084 2.343458544e-38
-0.3870843649 -0.0330141671 0.02325903624 2.343458544e-38
0.08917763084 -0.08547729999 0.1313398331 2.343458544e-38
-0.02529121935 -0.1020430252 0.002998834709 2.343458544e-38
-0.0132041201 -0.0267223157 0.07470434159 2.343458544e-38
-0.3615102768 -0.02314100787 0.04632750899 2.343458544e-38
0.1344898939 -0.06968853623 0.1318026632 2.343458544e-38
0.0004666149325 -0.08251761645 0.01098335348 2.343458544e-38
0.04419674724 -0.04603661969 0.1007124037 2.343458544e-38
-0.2491364628 -0.03271512315 0.03381137922 2.343458544e-38
0.1348902434 -0.06168722361 0.1399888843 2.343458544e-38
-0.03037692048 -0.08594733477 0.05505558476 2.343458544e-38
0.002908251481 -0.03427027911 0.2387730181 2.343458544e-38
-0.205256328 -0.07843416184 0.01759581454 2.343458544e-38
-0.006762416568 -0.03893808275 0.1374952942 2.343458544e-38
-0.155088231 -0.04597390071 0.07853105664 2.343458544e-38
-0.1137822047 -0.0009714511107 0.08752248436 2.343458544e-38
-0.1682812124 -0.09769674391 0.008519175462 2.343458544e-38
0.07620907575 -0.04165039957 0.1201494262 2.343458544e-38
0.05892033502 -0.01408331096 0.2509206533 2.343027224e-38
-0.1592272371 -0.02367920242 0.03889020532 2.343027224e-38
0.06819155812 -0.02999501675 0.1127320305 2.343027224e-38
-0.2446469814 0.009041345678 0.006101606879 2.343027224e-38
0.1344439089 -0.02041349746 0.1944781989 2.343027224e-38
-0.1074947417 -0.01284355111 0.02722481452 2.343027224e-38
-0.07668600976 -0.02814576775 0.03500733525 2.343027224e-38
-0.3547879457 0.01601539738 -0.01877090335 2.343027224e-38
-0.002515295753 -0.05740588531 0.1669819206 2.343027224e-38
-0.2526471615 -0.02082567476 0.02686243132 2.343027224e-38
-0.0539319627 -0.02404915914 0.03185553104 2.343027224e-38
-0.3613092601 -0.01778352447 0.01294369251 2.343027224e-38
0.06917509437 -0.06453340501 0.1785460711 2.343027224e-38
-0.2049320042 -0.02196415327 0.03510798141 2.343027224e-38
-0.1210715249 -0.02972364798 0.06143263727 2.343027224e-38
-0.368614167 -0.007735440973 0.001705004135 2.343027224e-38
0.01117303688 -0.05679118261 0.1690545976 2.343027224e-38
-0.2566421628 -0.02925320342 0.03934855014 2.343027224e-38
-0.0648002699 -0.02206540294 0.04755022749 2.343027224e-38
-0.3300627172 -0.0002060383558 0.006632394623 2.343027224e-38
0.06321422756 -0.04914741963 0.1765997559 2.343027224e-38
-0.2024248987 -0.01836401224 0.02867246419 2.343027224e-38
-0.0181014277 -0.03968077898 0.04504922032 2.343027224e-38
-0.2686621845 0.002131712157 0.01423907932 2.343027224e-38
0.1014913768 -0.05589262024 0.1692677587 2.343027224e-38
-0.1460130066 -0.02296039648 0.0366608128 2.343027224e-38
-0.05079063028 -0.04826827347 0.08822078258 2.343027224e-38
-0.220914647 0.01518685557 0.007856683806 2.343027224e-38
-0.01592528261 -0.04890397936 0.1297257692 2.343027224e-38
-0.2364322543 -0.0210376773 0.02857190371 2.343027224e-38
-0.03276719153 -0.01777025312 0.1058234572 2.343027224e-38
-0.2445743084 -0.01397488918 0.02715367079 2.343027224e-38
-0.2970668375 0.0699326098 -0.004115388729 2.342559891e-38
-0.01783172973 -0.04812822863 0.03037565574 2.342559891e-38
-0.3057806194 -0.00237535988 -0.08466923982 2.342559891e-38
-0.2712258697 0.001383556984 0.04965310544 2.342559891e-38
-0.2821193337 0.01153097581 -0.005350991152 2.342559891e-38
0.08795742691 -0.06161453575 0.0272596851 2.342559891e-38
-0.3106108606 -0.02583477087 -0.08856220543 2.342559891e-38
-0.2329543233 -0.01094650757 0.05316068977 2.342559891e-38
-0.3652429581 0.09117700905 -0.006380383857 2.342559891e-38
-0.1560306996 -0.04361011833 0.04167287052 2.342559891e-38
-0.3788201213 -0.03278970346 -0.08717240393 2.342559891e-38
-0.3041879237 -0.02025939524 0.03584100679 2.342559891e-38
-0.367061317 0.02199502103 -0.007751445752 2.342559891e-38
-0.1072608456 -0.07213457674 0.03885057941 2.342559891e-38
-0.3574537039 -0.0259311609 -0.1325648129 2.342559891e-38
-0.262187928 -0.01717023179 0.05981275812 2.342559891e-38
-0.3617304564 0.07611251622 -0.01138605736 2.342559891e-38
-0.1567204297 -0.03157005832 0.03305534273 2.342559891e-38
-0.3450446725 -0.02514639683 -0.1067984924 2.342559891e-38
-0.2596935928 -0.01518202852 0.03773488477 2.342559891e-38
-0.3707590103 0.07397954166 -0.008862861432 2.342559891e-38
-0.1271232069 -0.05481209978 0.03536229208 2.342559891e-38
-0.2906399667 -0.03250816464 -0.06423448771 2.342559891e-38
-0.2534814477 -0.02032873034 0.02766963653 2.342559891e-38
-0.2912599444 0.007430595346 -0.0009274815093 2.342559891e-38
0.005259525031 -0.08161517978 0.04096597433 2.342559891e-38
-0.1853096932 -0.02663529105 -0.02861056477 2.342559891e-38
-0.2129318565 -0.01638867706 0.04142222181 2.342559891e-38
-0.2170627713 -0.002439687727 -0.0002560392022 2.342559891e-38
-0.1268085092 0.009925933555 0.04052394629 2.342559891e-38
-0.1511431485 -0.03175576404 -0.0444779247 2.342559891e-38
-0.1598039418 0.003495053155 0.02849220484 2.342559891e-38
0.06704317033 0.005260877311 -0.03895017505 2.342128572e-38
0.2622872591 -0.02626699395 -0.04793578759 2.342128572e-38
-0.1029945537 0.00520199677 -0.01396679226 2.342128572e-38
0.07173237205 0.01065094769 -0.04380631819 2.342128572e-38
0.01718391106 -0.003955045715 -0.02390403859 2.342128572e-38
0.1727674305 0.007041296922 -0.04530032724 2.342128572e-38
-0.2372751683 -0.01348748617 0.02943889797 2.342128572e-38
0.185084343 -0.0228661634 -0.0682272166 2.342128572e-38
-0.0538319461 -0.004001737572 -0.02505037561 2.342128572e-38
0.3414553702 -0.03795474768 -0.04604754597 2.342128572e-38
-0.1815052927 -0.003510438371 0.00325611583 2.342128572e-38
0.08027581871 -0.01155152172 -0.03275614604 2.342128572e-38
-0.0234903805 -0.00626642257 -0.0352778174 2.342128572e-38
0.2734144628 -0.02750194445 -0.04518333822 2.342128572e-38
-0.257442981 -0.007801225409 0.02114622854 2.342128572e-38
0.1458511949 -0.01695662923 -0.04958737642 2.342128572e-38
-0.04936386272 -0.006931402721 -0.02503757551 2.342128572e-38
0.3361985981 -0.02907784283 -0.04623473808 2.342128572e-38
-0.1861024648 -0.001650339342 0.01071799453 2.342128572e-38
0.132981196 -0.01077069435 -0.04219476506 2.342128572e-38
-0.02296489663 -0.003473830409 -0.02032488026 2.342128572e-38
0.3119556904 -0.0287806876 -0.04545311257 2.342128572e-38
-0.11428985 0.001351120998 0.001494644908 2.342128572e-38
0.0488280803 -0.001167874201 -0.03545985743 2.342128572e-38
-0.01500368584 0.009419349022 -0.03123177774 2.342128572e-38
