# .PCD v0.7 - Point Cloud Data file format
VERSION 0.7
FIELDS x y z rgb
SIZE 4 4 4 4
TYPE F F F F
COUNT 1 1 1 1
WIDTH 831
HEIGHT 1
VIEWPOINT 0 0 0 1 0 0 0
POINTS 831
DATA ascii
0.12964347 -0.1123024225 -0.4894407094 5.225597518e-39
-0.1082271934 -0.02637153305 -0.4851506948 5.225597518e-39
0.008341282606 -0.0329775922 -0.4845480919 5.225597518e-39
0.2068180889 -0.1958162338 -0.4279942513 5.225597518e-39
0.2215898782 -0.1509030908 0.09461032599 5.962428276e-39
0.01309527829 0.02868689783 -0.3932593763 5.962428276e-39
0.2602259517 -0.06845543534 -0.01187756658 5.962428276e-39
-0.2088717669 -0.1561025977 0.09202364832 5.962428276e-39
0.007230766583 -0.1246094704 -0.007649868727 5.962428276e-39
-0.03838459775 -0.01693223231 -0.2053236961 5.962428276e-39
0.2717725039 -0.06355652958 -0.2946361601 5.962428276e-39
-0.1585491598 -0.1564244777 -0.2511756718 5.962428276e-39
0.2063677609 -0.1756623834 0.2185858637 5.962428276e-39
0.1320581585 -0.01837591268 -0.3526349068 5.962428276e-39
0.3376356661 -0.04224942997 -0.215877369 5.962428276e-39
-0.1764462143 -0.1316396296 -0.09373195469 5.962428276e-39
0.1642334312 -0.1712230444 0.1701020747 5.962428276e-39
0.1196893007 -0.03575195372 -0.2313764542 5.962428276e-39
0.2432367951 -0.02541722357 -0.09682071954 5.962428276e-39
-0.1005563736 -0.07504096627 0.004195248242 5.962428276e-39
0.08379556239 -0.08370331675 0.09638320655 5.962428276e-39
0.04360344261 0.01430460811 -0.1499731094 5.962428276e-39
0.1888436973 0.02839896642 -0.1094098687 5.962428276e-39
-0.09356116503 -0.04249183089 -0.02803558297 5.962428276e-39
0.0387984626 -0.04221719503 0.1261812299 5.962428276e-39
0.02050472237 0.02961071022 -0.081773296 5.962428276e-39
0.1420781612 -0.009238934144 -0.2285985053 5.962428276e-39
-0.1006806791 0.01212994102 -0.2298086733 5.962428276e-39
-0.004004114307 0.02212269604 0.1961734146 5.962428276e-39
-0.02173806913 0.03300395608 0.06939269602 5.962428276e-39
-0.02628984116 -0.1216919124 -0.2019929737 5.962428276e-39
-0.1273338944 -0.004786216654 -0.3607764244 5.962428276e-39
0.2555221319 -0.07092048228 -0.01412416901 5.962428276e-39
-0.2251404077 -0.1270815432 -0.2637176514 5.962428276e-39
0.1513877362 -0.1616424322 0.03428488597 5.962428276e-39
0.1435617507 -0.07906661928 -0.05063190311 5.962428276e-39
0.05758921802 -0.03160743788 0.4650260508 6.698542971e-39
0.2695321143 -0.0425294973 0.4459571838 6.698542971e-39
0.0668355152 0.08050224185 0.4441157579 6.698542971e-39
0.2567197382 -0.1165351719 0.4634886682 6.698542971e-39
0.2032034695 0.09875608981 0.4784277976 6.698542971e-39
0.2549826205 0.08769074082 0.4065215588 6.698542971e-39
-0.08708978444 0.09958310425 0.4548260272 6.698542971e-39
0.2691353858 -0.1888222992 0.4211584032 6.698542971e-39
0.1645155549 -0.07081627846 0.4920716584 6.698542971e-39
0.2999479473 -0.09085763991 0.4327488244 6.698542971e-39
0.03139277548 0.1187018007 0.4310015738 6.698542971e-39
0.2877763808 -0.1662471294 0.4220907688 6.698542971e-39
0.2384688705 0.005813488271 0.4769976735 6.698542971e-39
0.295719713 -0.04725590721 0.4128159285 6.698542971e-39
0.09716227651 0.09680378437 0.42825225 6.698542971e-39
0.2420845181 -0.1241158023 0.4621572196 6.698542971e-39
0.2059115618 0.09916745126 0.4944683909 6.698542971e-39
0.2520920634 0.008936525322 0.4053120017 6.698542971e-39
-0.0004245489545 0.02429668605 0.4292114675 6.698542971e-39
0.2286723256 -0.08119869232 0.4780835509 6.698542971e-39
0.2005057186 0.07827815413 0.4856799841 6.698542971e-39
0.2480170876 0.02425862104 0.4502148032 6.698542971e-39
-0.08355280012 0.003156040562 0.4064782858 6.698542971e-39
0.05598802492 -0.1169696003 0.4778604209 6.698542971e-39
0.09880062938 0.03845613822 0.4981692433 6.698542971e-39
0.1948941648 -0.01455126796 0.4712947607 6.698542971e-39
-0.017391745 -0.02722877637 0.4826076627 6.698542971e-39
0.06264026463 -0.05897792801 0.4821278751 6.698542971e-39
-0.07806247473 -0.1016899645 0.4928307235 6.698542971e-39
0.137948662 -0.1593972743 0.4658189118 6.698542971e-39
0.1051008999 -0.06656049937 0.4786598682 6.698542971e-39
0.2163374722 -0.1012821794 0.4749940634 6.698542971e-39
0.2822926342 -0.1277659833 0.0298106838 7.434656265e-39
-0.1003919616 0.0199762024 -0.3065090179 7.434656265e-39
0.2150925845 0.06728760898 -0.4755555987 7.434656265e-39
-0.06552038342 -0.00916903466 0.1951287687 7.434656265e-39
0.2599872351 -0.1257689148 -0.1550237983 7.434656265e-39
0.05262436718 -0.1127816886 -0.1282140464 7.434656265e-39
0.2783929408 -0.07405080646 -0.2272964567 7.434656265e-39
-0.181350559 -0.008478219621 -0.08298413455 7.434656265e-39
0.2817024887 -0.1624071449 0.299806565 7.434656265e-39
-0.2351903319 0.001115379389 -0.3858965933 7.434656265e-39
0.3363694549 -0.05461156368 -0.2940654457 7.434656265e-39
-0.1437799037 -0.01776303537 -0.05246730894 7.434656265e-39
0.3218575716 -0.120110929 0.2204995453 7.434656265e-39
-0.1373694092 -0.02546161413 -0.3277550042 7.434656265e-39
0.2033442259 0.07466381788 -0.424461633 7.434656265e-39
-0.02249232307 0.01315602195 0.09431951493 7.434656265e-39
0.2669440806 -0.08945414424 0.07625939697 7.434656265e-39
0.05371725932 0.005151634105 -0.1823705882 7.434656265e-39
0.2028949708 0.008073519915 -0.3691417277 7.434656265e-39
0.05850222707 0.02163957991 0.1239470169 7.434656265e-39
0.2971044779 -0.0435355939 0.02237391286 7.434656265e-39
0.08790458739 0.01555259433 -0.1376217008 7.434656265e-39
0.2015796453 -0.01538656559 -0.2628302574 7.434656265e-39
0.1263902336 0.01706011966 0.02987807989 7.434656265e-39
0.2678941786 0.01196627785 0.08169087768 7.434656265e-39
0.07524822652 -0.0008510581683 -0.0250550434 7.434656265e-39
0.2329868674 -0.1154878661 -0.1414272636 7.434656265e-39
0.2196824104 0.01182842255 -0.04220887646 7.434656265e-39
0.08556583524 -0.1584154963 -0.03423519805 7.434656265e-39
-0.2438625097 -0.008016108535 0.02246320061 7.434656265e-39
0.0921009481 -0.1704319268 0.2891589999 7.434656265e-39
-0.1664679199 0.07562995702 -0.1509949714 7.434656265e-39
-0.08795859665 0.01058831718 -0.3760216236 8.170410826e-39
-0.2543113232 0.04541968927 -0.1132542863 8.170410826e-39
0.2352799475 -0.0205790028 -0.2662373483 8.170410826e-39
-0.2543682754 -0.01043971721 0.1010455266 8.170410826e-39
-0.1194377989 0.002030284144 -0.2866514325 8.170410826e-39
-0.258681953 0.03066425584 -0.2607148588 8.170410826e-39
0.2579183877 -0.02707102895 -0.4738222063 8.170410826e-39
-0.2856544852 0.09922853112 0.3531676233 8.170410826e-39
0.2759416103 -0.01169526111 -0.107784234 8.170410826e-39
-0.3066233099 0.001950969337 -0.04752897471 8.170410826e-39
0.3237133026 0.05388950557 -0.4170167148 8.170410826e-39
-0.2951560616 0.05207424238 0.3095784187 8.170410826e-39
0.07240130752 -0.004926574416 -0.1644687802 8.170410826e-39
-0.2914435565 -0.1204024181 -0.09796582162 8.170410826e-39
0.2418032587 0.02765046246 -0.291447103 8.170410826e-39
-0.2385307699 0.01920643076 0.1077235937 8.170410826e-39
-0.03544093668 0.03155233711 -0.09904848039 8.170410826e-39
-0.1868200451 -0.03408826515 -0.1619199812 8.170410826e-39
0.1437570304 0.01677213982 -0.2681857049 8.170410826e-39
-0.1613784879 0.02122823149 0.03884787485 8.170410826e-39
-0.01466121338 0.03224279359 -0.0861793831 8.170410826e-39
-0.08107309788 0.0454547517 -0.08100283146 8.170410826e-39
0.04609249905 0.01200405043 -0.2892282307 8.170410826e-39
-0.08876395971 0.006848686375 0.03283721954 8.170410826e-39
0.08768421412 0.02362344787 -0.1000837907 8.170410826e-39
0.0257546939 0.01497916039 0.08721105009 8.170410826e-39
-0.2374138385 0.0365816243 -0.4050365984 8.170410826e-39
-0.04578453302 -0.02322728001 0.01234110352 8.170410826e-39
0.1176742315 -0.005948022474 -0.3901999891 8.170410826e-39
-0.1329742521 0.009937354364 0.3303049207 8.170410826e-39
0.0982998535 -0.048734162 -0.1647504121 8.170410826e-39
-0.2183668166 -0.1294054985 -0.2468877733 8.170410826e-39
-0.24306494 -0.1154546663 0.1320843697 8.906165387e-39
-0.1404102296 -0.1483265907 -0.3480426669 8.906165387e-39
-0.07624323666 -0.1665538251 0.1379342079 8.906165387e-39
-0.1781734377 0.1405988187 -0.4506833553 8.906165387e-39
-0.2279306203 -0.1199116409 -0.1660487652 8.906165387e-39
-0.1277744025 -0.1269256473 -0.03383575007 8.906165387e-39
-0.2308531404 -0.1752301157 0.4243268669 8.906165387e-39
-0.2795881033 0.1673725247 -0.19791843 8.906165387e-39
-0.2842203677 -0.03027386963 0.2447440028 8.906165387e-39
-0.2741913497 -0.1436771899 -0.3154293597 8.906165387e-39
-0.195032388 -0.181943059 0.3152896464 8.906165387e-39
-0.3047124743 0.1612451673 -0.3408290446 8.906165387e-39
-0.312743336 0.005882254802 0.05471792445 8.906165387e-39
-0.2521621883 -0.2055146098 -0.2814411223 8.906165387e-39
-0.08716870844 -0.1053100526 0.2897658348 8.906165387e-39
-0.1532484293 0.1133199036 -0.4122007191 8.906165387e-39
-0.2481902093 -0.05881708115 -0.07428352535 8.906165387e-39
-0.129915908 -0.1425018609 -0.1295559853 8.906165387e-39
-0.1102835461 -0.07042267919 0.1153678373 8.906165387e-39
-0.1256731302 0.05096213147 -0.4073740542 8.906165387e-39
-0.2628788054 -0.04928795621 -0.115117006 8.906165387e-39
-0.1405666322 -0.04877150431 -0.2041850984 8.906165387e-39
-0.03727636486 -0.1015121788 0.04412811249 8.906165387e-39
-0.04208182171 -0.1153455004 -0.2453675717 8.906165387e-39
-0.151127398 -0.1125148088 -0.019696353 8.906165387e-39
-0.1310166121 0.02827060036 -0.2564880252 8.906165387e-39
-0.1896603107 -0.1482278109 0.01656228863 8.906165387e-39
-0.1060125977 -0.1032096818 -0.0006085745408 8.906165387e-39
-0.2382691056 -0.1126789674 0.3930669427 8.906165387e-39
-0.2657715976 0.1360921562 -0.1355747283 8.906165387e-39
-0.2542953193 -0.08505679667 0.1001159027 8.906165387e-39
-0.2256405503 -0.1044112369 -0.4263596833 8.906165387e-39
0.2522077858 -0.001728441217 0.2132470012 9.641561216e-39
-0.09370744973 0.0159978997 0.2737026513 9.641561216e-39
0.2468272448 0.0007991463062 0.0377077274 9.641561216e-39
-0.02945208922 0.02026727609 0.4880929589 9.641561216e-39
0.1225634888 -0.01488785539 0.03860610351 9.641561216e-39
0.2171395123 0.02118048817 0.3741744161 9.641561216e-39
0.2442189306 -0.02367591672 -0.1894039065 9.641561216e-39
-0.2551261187 -0.1194538772 0.4834376574 9.641561216e-39
0.1237064078 -0.01082214154 0.2477057129 9.641561216e-39
-0.1331821382 -0.01460668817 0.1089279354 9.641561216e-39
0.3204507232 -0.03337026387 -0.1303990781 9.641561216e-39
-0.2339054197 -0.05634339154 0.4781449735 9.641561216e-39
0.1941516697 0.02855629474 0.2711595893 9.641561216e-39
-0.04030245915 -0.02472156659 0.2686585188 9.641561216e-39
0.2117960453 0.006771658082 -0.03599368036 9.641561216e-39
-0.0742918551 0.06712727994 0.4774447978 9.641561216e-39
0.1558203101 0.02017007768 0.1382618099 9.641561216e-39
0.07512959838 0.04589771479 0.2870018184 9.641561216e-39
0.1736713052 0.0225789398 0.01336912159 9.641561216e-39
-0.01348084491 0.08278375119 0.4720470309 9.641561216e-39
0.1263258457 0.03397154808 0.0767351687 9.641561216e-39
0.1406492889 0.04902993515 0.340944469 9.641561216e-39
0.01261843834 0.02300233766 -0.04879008606 9.641561216e-39
0.07195138931 0.07122894377 0.4734984338 9.641561216e-39
0.03931177035 0.005433661398 0.09243255854 9.641561216e-39
-0.003154386533 0.01336919796 0.3516198397 9.641561216e-39
-0.0225750152 0.007592414971 0.003834273433 9.641561216e-39
0.1737474054 0.08240921795 0.4538742006 9.641561216e-39
0.1462385207 -0.02463725023 0.0005695074215 9.641561216e-39
-0.2694786489 -0.1180188283 0.4204776883 9.641561216e-39
0.01990523934 -0.0416190587 0.1439213008 9.641561216e-39
-0.1618216336 -0.003426226787 0.3170347214 9.641561216e-39
-0.1312141567 -0.1065138429 -0.4312148392 1.037659831e-38
-0.2144363075 0.02527686395 0.3499537706 1.037659831e-38
-0.1028219014 0.02495779283 0.09854634106 1.037659831e-38
0.0538033396 -0.02320635878 0.2744942605 1.037659831e-38
-0.2676579654 0.04640528187 0.06436398625 1.037659831e-38
-0.2733287215 0.1594930589 0.134542942 1.037659831e-38
-0.1911989748 0.1743981689 -0.2968024611 1.037659831e-38
0.1959432364 -0.009063755162 0.467468828 1.037659831e-38
-0.2939829826 0.1070147306 -0.4164563119 1.037659831e-38
-0.2482006699 -0.1940651536 0.3197159767 1.037659831e-38
-0.2200094014 0.08184380829 -0.2305012941 1.037659831e-38
0.171793282 0.04460921511 0.4508037865 1.037659831e-38
-0.3164940178 0.02806510404 -0.3449301422 1.037659831e-38
-0.230551675 -0.09389936179 0.2687585354 1.037659831e-38
-0.06171507388 -0.09030088037 -0.004011158831 1.037659831e-38
0.03249579668 0.05372008681 0.3663088381 1.037659831e-38
-0.2499979883 -0.03122518398 -0.03011604212 1.037659831e-38
-0.08632928133 0.00313094724 0.1238501221 1.037659831e-38
-0.135391444 -0.08305159956 0.0703349039 1.037659831e-38
-0.04906260595 0.03446149454 0.3621219695 1.037659831e-38
-0.2446469367 0.007013191003 -0.01494408865 1.037659831e-38
0.02308835275 0.02749776468 0.1515078545 1.037659831e-38
-0.1938289553 -0.03790637106 0.06894549727 1.037659831e-38
-0.154459551 0.07439160347 0.4502224922 1.037659831e-38
-0.2108585089 0.009953587316 -0.1890613288 1.037659831e-38
0.03671022505 0.008194322698 0.1787734479 1.037659831e-38
-0.2504786253 0.1236435175 -0.02035856247 1.037659831e-38
-0.226277858 0.1719662398 0.3907729983 1.037659831e-38
-0.1697949469 0.08806482702 -0.3720642924 1.037659831e-38
0.01833283715 -0.02742645517 0.4338791072 1.037659831e-38
-0.2407363653 -0.0001894086599 -0.4856673181 1.037659831e-38
-0.2311409712 0.02891793475 0.2528456748 1.037659831e-38
0.2441558242 -0.162917316 -0.4394218922 1.111163541e-38
-0.2063805312 -0.1713687927 -0.4050736725 1.111163541e-38
-0.0323991701 0.07684239745 -0.4038727582 1.111163541e-38
-0.2274465114 -0.06275030226 -0.473497659 1.111163541e-38
0.2074780315 -0.07052936405 -0.4825036824 1.111163541e-38
-0.05000173301 -0.1595403701 -0.3672296107 1.111163541e-38
0.264977783 0.001943436801 -0.4742799997 1.111163541e-38
-0.2807879448 0.1275052726 -0.4311534166 1.111163541e-38
0.002892418997 -0.161056459 -0.4857465625 1.111163541e-38
-0.2954743505 -0.1644969881 -0.4552359283 1.111163541e-38
0.2960974872 0.04836563021 -0.4554154873 1.111163541e-38
-0.2635565102 0.1156202182 -0.4787832797 1.111163541e-38
0.03567872569 -0.1768959463 -0.4650903344 1.111163541e-38
-0.2602976561 -0.2097403854 -0.4316985607 1.111163541e-38
0.05803546309 0.08876637369 -0.4269965291 1.111163541e-38
-0.2057976276 0.02705856599 -0.4920215607 1.111163541e-38
0.2783074975 -0.08630432934 -0.4454759955 1.111163541e-38
-0.1607122123 -0.1354160756 -0.3357221186 1.111163541e-38
0.07930395752 0.07117137313 -0.4627722204 1.111163541e-38
-0.1876272857 -0.00906050019 -0.4893867373 1.111163541e-38
0.244415611 -0.02973971143 -0.4730738401 1.111163541e-38
-0.1502984911 -0.08413466811 -0.377910614 1.111163541e-38
0.1909883916 0.04271731526 -0.4456568956 1.111163541e-38
-0.1232183203 -0.01189395599 -0.487442255 1.111163541e-38
0.1266499013 -0.05899516866 -0.4986568689 1.111163541e-38
-0.150981307 -0.08545150608 -0.4582796991 1.111163541e-38
0.2205745429 -0.1210095808 -0.4847241938 1.111163541e-38
-0.03401133046 -0.08397585154 -0.4842363298 1.111163541e-38
0.03544732183 -0.0522522144 -0.4893469512 1.111163541e-38
-0.1736614555 0.02335242927 -0.480337888 1.111163541e-38
-0.100397028 -0.1182780117 -0.4822170436 1.111163541e-38
-0.1689537168 -0.1136597991 -0.4888248742 1.111163541e-38
-0.1332741976 0.01006134134 -0.03560321778 1.184631237e-38
-0.2577740252 0.1607023776 -0.2988188565 1.184631237e-38
-0.2506414652 0.1220874637 0.06295720488 1.184631237e-38
-0.1334021837 0.04031620547 0.2764031589 1.184631237e-38
-0.2043240517 0.1879701465 -0.02561954781 1.184631237e-38
-0.2806296051 0.1568029225 -0.05956606939 1.184631237e-38
-0.2780736387 0.1542417109 0.2812173665 1.184631237e-38
-0.1453049332 0.05296319723 -0.03131261468 1.184631237e-38
-0.185627982 0.147181645 -0.4151885509 1.184631237e-38
-0.2809866965 0.1849239171 -0.3816888034 1.184631237e-38
-0.3219855428 0.2296764255 0.1796299666 1.184631237e-38
-0.1584507078 0.002731256885 0.02606624179 1.184631237e-38
-0.1818751097 0.1230905354 -0.3594403267 1.184631237e-38
-0.2757479846 0.2296001762 -0.223835215 1.184631237e-38
-0.2319152802 0.1509407163 0.11764431 1.184631237e-38
-0.1112508997 0.05149078742 0.3011637032 1.184631237e-38
-0.1127379164 0.04188092053 -0.1791317463 1.184631237e-38
-0.2109178007 0.1483463347 -0.1164821908 1.184631237e-38
-0.2492969334 0.07987400889 0.03809628263 1.184631237e-38
-0.1311070621 0.0314604044 0.3384183049 1.184631237e-38
-0.08735537529 0.02145972662 -0.1600197256 1.184631237e-38
-0.1656133235 0.09158861637 -0.08767165989 1.184631237e-38
-0.1539237201 0.07705521584 0.08484685421 1.184631237e-38
-0.1529178619 0.06367894262 0.3199053407 1.184631237e-38
-0.1214461327 0.01340773795 -0.1112838015 1.184631237e-38
-0.1146735996 0.02517697029 -0.07752360404 1.184631237e-38
-0.143612355 0.03317029774 0.1333981603 1.184631237e-38
-0.2430492342 0.1347324848 0.00326180039 1.184631237e-38
-0.2462294698 0.1320133656 0.2353199273 1.184631237e-38
-0.1592969 0.02349984087 -0.3251838982 1.184631237e-38
-0.1255469322 0.09312617779 -0.4795600474 1.184631237e-38
-0.2030207962 0.2209300846 -0.244950071 1.184631237e-38
-0.1295866221 0.09454540908 0.02699668147 1.258099074e-38
0.2455576807 -0.04997015372 0.4622284174 1.258099074e-38
-0.2396992296 0.01799599268 0.4006445706 1.258099074e-38
0.2396216691 0.04057821259 0.4526479244 1.258099074e-38
-0.1726747453 0.1713743359 0.1921435297 1.258099074e-38
-0.1425306499 -0.1663858891 0.3803426623 1.258099074e-38
-0.1508136541 0.1430186331 0.2175923437 1.258099074e-38
-0.1244665235 0.09797526896 0.440248847 1.258099074e-38
-0.1948197484 0.1872063875 -0.1748842746 1.258099074e-38
0.2639577389 -0.1487562656 0.4474655986 1.258099074e-38
-0.2040043324 0.1228753999 0.2830421627 1.258099074e-38
-0.08179976791 0.1013764963 0.4198609889 1.258099074e-38
-0.2157709301 0.1811967194 -0.03035483509 1.258099074e-38
0.1963220239 -0.2013635337 0.3920886815 1.258099074e-38
-0.1611359864 0.07858671248 0.332523793 1.258099074e-38
0.06942305714 0.1150460765 0.4215637743 1.258099074e-38
-0.1790977567 0.108716324 0.07056976855 1.258099074e-38
-0.01527419314 -0.04666925594 0.4023825526 1.258099074e-38
-0.2129103988 0.09064082801 0.401804477 1.258099074e-38
0.1109004691 0.09652769566 0.4201445282 1.258099074e-38
-0.1855354309 0.08673685044 0.1238137484 1.258099074e-38
0.01335481834 -0.04845978692 0.4084483385 1.258099074e-38
-0.1149478629 0.1154688969 0.3904543519 1.258099074e-38
0.06295141578 0.07481256127 0.4310368001 1.258099074e-38
-0.2022187859 0.008966794237 0.08128953725 1.258099074e-38
0.1253879964 -0.01815383323 0.4155898988 1.258099074e-38
-0.1690716743 0.1655020714 0.2790904939 1.258099074e-38
-0.06878576428 -0.06323024631 0.4336808622 1.258099074e-38
-0.2225776613 0.1568936557 0.3902730644 1.258099074e-38
-0.08048266917 0.02413056605 0.4688283503 1.258099074e-38
-0.1746957451 0.1916437596 -0.1239429265 1.258099074e-38
0.07037023455 -0.1102055386 0.4739051163 1.258099074e-38
-0.009540700354 -0.04296837002 0.1350049675 1.331530897e-38
0.1466284394 0.02982874215 0.4749489427 1.331530897e-38
0.2613595128 -0.06586176902 0.2310246676 1.331530897e-38
0.2649395764 -0.1409832388 0.09090152383 1.331530897e-38
0.2486407757 -0.06352245063 0.01358024031 1.331530897e-38
-0.08735200763 0.0742206946 0.4027689397 1.331530897e-38
-0.007901749574 -0.02269425243 0.06459139287 1.331530897e-38
0.2647306919 -0.1655286998 0.3573310077 1.331530897e-38
-0.1206048653 -0.01497627608 -0.09347355366 1.331530897e-38
0.217988506 -0.1376207322 0.4975418746 1.331530897e-38
0.08850707114 -0.04571244866 0.103059724 1.331530897e-38
0.3196159899 -0.1333796382 0.3142885268 1.331530897e-38
-0.03921862692 -0.02864840254 -0.1306494623 1.331530897e-38
0.1470699459 0.04417857528 0.4591053128 1.331530897e-38
0.2105354667 -0.02670004964 0.1778382659 1.331530897e-38
0.2368895411 -0.1080746353 0.2696339786 1.331530897e-38
0.1473442316 -0.02007782273 -0.04379552975 1.331530897e-38
0.0106831789 0.02357924916 0.3343524039 1.331530897e-38
0.0296003744 0.006651690695 0.1895844787 1.331530897e-38
0.2168159783 -0.06435770541 0.3075394332 1.331530897e-38
0.19591254 0.01831252314 -0.02471470274 1.331530897e-38
0.02118235268 0.02403529361 0.2833747268 1.331530897e-38
-0.1318453252 0.02969028428 0.2367085814 1.331530897e-38
0.1210095882 -0.02588678524 0.3754858375 1.331530897e-38
0.1286113113 -0.0150691634 -0.06000165269 1.331530897e-38
0.1035481468 0.007431042381 0.2346991301 1.331530897e-38
-0.1204148158 -0.01355585828 0.1460365802 1.331530897e-38
-0.1669590026 0.01923741028 0.3406463861 1.331530897e-38
-0.1691145152 -0.01766204461 0.05415654555 1.331530897e-38
0.270707339 -0.08861859888 0.1466908753 1.331530897e-38
0.09679175913 -0.0419925116 -0.1664550304 1.331530897e-38
0.1783246994 -0.1182335094 0.3955674469 1.331530897e-38
-0.1259505749 -0.1525917053 -0.4649563432 1.404926846e-38
-0.03723963723 -0.05230668187 -0.4897415936 1.404926846e-38
0.1667353362 0.0841865316 -0.4290752709 1.404926846e-38
-0.2304245383 -0.09652273357 -0.481865406 1.404926846e-38
0.01232780609 0.05642881989 -0.4868013561 1.404926846e-38
0.1603079289 -0.1060514972 -0.4886546731 1.404926846e-38
0.2212141007 -0.0204934869 -0.320870012 1.404926846e-38
-0.2640756667 0.02389218844 -0.4796697497 1.404926846e-38
-0.2289107442 0.1066608652 -0.4915070236 1.404926846e-38
-0.195377022 -0.02718581632 -0.4836809337 1.404926846e-38
0.211166054 0.004812434316 -0.3259304166 1.404926846e-38
-0.3023641109 -0.01099603903 -0.4719714224 1.404926846e-38
-0.1534621865 0.1399837434 -0.4789496362 1.404926846e-38
-0.1420967877 -0.03120207042 -0.452208817 1.404926846e-38
0.142078802 0.02916029654 -0.3953149021 1.404926846e-38
-0.2226741016 -0.06083143875 -0.4786348641 1.404926846e-38
-0.01345278788 0.1292428374 -0.4743614495 1.404926846e-38
0.1082045734 -0.04876946658 -0.4695017934 1.404926846e-38
0.09551652521 0.06242931634 -0.4383841455 1.404926846e-38
-0.2197443843 -0.1037849262 -0.4797356129 1.404926846e-38
-0.02905782498 0.1151438951 -0.4715057909 1.404926846e-38
0.1254655421 -0.02740075812 -0.492051959 1.404926846e-38
0.05684863403 0.06445495784 -0.4767338932 1.404926846e-38
-0.09786447138 -0.121463865 -0.4803407788 1.404926846e-38
-0.1026016101 0.06126360968 -0.4905478358 1.404926846e-38
0.03178250045 -0.06548953801 -0.4971961677 1.404926846e-38
-0.04644136503 -0.1478423774 -0.486320585 1.404926846e-38
0.0724754557 -0.1151564643 -0.4910632074 1.404926846e-38
-0.08174791187 0.0411006473 -0.5007131696 1.404926846e-38
-0.1449454129 -0.06893211603 -0.4924602211 1.404926846e-38
-0.1676428467 0.1599863023 -0.4653473496 1.404926846e-38
-0.04842313007 -0.006159281824 -0.4871095419 1.404926846e-38
0.2523397207 -0.1239529625 -0.09185427427 1.478322936e-38
0.1157190725 -0.1009313464 -0.3798589408 1.478322936e-38
0.2476519644 -0.09514808655 -0.2979663908 1.478322936e-38
0.2597984374 -0.1283095777 -0.1052429006 1.478322936e-38
0.106864199 -0.1531625092 -0.3672426343 1.478322936e-38
0.1111951917 -0.06326622516 -0.01359701529 1.478322936e-38
0.2497519404 -0.1429032236 -0.4616003335 1.478322936e-38
0.29164505 -0.1213406697 -0.2255274206 1.478322936e-38
0.2725485563 -0.1539022177 -0.03423069045 1.478322936e-38
0.2054858357 -0.1673791558 -0.4917616248 1.478322936e-38
0.2995115817 -0.1565516889 -0.4326236248 1.478322936e-38
0.2975026369 -0.1244521067 -0.1860923171 1.478322936e-38
0.2527486384 -0.1609434485 -0.05012531579 1.478322936e-38
0.191234827 -0.1440555602 -0.3969282508 1.478322936e-38
0.2602711022 -0.09398987889 -0.3688924909 1.478322936e-38
0.2229806632 -0.1207323596 -0.1703274548 1.478322936e-38
0.1200365424 -0.1232842356 -0.2839105427 1.478322936e-38
0.05530608818 0.0004986598506 -0.0996196717 1.478322936e-38
0.2952901423 -0.06726165116 -0.3285659254 1.478322936e-38
0.1896351129 -0.1118325517 -0.1538557261 1.478322936e-38
0.09751163423 -0.1029066518 -0.3655189276 1.478322936e-38
0.003034239635 0.01682913117 -0.07889185846 1.478322936e-38
0.1973591447 -0.1071564406 -0.3687705696 1.478322936e-38
0.07968913019 0.01612270996 -0.1827932894 1.478322936e-38
0.07492114604 -0.0939226374 -0.2928754091 1.478322936e-38
0.09395299107 -0.04200072214 -0.1174600199 1.478322936e-38
0.1123547927 -0.1457149982 -0.3821899593 1.478322936e-38
0.1551366895 0.006528702099 -0.04924894869 1.478322936e-38
0.1702847928 -0.1244366691 -0.3334026635 1.478322936e-38
0.2051440924 -0.1542107761 -0.2081818432 1.478322936e-38
-0.04942011833 -0.1717176735 -0.02418831922 1.478322936e-38
0.002059754683 -0.09744346142 -0.3307129145 1.478322936e-38
-0.0913252905 -0.1422865391 0.03967963532 1.551683013e-38
-0.16319637 0.1654177308 0.4102261364 1.551683013e-38
-0.2561739683 0.1222006753 -0.06035600603 1.551683013e-38
-0.2556343675 -0.07085362077 -0.08081971109 1.551683013e-38
-0.1076597273 -0.1489455849 0.1197169721 1.551683013e-38
-0.2137236893 0.1751020402 0.2514112592 1.551683013e-38
-0.170027256 0.08783148974 0.2217622846 1.551683013e-38
-0.2722567916 -0.02087607048 0.149010852 1.551683013e-38
-0.1674975753 -0.170069173 -0.2086073011 1.551683013e-38
-0.2573890984 0.1752427369 0.4435161054 1.551683013e-38
-0.2968978584 0.2146845758 0.09980078787 1.551683013e-38
-0.3379792571 0.003338764189 0.1256091297 1.551683013e-38
-0.1323918104 -0.1789552122 -0.1579261869 1.551683013e-38
-0.2391481549 0.2070998996 0.3783591688 1.551683013e-38
-0.2342778742 0.1088044941 0.03009358793 1.551683013e-38
-0.2242430449 -0.01532807108 0.0396576561 1.551683013e-38
-0.04837168381 -0.08529272676 0.006407557055 1.551683013e-38
-0.1851412952 0.1449947506 0.28493765 1.551683013e-38
-0.1963929832 0.05322353542 0.08743933588 1.551683013e-38
-0.1639970243 0.004528871737 0.00791602768 1.551683013e-38
-0.06301791221 -0.07292810082 0.03083704039 1.551683013e-38
-0.1763209403 0.1068226248 0.2931157351 1.551683013e-38
-0.1177295148 0.008917825297 0.1967182159 1.551683013e-38
-0.0948478505 0.01915149204 0.08089064807 1.551683013e-38
-0.0698305741 -0.0008689311799 -0.1139085889 1.551683013e-38
-0.2646816373 0.1230604127 0.1998416781 1.551683013e-38
-0.144901678 -0.1340921819 0.1751869023 1.551683013e-38
-0.1175426021 -0.07412197441 0.2668085098 1.551683013e-38
-0.2105524838 0.1793989241 -0.2197221518 1.551683013e-38
-0.2530345619 -0.04098279402 0.2442973703 1.551683013e-38
-0.2315184325 -0.1104537472 -0.2080334127 1.551683013e-38
-0.224130109 0.2023849189 0.3544637263 1.551683013e-38
-0.2503431737 0.02201285027 -0.2199210078 1.625043089e-38
-0.2010380328 0.1677889377 0.0008836013731 1.625043089e-38
-0.2528707385 -0.02615872957 -0.4362396896 1.625043089e-38
-0.2954879999 0.07448944449 0.02380594797 1.625043089e-38
-0.2280764431 0.06944886595 -0.4833616614 1.625043089e-38
-0.1913637221 0.1836109161 -0.1625388414 1.625043089e-38
-0.2502147853 -0.1258189529 -0.1025295928 1.625043089e-38
-0.2890354693 0.08089381456 0.2791213989 1.625043089e-38
-0.2773329616 0.06381653249 -0.08186230808 1.625043089e-38
-0.2697762549 0.194962889 0.07099435478 1.625043089e-38
-0.291023761 -0.1083199233 -0.2238044292 1.625043089e-38
-0.3249623775 0.08995112032 0.2371196747 1.625043089e-38
-0.3322931528 0.1611430645 -0.1948982924 1.625043089e-38
-0.287795186 0.2030071169 -0.01699971966 1.625043089e-38
-0.2762932777 -0.09281762689 -0.3835706711 1.625043089e-38
-0.2768281698 0.06580454111 0.152233541 1.625043089e-38
-0.2558996677 0.1444485486 -0.3274059594 1.625043089e-38
-0.1939393878 0.1425535381 -0.1265791059 1.625043089e-38
-0.3061345816 -0.05662683398 -0.3721042275 1.625043089e-38
-0.3100906909 0.01600750349 0.11753764 1.625043089e-38
-0.2462543547 -0.001760395244 -0.4220089614 1.625043089e-38
-0.2224484235 0.1090519205 -0.1093435958 1.625043089e-38
-0.2402403355 0.01090635359 -0.2540647686 1.625043089e-38
-0.2269799411 -0.04159496352 0.1140559092 1.625043089e-38
-0.2471047342 0.06914902478 -0.4086516798 1.625043089e-38
-0.2477028221 0.01822988875 -0.02690799162 1.625043089e-38
-0.245938763 0.1010710523 -0.3755441308 1.625043089e-38
-0.2511770129 -0.1102778912 -0.01756940596 1.625043089e-38
-0.2457199842 -0.06371273845 -0.1446643621 1.625043089e-38
-0.2536050975 0.006162974983 0.2296101302 1.625043089e-38
-0.255220443 0.08278481662 -0.1452802122 1.625043089e-38
-0.2372015715 0.192451328 0.01542953867 1.625043089e-38
0.08777426928 -0.1632798761 -0.3830267489 1.698367293e-38
-0.1701343358 0.1144603044 -0.3897729814 1.698367293e-38
0.1973042041 -0.1583639234 -0.2925609648 1.698367293e-38
-0.2521442771 0.1494860053 -0.2358712405 1.698367293e-38
-0.1096391976 -0.03751471639 -0.4590997398 1.698367293e-38
-0.02321218885 0.01321714185 -0.3002608716 1.698367293e-38
0.06211521477 -0.1554861516 0.05466840789 1.698367293e-38
-0.2742239833 -0.008341050707 0.01345998701 1.698367293e-38
0.2555160522 -0.05800582096 -0.4713131189 1.698367293e-38
-0.2987945378 0.1393861473 -0.3467715383 1.698367293e-38
0.1046664938 -0.1564417481 -0.07942613959 1.698367293e-38
-0.3117463887 0.004988664296 -0.09828149527 1.698367293e-38
0.2101237029 -0.03818795085 -0.4535946846 1.698367293e-38
-0.1803566664 0.1798996925 -0.3270929456 1.698367293e-38
0.09696209431 -0.100782454 -0.2142793983 1.698367293e-38
-0.2436982393 0.1319029331 -0.174036175 1.698367293e-38
0.0187067464 0.002219093964 -0.404404074 1.698367293e-38
-0.06775446981 0.02682438493 -0.2766336799 1.698367293e-38
-0.03040751442 -0.09927650541 -0.2579742968 1.698367293e-38
-0.2293994725 0.1183798537 -0.1289721727 1.698367293e-38
0.01162224822 0.01263561659 -0.3695648909 1.698367293e-38
-0.06109809875 0.008743581362 -0.1986337006 1.698367293e-38
-0.07114806771 -0.1153923273 -0.1876848787 1.698367293e-38
-0.06023162976 -0.1019994542 0.1133918241 1.698367293e-38
0.04291806743 -0.01016914565 -0.3447326124 1.698367293e-38
-0.05619394034 0.006923395209 -0.07775331289 1.698367293e-38
-0.1837728471 -0.05780760571 -0.34994784 1.698367293e-38
-0.03093945421 -0.09733981639 -0.003180820961 1.698367293e-38
0.1556969434 -0.158258602 -0.2054407895 1.698367293e-38
-0.259596616 -0.08755725622 0.01173160784 1.698367293e-38
0.1952930987 -0.07623966038 -0.4652993083 1.698367293e-38
-0.2370283902 -0.01060783956 -0.3211288154 1.698367293e-38
0.2156886756 -0.1606179327 0.04915786162 1.771655483e-38
0.1948239356 0.005423641764 -0.4877376854 1.771655483e-38
0.2631446719 -0.08731998503 0.3295810223 1.771655483e-38
0.269339025 -0.09206782281 -0.0802846998 1.771655483e-38
0.1359653622 -0.1418966651 0.2606129646 1.771655483e-38
0.2739793956 -0.07010545582 -0.3620491922 1.771655483e-38
0.1781841516 -0.1733578742 0.4674443007 1.771655483e-38
0.1496517956 -0.1550839841 -0.4760986567 1.771655483e-38
0.2631035447 -0.1762607992 0.01814320125 1.771655483e-38
0.2856726646 0.0229054708 -0.47659266 1.771655483e-38
0.3027450144 -0.1658971608 0.4136006236 1.771655483e-38
0.2904147804 -0.2133438438 -0.372212857 1.771655483e-38
0.2503293455 -0.1670814604 0.02018980868 1.771655483e-38
0.2814436853 0.04191419482 -0.4700858295 1.771655483e-38
0.2470240891 -0.05869369954 0.3727051616 1.771655483e-38
0.2358898073 -0.09252978116 -0.1514233947 1.771655483e-38
0.2036902159 -0.1203206033 0.1983320117 1.771655483e-38
0.2655993104 -0.01278235391 -0.3448884487 1.771655483e-38
0.270147711 -0.08282135427 0.2317728549 1.771655483e-38
0.198919639 -0.07878965884 -0.08593402803 1.771655483e-38
0.1336711794 -0.0854056254 0.2688271701 1.771655483e-38
0.2622834146 -0.007384479046 -0.3471689522 1.771655483e-38
0.2219092548 -0.1113802046 0.1573113203 1.771655483e-38
0.04655721411 -0.03081588447 -0.1862640083 1.771655483e-38
0.07102725655 -0.1124846041 0.3273258507 1.771655483e-38
0.1990967095 -0.04426147044 -0.3139701188 1.771655483e-38
0.01499310322 -0.1296117604 0.4213411212 1.771655483e-38
0.1824381351 -0.1443191022 -0.08982314914 1.771655483e-38
0.1846369803 -0.1952330768 0.4531142712 1.771655483e-38
0.01303425338 -0.146204263 -0.4524784684 1.771655483e-38
0.1050715894 -0.1682031453 -0.03350539133 1.771655483e-38
0.1816210449 -0.03304419294 -0.4005042315 1.771655483e-38
-0.2057883739 0.1658587009 0.2725941539 1.844943813e-38
-0.1926383078 0.2000873089 -0.08899415284 1.844943813e-38
-0.2537386119 0.06760263443 -0.3469099402 1.844943813e-38
-0.2375476211 0.01657494344 -0.07547680289 1.844943813e-38
-0.178232491 0.1673308909 0.140089646 1.844943813e-38
-0.1711370796 0.1928539127 0.0384086743 1.844943813e-38
-0.266543597 -0.03255739063 -0.4854941666 1.844943813e-38
-0.2624040842 -0.1367158145 -0.1415625364 1.844943813e-38
-0.2315943241 0.2003630102 0.3725754023 1.844943813e-38
-0.2225672007 0.204100579 -0.1712733656 1.844943813e-38
-0.3100803792 -0.01136896946 -0.4543357491 1.844943813e-38
-0.2937471569 -0.101930134 -0.1943310499 1.844943813e-38
-0.211768657 0.1888582408 0.363471508 1.844943813e-38
-0.1971623451 0.2024769038 -0.09208096564 1.844943813e-38
-0.2648222148 0.04797580093 -0.3760673702 1.844943813e-38
-0.2385914177 0.0146059664 -0.1569055319 1.844943813e-38
-0.1130198911 0.04899677634 0.217481792 1.844943813e-38
-0.1174426153 0.08118256927 0.03981592879 1.844943813e-38
-0.2646588981 0.09538681805 -0.2985293865 1.844943813e-38
-0.2510508895 0.005235974211 -0.131887421 1.844943813e-38
-0.1201703027 0.03844593838 0.1928410381 1.844943813e-38
-0.09656900167 -0.004612189718 0.06792093068 1.844943813e-38
-0.2285554707 0.1107229739 -0.2401617914 1.844943813e-38
-0.2215611339 -0.02742650732 -0.04989711195 1.844943813e-38
-0.1154932752 -0.005058312323 0.2338683754 1.844943813e-38
-0.09997917712 0.006053217221 0.01257263962 1.844943813e-38
-0.1856441051 0.1988515109 -0.009514402598 1.844943813e-38
-0.2092511803 0.1391428858 0.08260394633 1.844943813e-38
-0.2579230368 -0.06170873344 -0.2736930549 1.844943813e-38
-0.2443398535 -0.1120495945 -0.06924259663 1.844943813e-38
-0.2157741636 0.1892903596 0.2146116942 1.844943813e-38
-0.2157534808 0.1708643436 -0.1945781261 1.844943813e-38
0.2006549835 0.003374221036 0.4866073132 1.91819627e-38
0.04570842534 0.1203727052 0.4251960516 1.91819627e-38
0.2253424525 -0.1437091678 0.4460873008 1.91819627e-38
-0.1086340398 -0.01120651513 0.2546726763 1.91819627e-38
-0.05336998031 0.01538903173 0.4861742556 1.91819627e-38
0.1436519474 0.0006201862707 0.2425790876 1.91819627e-38
0.2416762412 -0.1542754024 0.2667711377 1.91819627e-38
-0.2056738436 0.1613337845 0.3290018439 1.91819627e-38
0.1579233557 0.003959262744 0.4923174381 1.91819627e-38
-0.1780715883 0.03117871471 0.4329952002 1.91819627e-38
0.2702637017 -0.1849706918 0.3025651574 1.91819627e-38
-0.2157012373 0.1055839583 0.3103307188 1.91819627e-38
0.1908624023 0.124264203 0.4757306278 1.91819627e-38
0.01090714335 0.05226063728 0.3864300847 1.91819627e-38
0.2402998358 -0.07558340579 0.346232146 1.91819627e-38
-0.05941788107 0.005440807436 0.1737179607 1.91819627e-38
0.04737424105 0.06120246276 0.483009994 1.91819627e-38
0.1093133986 0.0297092814 0.2623676956 1.91819627e-38
0.1870334595 -0.04263412207 0.3342526257 1.91819627e-38
-0.01718572527 0.02202986553 0.1425825804 1.91819627e-38
-0.04162726924 0.02839064412 0.4826577604 1.91819627e-38
0.02445917577 0.01828607544 0.2860220671 1.91819627e-38
0.07854485512 -0.08731417358 0.327352047 1.91819627e-38
0.07053846121 0.01891081966 0.1706794351 1.91819627e-38
0.02073711902 0.02365228347 0.4331370592 1.91819627e-38
-0.1049725786 0.03803840652 0.3875013292 1.91819627e-38
-0.02423124947 -0.1111151129 0.4050594866 1.91819627e-38
0.1957444102 -0.002625280526 0.1758911014 1.91819627e-38
0.1693200767 -0.1315859258 0.4614264965 1.91819627e-38
-0.2390120775 0.1355996281 0.4615409076 1.91819627e-38
0.01704649813 -0.1596500427 0.4933345616 1.91819627e-38
0.001773519441 -0.07345698029 0.1241434067 1.91819627e-38
0.07386036217 -0.08147373796 0.003177803475 1.991448586e-38
0.2628223598 -0.009783104993 0.1613387316 1.991448586e-38
0.08901755512 -0.1404953152 0.1599606276 1.991448586e-38
0.2547048032 -0.1210153326 0.2066073865 1.991448586e-38
-0.1006158963 0.02379620075 -0.06358699501 1.991448586e-38
0.2611686289 -0.02323533967 -0.0202362854 1.991448586e-38
-0.1331230253 -0.1639046818 0.04963620007 1.991448586e-38
0.2982419431 -0.08697886765 0.4357108772 1.991448586e-38
0.1810010076 -0.01627315767 0.005925004836 1.991448586e-38
0.2920800447 -0.02014613524 0.2391063273 1.991448586e-38
-0.0572569631 -0.1845637411 0.1028818041 1.991448586e-38
0.318453759 -0.09149158001 0.4006199837 1.991448586e-38
0.2089073807 -0.05768299103 -0.112484999 1.991448586e-38
0.2907558084 0.0004503093369 0.1409756541 1.991448586e-38
-0.02242396399 -0.09448660165 0.1762800813 1.991448586e-38
0.2284166515 -0.06995011866 0.3471980393 1.991448586e-38
0.02904629707 0.01917762682 -0.1460376233 1.991448586e-38
0.2798157334 0.0009325255523 0.01210190915 1.991448586e-38
-0.1306012273 -0.06337024271 0.2167863548 1.991448586e-38
0.1804582626 -0.08697424084 0.3367682099 1.991448586e-38
0.02162618376 0.04866620898 -0.1616885513 1.991448586e-38
0.2276681513 0.006898405496 0.06835026294 1.991448586e-38
-0.1620928347 -0.09967064112 0.1396104544 1.991448586e-38
0.02350328118 -0.1005906686 0.3662843108 1.991448586e-38
0.118822284 0.003810990835 -0.1434236765 1.991448586e-38
0.1967392862 0.008209021762 0.1310774088 1.991448586e-38
-0.1119871885 0.04190108553 -0.00738389045 1.991448586e-38
0.01236214116 -0.09809283167 0.1559635103 1.991448586e-38
0.1348864287 -0.1629575044 0.06890396774 1.991448586e-38
0.1643406302 -0.1648399532 0.3998995423 1.991448586e-38
0.261721313 -0.08090353757 -0.1413773149 1.991448586e-38
0.1930060983 -0.04834046215 0.08880171925 1.991448586e-38
0.258259356 -0.01083312277 -0.4126638174 2.06466517e-38
0.1080582067 0.09583736956 -0.4593250453 2.06466517e-38
0.2660011053 -0.05194964632 -0.1037612557 2.06466517e-38
-0.006933771539 -0.01622751169 -0.2346939296 2.06466517e-38
0.1897024512 0.03130284697 -0.4880841374 2.06466517e-38
0.1585327089 0.1134315357 -0.4586577713 2.06466517e-38
0.2515411377 -0.0302726645 0.1223877892 2.06466517e-38
0.2378498018 -0.02486316115 -0.2302073091 2.06466517e-38
0.2901793122 -0.06819158792 -0.3496589363 2.06466517e-38
-0.1539494246 0.1703885049 -0.44179672 2.06466517e-38
0.3485400975 -0.005011699162 0.01346101519 2.06466517e-38
0.1998718381 -0.008783043362 -0.2391223162 2.06466517e-38
0.2897195518 0.04907861724 -0.3786678612 2.06466517e-38
-0.05046753958 0.1412339956 -0.4207669497 2.06466517e-38
0.2461466491 0.00191871589 -0.0372072868 2.06466517e-38
0.1134126633 0.02027078532 -0.2240614742 2.06466517e-38
0.261924535 0.07490745187 -0.4393434525 2.06466517e-38
0.07295013964 0.04573773593 -0.423178643 2.06466517e-38
0.2743369341 0.01504087262 -0.1367430687 2.06466517e-38
0.09502653033 0.001192341908 -0.1739757508 2.06466517e-38
0.2466756254 0.01378359552 -0.4444874227 2.06466517e-38
0.09200105816 0.02946765348 -0.4349110425 2.06466517e-38
0.2130680531 0.02347447537 -0.1419732124 2.06466517e-38
0.1215689406 0.006886425428 -0.1429366916 2.06466517e-38
0.2305962145 -0.08237875998 -0.4239837527 2.06466517e-38
0.008697945625 -0.04061713815 -0.4801805019 2.06466517e-38
0.1232205927 -0.04119626433 -0.4913718104 2.06466517e-38
0.1588944942 -0.0192650184 -0.3451040089 2.06466517e-38
0.2410440147 -0.06385842711 -0.003464833833 2.06466517e-38
0.1100380421 -0.03013341315 -0.2896395922 2.06466517e-38
0.2047906667 -0.1195863038 -0.4613240063 2.06466517e-38
-0.1788511276 0.1302342862 -0.4765811563 2.06466517e-38
-0.2348122746 -0.1389770359 0.06548859179 2.137881613e-38
-0.2135398537 0.1727600098 0.3558809161 2.137881613e-38
-0.0650549829 0.03622319549 -0.3515687883 2.137881613e-38
-0.1420518458 0.1005795673 -0.08839584142 2.137881613e-38
-0.237340644 -0.1571169198 -0.04592994601 2.137881613e-38
-0.2536893487 0.1792869419 0.1624402255 2.137881613e-38
-0.1798515916 0.1525399238 -0.149886921 2.137881613e-38
-0.2350701243 0.1559689343 0.0729540959 2.137881613e-38
-0.276084125 -0.07838237286 0.3071255684 2.137881613e-38
-0.2951860428 0.1714490652 0.4262208343 2.137881613e-38
-0.2532229722 0.2046791017 -0.2111384422 2.137881613e-38
-0.2692013681 0.1896385252 0.04135204479 2.137881613e-38
-0.3039892316 -0.1093927547 0.2206322551 2.137881613e-38
-0.2780611217 0.2086794972 0.3631280959 2.137881613e-38
-0.09063842148 0.05715084821 -0.2808775604 2.137881613e-38
-0.1598454565 0.1171585768 -0.03313945234 2.137881613e-38
-0.2812561989 -0.09021920711 0.07731087506 2.137881613e-38
-0.2190118134 0.1674904376 0.2247094214 2.137881613e-38
-0.086325109 -0.06454528868 -0.2066902965 2.137881613e-38
-0.166765064 0.07322108001 -0.02696425468 2.137881613e-38
-0.2807141542 -0.07648162544 0.04062959552 2.137881613e-38
-0.2167533636 0.09446553141 0.1694039404 2.137881613e-38
-0.1119899824 -0.08268470317 -0.140406847 2.137881613e-38
-0.1647914946 0.05134311691 0.01242447365 2.137881613e-38
-0.1931470335 -0.04852847755 -0.0762668103 2.137881613e-38
-0.1480368972 0.007307682652 0.1285953969 2.137881613e-38
-0.228979215 -0.1260906905 -0.1011906043 2.137881613e-38
-0.2191779912 0.07242693752 0.02922347188 2.137881613e-38
-0.1598944217 0.08507692814 -0.1669721901 2.137881613e-38
-0.2275494933 0.1914570332 0.1438497901 2.137881613e-38
-0.24691993 -0.01059562527 0.1992913932 2.137881613e-38
-0.2293613702 0.1555811316 0.2853636444 2.137881613e-38
-0.1359490454 0.06244509295 0.09944557399 2.211062324e-38
-0.1489850581 0.1714587361 0.3317073286 2.211062324e-38
-0.1400931031 0.0002646446228 -0.3199233115 2.211062324e-38
-0.2266352773 0.1641313583 -0.3443492055 2.211062324e-38
-0.1211486757 0.02714479528 -0.1335793883 2.211062324e-38
-0.2201817185 0.1869769394 0.07843580842 2.211062324e-38
-0.02220404148 -0.09833087027 -0.4824226797 2.211062324e-38
-0.2019326091 0.1797273904 -0.08442928642 2.211062324e-38
-0.1766361296 0.006383704953 0.2866469026 2.211062324e-38
-0.2027111948 0.1817467809 0.4110317826 2.211062324e-38
-0.0714898333 -0.05078391358 -0.4126614928 2.211062324e-38
-0.2376312166 0.2210417241 -0.1764597595 2.211062324e-38
-0.1926251501 -0.01921722665 0.1961561143 2.211062324e-38
-0.2334292084 0.2420719862 0.2534249127 2.211062324e-38
-0.09172262251 -0.0071784514 -0.3417651057 2.211062324e-38
-0.1507931799 0.1493885517 -0.287599653 2.211062324e-38
-0.1025465131 0.0002855807543 0.03548676521 2.211062324e-38
-0.1668406129 0.157676369 0.1287378669 2.211062324e-38
-0.08544284105 -0.06448358297 -0.2056543678 2.211062324e-38
-0.1668301821 0.1331007481 -0.3100471795 2.211062324e-38
-0.06586571038 0.0008969602641 0.007673338521 2.211062324e-38
-0.1343698949 0.1458137482 0.01217605546 2.211062324e-38
-0.03939833865 -0.070057787 -0.1778504848 2.211062324e-38
-0.134982124 0.0688784495 -0.2660222352 2.211062324e-38
0.03764535487 -0.00163735298 -0.06879715621 2.211062324e-38
-0.1886600405 0.1372092217 -0.1437893212 2.211062324e-38
0.02194617689 -0.04799364135 -0.01936124079 2.211062324e-38
-0.2269914001 0.06255460531 -0.06818462908 2.211062324e-38
-0.07443554699 -0.1603153497 -0.315621376 2.211062324e-38
-0.2673974633 0.1583368331 -0.06918130815 2.211062324e-38
-0.1670129448 0.07681672275 0.1424269378 2.211062324e-38
-0.1737456322 0.1912938803 0.2568820417 2.211062324e-38
0.2518856525 -0.04660936445 -0.1405766755 2.284242894e-38
0.259079963 -0.1130437404 0.04209919646 2.284242894e-38
0.2624206245 -0.09811466932 0.3034197986 2.284242894e-38
0.2683763504 0.0336782895 -0.4097219706 2.284242894e-38
0.218255952 -0.0009742003749 0.004422248341 2.284242894e-38
0.2793064415 -0.02146011405 0.1693001688 2.284242894e-38
0.2339802086 0.01840391755 0.4884993732 2.284242894e-38
0.2749961615 -0.1958592981 -0.42000404 2.284242894e-38
0.1084871739 0.001839394914 -0.3840846419 2.284242894e-38
0.2644238472 -0.12783207 -0.02092812769 2.284242894e-38
0.3098132312 0.01644610055 0.4675428569 2.284242894e-38
0.3184584081 -0.1490724981 -0.4152598977 2.284242894e-38
0.08220671862 0.01682886295 -0.3233325481 2.284242894e-38
0.2987536192 -0.04567366838 0.0205011107 2.284242894e-38
0.2507149279 -0.005739685614 0.3248448372 2.284242894e-38
0.2708899081 -0.05759632587 -0.3749752045 2.284242894e-38
0.106128715 0.01359240618 -0.1167743057 2.284242894e-38
0.2389650643 -0.00231888378 0.1352680624 2.284242894e-38
0.2700383365 0.04687384143 0.2390734255 2.284242894e-38
0.2831620276 -0.05200013518 -0.3183897138 2.284242894e-38
0.1318807006 0.02747689188 -0.09933188558 2.284242894e-38
0.2700301111 -0.0008033018676 0.07001583278 2.284242894e-38
0.1422353238 0.01724973135 0.2659711242 2.284242894e-38
0.2481460124 -0.1016269922 -0.1019819081 2.284242894e-38
0.06460254639 0.006795439404 -0.08258110285 2.284242894e-38
0.238742888 0.0003742715053 -0.2524428964 2.284242894e-38
0.1562181115 -0.01264493354 0.3732237518 2.284242894e-38
0.2406106442 -0.02437513322 -0.03894934803 2.284242894e-38
0.03799713776 -0.04962879419 0.003537468845 2.284242894e-38
0.2590482235 -0.1378569603 -0.2688737512 2.284242894e-38
0.1923365444 -0.00596123375 -0.3097984493 2.284242894e-38
0.2165101618 -0.02298356593 -0.1122572869 2.284242894e-38
0.2720033824 -0.02092428505 -0.4478194118 2.348204041e-38
0.1902045757 -0.1567396969 -0.4729156792 2.348204041e-38
-0.02330422029 -0.04873615131 -0.4885448813 2.348204041e-38
0.2630040348 -0.07919357717 -0.419113338 2.348204041e-38
0.2468412966 0.06951679289 -0.4501768947 2.348204041e-38
0.001466764952 -0.1475528032 -0.4771792293 2.348204041e-38
-0.1251697093 0.0769090578 -0.4838201404 2.348204041e-38
0.2529039979 -0.199695453 -0.4498514235 2.348204041e-38
0.2686001062 -0.08646378666 -0.4494589269 2.348204041e-38
0.2287665606 -0.170501098 -0.4868054092 2.348204041e-38
-0.08952014893 0.09847231209 -0.4675666988 2.348204041e-38
0.2932169437 -0.178690359 -0.4490295649 2.348204041e-38
0.3160828054 -0.04824989662 -0.3779440522 2.348204041e-38
0.2058588564 -0.1910556406 -0.4732515514 2.348204041e-38
-0.08716699481 0.0007730422658 -0.4846875072 2.348204041e-38
0.2576738 -0.06868417561 -0.4448396266 2.348204041e-38
0.2949530482 0.02999346144 -0.4187210798 2.348204041e-38
0.1819270849 -0.1425601989 -0.4623975158 2.348204041e-38
-0.04657187313 -0.02276185341 -0.4825440347 2.348204041e-38
0.2294008732 0.005397952627 -0.4746735096 2.348204041e-38
0.2967770696 0.03146951646 -0.40898332 2.348204041e-38
0.2007698417 -0.0762539655 -0.4610200524 2.348204041e-38
0.05269099399 0.04030159488 -0.4886320829 2.348204041e-38
0.122510612 0.0003108531237 -0.499212116 2.348204041e-38
0.2315291166 0.001781923696 -0.4735727906 2.348204041e-38
0.1714342982 -0.07809391618 -0.4982668459 2.348204041e-38
0.103214547 0.09065416455 -0.4950759113 2.348204041e-38
0.0404198505 -0.04434209317 -0.4813297093 2.348204041e-38
-0.07603000849 -0.1207410991 -0.4908900261 2.348204041e-38
0.2312999964 -0.1495120823 -0.4925951958 2.348204041e-38
0.2150465101 -0.06415398419 -0.4495506287 2.348204041e-38
0.1212763861 -0.05220345408 -0.489400208 2.348204041e-38
-0.2810007036 0.006238886155 -0.1149684712 2.347880341e-38
-0.2605618536 0.06942086667 -0.3815602064 2.347880341e-38
-0.1961427629 -0.1783159673 -0.4427149892 2.347880341e-38
-0.244652763 -0.1541243047 -0.3168736398 2.347880341e-38
-0.2496966124 -0.01840306818 -0.2727765739 2.347880341e-38
-0.2650497854 0.07295244932 -0.2504171729 2.347880341e-38
-0.26620996 -0.1297630817 -0.4111053348 2.347880341e-38
-0.2608629465 -0.1305006593 -0.1907633394 2.347880341e-38
-0.2870711088 -0.01342364214 -0.04934286699 2.347880341e-38
-0.2978761494 0.01189047657 -0.4636128545 2.347880341e-38
-0.3098981678 -0.146703124 -0.4047478139 2.347880341e-38
-0.297133714 -0.1692233086 -0.2064759284 2.347880341e-38
-0.3140907586 -0.09818013757 -0.1262370348 2.347880341e-38
-0.3056776822 0.04989362508 -0.4238731265 2.347880341e-38
-0.2469565421 -0.144598648 -0.4582973123 2.347880341e-38
-0.2594629526 -0.09795946628 -0.3542960882 2.347880341e-38
-0.2630375922 -0.01489685569 -0.1898023039 2.347880341e-38
-0.2546012402 0.03499898687 -0.3079628646 2.347880341e-38
-0.2464833707 -0.1282980889 -0.4237342477 2.347880341e-38
-0.2831224501 -0.08824364096 -0.3769597709 2.347880341e-38
-0.2432040721 -0.06824280322 -0.2447010875 2.347880341e-38
-0.2616746426 -0.0200401973 -0.2797536254 2.347880341e-38
-0.1749138683 -0.1323442757 -0.3722172976 2.347880341e-38
-0.2310541421 -0.01241657417 -0.3701232672 2.347880341e-38
-0.155014202 -0.1383814216 -0.1276352704 2.347880341e-38
-0.1850704998 -0.00939503964 -0.291647315 2.347880341e-38
-0.204262197 -0.1092115715 -0.3390861154 2.347880341e-38
