# .PCD v0.7 - Point Cloud Data file format
VERSION 0.7
FIELDS x y z rgb
SIZE 4 4 4 4
TYPE F F F F
COUNT 1 1 1 1
WIDTH 816
HEIGHT 1
VIEWPOINT 0 0 0 1 0 0 0
POINTS 816
DATA ascii
0.04822101817 -0.02262800373 0.3078013957 9.641561216e-39
0.1627351344 0.008662778884 0.01238878723 9.641561216e-39
0.2421800494 -0.01540870219 0.03347227722 9.641561216e-39
0.01891806722 -0.00678368099 0.02946788445 9.641561216e-39
0.1307537407 -0.04285655171 0.2040818185 9.641561216e-39
0.03073743731 0.01002619322 0.01419180725 9.641561216e-39
0.1550116539 -0.01691298187 0.0639552623 9.641561216e-39
0.05708469823 0.01789449714 0.01900205761 9.641561216e-39
0.05440543219 -0.02292782068 0.2692711651 9.641561216e-39
0.01064102445 0.0182225313 0.04559942335 9.641561216e-39
0.2260266989 -0.0093763927 0.04968845472 9.641561216e-39
0.07442127913 -0.02436921187 -0.02904995345 9.641561216e-39
0.06596669555 -0.008140784688 0.2045939267 9.641561216e-39
0.0343564935 -0.004590789787 0.01277752686 9.641561216e-39
0.1793875694 0.03285162151 0.02312297188 9.641561216e-39
0.01052718889 0.01213632524 -0.0250800401 1.037659831e-38
0.1344865859 0.05180515349 0.007774638012 1.037659831e-38
0.04525627568 -0.02671534196 -0.09918138385 1.037659831e-38
0.2147291005 -0.003034418449 0.07491369545 1.037659831e-38
0.0543416962 0.04601119831 -0.005166369025 1.037659831e-38
0.02026073448 0.04080798104 0.003417143365 1.037659831e-38
0.1756896675 -0.0009482202004 -0.08139173687 1.037659831e-38
0.2517750561 -0.04746054485 0.08377952874 1.037659831e-38
0.020745527 -0.001120969187 -0.06743315607 1.037659831e-38
0.1327948868 -0.0001763552427 0.04254288599 1.037659831e-38
0.08800704777 -0.0365890488 -0.0867902562 1.037659831e-38
0.1766734719 -0.05089541152 0.08881088346 1.037659831e-38
-0.008803657256 0.005840860773 -0.02695802413 1.037659831e-38
0.07022912055 -0.01709314063 0.04925459996 1.037659831e-38
0.05398418754 -0.03469251469 -0.09552633017 1.037659831e-38
0.1672270894 -0.03725048527 0.06652153283 1.037659831e-38
-0.0198470857 0.01267973147 0.01515237056 1.037659831e-38
0.05115555227 -0.015928993 0.05015251786 1.037659831e-38
0.1011047661 -0.01951086335 -0.07717968524 1.037659831e-38
0.2402059734 -0.05841067433 0.05275356025 1.037659831e-38
-0.1785116345 -0.01094845869 -0.03528573364 1.037659831e-38
0.08575038612 -0.01386120077 0.05738709122 1.037659831e-38
-0.02529594302 -0.02645992301 -0.1109620929 1.037659831e-38
0.07888990641 -0.05667196959 0.1224418357 1.037659831e-38
0.02404988557 -0.001345916768 0.04160413891 1.037659831e-38
-0.001256780932 -0.0120630227 0.04368687794 1.037659831e-38
-0.005687581841 -0.03716284037 -0.0894715488 1.037659831e-38
0.1660646051 -0.01287612692 0.1103500277 1.037659831e-38
-0.1700943261 0.04474047199 -0.06854408234 1.037659831e-38
0.2017514855 0.01792130247 0.02961912006 1.037659831e-38
-0.1676336527 -0.02036093362 -0.0500346981 1.037659831e-38
0.1201783791 -0.02890516073 0.04767068475 1.037659831e-38
0.1657890975 -0.03257287294 -0.4066307545 1.111163541e-38
0.1854113042 -0.01832089387 -0.2680303454 1.111163541e-38
0.193175301 -0.04395785928 -0.2938499153 1.111163541e-38
0.07985632122 0.01548219472 -0.03363280743 1.111163541e-38
0.1773328483 -0.008689221926 -0.3751898706 1.111163541e-38
0.1891411096 -0.04060220346 -0.2977842987 1.111163541e-38
0.2274737209 -0.04121682793 -0.1767850816 1.111163541e-38
-0.05171052366 -0.01855831593 -0.07042019069 1.111163541e-38
0.06001569331 -0.02324414253 -0.4343453348 1.111163541e-38
0.05106136575 -0.02770847641 -0.331782043 1.111163541e-38
0.1483204365 -0.04770810157 -0.2395946383 1.111163541e-38
0.01383250672 -0.04970598966 -0.06952705979 1.111163541e-38
0.03233774006 -0.01259456296 -0.3948140144 1.111163541e-38
0.03092205897 -0.02477554418 -0.2985072136 1.111163541e-38
0.08351460099 -0.031444408 -0.2775371075 1.111163541e-38
0.03862157091 -0.03693316504 -0.05337006971 1.111163541e-38
0.02772638947 -0.01679865271 -0.3555371761 1.111163541e-38
0.02335129492 -0.01757428795 -0.2502630055 1.111163541e-38
0.1708130091 -0.05324494839 -0.1626988053 1.111163541e-38
-0.2038492113 -0.06143463403 -0.04747404531 1.111163541e-38
-0.01814220473 -0.03867894411 -0.3542846739 1.111163541e-38
0.01338362135 -0.02361739054 -0.2719347775 1.111163541e-38
0.04086631909 -0.02729320526 -0.2127321213 1.111163541e-38
0.03501366824 -0.02986532822 -0.1518778056 1.111163541e-38
0.03163570538 -0.02248094603 -0.2684479654 1.111163541e-38
0.04309169948 -0.04359354451 -0.1878451407 1.111163541e-38
0.1017641723 -0.02345758863 -0.1231028214 1.111163541e-38
-0.04351653531 -0.03116730414 -0.1118869483 1.111163541e-38
0.02511793561 -0.1054543257 -0.1774189174 1.111163541e-38
-0.06258427352 0.006831279024 -0.09744511545 1.111163541e-38
0.0712903291 -0.02113216929 -0.09063505381 1.111163541e-38
-0.136460647 -0.05269498378 -0.08730453253 1.111163541e-38
-0.3152492642 -0.0139092179 -0.002771415282 1.184631237e-38
0.1253056973 -0.05551691726 0.04093096778 1.184631237e-38
-0.3410544991 0.004577276763 0.04884561896 1.184631237e-38
0.2872594595 -0.06727288663 -0.04361815378 1.184631237e-38
-0.009118602611 -0.02902342193 -0.006340943743 1.184631237e-38
0.1902754605 -0.06002990156 0.06413390487 1.184631237e-38
-0.3145335615 -0.00970529858 0.1389373094 1.184631237e-38
0.005586506333 -0.06013401225 -0.06063505262 1.184631237e-38
-0.2079982311 -0.0242371764 0.06172563881 1.184631237e-38
-0.1884776652 -0.04208610579 0.03533380851 1.184631237e-38
-0.2950252891 -0.01582517289 0.09670248628 1.184631237e-38
0.08372565359 -0.08509913087 -0.03384624049 1.184631237e-38
-0.2432103902 -0.04350661859 -0.03386610746 1.184631237e-38
-0.1182224452 -0.04551173374 0.04082009569 1.184631237e-38
-0.3012222052 -0.01711574011 0.06303592771 1.184631237e-38
0.1094473004 -0.08024789393 -0.04130972549 1.184631237e-38
-0.1955822557 -0.06266225874 -0.03780742735 1.184631237e-38
-0.1147197261 -0.0270963423 0.04524127021 1.184631237e-38
-0.2968853116 -0.01250219811 0.1452176571 1.184631237e-38
-0.02102416195 -0.07209849358 -0.04998364672 1.184631237e-38
-0.2371736318 -0.05034279078 -0.0137192104 1.184631237e-38
-0.1518942565 -0.03857078031 0.02937368676 1.184631237e-38
-0.205836013 -0.007251075935 -0.06881733239 1.184631237e-38
0.1489490718 -0.06813046336 -0.01387235522 1.184631237e-38
-0.08285184205 -0.02429037169 0.002317413222 1.184631237e-38
-0.01874248311 -0.02216286026 0.002385868924 1.184631237e-38
-0.1650869995 0.00193765515 0.007037132513 1.184631237e-38
0.006999318954 0.04788832366 -0.02360138483 1.184631237e-38
-0.207582891 -0.01390471868 0.05079642311 1.184631237e-38
-0.1267676353 0.02059715241 0.008125860244 1.184631237e-38
-0.2260030657 -0.02101305686 -0.08003771305 1.184631237e-38
-0.06215997785 0.0117131779 -0.04957106709 1.184631237e-38
0.1626200825 -0.03298405185 0.3056311607 1.258099074e-38
0.2441035211 -0.02023317106 0.1817396879 1.258099074e-38
0.09524803609 -0.04260371253 0.1994802207 1.258099074e-38
0.1708262116 -0.003083345946 0.3727341592 1.258099074e-38
0.2052477747 -0.03267494217 0.3304757178 1.258099074e-38
0.1717131287 -0.01272636466 0.1920639575 1.258099074e-38
0.04237055033 -0.02839640528 0.0969331935 1.258099074e-38
0.0584529005 -0.04230051488 0.2965759039 1.258099074e-38
0.1052246615 -0.04795053229 0.1701060832 1.258099074e-38
0.2073670924 -0.03038464673 0.1959730387 1.258099074e-38
0.002598942956 -0.06440787762 0.1723641008 1.258099074e-38
0.07460064441 -0.04233445972 0.3719337881 1.258099074e-38
0.07547184825 -0.04951771349 0.2288746685 1.258099074e-38
0.1566781104 -0.03648085147 0.1775556803 1.258099074e-38
0.002602169057 -0.03755804151 0.2216587961 1.258099074e-38
0.07714986801 -0.02534843981 0.387478292 1.258099074e-38
0.03621155024 -0.03351441398 0.2925282121 1.258099074e-38
0.11879614 -0.01180985756 0.1453542709 1.258099074e-38
-0.0008781624492 -0.04401699454 0.1413438171 1.258099074e-38
0.0380968675 -0.06903272122 0.2009701282 1.258099074e-38
0.05217172578 -0.06312755495 0.1407683343 1.258099074e-38
0.1707248241 -0.04662750289 0.1623248458 1.258099074e-38
0.004761563148 -0.05297483876 0.1899421811 1.258099074e-38
0.1041107252 -0.02832459472 0.2269201279 1.258099074e-38
0.1061387509 -0.04191102833 0.2151398659 1.258099074e-38
0.1375637054 -0.03058966063 0.1388853639 1.258099074e-38
0.02070066333 -0.02400706522 0.09373998642 1.258099074e-38
0.07825741917 -0.01552537456 0.146195069 1.258099074e-38
0.0009136197623 -0.03168909624 0.05668665469 1.258099074e-38
0.1725784391 -0.028977504 0.07210159302 1.258099074e-38
0.01905223355 -0.04297951609 0.04961209372 1.258099074e-38
0.03270427883 -0.05818545818 0.05823244154 1.258099074e-38
0.1272405833 -0.06049363315 -0.1557363421 1.331530897e-38
0.2486985475 -0.07849334925 0.07299211621 1.331530897e-38
0.1254924089 -0.04369458184 0.05385205895 1.331530897e-38
0.3003794551 -0.09447642416 -0.01404390577 1.331530897e-38
0.2329229861 -0.05055129901 -0.1591542661 1.331530897e-38
0.1418346614 -0.0623909533 0.09491163492 1.331530897e-38
-0.01209393796 -0.02843693458 0.04471950233 1.331530897e-38
0.3109597564 -0.08271282166 0.0452452749 1.331530897e-38
0.04910692945 -0.05204972625 -0.1654547006 1.331530897e-38
0.2500674725 -0.05095155537 0.116580002 1.331530897e-38
-0.004695030861 -0.03966782242 0.08146128803 1.331530897e-38
0.3074402511 -0.08541282266 0.01993715204 1.331530897e-38
0.09883649647 -0.05415527523 -0.1808051616 1.331530897e-38
0.1740879118 -0.07094651461 0.05929240584 1.331530897e-38
0.03711648285 -0.02615561523 0.09176760912 1.331530897e-38
0.295655489 -0.07668422908 -0.0007709188503 1.331530897e-38
0.1003305689 -0.04931920022 -0.1721657217 1.331530897e-38
0.133184284 -0.05817437172 0.05356681719 1.331530897e-38
-0.01916912757 -0.03275509551 0.05686840415 1.331530897e-38
0.3354135752 -0.08808542043 0.01296893787 1.331530897e-38
0.04088195041 -0.06011544541 -0.1538554877 1.331530897e-38
0.2160883397 -0.07082271576 0.0254121609 1.331530897e-38
0.03378111124 -0.0239682924 0.1480241716 1.331530897e-38
0.2283002883 -0.05780408159 -0.003358157817 1.331530897e-38
0.205149278 -0.0431057252 -0.1257841438 1.331530897e-38
0.143271476 -0.05354852602 0.04146633297 1.331530897e-38
-0.04998818785 -0.008747056127 0.06940353662 1.331530897e-38
0.2795521021 -0.04294024408 0.02755876817 1.331530897e-38
0.004212123808 -0.05964463949 -0.03167898953 1.331530897e-38
0.220038265 -0.04902620986 0.06064818427 1.331530897e-38
-0.01841895655 -0.02654591762 0.02257619053 1.331530897e-38
0.218523398 -0.07945871353 -0.01548125595 1.331530897e-38
0.1208926141 -0.03188894317 -0.3845324814 1.404926846e-38
0.1204299107 -0.03417914733 -0.3817318082 1.404926846e-38
0.1731179208 -0.04021288455 -0.2873713076 1.404926846e-38
0.1642127633 -0.01389624272 -0.4201317132 1.404926846e-38
0.1562033147 -0.03907893226 -0.3371286094 1.404926846e-38
0.1765398234 -0.01035775151 -0.3647373915 1.404926846e-38
0.2122192681 -0.03009149805 -0.1911367923 1.404926846e-38
0.1260335296 -0.02004672587 -0.4895513654 1.404926846e-38
0.1349805146 -0.03052634001 -0.3606157601 1.404926846e-38
0.0971493572 -0.01773910038 -0.3830939233 1.404926846e-38
0.1018749401 -0.04438531771 -0.2196045071 1.404926846e-38
0.06026277319 -0.02906608582 -0.4783382416 1.404926846e-38
0.1194479838 -0.03864276409 -0.2882171273 1.404926846e-38
0.07835623622 -0.02297423221 -0.3506780863 1.404926846e-38
0.04283292219 -0.0384735018 -0.2145726532 1.404926846e-38
0.01582130603 -0.02768562362 -0.4554454982 1.404926846e-38
0.09145648777 -0.03362252191 -0.2519405484 1.404926846e-38
0.01751110516 -0.01961267553 -0.3017690778 1.404926846e-38
0.09094335139 -0.04326711595 -0.1709459573 1.404926846e-38
0.01462792605 -0.03693662956 -0.4456869364 1.404926846e-38
0.06154821813 -0.05362896249 -0.2243073434 1.404926846e-38
0.01694162562 -0.03118901327 -0.3001286983 1.404926846e-38
0.02921377867 -0.02824612521 -0.1718162447 1.404926846e-38
0.04706252739 -0.03032032773 -0.2986484468 1.404926846e-38
0.1520949304 -0.03493348882 -0.2272114903 1.404926846e-38
0.05259048194 -0.03201378882 -0.2351857126 1.404926846e-38
0.008680230007 -0.02365419269 -0.1378788501 1.404926846e-38
0.1951396614 -0.03015985526 -0.2499690652 1.404926846e-38
0.03849643096 -0.07064766437 -0.1021044329 1.404926846e-38
-0.04615339637 -0.05409437418 -0.1970519274 1.404926846e-38
-0.03028972447 -0.04649088904 -0.07961446792 1.404926846e-38
-0.07448717952 -0.05769373104 -0.08458502591 1.404926846e-38
0.1952254176 -0.02176154219 -0.2377905995 1.478322936e-38
0.077195324 -0.03784548491 -0.0744349584 1.478322936e-38
0.1868465245 -0.07054305077 -0.09901852906 1.478322936e-38
0.1032114774 -0.02545610629 -0.1220646203 1.478322936e-38
0.1336741447 0.02952553891 -0.2560202777 1.478322936e-38
0.1421369314 -0.04626489431 -0.04893468693 1.478322936e-38
0.2992271185 -0.0486270003 -0.05405999348 1.478322936e-38
0.2109091133 -0.05168134347 -0.1454552412 1.478322936e-38
0.1304831803 -0.05186707154 -0.1653866917 1.478322936e-38
-0.01159127336 -0.05143146217 -0.05355321243 1.478322936e-38
0.2139331847 -0.05489724502 -0.06311744452 1.478322936e-38
0.1460697949 -0.04484300315 -0.1086761206 1.478322936e-38
0.06047566235 -0.01665279455 -0.1764458567 1.478322936e-38
-0.02587351762 -0.04036715999 -0.04623768106 1.478322936e-38
0.1624270231 -0.05669787526 -0.08517314494 1.478322936e-38
0.06890660524 -0.01260219887 -0.08675544709 1.478322936e-38
0.0148920957 -0.02467926778 -0.2010314465 1.478322936e-38
-0.03904439881 -0.03105904721 -0.04280217737 1.478322936e-38
0.2552666664 -0.04648959637 -0.04712146521 1.478322936e-38
0.08564058691 -0.04911795631 -0.07391645014 1.478322936e-38
0.0483950153 -0.04074405879 -0.1403794736 1.478322936e-38
-0.06285236031 -0.03693024069 -0.04395534098 1.478322936e-38
0.1467324197 -0.04109318182 -0.0599061586 1.478322936e-38
0.1283326 -0.009917761199 -0.03468840197 1.478322936e-38
0.0486865826 -0.007445927709 -0.2075427771 1.478322936e-38
0.01189265214 -0.0383653678 -0.04598307982 1.478322936e-38
0.2289568335 -0.01832046919 -0.03387230635 1.478322936e-38
0.09694217145 -0.02083737403 -0.04356087744 1.478322936e-38
0.08504091948 0.02071727067 -0.1301549077 1.478322936e-38
-0.01492049824 -0.02639407665 -0.07683451474 1.478322936e-38
0.1144358814 0.01662787236 -0.01537928917 1.478322936e-38
-0.01468537934 0.01243177801 -0.06191196665 1.478322936e-38
0.1238650456 -0.05287124589 0.07632753253 1.551683013e-38
-0.3630969822 -0.01079645567 0.1079431549 1.551683013e-38
-0.206272319 -0.008023916744 -0.002079886151 1.551683013e-38
-0.3319614828 0.0112209823 -0.1471638978 1.551683013e-38
0.2041673809 -0.06042772904 0.1288003474 1.551683013e-38
-0.2396340519 0.007565435953 0.06095993519 1.551683013e-38
0.05604182556 0.001699520508 0.04343438148 1.551683013e-38
-0.2578274608 0.001478708233 -0.08093797415 1.551683013e-38
0.05675842986 -0.03142488748 -0.07328658551 1.551683013e-38
-0.3458276391 0.01283571403 0.0307246279 1.551683013e-38
-0.04280951619 -0.0116814943 0.04120745882 1.551683013e-38
-0.2761506736 0.003718001302 -0.1046833768 1.551683013e-38
0.06109888107 -0.04987706617 -0.01162191294 1.551683013e-38
-0.2787463367 0.004121645354 0.006655401085 1.551683013e-38
-0.1095550582 -0.007308107335 0.03863931075 1.551683013e-38
-0.3166162074 0.01690733992 -0.1133748218 1.551683013e-38
0.09905084223 -0.03641043976 0.03995697573 1.551683013e-38
-0.2220520675 -0.004428938963 0.004101581406 1.551683013e-38
-0.008625397459 -0.005442088936 0.04797945544 1.551683013e-38
-0.3168781996 -0.01647233963 -0.0667720139 1.551683013e-38
0.0513574928 -0.04613526911 0.003805242712 1.551683013e-38
-0.3292465508 0.01422661636 0.0182063058 1.551683013e-38
-0.1563858539 -0.01406713948 0.06002729759 1.551683013e-38
-0.291729629 -0.01173400693 -0.06078819185 1.551683013e-38
0.08053296804 -0.004969064146 0.02493507601 1.551683013e-38
-0.1865764558 0.0138198724 -0.0002714954317 1.551683013e-38
0.02647761442 0.006577612832 0.05672772229 1.551683013e-38
-0.1930449903 -0.01687517017 0.07800363004 1.551683013e-38
-0.02623819932 -0.03804083914 -0.01861952059 1.551683013e-38
-0.1736535877 0.07094750553 0.02342621982 1.551683013e-38
-0.202992335 -0.004826426506 -0.02659774385 1.551683013e-38
-0.1874114871 0.03472661227 -0.01909607276 1.551683013e-38
-0.361140579 0.003178854007 -0.1297864914 1.625043089e-38
-0.3540689945 -0.01624417119 -0.09500776231 1.625043089e-38
-0.3886112869 -0.02465175837 0.0173864048 1.625043089e-38
-0.3477421999 0.1072976664 0.008667140268 1.625043089e-38
-0.2370187491 0.02106656879 -0.1458621919 1.625043089e-38
-0.3392063975 -0.009207000025 -0.04645820335 1.625043089e-38
-0.3742308617 -0.01735031046 0.08226241916 1.625043089e-38
-0.2211228609 -0.0227884613 0.003553308547 1.625043089e-38
-0.3449065685 -0.02874880284 -0.01065371092 1.625043089e-38
-0.2702450454 0.05773922801 0.002905688481 1.625043089e-38
-0.3332305253 -0.02207407169 0.03724091873 1.625043089e-38
-0.2780266404 0.0844456628 -0.002249214798 1.625043089e-38
-0.3373127282 -0.0180960279 -0.01553181093 1.625043089e-38
-0.2802203596 0.02684631199 -0.003666242817 1.625043089e-38
-0.2985859215 -0.03678542003 -0.004404106643 1.625043089e-38
-0.2965348661 0.08686796576 -0.003365645418 1.625043089e-38
-0.3253031075 -0.01518926211 -0.0198155921 1.625043089e-38
-0.3066880703 0.02107753232 -0.002679080702 1.625043089e-38
-0.3382428885 -0.02447107993 0.05158763379 1.625043089e-38
-0.3017119169 0.02097872831 -0.002879134845 1.625043089e-38
-0.3404617608 -0.03540220112 -0.01104228012 1.625043089e-38
-0.2637960315 0.02840304002 -0.004704410676 1.625043089e-38
-0.1675182879 -0.01239979453 -0.1307681799 1.625043089e-38
-0.2089981735 -0.01989546418 -0.03195447102 1.625043089e-38
-0.1963829845 -0.02666322142 -0.1284743696 1.625043089e-38
-0.2889848053 -0.005020389799 -0.07757939398 1.625043089e-38
-0.2064402103 -0.03151962534 -0.08903966844 1.625043089e-38
-0.136114195 -0.03713547811 -0.1095085666 1.625043089e-38
-0.2072487175 -0.05854902789 -0.035195373 1.625043089e-38
-0.2061809301 -0.009149463847 0.007212312426 1.625043089e-38
-0.155232951 -0.02487279288 -0.03056550585 1.625043089e-38
-0.2526055276 -0.0002810359001 -0.01875824668 1.625043089e-38
0.197031036 -0.06443451345 -0.1277897954 1.698367293e-38
0.07994229347 -0.01870534383 -0.2475357652 1.698367293e-38
0.2511595786 -0.09476748854 0.004966367036 1.698367293e-38
0.1884298772 -0.02469466254 -0.3604210615 1.698367293e-38
0.0790329501 -0.05248382315 -0.196728617 1.698367293e-38
0.2010293454 -0.05312112346 -0.1700153947 1.698367293e-38
0.1120145693 -0.03291972727 0.1604936719 1.698367293e-38
0.182390362 -0.01647258736 -0.1865689456 1.698367293e-38
0.1820120811 -0.04082683101 -0.291428566 1.698367293e-38
0.04034713283 -0.02317183651 -0.2305898517 1.698367293e-38
0.1061975434 -0.03790877387 0.1185890287 1.698367293e-38
0.1382648051 -0.03269740194 -0.3268103898 1.698367293e-38
0.106127359 -0.04320447892 -0.2406885028 1.698367293e-38
0.01409803797 -0.04106295109 -0.1954113096 1.698367293e-38
0.08952411264 -0.02918303758 0.0830411762 1.698367293e-38
0.1003287882 -0.02348564379 -0.3668929338 1.698367293e-38
0.01033047307 -0.03151946515 -0.1694642603 1.698367293e-38
0.001792354509 -0.03744214401 -0.1511493325 1.698367293e-38
0.06225272641 -0.03556583077 0.1491805017 1.698367293e-38
0.05034415796 -0.05681469664 -0.3041328788 1.698367293e-38
0.1263601631 -0.04806087911 -0.2056222856 1.698367293e-38
-0.005420214497 -0.04185243696 -0.1991909742 1.698367293e-38
0.05366870761 -0.0536484085 0.002343084197 1.698367293e-38
0.05774373561 -0.0333747901 -0.3047902882 1.698367293e-38
0.00770862028 -0.02655675262 -0.1931911111 1.698367293e-38
0.09957624227 -0.03304543719 -0.1457978785 1.698367293e-38
-0.01044347137 -0.01069523022 0.03852101043 1.698367293e-38
0.1449514478 -0.03128626198 -0.1267154068 1.698367293e-38
0.09073454142 -0.02035091817 -0.04439610615 1.698367293e-38
-0.1241459027 0.0003076065332 -0.01747851819 1.698367293e-38
0.1066111475 -0.04740546271 -0.01158272102 1.698367293e-38
-0.1079063863 -0.007498137653 -0.02693928033 1.698367293e-38
0.1708442569 -0.0491694212 0.2540405095 1.771655483e-38
0.15892075 -0.06005639583 0.1514077783 1.771655483e-38
0.2703449726 -0.08610604703 -0.02116826549 1.771655483e-38
0.230362922 -0.06354658306 0.07385776937 1.771655483e-38
0.1716676801 -0.04347856715 0.3015454412 1.771655483e-38
0.09534646571 -0.05811081827 0.3064054251 1.771655483e-38
0.3573836982 -0.06658288091 -0.03510173038 1.771655483e-38
0.2605380416 -0.04408755526 0.1041350886 1.771655483e-38
0.20053716 -0.03891931474 0.1965947598 1.771655483e-38
0.117784515 -0.0598137565 0.101379931 1.771655483e-38
0.260520637 -0.07446350157 -0.04108778015 1.771655483e-38
0.1498323679 -0.04116605222 0.1399725378 1.771655483e-38
0.1401362866 -0.03557924554 0.2424447387 1.771655483e-38
0.03556629643 -0.02887072228 0.205079779 1.771655483e-38
0.1966155916 -0.05767492577 -0.03499923274 1.771655483e-38
0.05306761339 -0.0488925986 0.104637593 1.771655483e-38
0.08403483778 -0.02923830785 0.2963385284 1.771655483e-38
0.009358937852 -0.02685584873 0.233679533 1.771655483e-38
0.2965939641 -0.07098380476 -0.04142064601 1.771655483e-38
0.1321107596 -0.07758076489 0.06796268374 1.771655483e-38
0.1405553967 -0.04556738958 0.1758932471 1.771655483e-38
0.04486852139 -0.04561951011 0.08326471597 1.771655483e-38
0.170739904 -0.05154927447 -0.009010205045 1.771655483e-38
0.01937957294 -0.03648800403 0.1401932687 1.771655483e-38
0.1428114772 -0.01801345125 0.273781091 1.771655483e-38
0.05792640522 -0.02923805453 0.23668091 1.771655483e-38
0.1756979227 -0.0331030637 0.03499818593 1.771655483e-38
0.2290658355 -0.06582310051 0.1008795947 1.771655483e-38
0.1523312628 -0.0550731048 0.1594765186 1.771655483e-38
0.1499268413 -0.05878504366 -0.09383071214 1.771655483e-38
0.1488075405 -0.02209787816 0.01119555347 1.771655483e-38
0.1530490369 -0.05964679271 0.04724787548 1.771655483e-38
-0.3511130512 0.05155010149 -0.003371762345 1.844943813e-38
-0.292968303 -0.03096138313 -0.008295897394 1.844943813e-38
-0.3508521616 0.007713276427 0.004085696768 1.844943813e-38
-0.06852392852 -0.05251883715 -0.04263941944 1.844943813e-38
-0.3257897794 0.08071233332 0.006286284886 1.844943813e-38
-0.1694658101 -0.02526190504 -0.03737872466 1.844943813e-38
-0.3730431795 0.02293313481 0.01089132018 1.844943813e-38
-0.1437346041 -0.06958653033 -0.04111872241 1.844943813e-38
-0.3265173733 0.07695987821 0.01135108247 1.844943813e-38
-0.2865719199 -0.02489348128 -0.03495515883 1.844943813e-38
-0.2905409336 0.01479984075 0.009503078647 1.844943813e-38
-0.05063850805 -0.06593048573 -0.03786899522 1.844943813e-38
-0.3152422309 0.07832082361 0.004412443843 1.844943813e-38
-0.2310745269 -0.02852257155 -0.03677642345 1.844943813e-38
-0.2548275888 0.0249050688 0.004054166377 1.844943813e-38
-0.04257472977 -0.05974014848 -0.0355146192 1.844943813e-38
-0.3241987228 0.08044668287 0.002305279952 1.844943813e-38
-0.1535405666 -0.01973078586 -0.05232258886 1.844943813e-38
-0.3093732595 0.02661430277 0.009531596676 1.844943813e-38
-0.1570149958 -0.06671394408 -0.03306149691 1.844943813e-38
-0.3177624345 0.0840812698 0.006000744645 1.844943813e-38
-0.263150245 -0.03963578865 -0.03593075275 1.844943813e-38
-0.171250239 -0.01227881107 0.02147843316 1.844943813e-38
-0.05826372653 -0.0407875888 -0.03444926068 1.844943813e-38
-0.2763301432 0.02010649629 0.002865813207 1.844943813e-38
-0.1398263276 -0.02613851614 -0.04783912748 1.844943813e-38
-0.1894129813 -0.01122408919 0.06288832426 1.844943813e-38
-0.133362785 -0.04363670945 0.04040091485 1.844943813e-38
-0.2265633345 0.02942650393 -2.86847353e-05 1.844943813e-38
-0.1478473544 -0.08433965594 -0.05673542246 1.844943813e-38
-0.2136637866 0.01557671931 -0.01355879381 1.844943813e-38
-0.1281264126 -0.03976258636 -0.03453136608 1.844943813e-38
0.1075103804 -0.01086672116 0.3540471792 1.91819627e-38
0.2853920758 0.02437832579 0.04639194533 1.91819627e-38
0.1546156704 -0.02764617093 0.3404656351 1.91819627e-38
0.3312083483 0.01447624154 0.03115878813 1.91819627e-38
0.0830418393 0.0120698167 0.283308208 1.91819627e-38
0.1684460491 0.02766103856 -0.01074144617 1.91819627e-38
0.1780584753 -0.0335599184 0.2491195798 1.91819627e-38
0.3121599257 -0.02547340281 0.01016955823 1.91819627e-38
0.1327735335 -0.02388552018 0.2665291727 1.91819627e-38
0.2264531404 0.002914957004 -0.03945855051 1.91819627e-38
0.1123844981 -0.04208140448 0.2588163018 1.91819627e-38
0.2582275569 -0.03557373956 0.01403236669 1.91819627e-38
0.08260226995 -0.0372903645 0.2633838058 1.91819627e-38
0.1507389098 -0.00921844691 -0.05331984535 1.91819627e-38
0.05347460508 -0.03875661641 0.2544901967 1.91819627e-38
0.2567897737 -0.008062575012 0.00190575188 1.91819627e-38
0.05662152916 -0.03188070282 0.2411477417 1.91819627e-38
0.1059664711 0.002049637027 -0.05666123331 1.91819627e-38
0.1307262033 -0.0391962491 0.2197398245 1.91819627e-38
0.3121785223 -0.02616463788 0.007987538353 1.91819627e-38
0.09999021888 -0.03772430122 0.1313266307 1.91819627e-38
0.1826239973 -0.01247722749 -0.03579274565 1.91819627e-38
0.02270494588 -0.06235851347 0.2082703114 1.91819627e-38
0.2226795107 0.001724301022 0.05811966211 1.91819627e-38
0.07896491885 0.006506291684 0.09060180932 1.91819627e-38
0.07172571868 0.01415381674 -0.02645493485 1.91819627e-38
0.06935101748 0.0212190263 0.1547493488 1.91819627e-38
0.257746011 -0.04645483941 0.02325660735 1.91819627e-38
0.09121466428 -0.02048204467 0.05149171129 1.91819627e-38
0.1688189209 0.008541525342 -0.03310787305 1.91819627e-38
0.005686266348 -0.01289099548 0.09739921242 1.91819627e-38
0.2342660874 -0.0229854621 -0.03259878606 1.91819627e-38
0.1338219494 -0.05702358857 -0.07833172381 1.991448586e-38
0.3396578133 -0.07981304824 0.01338791568 1.991448586e-38
0.1863181591 -0.08146484196 0.05173517019 1.991448586e-38
0.2720687389 -0.06494388729 0.1176168323 1.991448586e-38
0.1056214273 -0.08434869349 -0.07755272835 1.991448586e-38
0.2003753781 -0.04942628369 0.05365597084 1.991448586e-38
0.05349932238 -0.06858918816 0.06496675313 1.991448586e-38
0.2435630411 -0.03522595763 0.1283331513 1.991448586e-38
0.2260310352 -0.04601336643 -0.08411730826 1.991448586e-38
0.2834112048 -0.06776437163 0.03173968941 1.991448586e-38
0.06511890888 -0.05586378276 0.1123795658 1.991448586e-38
0.1682859808 -0.03889242932 0.1232794598 1.991448586e-38
0.1462814659 -0.05742633343 -0.1005840003 1.991448586e-38
0.2160681039 -0.07910043746 0.02893606201 1.991448586e-38
0.09139968455 -0.04574320093 0.1203055084 1.991448586e-38
0.1513404995 -0.02241495252 0.0991333127 1.991448586e-38
0.1066126227 -0.03716848791 -0.106435433 1.991448586e-38
0.1589909941 -0.06458073854 0.05094124004 1.991448586e-38
0.04076193273 -0.05251760781 0.1105422452 1.991448586e-38
0.2683280706 -0.03696710616 0.05060963705 1.991448586e-38
0.1702351123 -0.08157080412 -0.07145569474 1.991448586e-38
0.2650581598 -0.08664283156 0.01635523327 1.991448586e-38
0.1087729037 -0.03028356098 0.1679036021 1.991448586e-38
0.1927070767 -0.03396399319 0.09277585149 1.991448586e-38
0.1418814063 -0.0332881026 -0.0538598448 1.991448586e-38
0.140116632 -0.04517200589 0.06389762461 1.991448586e-38
0.07896410674 -0.008303469978 0.1037079394 1.991448586e-38
0.2638643086 -0.03429649398 0.009103367105 1.991448586e-38
0.1984252483 -0.04885394126 -0.01586257294 1.991448586e-38
0.2140752673 -0.04602660984 0.03677029163 1.991448586e-38
0.1907847226 -0.04914636165 -0.024249902 1.991448586e-38
0.2414776981 -0.0553856343 0.049579449 1.991448586e-38
0.2949466407 -0.01702608354 -0.04828248546 2.06466517e-38
0.1855765134 -0.02363316156 -0.2098806798 2.06466517e-38
0.3934161961 -0.05622912943 -0.02720463835 2.06466517e-38
0.0784920007 -0.0295476187 -0.3657641411 2.06466517e-38
0.1933850199 -0.01100703608 -0.04745772108 2.06466517e-38
0.08974781632 -0.02100651152 -0.2638890445 2.06466517e-38
0.3536815643 -0.04382756725 0.03494524583 2.06466517e-38
0.1354632825 -0.03097578511 -0.2572086453 2.06466517e-38
0.2399453074 0.001306220191 -0.02391829714 2.06466517e-38
0.2051933855 -0.02675933018 -0.1494590938 2.06466517e-38
0.3360719383 -0.07419100404 -0.009363273159 2.06466517e-38
0.0715797022 -0.04271756113 -0.3430950642 2.06466517e-38
0.1380081773 -0.002915012883 -0.02889831178 2.06466517e-38
0.1059372276 -0.03981086984 -0.1426020563 2.06466517e-38
0.3140977025 -0.06244881824 -0.02662333474 2.06466517e-38
0.04648213834 -0.0212036185 -0.3671501875 2.06466517e-38
0.1093735024 0.007509846706 -0.03048756346 2.06466517e-38
-0.008905935101 -0.009078547359 -0.1422122717 2.06466517e-38
0.3574841022 -0.0650722757 0.004691327922 2.06466517e-38
0.07602402568 -0.0374387987 -0.2527440488 2.06466517e-38
0.2104814649 -0.01444265433 -0.02343523502 2.06466517e-38
0.1994921118 -0.02898192592 -0.1157957688 2.06466517e-38
0.259411335 -0.02971990407 -0.05282893404 2.06466517e-38
0.03383523226 -0.03765515611 -0.3091197908 2.06466517e-38
0.09852904081 0.01592243277 -0.03859955072 2.06466517e-38
0.1133118793 -0.03027040884 -0.1610478461 2.06466517e-38
0.2656008005 -0.01645050012 -0.0280590225 2.06466517e-38
0.1418781281 -0.04598843306 -0.1940737516 2.06466517e-38
0.1754453033 -0.03089891002 0.01032279991 2.06466517e-38
0.177241385 -0.03655433655 -0.09687713534 2.06466517e-38
0.2373266965 -0.04400654882 -0.03943612054 2.06466517e-38
0.02592252381 -0.001153535675 -0.06491198391 2.06466517e-38
-0.1886152923 -0.008793366142 -0.02625925839 2.137881613e-38
0.1269809157 0.00423545856 0.06659336388 2.137881613e-38
-0.3224677742 0.05705362931 0.01176371891 2.137881613e-38
0.2245909125 -0.01703216881 -0.1193559468 2.137881613e-38
0.1025778353 0.03035480529 0.004761436488 2.137881613e-38
0.1316038519 0.01869889721 -0.02725375071 2.137881613e-38
-0.299115479 -0.01039523445 0.004907032009 2.137881613e-38
0.1002596468 -0.01194593124 -0.04351728037 2.137881613e-38
-0.1454439014 -0.01130697411 0.01839238405 2.137881613e-38
0.1185217127 -0.05510495603 0.1870060861 2.137881613e-38
-0.2746388912 -0.006317002699 0.00545248948 2.137881613e-38
0.04908164218 -0.03905834258 -0.1345903724 2.137881613e-38
-0.02256370336 0.002132427413 0.002909350442 2.137881613e-38
0.1132794991 -0.04705736041 0.1080894172 2.137881613e-38
-0.2375880033 -0.00284644193 0.01061257161 2.137881613e-38
0.01160200033 -0.05008102953 -0.148992911 2.137881613e-38
0.03358760104 0.01448287163 0.01000082679 2.137881613e-38
0.06148494408 0.01144299656 0.02165314928 2.137881613e-38
-0.3119704127 0.04274892062 0.005424416624 2.137881613e-38
0.006310125813 -0.05441291258 -0.08190618455 2.137881613e-38
-0.117870912 -0.01401392277 0.01782430336 2.137881613e-38
0.08297728002 -0.04832473397 0.1552818865 2.137881613e-38
-0.06817192584 -0.04499118403 0.109199807 2.137881613e-38
0.08852165937 -0.05500013381 -0.1196329445 2.137881613e-38
0.07027283311 -0.01891344227 -0.02030670084 2.137881613e-38
-0.09695851058 -0.02604942583 0.008491764776 2.137881613e-38
-0.1574385762 -0.06588061154 0.05768067762 2.137881613e-38
-0.04713083804 -0.01542365458 -0.0660192892 2.137881613e-38
-0.008771119639 -0.01778483577 -0.01134945545 2.137881613e-38
-0.1729083061 0.06279619783 0.001056179055 2.137881613e-38
-0.184199512 0.006853302009 0.06314174086 2.137881613e-38
0.06967855245 -0.01533099078 -0.01218398754 2.137881613e-38
0.03256043419 0.008619199507 0.04566446319 2.211062324e-38
0.01485713013 0.01093607768 0.04089068621 2.211062324e-38
0.1629807651 -0.006321927067 -0.06115569919 2.211062324e-38
-0.1922905743 -0.02317445725 0.02764052525 2.211062324e-38
0.1191499084 0.03624775633 0.04040601477 2.211062324e-38
0.03625688702 -0.01383542642 0.04268087447 2.211062324e-38
0.2723900974 -0.04070573673 -0.09895285219 2.211062324e-38
-0.1886420697 -0.00435272092 0.04611356929 2.211062324e-38
0.1749312431 -0.009535649791 0.04228746891 2.211062324e-38
-0.177395612 -0.03169446066 0.04152381048 2.211062324e-38
0.1806559116 -0.04811116308 -0.08568057418 2.211062324e-38
-0.2286843508 -0.0008219925803 0.02234686352 2.211062324e-38
0.1050285995 -0.01077115629 0.04332426935 2.211062324e-38
-0.1369529665 -0.03266036883 0.04219346493 2.211062324e-38
0.1249244213 -0.02333969623 -0.07680574059 2.211062324e-38
-0.2740671337 0.0248956345 8.741766214e-05 2.211062324e-38
0.05822011828 -0.00101132656 0.04201407358 2.211062324e-38
-0.0799171105 -0.01397575345 0.03921786696 2.211062324e-38
0.2461659461 -0.05034237728 -0.07897045463 2.211062324e-38
-0.3308232427 0.05980657786 0.002235600725 2.211062324e-38
0.1059128717 -0.010353419 0.03877189755 2.211062324e-38
-0.1849078238 -0.0452022627 0.06271477044 2.211062324e-38
0.08978988975 -0.02326634713 -0.04809456319 2.211062324e-38
-0.1593184471 0.01838226616 0.01448309701 2.211062324e-38
0.07623387873 0.001891610795 0.03448572755 2.211062324e-38
-0.03784258291 -0.01087056473 0.05427065492 2.211062324e-38
0.1437929124 -0.01768814214 -0.02612557076 2.211062324e-38
-0.1890923232 0.05770887807 0.01300513651 2.211062324e-38
0.0506663695 0.009546332993 -0.0151743181 2.211062324e-38
-0.2066993862 0.01191961952 0.001634244341 2.211062324e-38
0.1869445145 -0.00727792643 -0.02274182625 2.211062324e-38
-0.2156512439 0.0008643416222 0.05555747822 2.211062324e-38
0.2197234035 0.0001622904092 0.01850012504 2.284242894e-38
0.3816854358 -0.01550820563 0.04381195828 2.284242894e-38
0.1925797313 -0.05392260849 0.1318717152 2.284242894e-38
0.2078652084 0.002683635335 -0.08203077316 2.284242894e-38
0.2892428935 -0.004337561317 0.0692203939 2.284242894e-38
0.2581149936 0.01720940135 0.0559358336 2.284242894e-38
0.104917258 -0.009007394314 0.1922923625 2.284242894e-38
0.2411517799 -0.04259905964 -0.1684512645 2.284242894e-38
0.1402846873 -0.04155723006 -0.2516202629 2.284242894e-38
0.3210451901 -0.02530456707 0.005738568027 2.284242894e-38
0.1172704846 -0.05239499733 0.1854942441 2.284242894e-38
0.163004756 -0.0306770727 -0.1372487396 2.284242894e-38
0.1587685794 -0.0615533255 -0.1836869568 2.284242894e-38
0.2920137346 -0.01640344039 0.01995244995 2.284242894e-38
0.1335130632 -0.05427335948 0.151548028 2.284242894e-38
0.1201743707 -0.02187662385 -0.08923776448 2.284242894e-38
0.04835923016 -0.04143370315 -0.07819232345 2.284242894e-38
0.2436563224 0.00179329922 0.03157296777 2.284242894e-38
0.08861206472 -0.05424101651 0.2163795233 2.284242894e-38
0.2733153999 -0.02091947012 -0.05007302389 2.284242894e-38
0.1028213799 -0.05130811408 -0.1839508265 2.284242894e-38
0.3154997528 -0.0272139851 -0.0007444469957 2.284242894e-38
0.1984512508 0.001526877983 0.02510271966 2.284242894e-38
0.1402325332 0.002221342176 -0.04159961268 2.284242894e-38
0.2219243795 -0.03301734105 -0.0467787981 2.284242894e-38
0.2763808072 0.007554537151 0.01643503644 2.284242894e-38
0.09976809472 -0.006572492886 0.06389206648 2.284242894e-38
0.2429425865 0.01002712175 0.09190452844 2.284242894e-38
0.05134049803 -0.02885636501 -0.1099370867 2.284242894e-38
0.2671663761 -0.03321590647 -0.0996716097 2.284242894e-38
0.04639288783 -0.02972478047 -0.01942316443 2.284242894e-38
0.2121941 -0.006737234537 0.06794097275 2.284242894e-38
0.2243983448 -0.06593108177 -0.06080785766 2.348204041e-38
0.213083446 -0.044880189 -0.1814005971 2.348204041e-38
0.1384809762 -0.02898030356 -0.3028851748 2.348204041e-38
0.09487821162 -0.05734128132 -0.1732454002 2.348204041e-38
0.194625482 -0.03852693364 -0.06168020144 2.348204041e-38
0.1585987508 -0.004535867367 -0.2266875207 2.348204041e-38
0.09624215961 -0.02210248075 -0.4131048024 2.348204041e-38
0.143066287 -0.05121322721 -0.09791220725 2.348204041e-38
0.296669662 -0.06678374857 -0.03659907728 2.348204041e-38
0.2153851688 -0.05797895044 -0.1253152639 2.348204041e-38
0.07205051929 -0.03714830056 -0.3815017641 2.348204041e-38
0.08463849127 -0.05122582987 -0.189211145 2.348204041e-38
0.265432775 -0.05504155159 -0.04287815839 2.348204041e-38
0.1053792387 -0.06587647647 -0.07096967101 2.348204041e-38
0.05167242512 -0.02341730334 -0.3423940241 2.348204041e-38
0.03926619887 -0.03155719489 -0.204184249 2.348204041e-38
0.2683245242 -0.04443494976 -0.04620084539 2.348204041e-38
0.0844225809 -0.06251191348 -0.01429578103 2.348204041e-38
0.04022740573 -0.02221659757 -0.4116961658 2.348204041e-38
0.07569622248 -0.07756136358 -0.07414622605 2.348204041e-38
0.3094609976 -0.06937222183 -0.0368985571 2.348204041e-38
0.1352940798 -0.07656554133 -0.0008665618952 2.348204041e-38
0.09672445059 -0.04223334789 -0.1655236334 2.348204041e-38
0.07306633145 -0.01408857759 -0.2243988663 2.348204041e-38
0.2091444433 -0.006442696322 -0.07697658241 2.348204041e-38
0.1545018405 -0.0321944803 -0.1294674724 2.348204041e-38
0.1189442426 -0.003814410651 -0.1766470224 2.348204041e-38
0.1165395603 -0.01969754696 -0.1363293976 2.348204041e-38
0.2176614106 -0.04497503489 -0.04319542646 2.348204041e-38
0.1657286584 -0.09762427211 -0.01915952004 2.348204041e-38
0.02690727264 -0.04903414845 -0.08631263673 2.348204041e-38
0.1548620909 -0.0800646916 -0.1020806506 2.348204041e-38
-0.3143996 -0.02581425756 -0.05236102641 2.347880341e-38
-0.04795153812 -0.07730775326 -0.024178233 2.347880341e-38
-0.3863609731 0.01103679743 -0.01014291774 2.347880341e-38
0.1887974143 -0.08639543504 0.03478629515 2.347880341e-38
-0.1218430921 0.04147111997 -0.02529856004 2.347880341e-38
0.02330879308 -0.06133099273 0.01363075245 2.347880341e-38
-0.3777344525 0.05558701977 0.005643188488 2.347880341e-38
0.05290671811 -0.0879041031 0.01360043511 2.347880341e-38
-0.1978413165 0.01506515592 -0.006936066318 2.347880341e-38
-0.1041176245 -0.06488142908 0.01302150823 2.347880341e-38
-0.3512158394 0.03182706982 0.001938534318 2.347880341e-38
0.1089284495 -0.08456941694 0.02748854645 2.347880341e-38
-0.1869718879 0.008182894439 -0.02420359477 2.347880341e-38
-0.04180320725 -0.06879679114 0.006218204275 2.347880341e-38
-0.333129853 -0.001042663702 0.001301198499 2.347880341e-38
0.126656577 -0.07362256944 0.02829724364 2.347880341e-38
-0.172104001 -0.0154321529 -0.033494737 2.347880341e-38
-0.02016481012 -0.06949967146 0.01554770675 2.347880341e-38
-0.3520956933 0.04962672293 0.0006766020088 2.347880341e-38
0.04271246493 -0.09013224393 0.009642495774 2.347880341e-38
-0.2126025707 0.01133584138 -0.01124193054 2.347880341e-38
-0.120540686 -0.07491841912 0.0114422664 2.347880341e-38
-0.2831243575 -0.02451249026 -0.07650439441 2.347880341e-38
0.1128479168 -0.06969916075 -0.009834047407 2.347880341e-38
-0.113713704 -0.001817738521 -0.05027764663 2.347880341e-38
-0.05750275776 -0.08100065589 0.02560461126 2.347880341e-38
-0.2002297491 0.01386356913 -0.02008321509 2.347880341e-38
0.0009354797076 -0.05928860977 -0.01205299515 2.347880341e-38
-0.1509935558 -0.04559139162 -0.01670056209 2.347880341e-38
-0.07587554306 -0.0270388294 -0.06912786514 2.347880341e-38
-0.2462724149 0.05880182236 0.06061913073 2.347880341e-38
0.0608387962 -0.0818708539 0.01846214011 2.347880341e-38
0.2177973986 -0.03294671327 -0.2079137564 2.347520768e-38
-0.2827371955 0.002542501315 -0.009529972449 2.347520768e-38
0.09124746174 -0.08507245034 -0.06816446036 2.347520768e-38
-0.3086540401 0.001169850468 -0.09274733812 2.347520768e-38
0.2515296042 -0.01516777743 -0.1674453169 2.347520768e-38
-0.1479683369 0.01131256297 -0.00296669337 2.347520768e-38
-0.03845440969 -0.06136628613 -0.03412728384 2.347520768e-38
-0.2839541733 -0.002273175633 -0.1085315496 2.347520768e-38
0.05933726951 -0.03604030609 -0.1730134636 2.347520768e-38
-0.1890292317 0.002581661334 0.002537379274 2.347520768e-38
0.01051577926 -0.07580545545 -0.04070549831 2.347520768e-38
-0.2628825009 -0.010485515 -0.07151371986 2.347520768e-38
0.08459980786 -0.04504664615 -0.1549999118 2.347520768e-38
-0.1773872524 -0.01174938399 -0.02779637836 2.347520768e-38
0.01306384988 -0.0761115253 -0.04561555758 2.347520768e-38
-0.2034975588 0.002346822293 -0.001497550635 2.347520768e-38
0.1194781885 -0.05425287038 -0.117917791 2.347520768e-38
-0.09105330706 6.180629134e-05 -0.0305739399 2.347520768e-38
-0.04338974506 -0.07147686929 -0.03999463469 2.347520768e-38
-0.2950077951 -0.01475395821 -0.05957629904 2.347520768e-38
0.05913876742 -0.04738723487 -0.1201497391 2.347520768e-38
-0.1475934535 -0.002846784657 -0.01537645888 2.347520768e-38
-0.009321196005 -0.03481128439 -0.1187085733 2.347520768e-38
-0.1200405136 -0.002245992422 -0.06167384237 2.347520768e-38
0.09540612996 -0.03637626767 -0.156942293 2.347520768e-38
-0.1145138368 0.0001721307635 -0.01091363933 2.347520768e-38
0.08987946808 -0.01745118015 -0.1096233651 2.347520768e-38
-0.09592472017 -0.0002895388752 -0.05807017908 2.347520768e-38
-0.07510705292 -0.07266698778 -0.1228799224 2.347520768e-38
-0.006769300438 -0.03358362988 -0.001594273839 2.347520768e-38
-0.009508695453 -0.02833055519 -0.07424419373 2.347520768e-38
-0.09656181931 -0.0005379858776 0.05440876633 2.347520768e-38
0.2430816293 0.003181033302 0.03148750588 2.347161195e-38
0.3621464372 -0.005326958373 -0.02515591308 2.347161195e-38
0.3815506995 -0.03675148264 0.03800452128 2.347161195e-38
0.1594493985 0.0240110904 0.06066306308 2.347161195e-38
0.2601919174 -0.009613545612 0.04170631245 2.347161195e-38
0.1262065768 -0.03175542131 0.1266477704 2.347161195e-38
0.4075283706 -0.03659584746 0.004522386007 2.347161195e-38
0.2269522399 0.01414574217 0.01112500858 2.347161195e-38
0.29282552 -0.01599028707 0.04810992628 2.347161195e-38
0.1350867897 -0.02775917575 0.2385829836 2.347161195e-38
0.3603492081 -0.04897811264 0.02445300296 2.347161195e-38
0.07690681517 -0.04693549871 0.06658559293 2.347161195e-38
0.2764429152 -0.01083497051 0.03073115274 2.347161195e-38
0.1185479909 -0.04913517833 0.2116288394 2.347161195e-38
0.3325343728 -0.03264384344 0.03149760887 2.347161195e-38
0.03580308706 -0.03410264477 0.1083657071 2.347161195e-38
0.2576854825 -0.00287804706 0.03003162891 2.347161195e-38
0.0876974538 -0.03139093146 0.182155177 2.347161195e-38
0.3837476075 -0.0473170355 0.01605338044 2.347161195e-38
0.1254273355 -0.02786161751 0.04007183015 2.347161195e-38
0.2881507874 -0.02705675736 0.03620490432 2.347161195e-38
0.1572222263 -0.05731262267 0.1647812724 2.347161195e-38
0.3316582441 -0.0280438792 0.01950145327 2.347161195e-38
0.05336907133 -0.0008258817834 0.08768081665 2.347161195e-38
0.2282541841 -0.006797424983 0.0333051905 2.347161195e-38
0.1378102005 -0.02959217876 0.1289763898 2.347161195e-38
0.2832971215 -0.01579600386 0.02407886274 2.347161195e-38
0.2266701609 0.003803316737 -0.06140526012 2.347161195e-38
0.2605037987 -0.02078411914 0.004279525019 2.347161195e-38
0.1724038273 -0.004226488061 0.1253070831 2.347161195e-38
0.3170643151 -0.01624476351 0.0323530063 2.347161195e-38
0.0991262719 -0.01620500907 0.05556354672 2.347161195e-38
-0.3790553808 -0.001118003856 0.1249877289 2.346801622e-38
0.001943027019 0.006300082896 -0.0536888577 2.346801622e-38
-0.4049607217 -0.008979869075 -0.001431687735 2.346801622e-38
0.10164316 -0.04761222377 -0.04672500491 2.346801622e-38
-0.2979797721 -0.0004155039496 -0.002289127326 2.346801622e-38
-0.07868023962 0.01575333625 -0.04267495126 2.346801622e-38
-0.3395287991 -0.01012147684 -0.11012806 2.346801622e-38
0.1512634903 -0.04361351207 0.05313628539 2.346801622e-38
-0.2517971396 -0.01996773295 0.1084655747 2.346801622e-38
0.1084389389 0.01755444705 -0.0550972186 2.346801622e-38
-0.2976587415 -0.005747135729 -0.07865249366 2.346801622e-38
0.03522212431 -0.0481306836 0.08563573658 2.346801622e-38
-0.2713994682 -4.225969315e-05 0.06964980066 2.346801622e-38
0.001986054005 -0.009369442239 -0.05369004607 2.346801622e-38
-0.3082130253 0.0007785556954 -0.04753636941 2.346801622e-38
0.009911823086 -0.0488505736 0.07427152991 2.346801622e-38
-0.3057666719 0.0120195467 0.02660244331 2.346801622e-38
-0.1062488332 -0.0007946787518 -0.03347244114 2.346801622e-38
-0.295130074 -0.01051866915 -0.103247419 2.346801622e-38
0.06641329825 -0.08702111989 -0.001466049696 2.346801622e-38
-0.274167031 -3.370642662e-05 0.05280829594 2.346801622e-38
0.03574568778 -0.008356987499 -0.04426447675 2.346801622e-38
-0.1576211751 -0.005320290104 -0.01999014989 2.346801622e-38
-0.04763712734 -0.05678270012 -0.005650549661 2.346801622e-38
-0.2096140832 0.0002581626177 0.009016672149 2.346801622e-38
-0.1515750289 0.002907998161 -0.02539348044 2.346801622e-38
-0.1924386919 -0.02400920168 -0.04754294083 2.346801622e-38
0.01325790398 -0.04075591639 0.01682554744 2.346801622e-38
-0.1467849165 0.007525927853 -0.04832500219 2.346801622e-38
-0.1032046154 0.06195515394 0.01112416666 2.346801622e-38
-0.1859982461 -0.0274549406 0.0385171324 2.346801622e-38
-0.0464627482 -0.02458863519 -0.01695486903 2.346801622e-38
0.1349137127 -0.01730360277 -0.3059905171 2.346406175e-38
0.1515952349 0.006662847474 -0.3644667268 2.346406175e-38
0.1908692569 -0.004803993274 -0.1583234519 2.346406175e-38
0.09354124218 -0.02396745048 -0.3320412338 2.346406175e-38
0.2365401536 -0.0187772084 -0.1654157192 2.346406175e-38
0.1374562383 0.02947575413 -0.1998211294 2.346406175e-38
0.2641650736 -0.04901235178 -0.1035368443 2.346406175e-38
0.1112595126 -0.02175999433 -0.4659824669 2.346406175e-38
0.09896267205 -0.03446499631 -0.2987218499 2.346406175e-38
0.1222823486 -0.001872336143 -0.3764841557 2.346406175e-38
0.1705009043 -0.06660894305 -0.099372603 2.346406175e-38
0.06700304896 -0.02802314982 -0.4332077801 2.346406175e-38
0.08921536803 -0.04030712694 -0.2740848064 2.346406175e-38
0.06113798544 -0.02445292473 -0.3468496203 2.346406175e-38
0.1239407733 -0.05473732203 -0.07673063874 2.346406175e-38
0.02846615762 -0.01690363511 -0.4021407962 2.346406175e-38
0.1101320609 -0.02946795896 -0.2200271487 2.346406175e-38
0.02879170515 -0.0178426262 -0.2671914995 2.346406175e-38
0.2318984717 -0.06895225495 -0.07549005747 2.346406175e-38
0.01556132361 -0.03204101697 -0.4141061008 2.346406175e-38
0.04110682383 -0.03840462118 -0.2107057571 2.346406175e-38
0.01363642048 -0.04173451662 -0.3054173887 2.346406175e-38
0.1263292134 -0.01939971559 -0.09437304735 2.346406175e-38
0.02778400108 -0.02547210641 -0.2645221651 2.346406175e-38
0.1575289369 -0.03133886307 -0.1693038046 2.346406175e-38
0.02341835387 -0.0444762595 -0.1584191024 2.346406175e-38
0.1332232356 -0.01311830431 -0.06758455187 2.346406175e-38
0.009817486629 -0.02753071114 -0.2524719536 2.346406175e-38
0.04320026189 -0.06760104746 -0.1116409898 2.346406175e-38
-0.03718412295 -0.0341842249 -0.1948536336 2.346406175e-38
0.05225379765 -0.02691895887 -0.05684737116 2.346406175e-38
-0.05503689498 -0.04923253506 -0.03220495954 2.346406175e-38
0.1652334481 -0.03624951467 0.2213358283 2.346010729e-38
0.1199725494 -0.03613297641 -0.03538298979 2.346010729e-38
0.1558684111 -0.006616436411 0.02336835675 2.346010729e-38
0.1374514401 0.00676308712 -0.3187208474 2.346010729e-38
0.01241774578 -0.03133836761 0.1934450716 2.346010729e-38
0.1661060154 -0.004687990062 0.0550512597 2.346010729e-38
0.2998933792 -0.03725740686 0.02545583993 2.346010729e-38
0.1345385015 -0.03244316205 -0.2300395072 2.346010729e-38
0.1465330571 -0.03611779585 0.3001897335 2.346010729e-38
0.09126038849 -0.002476180438 -0.1841334403 2.346010729e-38
0.2048194706 -0.04850367829 0.03744852915 2.346010729e-38
0.1021294817 -0.0436726287 -0.3111957014 2.346010729e-38
0.05213519558 -0.03981052712 0.2840811014 2.346010729e-38
0.07757589966 -0.0531219542 -0.1511425078 2.346010729e-38
0.09549546987 -0.02341331169 0.04516522586 2.346010729e-38
0.0728924349 -0.01977601647 -0.3543376625 2.346010729e-38
0.03369718418 -0.03016353771 0.2280076891 2.346010729e-38
0.06401596218 -0.05133802444 -0.07968551666 2.346010729e-38
0.2710805833 -0.05927570537 0.0406071879 2.346010729e-38
0.09064861387 -0.04126887396 -0.2447804064 2.346010729e-38
0.05617766455 -0.05344827101 0.2349771112 2.346010729e-38
0.06018839404 -0.0359637849 -0.157667011 2.346010729e-38
0.06543318927 -0.004041485954 0.03562167287 2.346010729e-38
0.08002888411 -0.03490669653 -0.3146087527 2.346010729e-38
-0.02944122814 -0.0320196636 0.0372273922 2.346010729e-38
0.09813062847 -0.06033175811 0.01893526688 2.346010729e-38
0.1545200199 0.0132568758 0.05129947886 2.346010729e-38
0.07419842482 -0.03540501744 -0.06787715852 2.346010729e-38
0.09462086856 -0.05798088014 -0.02220850252 2.346010729e-38
0.06097321212 -0.04900364578 -0.0931096375 2.346010729e-38
0.08996660262 0.008569023572 0.04451798648 2.346010729e-38
-0.1360749453 0.01184460986 -0.03894764557 2.346010729e-38
0.3491569459 -0.07240870595 0.06212988868 2.345615283e-38
