# .PCD v0.7 - Point Cloud Data file format
VERSION 0.7
FIELDS x y z rgb
SIZE 4 4 4 4
TYPE F F F F
COUNT 1 1 1 1
WIDTH 813
HEIGHT 1
VIEWPOINT 0 0 0 1 0 0 0
POINTS 813
DATA ascii
-0.007819250226 0.2643927336 -0.0213888064 2.167082852e-39
0.00572056789 0.426299274 -0.03275643289 2.167082852e-39
0.005482469685 0.1466624737 -0.0615712814 2.167082852e-39
-0.05102765188 0.4422547519 0.0001426539384 2.167082852e-39
-0.0399357155 0.3481699824 -0.008695172146 2.167082852e-39
-0.005483716726 0.3321750462 -0.03398118913 2.167082852e-39
-0.04920993 -0.09814674407 -0.03008246794 1.435982003e-39
-0.014691622 -0.002156187315 0.005462144967 1.435982003e-39
-0.03058918379 -0.2828983963 -0.03964564577 1.435982003e-39
-0.0412651971 -0.1320041865 0.03183091432 1.435982003e-39
-0.06077047437 -0.1086443663 -0.06460220367 1.435982003e-39
-0.0421740599 0.201101616 0.03875797242 1.435982003e-39
0.0046735215 -0.4266317189 -0.05343680456 1.435982003e-39
-0.01257654279 0.1073382646 0.01881807111 1.435982003e-39
0.02077669464 -0.04475335777 -0.04146068543 1.435982003e-39
-0.02860072814 0.2834427655 0.07358798385 1.435982003e-39
0.01419581473 -0.3888899684 -0.03647753596 1.435982003e-39
-0.0001861900091 0.1366545558 0.02057704329 1.435982003e-39
0.01258954965 -0.1305265725 -0.03587686643 1.435982003e-39
-0.02229288407 0.2888384163 0.0380695425 1.435982003e-39
-0.01451591495 -0.4923980534 -0.05008982122 1.435982003e-39
0.01638772339 0.02367001399 0.004559447989 1.435982003e-39
-0.0005453228368 -0.2714187801 -0.0170946084 1.435982003e-39
0.001132353675 0.2236330658 0.02565684915 1.435982003e-39
-0.02172768861 -0.4388192892 -0.05349779874 1.435982003e-39
0.0129504567 -0.1530613452 0.001174009754 1.435982003e-39
0.009422172792 -0.3268613815 -0.02314570546 1.435982003e-39
0.03289363161 0.07565028965 -0.002603979548 1.435982003e-39
-0.02964233048 -0.4218132198 -0.0540374741 1.435982003e-39
0.01989295892 -0.2563520968 0.02768954448 1.435982003e-39
-0.04012902081 -0.3519947827 -0.02675445192 1.435982003e-39
0.01886722073 -0.0688090995 0.02462123334 1.435982003e-39
-0.04545428604 -0.2904050052 -0.0594452098 1.435982003e-39
-0.02579204738 -0.194804579 0.05700090528 1.435982003e-39
-0.04120975733 -0.1044775099 -0.06286653131 1.435982003e-39
-0.01301651727 0.2567335963 -0.005104132462 1.435982003e-39
-0.05778680369 -0.05409370735 -0.01789775863 1.435982003e-39
-0.05482064188 0.1358223259 -0.02398045175 1.435982003e-39
0.07079723477 -0.1038071439 0.03870135173 7.045238224e-40
0.01085179579 0.2056106329 0.00968434941 7.045238224e-40
0.07851171494 0.1424162984 0.06268497556 7.045238224e-40
0.02830906957 0.07968840748 0.01792021468 7.045238224e-40
0.05609535053 -0.1099213287 0.03344497085 7.045238224e-40
0.05219970271 0.3285322189 -0.05446653068 7.045238224e-40
-0.007902660407 0.1113660932 0.03411528096 7.045238224e-40
0.002649639966 0.3574506342 -0.008035292849 7.045238224e-40
0.009468384087 -0.1018077433 0.03186284006 7.045238224e-40
-0.002647116082 0.3780966997 -0.05412781611 7.045238224e-40
-0.004371337593 0.3019539714 0.04015618563 7.045238224e-40
0.05516362563 0.4107229114 -0.01652516425 7.045238224e-40
0.006980830804 -0.147841692 0.009903479367 7.045238224e-40
0.01191241574 0.4182151854 -0.06912571192 7.045238224e-40
0.01413209923 0.2381590903 0.008352040313 7.045238224e-40
0.01255113631 0.3700206578 -0.03121815622 7.045238224e-40
0.008330336772 -0.1943681091 0.01572751999 7.045238224e-40
0.01869341172 0.4069562256 -0.06023519486 7.045238224e-40
0.008834454231 0.1442837119 0.008138670586 7.045238224e-40
-0.0005967504694 0.3205224574 -0.02328307368 7.045238224e-40
0.0146110421 -0.2490936369 0.02466609515 7.045238224e-40
0.02668557689 0.4410042167 -0.03578116745 7.045238224e-40
0.0195064377 -0.02008663304 0.04102895409 7.045238224e-40
0.01462214533 0.05957828835 0.01705224998 7.045238224e-40
0.04309713468 -0.2306136936 0.03903578594 7.045238224e-40
0.05271313712 0.324192673 0.01747989655 7.045238224e-40
0.03658992052 -0.01931446418 0.01100079995 7.045238224e-40
-0.06270872056 0.06336508691 0.007630304433 7.045238224e-40
0.02059965394 -0.1182760522 0.06068974733 7.045238224e-40
-0.06810896844 0.1899217069 0.06877535582 7.045238224e-40
-0.0154470196 0.08144197613 0.017192889 7.045238224e-40
-0.07881854475 0.1956600398 0.02838605829 7.045238224e-40
0.05747203901 -0.01592651382 0.04399266466 6.490113838e-41
-0.001709489385 -0.1422384977 0.07817782462 6.490113838e-41
-0.004749545362 0.2114894241 0.06774461269 6.490113838e-41
0.06289611757 -0.3578489423 -0.02182804421 6.490113838e-41
0.02831000462 0.1519633681 0.02513044514 6.490113838e-41
0.03826742247 -0.1469519138 0.03903336823 6.490113838e-41
0.01426518057 0.2927667499 0.006626032293 6.490113838e-41
0.07036590576 -0.4191192687 -0.03283300623 6.490113838e-41
0.0175142996 0.2325394601 -0.02072684094 6.490113838e-41
0.02387591265 -0.133487612 0.02784542926 6.490113838e-41
-0.0219503399 0.3594968319 0.06873932481 6.490113838e-41
0.02482668497 -0.2769249976 0.005976695102 6.490113838e-41
0.02091229521 0.2929535508 -0.01277169399 6.490113838e-41
0.02455287799 0.05336337537 0.01327315625 6.490113838e-41
0.01997255906 0.4220328629 0.03509602323 6.490113838e-41
0.01737138256 -0.3554033339 0.008920589462 6.490113838e-41
-0.0001856833696 0.2661947012 -0.003740539076 6.490113838e-41
0.02417626604 -0.06059170142 0.02249189094 6.490113838e-41
-0.004324006848 0.4032002091 0.02877776138 6.490113838e-41
0.0292072352 -0.4181001484 -0.009117548354 6.490113838e-41
-0.01083599869 0.1666385829 0.01409788709 6.490113838e-41
0.02625507116 -0.1516683102 0.02541518398 6.490113838e-41
-0.03838724643 0.3517074287 0.04701476172 6.490113838e-41
0.03048080392 -0.3942534626 -0.03729307279 6.490113838e-41
0.01345729083 -0.01621229202 0.02401893586 6.490113838e-41
0.0294739604 -0.2968699336 0.0508310385 6.490113838e-41
-0.02987224422 0.1421927661 0.04793722928 6.490113838e-41
0.05345128477 -0.2282689363 -0.0341815874 6.490113838e-41
-0.01189126633 -0.04976768419 0.02063153684 6.490113838e-41
0.04496636614 -0.2591155171 -0.01348437928 6.490113838e-41
-0.009400746785 0.004346156958 -0.01336678211 6.490113838e-41
-0.07560613751 -0.0474264659 -0.004604642279 6.490113838e-41
-0.07144600898 -0.421228677 0.01858593896 8.028094954e-40
0.006132145878 -0.1949312687 -0.06038921699 8.028094954e-40
0.0278188251 0.02666213922 -0.05673618242 8.028094954e-40
0.0338999778 -0.4450778961 0.07128360122 8.028094954e-40
-0.0596550554 -0.3657927513 0.03787514567 8.028094954e-40
0.0233016517 -0.2876282036 -0.04271700233 8.028094954e-40
-0.02714501135 -0.01596659981 -0.0252687782 8.028094954e-40
0.0417589955 -0.4846925735 -0.01442686934 8.028094954e-40
-0.04823653027 -0.4949911833 0.02279602736 8.028094954e-40
0.05417632684 -0.3725881279 -0.02849723585 8.028094954e-40
-0.0007871238631 0.1756974757 -0.02048811503 8.028094954e-40
0.03977762535 -0.4799681306 0.02018906735 8.028094954e-40
-0.02117479034 -0.369998455 0.01532388292 8.028094954e-40
0.01186890341 -0.2823894024 -0.01499074884 8.028094954e-40
-0.01766912825 0.03662995622 -0.003173662815 8.028094954e-40
0.03854839504 -0.4690422416 0.00315632741 8.028094954e-40
-0.01777925715 -0.3774272799 0.004153429065 8.028094954e-40
0.0271785073 -0.3185945451 -0.01465274207 8.028094954e-40
-0.02083591931 0.1016100794 0.02418882027 8.028094954e-40
0.04474552721 -0.4572535157 0.01790093817 8.028094954e-40
-0.02279747091 -0.4077905416 0.00183320581 8.028094954e-40
0.01373241935 -0.3285225928 -0.03036394529 8.028094954e-40
-0.03346580267 -0.1168739423 0.003719428089 8.028094954e-40
0.05831583962 -0.4385005534 0.0507141985 8.028094954e-40
-0.04915862903 -0.3793838024 0.06792057306 8.028094954e-40
0.05982620642 -0.1753071547 -0.04966778681 8.028094954e-40
-0.08656003326 -0.1352347434 0.006595706102 8.028094954e-40
0.04108661413 -0.2685033083 -0.009828079492 8.028094954e-40
-0.04533108324 -0.2564030588 -0.02736865729 8.028094954e-40
-0.01780704968 -0.1801930964 0.01885644346 8.028094954e-40
-0.01670350134 -0.09252474457 0.01272627432 8.028094954e-40
0.05156704411 -0.101564616 -0.0151875522 8.028094954e-40
0.03516450897 -0.05113486201 -0.05823787302 1.540360521e-39
-0.03379869089 0.03690248728 -0.03128812462 1.540360521e-39
0.0743797794 -0.220014587 0.04490557313 1.540360521e-39
-0.03794462606 0.05195757374 -0.05750273541 1.540360521e-39
0.01775005646 0.02190778404 -0.06719859689 1.540360521e-39
0.03564762697 0.2880336344 -0.0546929799 1.540360521e-39
0.0364703685 0.1670192778 0.0296633821 1.540360521e-39
-0.03950772062 0.37376526 -0.01306806598 1.540360521e-39
0.01392933074 0.1037399322 -0.04576934129 1.540360521e-39
0.01366268378 0.3678650856 -0.04864692688 1.540360521e-39
-0.0003865435428 0.2401759923 0.03943703696 1.540360521e-39
-0.02246853337 0.4004641175 -0.03976199776 1.540360521e-39
0.005395896733 0.08796195686 -0.02671835013 1.540360521e-39
0.04001378641 0.3921425641 -0.04963493347 1.540360521e-39
0.003434100654 0.1605408341 0.007971565239 1.540360521e-39
-0.04713498428 0.3857828081 -0.01720628142 1.540360521e-39
0.004771069624 0.01333984546 -0.02200187184 1.540360521e-39
0.02180984803 0.3929134607 -0.04483859241 1.540360521e-39
0.02920968831 -0.1189988181 0.006385135464 1.540360521e-39
-0.04899629951 0.3367626071 -0.01533270441 1.540360521e-39
-0.007419293746 -0.1394639015 -0.01006777864 1.540360521e-39
-0.02049101889 0.3748602867 -0.03521236032 1.540360521e-39
0.02563127689 -0.2648532689 -0.001025721082 1.540360521e-39
-0.04097325727 -0.0404637605 -0.01782745495 1.540360521e-39
0.007222638465 -0.2148216218 -0.06111881509 1.540360521e-39
-0.003803435946 0.3092001379 -0.0335400179 1.540360521e-39
0.01356899925 -0.1352104694 -0.03513714671 1.540360521e-39
-0.07488586754 -0.2341257036 0.008288118988 1.540360521e-39
0.06644435972 -0.2189355195 0.02278936096 1.540360521e-39
-0.08435762674 0.04190078378 -0.02444361337 1.540360521e-39
0.0006759687094 0.01607533544 -0.03405849263 1.540360521e-39
-0.0664132908 0.09761318564 0.001255168812 1.540360521e-39
-0.08141326159 0.001511818497 0.02771682665 2.277910146e-39
-0.01890000701 -0.3528361619 0.05244655162 2.277910146e-39
-0.07086791098 -0.09994072467 -0.04604551941 2.277910146e-39
-0.04554763809 -0.187721312 0.04820050299 2.277910146e-39
-0.07114443928 0.2311257422 0.002925377339 2.277910146e-39
-0.01709323004 -0.4242122769 0.04284806922 2.277910146e-39
-0.01565733738 0.02713451348 -0.02018161863 2.277910146e-39
-0.03511816263 -0.2288642675 0.009601170197 2.277910146e-39
-0.01620372944 0.1523905098 0.02137091383 2.277910146e-39
0.005312884692 -0.4729637504 0.08383696526 2.277910146e-39
-0.04213424027 0.2819694579 -0.04608562961 2.277910146e-39
0.01096002106 -0.2097906768 0.006322133355 2.277910146e-39
-0.03500404581 0.3398629129 0.02314801328 2.277910146e-39
0.01014857925 -0.4501855671 0.03224991634 2.277910146e-39
-0.009554572403 0.1688320488 -0.01586109772 2.277910146e-39
0.00116997899 -0.2673430741 0.004061781801 2.277910146e-39
-0.02315850742 0.2366559654 0.02394762821 2.277910146e-39
0.01092231087 -0.4513673484 0.04829840735 2.277910146e-39
-0.01539047714 0.08159011602 -0.02535190433 2.277910146e-39
-0.01687796973 -0.3674828112 -0.009650776163 2.277910146e-39
-0.01017548796 0.2784968019 0.02980162203 2.277910146e-39
0.01723746024 -0.3911137879 0.03186234832 2.277910146e-39
-0.038867753 0.007702935953 -0.02176941931 2.277910146e-39
-0.0405915007 -0.3378939033 0.0264671389 2.277910146e-39
-0.01943547651 -0.04432526976 0.07868275046 2.277910146e-39
-0.009165327996 -0.1230420768 0.04386394098 2.277910146e-39
-0.05141060799 -0.06355392188 0.008548937738 2.277910146e-39
-0.0772920996 -0.2216523886 -0.009674696252 2.277910146e-39
-0.05135514587 -0.03538175672 0.05625841394 2.277910146e-39
-0.006694335956 -0.07861050218 0.06524398923 2.277910146e-39
-0.05279539526 -0.01392624248 0.02486780845 2.277910146e-39
-0.05095377564 -0.2804935873 0.04042027518 2.277910146e-39
0.001879719668 -0.3983648121 -0.05076407269 3.015101038e-39
-0.04517875984 -0.417609781 0.03689427301 3.015101038e-39
-0.01968210004 -0.3919536769 -0.02428553253 3.015101038e-39
-0.003574110335 -0.4754851162 -0.07778465003 3.015101038e-39
0.05696607009 -0.4313077629 -0.003396334127 3.015101038e-39
0.01524886768 -0.4838553369 0.06214540824 3.015101038e-39
-0.07188078016 -0.4518512487 0.009323684499 3.015101038e-39
-0.03952077776 -0.4793370366 -0.04881709814 3.015101038e-39
-0.005330810323 -0.4784121215 -0.03024156392 3.015101038e-39
-0.04037922248 -0.4791812897 0.04874868318 3.015101038e-39
-0.06608243287 -0.4847150147 0.04744336009 3.015101038e-39
-0.01872202195 -0.4865736365 -0.05580811948 3.015101038e-39
0.03225645795 -0.4672275186 -0.02016889118 3.015101038e-39
0.001561051817 -0.4792877138 0.05980093405 3.015101038e-39
-0.03179714829 -0.4808742702 0.03544238582 3.015101038e-39
-0.009401633404 -0.4820745885 -0.05513453484 3.015101038e-39
0.02938999794 -0.4683436453 -0.02814442106 3.015101038e-39
-0.0261376854 -0.4820424318 0.05046123639 3.015101038e-39
-0.006680322345 -0.4736122191 0.04308883101 3.015101038e-39
0.003755559213 -0.4736020863 -0.07385148108 3.015101038e-39
0.0273842942 -0.4620600343 -0.0459655337 3.015101038e-39
-0.04327087104 -0.4752568007 0.03027360141 3.015101038e-39
0.05542831495 -0.4186936617 0.002826593816 3.015101038e-39
0.01469959971 -0.4734166861 -0.09463467449 3.015101038e-39
0.05015771836 -0.4757463932 -0.04141682759 3.015101038e-39
0.01327774115 -0.4552640319 -0.006077914964 3.015101038e-39
-0.007317866664 -0.3228293359 -0.06388615072 3.015101038e-39
-0.05039830506 -0.2707858086 -0.102745451 3.015101038e-39
-0.07465265691 -0.3797399402 -0.07506186515 3.015101038e-39
-0.04311938584 -0.3124763966 -0.05344403535 3.015101038e-39
-0.03028042056 -0.2244932652 -0.05559814721 3.015101038e-39
-0.02087489516 -0.2355108261 -0.01213721931 3.015101038e-39
0.04361538589 -0.03343062848 0.07424696535 3.75229193e-39
0.04020743072 0.004148519132 -0.001138895284 3.75229193e-39
-0.09300924093 -0.05184960365 0.03634115309 3.75229193e-39
0.04427037761 -0.1420478672 0.07484754175 3.75229193e-39
0.04670821875 0.02159537748 0.08140284568 3.75229193e-39
0.03787421808 0.2902347744 0.053249266 3.75229193e-39
-0.03270402551 -0.04596331343 -0.02279871516 3.75229193e-39
0.02518886887 -0.01930567995 0.03179078922 3.75229193e-39
0.003031244501 0.03083293326 0.03985532373 3.75229193e-39
0.06563974917 0.387389034 0.01076457091 3.75229193e-39
-0.02351272292 0.1080991998 -0.007793819997 3.75229193e-39
0.008162607439 0.115070194 0.007988492027 3.75229193e-39
0.02297228947 0.0562588498 0.04235344753 3.75229193e-39
0.03564401343 0.396900028 0.02608905174 3.75229193e-39
-0.01097237226 -0.0971814543 -0.009136348031 3.75229193e-39
0.02409810387 -0.04294376448 0.01243627071 3.75229193e-39
0.01617811993 -0.06882462651 0.02271343395 3.75229193e-39
0.0369422473 0.3821925521 0.02860119008 3.75229193e-39
-0.02594830096 -0.1763628125 0.009165536612 3.75229193e-39
0.02247110195 -0.127568543 0.01554033253 3.75229193e-39
0.01650112867 -0.2046471089 0.02045635134 3.75229193e-39
0.0290999338 0.3150152862 0.03961226717 3.75229193e-39
-0.04019875079 -0.2082831264 0.02633808739 3.75229193e-39
0.01915928163 -0.2478774786 0.0464877747 3.75229193e-39
-0.008052085526 -0.2378647327 0.06087623909 3.75229193e-39
0.03814824671 0.1347818077 0.07122071087 3.75229193e-39
-0.05569464341 -0.1352469474 0.009294033982 3.75229193e-39
-0.006442532409 -0.1061170399 0.04290946946 3.75229193e-39
-0.01960269362 -0.1117759719 0.0050351643 3.75229193e-39
0.01889111288 -0.07360882312 0.03355775774 3.75229193e-39
0.01479271892 -0.01516554784 0.04194253311 3.75229193e-39
0.0002836361527 0.07408742607 0.01041476056 3.75229193e-39
-0.06162772328 0.01328998804 0.02529360913 4.48912409e-39
0.05189431086 0.03269235045 0.03754299507 4.48912409e-39
0.05722877383 0.024991896 -0.09922421724 4.48912409e-39
0.05960724875 -0.09123919904 -0.04833842441 4.48912409e-39
-0.02369836532 0.1156760752 -0.05626713485 4.48912409e-39
0.06763717532 0.308504343 -0.01085038763 4.48912409e-39
-0.01406141091 0.01894867793 -0.05589588732 4.48912409e-39
-0.01603417099 -0.1841940582 -0.01751202159 4.48912409e-39
0.03772405535 0.2099336982 -0.02273364924 4.48912409e-39
-0.01457927283 0.4302292466 -0.02067882381 4.48912409e-39
0.0219484549 0.1648130715 -0.04149244726 4.48912409e-39
0.00930300355 -0.135022372 -0.02754649892 4.48912409e-39
-0.005230908282 0.1573714912 -0.01884424314 4.48912409e-39
0.03436408192 0.3714129627 0.02250126936 4.48912409e-39
0.001023657271 0.05974161252 -0.03989446163 4.48912409e-39
0.00171546475 -0.2333094627 -0.03141283989 4.48912409e-39
0.01134346984 0.1146123335 -0.0106860688 4.48912409e-39
0.01175204199 0.3864404261 0.01160011534 4.48912409e-39
-0.01108007226 -0.01955578662 -0.05943880975 4.48912409e-39
0.005531575065 -0.2638405561 -0.0447046794 4.48912409e-39
-0.001469532843 -0.07038792223 0.001722144079 4.48912409e-39
0.005700034555 0.3212436438 -0.003200557316 4.48912409e-39
-0.01270666532 -0.1355345845 -0.03882759437 4.48912409e-39
0.0176612623 -0.3013631999 -0.06075741351 4.48912409e-39
-0.03705509752 -0.01680921391 0.01352772303 4.48912409e-39
0.02345570549 0.01648957655 -0.0561414957 4.48912409e-39
-0.09640313685 -0.181317389 0.05309715495 4.48912409e-39
0.01113768015 -0.1375991404 -0.08254091442 4.48912409e-39
-0.04717519507 -0.005661523901 -0.02567408606 4.48912409e-39
-0.01567710564 -0.1102455109 0.03006254695 4.48912409e-39
-0.01324480027 -0.008457786404 0.04214316607 4.48912409e-39
-0.03585411981 0.1403034925 0.01164437365 4.48912409e-39
0.06236461177 0.03425605968 -0.06149777025 5.225597518e-39
0.06768999994 -0.4767377675 -0.02680864744 5.225597518e-39
0.05964541808 -0.06732538342 -0.06085867435 5.225597518e-39
-0.0140354652 -0.4343089759 -0.02810907364 5.225597518e-39
0.0182128679 0.09419617802 -0.1117800623 5.225597518e-39
0.05798133463 -0.4796685278 -0.03494080901 5.225597518e-39
-0.01325674169 -0.3714039624 -0.0005493610515 5.225597518e-39
-0.05757328123 -0.4677604139 -0.02859128825 5.225597518e-39
0.05148066208 -0.008488376625 0.00496134581 5.225597518e-39
0.08261923492 -0.4860916734 -0.0005976408138 5.225597518e-39
-0.03084304556 -0.3371186852 0.002034065314 5.225597518e-39
-0.01416940801 -0.5039231777 -0.04229195416 5.225597518e-39
0.03531112522 0.01242897008 -0.01153870858 5.225597518e-39
0.05095589906 -0.4937461019 -0.005752619356 5.225597518e-39
-0.01195536926 -0.3797912598 -0.004375563934 5.225597518e-39
0.0009494718979 -0.4945847392 -0.04236028716 5.225597518e-39
0.03533478826 -0.06160321832 -0.02489497885 5.225597518e-39
0.06146801263 -0.4901053011 -0.005889377557 5.225597518e-39
-0.03717161343 -0.3782813847 0.002660119208 5.225597518e-39
0.0416196771 -0.4814349413 -0.05533017218 5.225597518e-39
0.03370723501 -0.1783411652 -0.03836744279 5.225597518e-39
0.05484261364 -0.490527302 0.004045553971 5.225597518e-39
-0.0192702245 -0.3669467866 -0.05476105213 5.225597518e-39
0.002469437663 -0.4537801445 -0.05267080665 5.225597518e-39
-0.01470150705 -0.2353098243 -0.05662484095 5.225597518e-39
0.009810654446 -0.4008158147 -0.07169539481 5.225597518e-39
-0.04031285644 -0.2077662945 -0.03720586002 5.225597518e-39
0.03224139288 -0.2281637192 -0.06846377254 5.225597518e-39
0.03863593936 -0.2956092358 -0.05483038723 5.225597518e-39
-0.02997135185 -0.336135 -0.03777621686 5.225597518e-39
-0.005540962331 -0.08562655747 -0.008711400442 5.225597518e-39
0.01469217334 -0.2961637974 -0.02149520442 5.225597518e-39
0.0677581206 -0.123795867 0.02117933147 5.962428276e-39
0.02347794734 0.07227890939 -0.1030362025 5.962428276e-39
0.07674539834 0.08834206313 -0.06678622961 5.962428276e-39
-0.04701275378 0.2553803027 0.01594323479 5.962428276e-39
-0.02934076823 -0.1137386933 -0.03970356286 5.962428276e-39
0.04749877751 0.368168503 -0.009860605933 5.962428276e-39
0.01687959395 0.09633421898 0.002655950608 5.962428276e-39
0.03351078555 0.3425414562 -0.006277419161 5.962428276e-39
0.002154868562 0.07936895639 0.01958449744 5.962428276e-39
0.03766481206 0.3888650537 0.002364824759 5.962428276e-39
-0.004687140696 0.2745319009 -0.01939087547 5.962428276e-39
-0.01886705682 0.4362912774 0.04655941948 5.962428276e-39
-0.04662443325 0.07785471529 -0.005740225781 5.962428276e-39
0.04610303417 0.4281344116 -0.01197659317 5.962428276e-39
0.003576367861 0.1260624677 -0.005457336083 5.962428276e-39
-0.02470221743 0.424595356 0.02000282519 5.962428276e-39
-0.0121469032 -0.06707069278 0.0113325892 5.962428276e-39
0.04008022323 0.4207965732 -0.004585446324 5.962428276e-39
0.01133587118 0.1145378947 -0.02470854484 5.962428276e-39
-0.01610306837 0.4415388703 0.000417407573 5.962428276e-39
0.0002459287643 -0.1630164832 -0.02391890064 5.962428276e-39
0.03732046857 0.4356376529 0.004836964887 5.962428276e-39
0.03694094718 0.04444445297 -0.008740828373 5.962428276e-39
-0.0542582199 0.2691213191 0.01691485196 5.962428276e-39
-0.02080144919 -0.1729003787 -0.07396193594 5.962428276e-39
-0.005842529703 0.341057688 -0.004907572176 5.962428276e-39
0.01649863273 -0.1707058102 -0.07281810045 5.962428276e-39
-0.06688193232 -0.2349624187 -0.08115676045 5.962428276e-39
0.0170571357 -0.09342990071 -0.03447042778 5.962428276e-39
-0.0641323179 -0.03602997214 0.02514500543 5.962428276e-39
0.02483923733 0.02057793364 0.03023056872 5.962428276e-39
0.00905986689 0.121505104 -0.05652464926 5.962428276e-39
0.006851431914 -0.4112640023 0.04574327543 6.698542971e-39
0.0436280407 -0.3309183419 0.04771046713 6.698542971e-39
0.1018235683 -0.09232849628 0.06480261683 6.698542971e-39
0.0431333743 -0.4327552915 0.05813124403 6.698542971e-39
-0.01288455911 -0.4282262027 0.03449911997 6.698542971e-39
0.07339505851 -0.34331581 0.04620976746 6.698542971e-39
0.02982957661 -0.08598185331 0.03599381447 6.698542971e-39
0.02429646254 -0.4685970545 0.05361779034 6.698542971e-39
-0.01832140051 -0.4767665863 0.06022052467 6.698542971e-39
0.05138778314 -0.4616106153 0.03218699247 6.698542971e-39
0.01268679369 -0.2397507578 0.03725895286 6.698542971e-39
0.04023482651 -0.4805189669 0.06121724099 6.698542971e-39
0.004442692269 -0.4252851903 0.06422720104 6.698542971e-39
0.04550061002 -0.4231746495 0.01727993041 6.698542971e-39
0.02162399516 -0.2552624643 0.04488692433 6.698542971e-39
0.02912225202 -0.4625751972 0.05385929346 6.698542971e-39
0.009817537852 -0.4101430476 0.06409206986 6.698542971e-39
0.04006879777 -0.4403329492 0.02222194523 6.698542971e-39
0.02606119029 -0.2309885025 0.04107498005 6.698542971e-39
0.02324738912 -0.4412925243 0.05667981505 6.698542971e-39
0.02636060305 -0.4051560462 0.06284371018 6.698542971e-39
0.02508365922 -0.4218513668 0.02552924491 6.698542971e-39
0.02462660894 -0.2056999058 0.04772835225 6.698542971e-39
0.02385506406 -0.3828892112 0.05115068704 6.698542971e-39
0.05070509389 -0.3368788362 0.05740707368 6.698542971e-39
0.02174494974 -0.3202475011 0.06762811542 6.698542971e-39
0.03066844307 -0.0912040025 0.07112834603 6.698542971e-39
-0.005643277895 -0.2298846543 0.06124062464 6.698542971e-39
0.04562431574 -0.1454010308 0.03189316019 6.698542971e-39
0.05844768137 -0.3248700798 0.04833361134 6.698542971e-39
0.03486667946 -0.2260315865 0.01969636977 6.698542971e-39
0.09000135958 -0.1809512824 0.02011379413 6.698542971e-39
0.07760012895 -0.1642446667 0.05537455902 7.434656265e-39
0.01887756959 0.2695873678 -0.04837262258 7.434656265e-39
0.03199102357 -0.006259751506 -0.06945036352 7.434656265e-39
0.05534734204 0.1970497072 0.0589489527 7.434656265e-39
0.08498948812 -0.01778995991 0.01417470444 7.434656265e-39
0.04625615105 0.3315533996 -0.02559335344 7.434656265e-39
0.03924353048 0.120925419 -0.03538780659 7.434656265e-39
0.05053610355 0.3907779455 0.01721133105 7.434656265e-39
0.0246162042 -0.1370831728 0.03132194653 7.434656265e-39
0.01597104408 0.3906706572 -0.03046802431 7.434656265e-39
-0.01632336713 0.2813999653 -0.03832432255 7.434656265e-39
0.04017699882 0.3826657832 0.05412459373 7.434656265e-39
0.007819119841 -0.1163704246 -0.002642454114 7.434656265e-39
0.03731545433 0.4086787105 -0.04152127728 7.434656265e-39
-0.007664953358 0.2142395526 -0.02024116367 7.434656265e-39
0.02835201286 0.3894282877 0.03524409235 7.434656265e-39
0.01692542806 -0.2138243169 -0.000588647963 7.434656265e-39
0.02141377702 0.4157525301 -0.04261839017 7.434656265e-39
0.002502223942 0.1431301683 -0.04286046326 7.434656265e-39
0.03556451574 0.3754773736 0.05082200468 7.434656265e-39
0.02963996492 -0.2788819969 0.01842561364 7.434656265e-39
0.01689371839 0.4392455518 -0.01398122124 7.434656265e-39
0.02289821766 -0.02000765875 -0.0464043878 7.434656265e-39
0.01642637886 0.1990610808 0.03914399445 7.434656265e-39
0.04503222927 -0.2523209453 0.04144235328 7.434656265e-39
0.01231770683 0.3487968147 0.03193080798 7.434656265e-39
0.05497760326 -0.1955326051 -0.01752380468 7.434656265e-39
0.03237268701 0.03496544808 -0.001998533728 7.434656265e-39
-0.006882838439 -0.1921784133 0.03155826777 7.434656265e-39
-0.02490014769 0.2005295455 0.03202780709 7.434656265e-39
-0.03431998193 0.01183511596 0.008059044369 7.434656265e-39
-0.004833692219 0.2528286576 -0.000300437212 7.434656265e-39
0.06431097537 -0.05696161464 -0.06520108134 8.170410826e-39
-0.05967685208 0.07070740312 -0.01995751075 8.170410826e-39
0.05662765726 -0.08136173338 -0.06760545075 8.170410826e-39
0.07531363517 0.06515086442 0.007577884942 8.170410826e-39
-0.04277949408 0.07359381765 -0.04410808161 8.170410826e-39
-0.03435840458 0.2914417684 -0.06067235023 8.170410826e-39
0.08397015929 0.001324444194 -0.03433396667 8.170410826e-39
-0.02249344438 0.2518300712 0.01470512711 8.170410826e-39
0.05097934604 0.01727057435 -0.05277064443 8.170410826e-39
-0.01610365883 0.3132732213 -0.03912585974 8.170410826e-39
0.02565179393 0.1259928197 -0.03224435821 8.170410826e-39
-0.01610616781 0.3084635437 0.02419178374 8.170410826e-39
-0.02793855779 0.04125286639 -0.01263584383 8.170410826e-39
-0.02222143672 0.3592514098 -0.0179194212 8.170410826e-39
0.02439503558 0.01377950702 -0.02554040216 8.170410826e-39
-0.02699287981 0.2200091779 -0.005640085787 8.170410826e-39
-0.01848648489 -0.1028822586 -0.009510267526 8.170410826e-39
-0.003653655294 0.3532776833 -0.0295624882 8.170410826e-39
0.02653061785 -0.02073324658 -0.03253469244 8.170410826e-39
-0.02471655607 0.04244389758 -0.00192815566 8.170410826e-39
-0.002822969109 -0.2274003923 -0.0205413308 8.170410826e-39
-0.001081013586 0.3528910875 -0.01708735339 8.170410826e-39
0.04191448539 -0.1327663809 -0.03124629147 8.170410826e-39
-0.01554985344 -0.05975458771 -0.005274492782 8.170410826e-39
-0.01990429498 -0.1471990347 -0.03467217088 8.170410826e-39
-0.02379616536 0.286146909 -0.04690714553 8.170410826e-39
0.04084338248 -0.1608574241 -0.06516029686 8.170410826e-39
-0.02387177572 -0.07138618082 -0.02482139692 8.170410826e-39
-0.002574566752 -0.1851162314 -0.05792886391 8.170410826e-39
-0.07875178754 0.03500377014 -0.02171998844 8.170410826e-39
0.03302704543 0.02482793853 -0.01028602384 8.170410826e-39
-0.05693790689 0.1177970171 0.000964872248 8.170410826e-39
-0.03968228772 -0.09994915128 0.01378710754 8.906165387e-39
0.0003853030212 -0.3714251518 -0.05403672531 8.906165387e-39
-0.0884840712 -0.3072239757 0.0226934664 8.906165387e-39
-0.02755801752 -0.1910125762 0.002823147923 8.906165387e-39
-0.0251179114 -0.1006079018 -0.001427727751 8.906165387e-39
0.01869002171 -0.4486403465 -0.09045077115 8.906165387e-39
-0.03476073965 -0.4480231106 0.03928915411 8.906165387e-39
-0.04430475459 -0.4158970118 0.01188298594 8.906165387e-39
-0.02475666068 -0.1516405791 0.01605566405 8.906165387e-39
-0.05738821626 -0.4643020928 -0.04174825549 8.906165387e-39
-0.03924118727 -0.4837554991 0.04375132173 8.906165387e-39
-0.01508270949 -0.38386181 -0.01869288459 8.906165387e-39
-0.01804231293 -0.179820329 -0.00205410365 8.906165387e-39
-0.004600633867 -0.4758670628 -0.03073626943 8.906165387e-39
-0.03628732637 -0.4785169065 0.03631448746 8.906165387e-39
-0.03430207819 -0.3974383473 -0.01714681275 8.906165387e-39
-0.02456230484 -0.2363440692 -0.006257515866 8.906165387e-39
-0.02134051919 -0.4728405774 -0.03740563616 8.906165387e-39
-0.05522536114 -0.4482920766 0.04554863274 8.906165387e-39
-0.009492425248 -0.3649681509 -0.01782499254 8.906165387e-39
-0.01707167737 -0.2299908251 -0.01318193041 8.906165387e-39
-0.01383098681 -0.4609774053 -0.03584091365 8.906165387e-39
-0.04865963385 -0.3831620812 0.03137416765 8.906165387e-39
-0.04715644941 -0.2958390713 -0.024880955 8.906165387e-39
-0.02796925232 -0.2637594938 -0.06680061668 8.906165387e-39
-0.02042309009 -0.3516608775 -0.05367413163 8.906165387e-39
-0.0477873385 -0.268019408 0.04319598526 8.906165387e-39
-0.07388547808 -0.2724589109 -0.04071620107 8.906165387e-39
-0.07550743222 -0.2255734503 0.007874959148 8.906165387e-39
-0.02848649025 0.04255291075 -0.03361498192 8.906165387e-39
-0.0606675446 -0.1174114794 -0.02182195894 8.906165387e-39
-0.0694919154 -0.2866433561 -0.02310439758 8.906165387e-39
0.05822674185 0.08146163076 0.02839326486 9.641561216e-39
0.01575700194 0.03030768409 0.04518035799 9.641561216e-39
0.05734904855 0.2022143006 -0.009199970402 9.641561216e-39
0.008528331295 -0.1803266257 0.04377995059 9.641561216e-39
0.056885425 0.1109051928 0.02759101987 9.641561216e-39
0.01239107456 -0.01675872691 0.06246960163 9.641561216e-39
0.04476584122 0.2664874792 -0.04374964163 9.641561216e-39
-0.02648753114 -0.1352889985 0.02339080907 9.641561216e-39
0.0444053188 0.1896385849 0.02217854373 9.641561216e-39
-0.00665623555 0.186283946 0.04606138542 9.641561216e-39
0.03905468807 0.3660641015 -0.0306688901 9.641561216e-39
-0.00561894523 -0.003392663319 0.01060750056 9.641561216e-39
0.04868609831 0.3024562001 0.02136854269 9.641561216e-39
-0.02163331956 0.2346965671 0.01810658164 9.641561216e-39
0.01024295297 0.3683813512 -0.02754929848 9.641561216e-39
0.008169894107 -0.1635177284 0.02167217806 9.641561216e-39
0.02712877281 0.2626938224 0.02160816267 9.641561216e-39
-0.01680356078 0.2222107649 0.01490694098 9.641561216e-39
0.007164653856 0.3417114019 -0.01634565368 9.641561216e-39
-0.002957484452 -0.2293964624 0.03386627883 9.641561216e-39
-0.002605015179 0.06035360321 0.008696188219 9.641561216e-39
0.007941086777 0.08043888211 0.02193991467 9.641561216e-39
0.02003188618 0.2855273485 -0.0132501414 9.641561216e-39
0.002149809618 -0.2127616853 0.04173425213 9.641561216e-39
0.03145517409 -0.1080632657 -0.02222096175 9.641561216e-39
-0.009271997027 -0.1389629394 0.05372916535 9.641561216e-39
0.05707098916 0.2134173065 -0.01733869873 9.641561216e-39
0.06889894605 -0.08897253126 0.03299778327 9.641561216e-39
0.01007706113 0.1072691381 -0.04754818976 9.641561216e-39
-0.06062274054 -0.06411478668 0.0384779647 9.641561216e-39
-0.005421943031 0.0865053311 0.02253189683 9.641561216e-39
0.03826633096 0.1283631325 0.03594820201 9.641561216e-39
-0.04363961145 0.03764204681 -0.01497598179 1.037659831e-38
0.03941234201 0.04634701088 0.06243082881 1.037659831e-38
-0.06500244141 0.3542145789 0.009541229345 1.037659831e-38
0.05073131621 -0.05013979971 0.06803947687 1.037659831e-38
-0.07611376792 -0.009143961594 -0.05222821608 1.037659831e-38
0.03320554271 0.2105401158 0.02319492958 1.037659831e-38
-0.01603309624 0.4359557033 -0.03198593855 1.037659831e-38
0.0224411916 -0.07501810789 0.02129298635 1.037659831e-38
-0.06584285945 0.2058957219 0.004769534804 1.037659831e-38
0.01477190573 0.2174626589 0.0372989662 1.037659831e-38
0.01711305045 0.4914427698 0.006134682801 1.037659831e-38
0.01005191449 0.1484066248 0.03491681442 1.037659831e-38
-0.02250399813 0.2238136083 -0.007205082104 1.037659831e-38
0.0145648485 0.3393859267 0.01563639939 1.037659831e-38
-0.02722453885 0.4845618606 -0.01649701223 1.037659831e-38
0.008371024393 -0.02299356461 0.01684073545 1.037659831e-38
-0.01220467966 0.1943486333 -0.003433664795 1.037659831e-38
0.01529221702 0.2754042745 0.006781334523 1.037659831e-38
-0.03685661033 0.4738378525 -0.01598894969 1.037659831e-38
0.03254640847 -0.1093622372 0.008653365076 1.037659831e-38
0.008112123236 0.08039135486 -0.01328124944 1.037659831e-38
0.01124782301 0.2109344155 -0.0004005301453 1.037659831e-38
-0.04603322223 0.4396701157 -0.01327479538 1.037659831e-38
-0.01326047163 -0.1435834765 -0.007770255208 1.037659831e-38
-0.01038498338 0.03448205069 -0.01831654087 1.037659831e-38
-0.01311608404 0.02008746006 0.02363823541 1.037659831e-38
-0.004208388738 0.2518388033 -0.03041858971 1.037659831e-38
-0.002630891744 -0.1625057161 0.04514409602 1.037659831e-38
-0.0429283008 0.1427332163 -0.008645736612 1.037659831e-38
-0.02941048332 -0.01308217552 0.0503446199 1.037659831e-38
-0.06992411613 0.2003491819 0.0009667032282 1.037659831e-38
-0.0008182589081 0.07727328688 0.01976434514 1.037659831e-38
0.008587271906 -0.2879809141 -0.06161894649 1.111163541e-38
-0.04997347295 -0.4759023786 -0.0357475467 1.111163541e-38
0.06648698449 -0.3752492964 -0.08635794371 1.111163541e-38
-0.03477794677 -0.2108622789 -0.04832437634 1.111163541e-38
0.04939986393 -0.3439460397 -0.04564910382 1.111163541e-38
-0.07121316344 -0.4827474952 -0.006321852561 1.111163541e-38
0.05583553389 -0.4923217297 -0.02717890963 1.111163541e-38
-0.01372771896 -0.1917935759 -0.03124730475 1.111163541e-38
0.007992149331 -0.4651817083 -0.06584660709 1.111163541e-38
-0.09713280946 -0.4956201613 -0.00841108989 1.111163541e-38
0.000280700624 -0.4261268079 -0.04267788306 1.111163541e-38
-0.04058429971 -0.3376600146 -0.02937288396 1.111163541e-38
0.06647116691 -0.4448232949 -0.02935701236 1.111163541e-38
-0.0712140128 -0.4959214628 0.01899377443 1.111163541e-38
0.03029876947 -0.4682826102 -0.0456831716 1.111163541e-38
-0.02320292592 -0.3630345464 -0.03626416996 1.111163541e-38
0.05437608808 -0.4088251889 -0.04428284243 1.111163541e-38
-0.07749883831 -0.4937961698 0.009495748207 1.111163541e-38
0.05469783768 -0.4092495739 -0.06298880279 1.111163541e-38
-0.01684237272 -0.3663643003 -0.0435360074 1.111163541e-38
0.04822142795 -0.3532097042 -0.03685867786 1.111163541e-38
-0.05556226522 -0.4877694249 -0.004883816931 1.111163541e-38
0.06055391952 -0.4002107382 -0.04338150844 1.111163541e-38
-0.03271352127 -0.3313407302 -0.06577396393 1.111163541e-38
0.03803452477 -0.2454977185 -0.05364569277 1.111163541e-38
-0.01835111342 -0.4215038419 -0.06065379828 1.111163541e-38
0.08195658773 -0.2855911553 -0.0317173861 1.111163541e-38
-0.02432992309 -0.2400604635 -0.05762416497 1.111163541e-38
0.003046030179 -0.2017980069 -0.1060993448 1.111163541e-38
-0.03807429597 -0.2128321826 -0.04698315263 1.111163541e-38
0.008033039048 -0.2227134705 -0.05222559348 1.111163541e-38
-0.02639271878 -0.3607829213 -0.0845509842 1.111163541e-38
-0.04892448708 0.4048424065 -0.04457882419 1.184631237e-38
-0.03867933527 0.4695505798 -0.007719270419 1.184631237e-38
-0.08366634697 0.4261900485 0.01802788489 1.184631237e-38
0.02649636194 0.395371139 0.03146952763 1.184631237e-38
-0.02059319802 0.4795704186 -0.0154364733 1.184631237e-38
0.03402343765 0.4818288982 0.02455069683 1.184631237e-38
-0.008303585462 0.4742411077 0.04169762507 1.184631237e-38
0.03633631766 0.484267652 0.01175793074 1.184631237e-38
-0.04307974875 0.4691044092 -0.03927000239 1.184631237e-38
0.0415424183 0.4793397486 -0.0358659178 1.184631237e-38
-0.02009111643 0.4688062072 0.05356902629 1.184631237e-38
0.0249627959 0.4214900732 0.05852382258 1.184631237e-38
-0.03689984605 0.4883657396 -0.02370486222 1.184631237e-38
0.05392110348 0.478979975 0.01319536008 1.184631237e-38
-0.01574822702 0.4788101912 0.03230755031 1.184631237e-38
0.033871755 0.4535722136 0.04645873979 1.184631237e-38
-0.03000307828 0.4881028235 -0.01554387249 1.184631237e-38
0.04598596692 0.4776775241 -0.004508673213 1.184631237e-38
-0.02866227925 0.4794565737 0.02095965296 1.184631237e-38
0.02648931742 0.4628918469 0.05551980436 1.184631237e-38
-0.02254202589 0.4820831418 -0.009688466787 1.184631237e-38
0.03403591365 0.4768625498 0.02009547688 1.184631237e-38
-0.05339691043 0.4826645255 0.009315888397 1.184631237e-38
-0.02037029527 0.403480351 0.0352015309 1.184631237e-38
0.009494541213 0.4404483438 0.00334330136 1.184631237e-38
-0.01069125067 0.4712020755 0.02760388702 1.184631237e-38
-0.04655633494 0.456920445 0.006374556106 1.184631237e-38
-0.007570107002 0.394980818 0.001456658239 1.184631237e-38
-0.06511629373 0.4372168183 0.02224263549 1.184631237e-38
-0.07937222719 0.4387870431 -0.02115364373 1.184631237e-38
-0.07256761193 0.3807370365 -0.02892310917 1.184631237e-38
-0.02706949599 0.3684107959 -0.01630323566 1.184631237e-38
0.006086818408 0.3120058477 0.0128919119 1.258099074e-38
0.01820678264 -0.2069508433 0.0766152516 1.258099074e-38
0.01628834568 0.2870475948 0.05751740932 1.258099074e-38
0.004697862081 0.03908912092 0.06840518117 1.258099074e-38
0.008032923564 0.4633464217 0.04696819186 1.258099074e-38
0.02639415115 -0.0178769175 0.04124760628 1.258099074e-38
-0.02013127506 0.476654619 0.03029651754 1.258099074e-38
0.01255412772 0.03342258185 0.02585275285 1.258099074e-38
-0.02289542556 0.4849959016 -0.006214091554 1.258099074e-38
0.02301009558 0.1734010875 0.01449560188 1.258099074e-38
0.002521762857 0.4031055272 0.07886626571 1.258099074e-38
0.01583947428 0.1103528515 0.02236174047 1.258099074e-38
0.01522398833 0.4891355336 0.004019596614 1.258099074e-38
0.0449106507 0.3183853328 0.06077862158 1.258099074e-38
0.001390113495 0.4380867183 0.04740511626 1.258099074e-38
0.01281809621 0.03393687308 0.0393374674 1.258099074e-38
0.008907268755 0.4851334393 0.01981239021 1.258099074e-38
0.03196568042 0.2693551481 0.03864745423 1.258099074e-38
0.01621953398 0.4314236343 0.05332310498 1.258099074e-38
0.01602251083 0.04167116061 0.04380696639 1.258099074e-38
0.006935134996 0.4461665154 0.0139976684 1.258099074e-38
0.02011481486 0.2037799954 0.02074567601 1.258099074e-38
0.01980469748 0.4229573309 0.03515589982 1.258099074e-38
-0.004650671035 0.003933379427 0.04862946272 1.258099074e-38
0.005520340055 0.327247858 0.04031831026 1.258099074e-38
-0.01193390042 -0.05882503837 0.06371445209 1.258099074e-38
-0.03946663439 0.2662424445 0.01882970147 1.258099074e-38
-0.008489948697 -0.006539713591 0.04744173959 1.258099074e-38
-0.01256104093 0.2618769407 0.0419431515 1.258099074e-38
0.05447120592 -0.1817197204 0.03083846159 1.258099074e-38
-0.007598380558 0.2935878932 -0.0134722935 1.258099074e-38
-0.04098811001 0.007378131151 0.001591368113 1.258099074e-38
-0.07198010385 -0.3845795393 0.01384569146 1.331530897e-38
0.01055225264 -0.4204964638 0.07971353829 1.331530897e-38
0.0096790893 -0.431856662 -0.02443647385 1.331530897e-38
0.06108530238 -0.4734230638 -0.0006832330255 1.331530897e-38
-0.06658552587 -0.4830239415 0.06164284796 1.331530897e-38
-0.01803948916 -0.4057328701 0.07189819962 1.331530897e-38
-0.04000182077 -0.4804494679 -0.04040102661 1.331530897e-38
0.06003043428 -0.4944940507 0.03465701267 1.331530897e-38
-0.04746891558 -0.4817960262 -0.04343444854 1.331530897e-38
0.0314903371 -0.4872413278 0.07354018837 1.331530897e-38
0.02686898969 -0.4999708831 -0.04560545087 1.331530897e-38
0.06206320599 -0.4977558255 0.01429206412 1.331530897e-38
-0.06015631929 -0.492488116 0.0254352577 1.331530897e-38
0.01092806179 -0.4787468314 0.0546290651 1.331530897e-38
-0.009456270374 -0.4900442064 -0.03474397585 1.331530897e-38
0.04440640658 -0.4757468104 0.02395555936 1.331530897e-38
-0.04558933899 -0.4938053191 -0.0006379335537 1.331530897e-38
0.03744564205 -0.4785126746 0.05906741694 1.331530897e-38
-0.05421227589 -0.4667447805 -0.006681677885 1.331530897e-38
0.04536013678 -0.4609466195 0.02384549566 1.331530897e-38
-0.06085929275 -0.4929817021 0.01472603623 1.331530897e-38
0.03240854293 -0.4591465294 0.05869330093 1.331530897e-38
-0.0560125038 -0.433293283 0.00992638059 1.331530897e-38
0.06709602475 -0.4459223747 -0.0281962119 1.331530897e-38
0.01497898716 -0.4888739884 -0.02915196121 1.331530897e-38
-0.0120555358 -0.3979314864 0.05800452828 1.331530897e-38
-0.08779934049 -0.1813106537 0.09475970268 1.331530897e-38
0.05872191489 -0.2408051789 0.05768231675 1.331530897e-38
0.004483676981 -0.3680762053 -0.01700890623 1.331530897e-38
0.0342249833 -0.2188442051 -0.002237755805 1.331530897e-38
-0.01483596023 -0.214915663 -0.007298258133 1.331530897e-38
-0.00383358798 -0.3219408393 -0.0109531153 1.331530897e-38
0.01008030865 -0.07740291208 -0.04654671624 1.404926846e-38
0.003044677898 -0.05934043974 -0.0882493183 1.404926846e-38
0.05907373503 0.02851198055 -0.07362934947 1.404926846e-38
-0.05099951103 -0.1816740632 -0.06386304647 1.404926846e-38
0.02483456209 0.1265178472 -0.0368882902 1.404926846e-38
0.02683168277 -0.2469103038 -0.07673151791 1.404926846e-38
0.05607769266 0.045817215 -0.01624709368 1.404926846e-38
0.004522732459 -0.1157656014 -0.02748823352 1.404926846e-38
0.02027139254 0.3279701471 -0.03139963746 1.404926846e-38
0.004532544408 -0.1736947745 -0.04988843575 1.404926846e-38
0.05431202427 0.2610171437 0.03598479554 1.404926846e-38
-0.01283717062 -0.07398401201 -0.02414436638 1.404926846e-38
0.0240175575 0.3582135439 -0.0255785808 1.404926846e-38
0.007366322912 -0.05972360075 -0.03548654169 1.404926846e-38
0.0174792856 0.1456609964 0.01513834856 1.404926846e-38
-0.002436126349 -0.1579876989 -0.02687659115 1.404926846e-38
0.003623372875 0.1851211339 -0.01432530954 1.404926846e-38
0.0292446278 -0.2900862694 -0.05746882781 1.404926846e-38
0.02289051749 0.05718202516 0.007487827446 1.404926846e-38
-0.0110579282 -0.2530061901 -0.04778574035 1.404926846e-38
0.02114803903 -0.169760257 -0.02092647552 1.404926846e-38
0.002718844218 -0.2854860723 -0.05285442621 1.404926846e-38
0.03399281576 0.04891338944 -0.03440608457 1.404926846e-38
-0.02240461297 -0.2455687374 -0.04943947122 1.404926846e-38
0.04967674986 -0.2934385836 -0.05227835104 1.404926846e-38
-0.03553116694 -0.1484587342 -0.03849327564 1.404926846e-38
0.03568375483 -0.08307639509 -0.05730373412 1.404926846e-38
-0.004742601886 -0.206059888 -0.09298300743 1.404926846e-38
0.03977484256 -0.0560589321 -0.04720705003 1.404926846e-38
-0.06493338943 0.003128774464 -0.05829665065 1.404926846e-38
-0.02663953789 0.1120642349 -0.07023828477 1.404926846e-38
-0.08356467634 -0.00186198554 -0.04795002192 1.404926846e-38
0.0736290887 -0.04444254935 0.01402677223 1.478322936e-38
0.01071969327 -0.4005184472 -0.03299198672 1.478322936e-38
0.03424673527 -0.2954609394 -0.003790636081 1.478322936e-38
0.08566620201 -0.127534762 -0.02703678608 1.478322936e-38
0.05988012627 0.01773154363 -0.006835763808 1.478322936e-38
0.07628167421 -0.432714045 -0.03074271046 1.478322936e-38
0.02782779559 -0.3630001545 0.001639223075 1.478322936e-38
0.04308097064 -0.2338159233 -0.02910500392 1.478322936e-38
0.04752282053 0.1014822274 -0.01373066846 1.478322936e-38
0.03352181986 -0.4501699209 -0.05939699709 1.478322936e-38
-0.006533499807 -0.3148443699 -0.003630860476 1.478322936e-38
0.02883994766 -0.1529158503 -0.0390551798 1.478322936e-38
0.007376239169 -0.08134418726 0.007348636165 1.478322936e-38
0.04291498661 -0.4679692388 -0.03199066594 1.478322936e-38
0.01892421208 -0.3180730939 0.003319914453 1.478322936e-38
0.03805446997 -0.2687868774 -0.01521231607 1.478322936e-38
0.03623110428 -0.08081043512 0.004998582881 1.478322936e-38
0.03645925969 -0.4710423648 -0.03417847306 1.478322936e-38
0.02533535846 -0.2506184876 -0.03431992605 1.478322936e-38
0.03816393763 -0.319304198 -0.003029702231 1.478322936e-38
0.0241735857 -0.06680991501 0.002551952377 1.478322936e-38
0.02792716771 -0.4252738357 -0.02614247613 1.478322936e-38
0.03821876273 -0.2718660831 -0.01724727079 1.478322936e-38
0.03490238264 -0.2291590571 -0.02928407118 1.478322936e-38
0.04301952571 -0.1262366474 0.01755286008 1.478322936e-38
0.07301364839 -0.2968812883 -0.05349923298 1.478322936e-38
0.049793493 -0.2704753578 -0.03132499382 1.478322936e-38
0.07696058601 -0.2221897095 -0.03697543219 1.478322936e-38
0.03897066787 -0.09642907232 -0.02678674273 1.478322936e-38
0.02697093599 -0.2255681902 -0.05538174883 1.478322936e-38
-0.01547718141 -0.07765253633 -0.01330487151 1.478322936e-38
-0.007926655933 -0.1782934517 -0.04469528049 1.478322936e-38
-0.02182828262 -0.05492854118 -0.03908013925 1.551683013e-38
0.02108668163 0.3223663568 0.04848833382 1.551683013e-38
-0.06865885854 0.4447991848 -0.06374786049 1.551683013e-38
-0.01430896576 0.4570403099 -0.04175277799 1.551683013e-38
-0.03647010028 0.1044732481 -0.02911214158 1.551683013e-38
0.06788571924 0.4318216443 0.0149393063 1.551683013e-38
-0.03579167277 0.4577868581 0.006187553518 1.551683013e-38
0.03293040022 0.4594294131 0.01513978094 1.551683013e-38
-0.004407928791 0.1941908747 -0.05739105493 1.551683013e-38
0.01842743158 0.4314545691 0.006752012298 1.551683013e-38
-0.05500904098 0.4721961617 -0.001214607968 1.551683013e-38
0.0364167057 0.4585987329 -0.03915524483 1.551683013e-38
-0.02600263804 0.2799054384 -0.03678607196 1.551683013e-38
0.05583883822 0.4599744678 0.03573805466 1.551683013e-38
-0.04600357264 0.4652760327 -0.01769848168 1.551683013e-38
0.01757698506 0.4608586729 -0.02583137527 1.551683013e-38
0.002226676792 0.2933356464 -0.02567997575 1.551683013e-38
0.03841516003 0.4643574059 0.02905431204 1.551683013e-38
-0.04625352472 0.4450865388 -0.07308363914 1.551683013e-38
0.01080822572 0.4631772935 -0.03336491436 1.551683013e-38
0.005872465204 0.2345209718 -0.01871333458 1.551683013e-38
0.03890010715 0.4653598666 0.01228521951 1.551683013e-38
-0.04505630583 0.4033037424 -0.0676831156 1.551683013e-38
-0.06002695486 0.476970464 -0.03219970688 1.551683013e-38
-0.005817377474 0.1120100021 -0.02671077102 1.551683013e-38
0.004866070114 0.3841381669 -0.03811210394 1.551683013e-38
-0.02311122045 0.35779199 -0.05655017868 1.551683013e-38
-0.02575608529 0.3935447335 -0.02073868923 1.551683013e-38
-0.02388107404 0.4015339911 -0.03437194973 1.551683013e-38
0.006949283183 0.3232800663 -0.03301979974 1.551683013e-38
-0.02510844544 0.3651836812 -0.02350706421 1.551683013e-38
-0.04865277186 0.257974118 -0.007576495875 1.551683013e-38
-0.07018879056 -0.135765776 -0.02067847736 1.625043089e-38
-0.04767822102 0.1361894757 -0.02172131278 1.625043089e-38
-0.06657090038 -0.1521147341 -0.05427172035 1.625043089e-38
-0.03750025108 -0.09254128486 -0.001495240955 1.625043089e-38
-0.02707686648 0.1675834805 -0.04124655202 1.625043089e-38
-0.05346494913 0.363406539 -0.01803427935 1.625043089e-38
-0.00898070354 -0.3202988207 -0.01183796115 1.625043089e-38
-0.02997148596 0.03395409137 0.02872406133 1.625043089e-38
-0.01451581065 0.1056629568 -0.001014135429 1.625043089e-38
-0.03975577652 0.4148296118 -0.00692766998 1.625043089e-38
0.006409065798 -0.01411647443 -0.03276081011 1.625043089e-38
-0.02213785425 0.1735489368 0.01145534776 1.625043089e-38
-0.01272719912 0.2126335353 -0.02854239382 1.625043089e-38
-0.0577606447 0.4345861375 -0.009789429605 1.625043089e-38
0.008914561942 -0.2027314305 -0.02064815536 1.625043089e-38
-0.006861996371 0.05828825384 0.002169188345 1.625043089e-38
-0.003936165944 0.1063280478 -0.02192206681 1.625043089e-38
-0.04277682304 0.4183136523 0.00565908011 1.625043089e-38
0.0001176744699 -0.2741160989 -0.03613377362 1.625043089e-38
-0.002261187648 -0.02762255259 0.006160479505 1.625043089e-38
0.008556306362 -0.03187483549 -0.02662664279 1.625043089e-38
-0.01777817681 0.3738162816 0.006218703464 1.625043089e-38
-0.02318549342 -0.3300121725 -0.0395776704 1.625043089e-38
-0.03108127415 -0.2060799152 0.01264722273 1.625043089e-38
-0.004817254841 0.01006512623 -0.03459948301 1.625043089e-38
-0.01961876452 0.2629761994 -0.03240368888 1.625043089e-38
-0.04316153005 -0.2429959029 -0.03954147547 1.625043089e-38
-0.04181081429 -0.193141371 0.02085667849 1.625043089e-38
-0.07532252371 -0.2350698411 -0.04209141806 1.625043089e-38
-0.08386446536 0.1209926233 0.03926409408 1.625043089e-38
-0.06202894449 -0.01865183003 -0.007288274821 1.625043089e-38
-0.03760548308 0.08662521094 0.001640526927 1.625043089e-38
0.0787929371 -0.1889428347 -0.01081089303 1.698367293e-38
0.04923185334 -0.0537606217 0.002819590271 1.698367293e-38
-0.001646859921 -0.205130294 0.001042008051 1.698367293e-38
-0.002806387842 -0.1008133963 -0.02890236117 1.698367293e-38
0.02389820851 -0.1667747051 -0.01101106592 1.698367293e-38
0.05285979062 0.1082656905 -0.05299837142 1.698367293e-38
0.01174866781 -0.2786753774 0.03544474021 1.698367293e-38
