# .PCD v0.7 - Point Cloud Data file format
VERSION 0.7
FIELDS x y z rgb
SIZE 4 4 4 4
TYPE F F F F
COUNT 1 1 1 1
WIDTH 843
HEIGHT 1
VIEWPOINT 0 0 0 1 0 0 0
POINTS 843
DATA ascii
-0.1397369504 0.1437746435 0.276601553 1.207529015e-38
0.1929931045 -0.1637126207 -0.04224312305 4.940102574e-39
-0.1308764219 -0.163716197 0.2449496984 4.940102574e-39
-0.09626287222 0.1437743455 0.2959209681 1.207529015e-38
-0.06953597069 -0.163714692 -0.05633294582 4.940102574e-39
-0.1865503788 -0.1448548436 0.3321737051 5.306009629e-39
0.2175055891 0.1375585198 -0.07608044147 1.198381338e-38
0.1049901769 -0.1637119651 -0.3192374706 4.940102574e-39
-0.00674366951 -0.1637155563 0.222889483 4.940102574e-39
-0.1363124251 -0.1637165695 0.284976244 4.940102574e-39
-0.09483361244 0.1437751055 0.1879295707 1.207529015e-38
-0.2115651965 -0.1637168229 0.01171469688 4.940102574e-39
-0.1452015638 -0.1637158543 0.03982365131 4.940102574e-39
-0.1247510314 0.1437754482 0.1521037817 1.207529015e-38
0.2645731568 -0.1743115634 0.08497643471 4.665672282e-39
-0.1959564686 0.1326343119 0.3386184573 1.189233662e-38
0.1055153608 0.1437731832 -0.1795859337 1.207529015e-38
-0.2223109603 0.1375602782 -0.08535575867 1.198381338e-38
-0.1473600268 -0.1637159735 0.1208400726 4.940102574e-39
0.1976158619 -0.1637121439 -0.09655022621 4.940102574e-39
-0.2434585094 -0.04352953658 -0.3127036095 7.684405486e-39
0.140406251 -0.1637114882 -0.2230448723 4.940102574e-39
-0.1105348468 -0.1637151092 -0.2580747604 4.940102574e-39
-0.1144404411 0.1375607401 -0.3370848894 1.198381338e-38
0.2577165365 -0.154969275 -0.3148747683 5.123056101e-39
0.1792694777 -0.1637120694 -0.1156436205 4.940102574e-39
0.1872218549 -0.1344237179 -0.3413666487 5.58043992e-39
-0.1648004651 0.1437769681 -0.05007779598 1.207529015e-38
-0.1551027894 0.1437749416 0.2402024865 1.207529015e-38
-0.19492805 0.004409752786 0.3509429693 8.873603415e-39
0.002784430981 0.1587300301 0.341884613 1.24411972e-38
0.1046863794 0.14377442 0.1799672842 1.207529015e-38
-0.2069406509 -0.1000507474 0.369240284 6.403730794e-39
0.1978668571 -0.163710922 -0.250576973 4.940102574e-39
-0.19492805 0.004409752786 0.3509429693 8.873603415e-39
-0.0429276228 -0.1793376654 0.3794304729 4.574195519e-39
0.2478183806 -0.1344236135 -0.3233574629 5.58043992e-39
-0.03477567434 0.1437752396 0.1346568465 1.207529015e-38
0.03852689266 0.1437746137 0.1911729574 1.207529015e-38
0.06378531456 0.1437744796 0.1995677948 1.207529015e-38
-0.140668571 -0.1622096151 -0.3709027767 4.940102574e-39
0.03425103426 0.1401721388 -0.3294224739 1.198381338e-38
-0.1246083379 0.1437751055 0.2021984458 1.207529015e-38
-0.02089133859 0.1437756121 0.07539194822 1.207529015e-38
0.189244926 -0.1637128294 -0.01608133316 4.940102574e-39
0.06274592876 0.1437750757 0.08792304993 1.207529015e-38
-0.09537088871 -0.16371499 -0.1834579706 4.940102574e-39
-0.08517932892 -0.1637149453 -0.01816433668 4.940102574e-39
0.217809245 0.1626728177 0.3624680042 1.253267397e-38
-0.1435722113 0.143777594 -0.2826923132 1.207529015e-38
0.2559059858 -0.1463271976 0.001370191574 5.306009629e-39
0.2576254904 -0.154796809 -0.2400665283 5.123056101e-39
0.2460797429 -0.08096650988 0.3263375163 6.861114612e-39
-0.1808957458 0.1437783539 -0.264814198 1.207529015e-38
0.1086420119 0.1437761188 -0.3060978651 1.207529015e-38
0.08507484198 0.1437742114 0.227879107 1.207529015e-38
0.07320216298 -0.1637149155 0.1845809221 4.940102574e-39
-0.159332633 -0.1637157798 -0.3266563416 4.940102574e-39
-0.1973503232 0.08333417028 -0.31257689 1.070313869e-38
-0.2142554522 -0.1637167931 -0.08883440495 4.940102574e-39
-0.04038059711 -0.1637153476 0.181763649 4.940102574e-39
0.2541460991 -0.091483064 0.3501883745 6.586684321e-39
0.104025133 0.1437743157 0.1999377608 1.207529015e-38
-0.08228111267 0.1437757909 0.07650792599 1.207529015e-38
-0.143861115 -0.1637157053 -0.1602262259 4.940102574e-39
-0.080696702 0.1592772603 0.341984123 1.24411972e-38
-0.01492449641 -0.1621247083 0.3735913634 4.940102574e-39
0.02057740092 -0.163716197 0.3212900162 4.940102574e-39
0.08674350381 0.1437736005 -0.1705937386 1.207529015e-38
-0.002372920513 0.143774122 0.2878991365 1.207529015e-38
-0.1757858396 -0.1637167037 0.2855365872 4.940102574e-39
0.08287239075 0.1437744796 0.1904207468 1.207529015e-38
0.1052261293 0.1375566274 -0.3355154991 1.198381338e-38
0.1979668736 0.05878581852 0.3624724746 1.015427811e-38
-0.05132734776 -0.1637144089 -0.06505680084 4.940102574e-39
-0.2234152555 0.1375599056 0.2207772732 1.198381338e-38
0.2244926095 0.1583991349 0.1433676481 1.24411972e-38
-0.2042927742 -0.1434757262 -0.3041110039 5.397486392e-39
-0.2014716268 0.1437769085 0.03940689564 1.207529015e-38
-0.0647969842 -0.163714543 -0.1604400873 4.940102574e-39
0.07069170475 -0.1630934775 0.3771092892 4.940102574e-39
-0.240083009 -0.1197683737 -0.3065753579 5.946346975e-39
0.1160407066 -0.1637117416 -0.3666250706 4.940102574e-39
-0.1944477558 0.06373433024 -0.3291448355 1.024575487e-38
-0.159332633 -0.1637157798 -0.3266563416 4.940102574e-39
-0.2434585094 0.1357097626 -0.3127036095 1.189233662e-38
-0.2219183445 0.137558952 0.1929888129 1.198381338e-38
0.2166244388 0.1375590265 0.1675294042 1.198381338e-38
0.2665412426 -0.1761842221 0.1071677804 4.574195519e-39
-0.04178565741 0.1437764615 -0.03711497784 1.207529015e-38
0.004802584648 -0.1637157202 0.2520813346 4.940102574e-39
0.1979668736 -0.001152670244 0.3624724746 8.690649887e-39
-0.1940891147 -0.08467657119 -0.3397606611 6.769637849e-39
-0.01492449641 -0.1621247083 0.3735913634 4.940102574e-39
-0.2439998388 -0.1637171805 -0.1520383358 4.940102574e-39
-0.1240454316 -0.1637154818 -0.06244397163 4.940102574e-39
0.2198337913 0.1444866359 0.361423552 1.216676691e-38
-0.1865503788 -0.1448548436 0.3321737051 5.306009629e-39
-0.03710368276 0.1437744945 0.2479164004 1.207529015e-38
0.04347068071 0.1437747777 0.1674032807 1.207529015e-38
-0.1746866703 0.1437754482 0.1760342717 1.207529015e-38
-0.1235125735 -0.1637153625 -0.2097629309 4.940102574e-39
0.1932237744 -0.1020207629 0.3687527776 6.31225403e-39
0.2660932839 -0.174310118 -0.03117400408 4.665672282e-39
0.07818266749 -0.1637145579 0.1447729468 4.940102574e-39
0.2249908149 0.1592499763 -0.2618229389 1.24411972e-38
0.2192731798 0.07957959175 -0.3140100241 1.061166193e-38
-0.213975668 0.1597154588 0.3629953265 1.24411972e-38
0.2391267121 0.02807621472 0.3613988757 9.422463997e-39
0.03351286054 -0.163714245 0.08188134432 4.940102574e-39
-0.04533851147 -0.1637158543 0.2413832545 4.940102574e-39
-0.2344487309 -0.1637171805 0.05335271358 4.940102574e-39
0.2510464787 -0.1205179393 0.3114749193 5.946346975e-39
-0.1910175681 -0.1637167037 0.2737678289 4.940102574e-39
-0.07516121864 -0.1637151092 0.1339551806 4.940102574e-39
0.07565808296 0.1437734962 -0.2460392714 1.207529015e-38
0.04281553626 0.1437749118 0.1453549266 1.207529015e-38
-0.2544793487 -0.163681373 -0.280725956 4.940102574e-39
0.2652127445 -0.1743130088 0.2181575298 4.665672282e-39
-0.1949049234 0.08250813931 0.3318953514 1.070313869e-38
0.1787134111 -0.163711071 -0.2413992882 4.940102574e-39
-0.05960267782 0.1437766701 -0.06352114677 1.207529015e-38
0.2575438917 -0.1546421349 -0.1729757786 5.123056101e-39
0.2248218805 -0.1637137234 0.1119276881 4.940102574e-39
-0.1240454316 -0.1637154818 -0.06244397163 4.940102574e-39
-0.0002430677414 -0.1637146771 0.1204340532 4.940102574e-39
-0.135864675 0.1437748075 0.2533454299 1.207529015e-38
0.2467697561 -0.06422042102 -0.3296768665 7.227021667e-39
0.1238357425 0.1437738687 0.261572361 1.207529015e-38
-0.16602391 -0.1637161523 0.04980003834 4.940102574e-39
0.2248796523 0.1583944559 -0.171569407 1.24411972e-38
-0.213975668 0.07765980065 0.3629953265 1.052018516e-38
-0.04649674892 -0.163714394 0.02041888237 4.940102574e-39
0.1997743845 0.1437751055 -0.0303530097 1.207529015e-38
-0.2396985888 -0.1793803871 0.3796696663 4.574195519e-39
0.2171022296 0.1375587583 0.03545165062 1.198381338e-38
-0.1940720081 0.06460302323 -0.3512096405 1.024575487e-38
0.002545952797 0.1437743157 0.2485693693 1.207529015e-38
0.2452672422 0.1177657694 0.316570878 1.152642956e-38
0.2028646767 0.1437740922 0.1124212667 1.207529015e-38
0.2177414447 0.1375583857 -0.141271472 1.198381338e-38
0.1422141194 0.1437731683 -0.002753615379 1.207529015e-38
-0.213975668 0.07765980065 0.3629953265 1.052018516e-38
-0.1245766878 -0.1637156308 0.08446151018 4.940102574e-39
0.08266812563 -0.1637146622 0.161690712 4.940102574e-39
0.1533920765 0.1437724531 -0.130614996 1.207529015e-38
0.2198337913 0.0830513835 0.361423552 1.070313869e-38
-0.2344487309 -0.1637171805 0.05335271358 4.940102574e-39
0.257162869 -0.1500277668 0.1426917911 5.214532865e-39
-0.1950395703 -0.002569695236 -0.3416494131 8.690649887e-39
0.2192731798 0.1193693876 -0.3140100241 1.152642956e-38
-0.2549473643 -0.1626323313 0.1004453301 4.940102574e-39
-0.2010701299 0.1437766999 0.07229471207 1.207529015e-38
-0.126426816 0.1437756419 0.1259672046 1.207529015e-38
0.09968087077 0.1437739581 0.2564017773 1.207529015e-38
0.2249908149 0.1592499763 -0.2618229389 1.24411972e-38
0.07320216298 -0.1637149155 0.1845809221 4.940102574e-39
0.2249490172 0.1596406102 -0.02937453985 1.24411972e-38
0.2176202387 0.1375584751 -0.1077829599 1.198381338e-38
-0.2060160637 -0.1637167335 0.03973042965 4.940102574e-39
0.193595469 -0.1637124121 -0.06799244881 4.940102574e-39
0.01488313079 -0.1637143791 0.09080827236 4.940102574e-39
-0.1973503232 -0.01767694578 -0.31257689 8.324742832e-39
-0.1070272326 -0.1637152731 0.02153372765 4.940102574e-39
-0.2544793487 -0.163681373 -0.280725956 4.940102574e-39
-0.143861115 -0.1637157053 -0.1602262259 4.940102574e-39
0.003423094749 0.1437751055 0.1408423185 1.207529015e-38
0.256991148 -0.15194498 0.282124579 5.214532865e-39
-0.1973503232 0.1035363674 -0.31257689 1.116052251e-38
-0.005810201168 -0.1637138128 0.0009250044823 4.940102574e-39
-0.1945895553 -0.1637164801 -0.09825623035 4.940102574e-39
-0.224679172 -0.1637169272 -0.1215064526 4.940102574e-39
0.2192731798 -0.02431598492 -0.3140100241 8.141789305e-39
0.2079569697 -0.08129869401 0.3624786139 6.861114612e-39
0.1755094528 0.1437726766 0.03390157223 1.207529015e-38
0.2173968852 0.1375586092 -0.04602479935 1.198381338e-38
-0.2434585094 -0.002560578054 -0.3127036095 8.690649887e-39
-0.1668095589 -0.1637162715 0.1301588416 4.940102574e-39
0.2577165365 -0.154969275 -0.3148747683 5.123056101e-39
-0.250310719 -0.1403624564 -0.3040553331 5.488963156e-39
-0.1949049234 0.02250223234 0.3318953514 9.23951047e-39
0.04483214021 -0.1637144983 0.1203085184 4.940102574e-39
0.2575438917 -0.1546421349 -0.1729757786 5.123056101e-39
-0.1638804674 -0.1637167931 0.2981863022 4.940102574e-39
0.2391267121 0.06850598752 0.3613988757 1.033723163e-38
0.03852689266 0.1437746137 0.1911729574 1.207529015e-38
0.2250177562 0.140273124 -0.2836995125 1.198381338e-38
0.2463248968 0.03843991458 -0.3588603735 9.605417525e-39
0.1872218549 -0.1344237179 -0.3413666487 5.58043992e-39
0.03928917646 -0.1637143791 0.1014910266 4.940102574e-39
-0.03827914596 0.1437741071 0.3051065207 1.207529015e-38
0.1435164511 -0.1627754867 -0.3712462187 4.940102574e-39
-0.01694351435 0.138930738 0.3419063687 1.198381338e-38
-0.1973503232 -0.01767694578 -0.31257689 8.324742832e-39
-0.1950395703 -0.02312711067 -0.3416494131 8.233266069e-39
-0.2100732923 -0.163716957 0.2209755778 4.940102574e-39
-0.2237486839 0.1375605911 0.1037149429 1.198381338e-38
-0.2234152555 0.1375599056 0.2207772732 1.198381338e-38
0.1787134111 -0.163711071 -0.2413992882 4.940102574e-39
0.1257626414 -0.1637116671 -0.329189539 4.940102574e-39
0.06753149629 0.1437734812 -0.286370039 1.207529015e-38
0.1872218549 -0.1344237179 -0.3413666487 5.58043992e-39
-0.1865264773 -0.1418219358 0.3122485876 5.397486392e-39
0.09382748604 0.1437737346 0.2920732498 1.207529015e-38
-0.2163345814 0.1389469355 0.01870620251 1.198381338e-38
0.1853292584 0.1437717825 -0.1459143162 1.207529015e-38
-0.02146488428 0.1437761486 -0.01377218962 1.207529015e-38
-0.19492805 0.0249886699 0.3509429693 9.330987234e-39
-0.1973503232 0.123738572 -0.31257689 1.161790633e-38
-0.1367675066 0.1437760144 0.07284533978 1.207529015e-38
0.2460698932 -0.1336368024 0.3335024118 5.58043992e-39
0.04510778189 0.1437750906 0.120865941 1.207529015e-38
-0.2206892371 0.1246783733 -0.3134719133 1.161790633e-38
-0.1954511404 -0.1637168676 0.2949598432 4.940102574e-39
-0.1236178875 0.1437775344 -0.1505798101 1.207529015e-38
-0.05945795774 0.1437762082 0.004434585571 1.207529015e-38
-0.2206892371 0.1043227389 -0.3134719133 1.116052251e-38
-0.1973503232 0.06313189864 -0.31257689 1.024575487e-38
-0.08050179482 0.1437766254 -0.2154599428 1.207529015e-38
0.2281248569 0.1563540846 -0.3129780293 1.24411972e-38
0.2166955322 0.137558952 0.1478835344 1.198381338e-38
0.2323539257 -0.1373422295 0.3687042594 5.488963156e-39
0.2175055891 0.1375585198 -0.07608044147 1.198381338e-38
0.1427829862 -0.1629541367 0.3765302896 4.940102574e-39
0.07969880104 0.1437741071 0.2485682964 1.207529015e-38
-0.2239445448 0.1375609785 0.03500378132 1.198381338e-38
0.1172868311 -0.1793028861 0.3792357445 4.574195519e-39
-0.1397369504 0.1437746435 0.276601553 1.207529015e-38
-0.1973503232 -0.05808138847 -0.31257689 7.409975195e-39
0.1049901769 -0.1637119651 -0.3192374706 4.940102574e-39
-0.1944477558 0.12491934 -0.3291448355 1.170938309e-38
-0.07516676188 -0.163714692 -0.1931376457 4.940102574e-39
0.05108362436 0.143773824 -0.2784913778 1.207529015e-38
0.2666796446 -0.1758408695 0.1695296168 4.665672282e-39
-0.1408094466 -0.1637155414 -0.2881779671 4.940102574e-39
-0.1732590795 0.139596045 -0.3322042227 1.198381338e-38
-0.2434585094 -0.06401404738 -0.3127036095 7.227021667e-39
-0.2234152555 0.1375599056 0.2207772732 1.198381338e-38
0.02525022626 0.159335047 0.3418549895 1.24411972e-38
0.1243232489 0.1437741518 0.2090705037 1.207529015e-38
0.02471494675 0.1437754333 -0.004536628723 1.207529015e-38
0.1378439963 0.1588458717 0.3417181373 1.24411972e-38
0.2519062161 -0.1021559909 0.3707666397 6.31225403e-39
-0.1949049234 -0.03450340405 0.3318953514 7.958835777e-39
-0.1997264922 -0.1031957567 -0.3062057495 6.31225403e-39
0.107260108 0.1437734365 -0.1085156202 1.207529015e-38
-0.1749237776 -0.1637161821 -0.1076780632 4.940102574e-39
-0.1040702462 0.143774718 0.2488088906 1.207529015e-38
0.06405498087 0.143774271 0.2285224795 1.207529015e-38
0.1257626414 -0.1637116671 -0.329189539 4.940102574e-39
0.2661989331 -0.1743090302 -0.1247196198 4.665672282e-39
-0.1237931773 -0.1637154073 -0.1321748495 4.940102574e-39
0.1932237744 -0.1020207629 0.3687527776 6.31225403e-39
-0.1867333651 -0.1161698103 0.3695174456 6.037823739e-39
-0.1973503232 -0.05808138847 -0.31257689 7.409975195e-39
-0.1040774584 0.1437828094 -0.3016752005 1.207529015e-38
-0.1886149645 -0.09944248199 0.3101524711 6.403730794e-39
0.2660932839 -0.174310118 -0.03117400408 4.665672282e-39
0.1650533974 0.143772319 -0.1031247377 1.207529015e-38
0.2460797429 -0.08096650988 0.3263375163 6.861114612e-39
0.2027448416 -0.1637132615 0.04464036226 4.940102574e-39
-0.05496609211 -0.1637144387 -0.1294413805 4.940102574e-39
-0.1402701139 0.138317585 -0.3333733678 1.198381338e-38
0.004528641701 0.1437758505 0.005133748055 1.207529015e-38
0.2595306039 -0.1540880203 -0.08279657364 5.123056101e-39
0.1435720026 0.1437738687 0.2521141768 1.207529015e-38
-0.2220008373 0.13755925 0.1345368624 1.198381338e-38
0.02339717746 0.1437744051 0.2287499011 1.207529015e-38
-0.1247510314 0.1437754482 0.1521037817 1.207529015e-38
-0.2516149282 -0.1637172401 -0.190484643 4.940102574e-39
-0.02947714925 -0.163714096 -0.07552564144 4.940102574e-39
0.2203457057 -0.1024400964 0.3687201142 6.31225403e-39
-0.01762786508 0.1437745392 0.2283335328 1.207529015e-38
-0.1878023148 -0.1005307734 -0.3501768112 6.403730794e-39
-0.05932807922 0.1437757909 0.06550824642 1.207529015e-38
0.2652127445 -0.1743130088 0.2181575298 4.665672282e-39
-0.180344522 0.1437762231 0.0623665452 1.207529015e-38
0.224704951 0.1605909467 -0.06081187725 1.253267397e-38
0.04682675004 -0.1637128294 -0.2913715839 4.940102574e-39
0.2544029355 -0.1116739064 0.3509479165 6.129300502e-39
-0.03977560997 -0.1637150198 0.1393769383 4.940102574e-39
0.1497729421 -0.1637122929 -0.1015098095 4.940102574e-39
-0.2014716268 0.1437769085 0.03940689564 1.207529015e-38
0.1471963525 -0.1637127697 -0.04575932026 4.940102574e-39
0.1991004348 -0.1637134403 0.06700962782 4.940102574e-39
-0.213975668 0.1392015368 0.3629953265 1.198381338e-38
-0.2348834872 -0.1637172997 0.1627747416 4.940102574e-39
-0.1973503232 -0.03787915036 -0.31257689 7.867359014e-39
0.2229134887 -0.1637127548 -0.008874714375 4.940102574e-39
-0.19492805 -0.05732697994 0.3509429693 7.409975195e-39
0.06326577067 -0.1637152582 0.2240668535 4.940102574e-39
0.2467697561 -1.585000042e-08 -0.3296768665 8.782126651e-39
0.04081425071 -0.1632799506 -0.3711223602 4.940102574e-39
-0.1221558526 -0.1637159884 0.2209485173 4.940102574e-39
0.2391267121 0.04829109833 0.3613988757 9.879847816e-39
-0.2060160637 -0.1637167335 0.03973042965 4.940102574e-39
0.1556680202 0.1437722296 -0.1666452885 1.207529015e-38
0.192021504 0.1437728107 0.1479509473 1.207529015e-38
-0.2448838949 -0.1637172252 -0.1118264198 4.940102574e-39
-0.1239225864 -0.163715452 -0.09640371799 4.940102574e-39
-0.1569526196 0.1437760144 0.08251863718 1.207529015e-38
-0.02742314339 -0.1637143642 0.06337434053 4.940102574e-39
0.1389203668 -0.1791656315 0.3792093992 4.574195519e-39
-0.03479641676 -0.1637147814 0.1146134064 4.940102574e-39
0.01533299685 0.1437751055 0.1351347566 1.207529015e-38
0.2208509147 -0.1637107432 -0.2615901232 4.940102574e-39
-0.02978122234 -0.1637163758 0.31628865 4.940102574e-39
0.004978239536 0.1437749118 0.1634876132 1.207529015e-38
0.2569609582 -0.1519405693 0.3066657186 5.214532865e-39
-0.1949064136 -0.1245125532 0.3318939209 5.854870211e-39
-0.157360673 0.1437751353 0.2178939581 1.207529015e-38
-0.02615338564 -0.163714081 0.01067203283 4.940102574e-39
0.1883480549 0.1437725872 0.07562822104 1.207529015e-38
-0.08588802814 -0.1637159735 0.2424595356 4.940102574e-39
-0.1973503232 0.002525293268 -0.31257689 8.782126651e-39
0.1389203668 -0.1791656315 0.3792093992 4.574195519e-39
0.2576254904 -0.154796809 -0.2400665283 5.123056101e-39
-0.1165823936 0.1437760144 0.06317210197 1.207529015e-38
-0.1216292381 0.1437757909 0.09536463022 1.207529015e-38
-0.223271966 0.1375595927 0.27104491 1.198381338e-38
0.03852689266 0.1437746137 0.1911729574 1.207529015e-38
0.2244087756 0.1578500718 0.2112747431 1.24411972e-38
-0.03977560997 -0.1637150198 0.1393769383 4.940102574e-39
-0.1944477558 0.1045243591 -0.3291448355 1.116052251e-38
0.2192731798 0.07957959175 -0.3140100241 1.061166193e-38
-0.007090866566 -0.163716197 0.3054157495 4.940102574e-39
-0.2201356292 -0.08389888704 -0.3124361038 6.769637849e-39
-0.1948916316 0.1685967445 0.3200851083 1.271562749e-38
-0.1442860961 -0.1637156755 -0.1998103857 4.940102574e-39
0.1799155325 -0.1637115926 -0.1758528352 4.940102574e-39
0.2455974072 0.03880995885 0.324911356 9.605417525e-39
0.2236009985 -0.1637131125 0.03464651108 4.940102574e-39
0.2249149084 0.1600209028 -0.2002208233 1.253267397e-38
0.09810394049 0.1576905996 0.3417664766 1.24411972e-38
-0.2223109603 0.1375602782 -0.08535575867 1.198381338e-38
0.07488289475 0.1437749416 0.1065980196 1.207529015e-38
-0.004921346903 0.1437747777 0.1905940771 1.207529015e-38
-0.1949911714 -0.1637165397 -0.02845329046 4.940102574e-39
-0.08063113689 -0.1626248956 0.3754721284 4.940102574e-39
-0.05653131008 -0.1637149602 0.1250282526 4.940102574e-39
0.145162046 0.143772155 -0.2377502918 1.207529015e-38
-0.07531833649 0.1379215419 0.3419773579 1.198381338e-38
-0.1756812334 -0.1627681106 0.3760743141 4.940102574e-39
0.2574723363 -0.150778085 -0.112455368 5.214532865e-39
-0.1886149645 -0.09944248199 0.3101524711 6.403730794e-39
0.00528600812 -0.1637142599 0.07206708193 4.940102574e-39
-0.2156788111 -0.1439682841 -0.3040970564 5.397486392e-39
-0.1247510314 0.1437754482 0.1521037817 1.207529015e-38
0.04064625502 -0.1637158692 0.2899463177 4.940102574e-39
-0.08524918556 0.1437749118 0.2067270279 1.207529015e-38
-0.1237931773 -0.1637154073 -0.1321748495 4.940102574e-39
0.03045803308 -0.1792271286 0.3793413043 4.574195519e-39
-0.2060160637 -0.1637167335 0.03973042965 4.940102574e-39
0.02505579591 0.1437754333 0.08031237125 1.207529015e-38
-0.1545702219 -0.163715899 -0.08172035217 4.940102574e-39
0.2652906775 -0.1743108183 0.03015786409 4.665672282e-39
-0.007347822189 0.1437752396 0.1215126514 1.207529015e-38
0.1332601011 -0.1637154371 0.2811495662 4.940102574e-39
-0.1347903609 -0.1637157053 0.0348353982 4.940102574e-39
-0.1017119288 -0.1637158245 0.2111523151 4.940102574e-39
0.1351622641 -0.1637121886 -0.1237370968 4.940102574e-39
0.1975493729 0.04006489366 -0.3132249117 9.696894289e-39
0.267193228 -0.1743080765 -0.2066005468 4.665672282e-39
0.2028646767 0.1437740922 0.1124212667 1.207529015e-38
0.2170132548 0.1375587881 0.06005430222 1.198381338e-38
0.0007990598679 0.1437757164 -0.05751633644 1.207529015e-38
-0.1878023148 -0.1005307734 -0.3501768112 6.403730794e-39
0.2408294678 0.1031268388 -0.3140386343 1.116052251e-38
-0.1855114698 -0.1637164652 0.08702355623 4.940102574e-39
0.1355500817 0.1437725425 -0.1939734221 1.207529015e-38
0.02340450883 -0.1637155861 0.2431675196 4.940102574e-39
0.0181003511 -0.16371575 0.262149632 4.940102574e-39
-0.16243577 0.1437764764 0.02070367336 1.207529015e-38
0.06018155813 0.1393382847 -0.3329478502 1.198381338e-38
-0.1048690081 0.1437752396 0.1682474613 1.207529015e-38
0.03347578645 0.1437754631 0.0493388772 1.207529015e-38
0.2172936499 0.1375586241 -0.0174909234 1.198381338e-38
0.08465722203 -0.1637123078 -0.2320438623 4.940102574e-39
-0.2398209572 -0.1637171656 -0.07658594847 4.940102574e-39
0.2028646767 0.1437740922 0.1124212667 1.207529015e-38
-0.005819618702 -0.1637149006 0.144579649 4.940102574e-39
-0.05497437716 -0.1637145728 0.05111372471 4.940102574e-39
0.06378531456 0.1437744796 0.1995677948 1.207529015e-38
-0.1576717496 -0.1630226672 -0.3708826303 4.940102574e-39
-0.2428270578 0.05800035223 0.3630226851 1.006280134e-38
0.09858587384 -0.1637120992 -0.2763822079 4.940102574e-39
-0.2003126144 -0.1637164652 -0.2150630951 4.940102574e-39
-0.2434585094 0.08449856192 -0.3127036095 1.070313869e-38
0.1614725292 0.1437734216 0.3045924902 1.207529015e-38
-0.1965360641 0.1437759995 0.1865008473 1.207529015e-38
-0.1922501922 -0.1637167335 0.2545350194 4.940102574e-39
-0.07516676188 -0.163714692 -0.1931376457 4.940102574e-39
0.2569059134 -0.147430867 0.3513814807 5.306009629e-39
0.2523362935 -0.1011062264 0.3304480314 6.403730794e-39
0.1596110165 0.1394059211 -0.3325280547 1.198381338e-38
-0.1465978622 0.1437754482 0.1625733376 1.207529015e-38
0.2569231391 -0.1500320286 -0.02593773603 5.214532865e-39
0.2467697561 0.03986095265 -0.3296768665 9.696894289e-39
0.2167697251 0.137558952 0.1273738146 1.198381338e-38
0.2179582715 -0.16371198 -0.1062977314 4.940102574e-39
-0.1771377921 0.1437760442 0.09219163656 1.207529015e-38
-0.1973503232 -0.01767694578 -0.31257689 8.324742832e-39
-0.074898839 0.1437743455 0.2856827378 1.207529015e-38
0.2555954754 -0.1510563195 0.01535123587 5.214532865e-39
-0.02615338564 -0.163714081 0.01067203283 4.940102574e-39
-0.2472674847 -0.1637173295 -0.003407299519 4.940102574e-39
-0.120239377 0.1437746435 0.26725775 1.207529015e-38
-0.04038059711 -0.1637153476 0.181763649 4.940102574e-39
-0.2261993289 -0.1637170613 0.1065177917 4.940102574e-39
-0.1949157715 -0.08481105417 0.3396061659 6.769637849e-39
0.1904733777 0.1437722743 0.001063704491 1.207529015e-38
0.2640392482 -0.1743132621 0.2435498834 4.665672282e-39
-0.07412058115 -0.1637147218 -0.1202642918 4.940102574e-39
-0.213975668 0.09817370772 0.3629953265 1.106904574e-38
-0.04477363825 0.1437747777 0.209692359 1.207529015e-38
0.0594419241 0.1437739581 0.27568537 1.207529015e-38
-0.1960706711 0.1437757462 0.2364404202 1.207529015e-38
0.02489411831 0.1437742114 0.2567193508 1.207529015e-38
-0.2225969434 0.1375620365 -0.2852681875 1.198381338e-38
-0.1940720081 0.1059490219 -0.3512096405 1.125199927e-38
0.0589171052 -0.1637145579 0.1341823936 4.940102574e-39
-0.1973503232 0.08333417028 -0.31257689 1.070313869e-38
-0.2448838949 -0.1637172252 -0.1118264198 4.940102574e-39
0.1497729421 -0.1637122929 -0.1015098095 4.940102574e-39
0.1161885932 -0.1637120992 -0.1453170776 4.940102574e-39
-0.08102843165 0.1437769383 -0.1293988228 1.207529015e-38
-0.2192436159 0.1380913258 -0.009715944529 1.198381338e-38
0.2572238445 -0.1519787461 0.09318506718 5.214532865e-39
-0.1756812334 -0.1627681106 0.3760743141 4.940102574e-39
0.08452498913 -0.1637150943 0.2138797641 4.940102574e-39
-0.04178565741 0.1437764615 -0.03711497784 1.207529015e-38
-0.1645756364 0.1387845725 0.3420858979 1.198381338e-38
0.1787134111 -0.163711071 -0.2413992882 4.940102574e-39
-0.09973609447 0.1437766701 -0.04428803921 1.207529015e-38
-0.2547077537 -0.1622802764 -0.09472107887 4.940102574e-39
0.170884192 0.1437729597 0.0839946866 1.207529015e-38
0.1956091523 0.1437764317 -0.2227909565 1.207529015e-38
-0.05896866322 0.1437745541 0.2481450438 1.207529015e-38
0.2542130053 -0.09863850474 -0.3505801558 6.403730794e-39
0.0627091825 -0.1637143642 0.1117422581 4.940102574e-39
-0.1962978244 0.1437758356 0.2120581865 1.207529015e-38
0.2248796523 0.1583944559 -0.171569407 1.24411972e-38
-0.2546167374 -0.1615008861 -0.1688158512 4.940102574e-39
-0.0421885252 0.1437762082 -0.003841400146 1.207529015e-38
-0.04647570848 0.1437756121 0.08765256405 1.207529015e-38
0.170884192 0.1437729597 0.0839946866 1.207529015e-38
-0.1557908058 0.1437748075 0.2628945708 1.207529015e-38
-0.1757223606 -0.1790472716 0.3795919418 4.574195519e-39
0.1991514862 -0.1423114538 0.3708301187 5.397486392e-39
0.2478183806 -0.1344236135 -0.3233574629 5.58043992e-39
-0.1347289085 0.1437749416 0.2304387689 1.207529015e-38
0.2467697561 -0.03321745247 -0.3296768665 7.958835777e-39
0.1435164511 -0.1627754867 -0.3712462187 4.940102574e-39
-0.1490108371 -0.1637156904 -0.2396413088 4.940102574e-39
0.2467697561 -0.06422042102 -0.3296768665 7.227021667e-39
-0.1973503232 0.02272749506 -0.31257689 9.23951047e-39
-0.1347663999 0.1437769681 -0.06447088718 1.207529015e-38
-0.224679172 -0.1637169272 -0.1215064526 4.940102574e-39
-0.2008761168 0.1375619024 0.3061054945 1.198381338e-38
-0.2428270578 0.1591292024 0.3630226851 1.24411972e-38
0.05454096198 -0.1790834814 0.3793119788 4.574195519e-39
0.00528600812 -0.1637142599 0.07206708193 4.940102574e-39
-0.1958537102 0.1437755972 0.2597267628 1.207529015e-38
0.03481653333 -0.1637129486 -0.3277113438 4.940102574e-39
-0.1922501922 -0.1637167335 0.2545350194 4.940102574e-39
-0.00650459528 0.1437742263 0.271766305 1.207529015e-38
-0.2544544935 -0.1606767923 -0.3010498285 4.940102574e-39
0.1446932256 0.1375615299 0.3334414959 1.198381338e-38
0.02340450883 -0.1637155861 0.2431675196 4.940102574e-39
-0.1868464947 -0.1637164801 0.05977642536 4.940102574e-39
0.1199049875 -0.1637149304 0.2133666873 4.940102574e-39
-0.1846917868 -0.1637164354 0.02951347828 4.940102574e-39
-0.1940720081 0.1266219765 -0.3512096405 1.170938309e-38
0.2570699751 -0.151065141 0.2181384563 5.214532865e-39
-0.03414988518 -0.1637142152 -0.0133831501 4.940102574e-39
0.05802449584 0.1437746137 0.1818292141 1.207529015e-38
0.2568889856 -0.1511943638 0.3651308417 5.214532865e-39
0.1553655863 0.1437717974 -0.2842208147 1.207529015e-38
0.2544029355 -0.1116739064 0.3509479165 6.129300502e-39
-0.2428270578 -0.06097475067 0.3630226851 7.318498431e-39
0.2460540831 0.1675729901 0.347433269 1.262415073e-38
-0.2206892371 0.0839670971 -0.3134719133 1.070313869e-38
0.1446932256 0.1375615299 0.3334414959 1.198381338e-38
-0.2261993289 -0.1637170613 0.1065177917 4.940102574e-39
0.2469038963 0.1781512052 -0.3553000689 1.289858102e-38
-0.06383448839 0.1437764764 -0.1792194843 1.207529015e-38
-0.1910175681 -0.1637167037 0.2737678289 4.940102574e-39
0.06326577067 -0.1637152582 0.2240668535 4.940102574e-39
-0.19492805 -0.05732697994 0.3509429693 7.409975195e-39
-0.0429276228 -0.1793376654 0.3794304729 4.574195519e-39
0.1858637333 -0.1637112796 -0.2109271288 4.940102574e-39
-0.2146100402 -0.1637168974 0.07307833433 4.940102574e-39
0.2054744065 -0.0424365513 0.3624832034 7.77588225e-39
0.164211005 0.1437730193 0.06380331516 1.207529015e-38
-0.05960267782 0.1437766701 -0.06352114677 1.207529015e-38
0.1975493729 -0.07345229387 -0.3132249117 7.04406814e-39
-0.1009048223 0.1437762231 0.02429687977 1.207529015e-38
-0.1944477558 0.06373433024 -0.3291448355 1.024575487e-38
0.1447223425 0.143772468 -0.1614019871 1.207529015e-38
-0.149053216 -0.1792558283 0.3795595169 4.574195519e-39
0.2208509147 -0.1637107432 -0.2615901232 4.940102574e-39
0.06018155813 0.1393382847 -0.3329478502 1.198381338e-38
-0.0004682838917 0.1437746137 0.2098605037 1.207529015e-38
0.03481653333 -0.1637129486 -0.3277113438 4.940102574e-39
-0.2206892371 -0.02290011011 -0.3134719133 8.233266069e-39
-0.1709704399 -0.1637165248 0.2641618252 4.940102574e-39
-0.1310049295 -0.1637157649 0.1830915809 4.940102574e-39
-0.1435443759 0.1437775344 -0.14103055 1.207529015e-38
-0.1413033009 0.1437758058 0.1047928333 1.207529015e-38
-0.1878364682 -0.09911742806 -0.3273359537 6.403730794e-39
-0.1922677755 0.1585641205 0.3421194553 1.24411972e-38
-0.2508790493 -0.1637171954 -0.2354451418 4.940102574e-39
-0.2544793487 -0.163681373 -0.280725956 4.940102574e-39
0.1026315689 0.143773064 -0.2173771858 1.207529015e-38
-0.080696702 0.1592772603 0.341984123 1.24411972e-38
0.07956138253 0.1437739581 0.2660436034 1.207529015e-38
0.2296372652 -0.1159575731 -0.3047016859 6.037823739e-39
0.2169282883 0.1375588775 0.08352583647 1.198381338e-38
-0.2428270578 0.05800035223 0.3630226851 1.006280134e-38
-0.2516149282 -0.1637172401 -0.190484643 4.940102574e-39
0.2575438917 -0.1546421349 -0.1729757786 5.123056101e-39
0.1735448241 -0.1637127697 -0.03292393684 4.940102574e-39
-0.2434585094 -0.002560578054 -0.3127036095 8.690649887e-39
-0.09401506186 0.143776685 -0.256111145 1.207529015e-38
0.2519062161 -0.1021559909 0.3707666397 6.31225403e-39
-0.19492805 -0.03674805909 0.3509429693 7.867359014e-39
0.06274592876 0.1437750757 0.08792304993 1.207529015e-38
-0.05638211966 0.13755849 0.3352122307 1.198381338e-38
-0.174397409 0.1437756419 0.1489560008 1.207529015e-38
-0.09138643742 -0.1637150347 -0.04586434364 4.940102574e-39
0.1540964544 -0.1637129337 -0.02360486984 4.940102574e-39
0.1427829862 -0.1629541367 0.3765302896 4.940102574e-39
-0.1918267012 -0.1637167037 0.212233007 4.940102574e-39
-0.2546583414 -0.1623654217 -0.1349393129 4.940102574e-39
-0.240083009 -0.1197683737 -0.3065753579 5.946346975e-39
0.07590854168 -0.1637123972 -0.3053045273 4.940102574e-39
-0.07744115591 0.1437752396 0.1551033258 1.207529015e-38
0.2669972479 -0.1743093282 -0.1002523899 4.665672282e-39
-0.02514511347 -0.1637141407 0.03682178259 4.940102574e-39
0.2463248968 0.1017527506 -0.3588603735 1.116052251e-38
-0.04135930538 0.1437764317 -0.07226169109 1.207529015e-38
0.2639872432 -0.1743126661 0.1923510432 4.665672282e-39
-0.03710368276 0.1437744945 0.2479164004 1.207529015e-38
-0.194894731 0.1225195825 0.3240558505 1.161790633e-38
-0.2173811197 -0.1637170166 0.128926158 4.940102574e-39
0.1031267568 -0.1637149453 0.2049660683 4.940102574e-39
0.175114274 -0.1637109816 -0.2753822803 4.940102574e-39
-0.05602711439 0.1437759995 0.03415250778 1.207529015e-38
0.1591959596 -0.1637111902 -0.3054202795 4.940102574e-39
-0.2071689963 -0.1792109907 0.3796301484 4.574195519e-39
0.04260352254 0.1437743157 0.2293726802 1.207529015e-38
0.2198337913 0.003413059283 0.361423552 8.782126651e-39
0.2644921243 -0.1743104905 -0.1769664288 4.665672282e-39
0.1399790049 -0.1637125909 -0.06893229485 4.940102574e-39
-0.1807335615 -0.163716495 0.1845391393 4.940102574e-39
-0.1005949378 -0.1637154818 0.168520242 4.940102574e-39
0.2638530135 -0.1648310423 0.1695708036 4.84862581e-39
-0.2206892371 -0.04325575009 -0.3134719133 7.684405486e-39
-0.1194967031 -0.179096356 0.3795235157 4.574195519e-39
-0.1754268408 0.1437775344 -0.1257516146 1.207529015e-38
0.1827501357 0.1396044791 -0.2999079227 1.198381338e-38
-0.1421836615 0.1437778026 -0.1859121323 1.207529015e-38
-0.2354326844 -0.1637171954 0.08305484056 4.940102574e-39
0.2463248968 0.1605432183 -0.3588603735 1.253267397e-38
0.2544874549 -0.1175173372 -0.3351458311 5.946346975e-39
0.1238357425 0.1437738687 0.261572361 1.207529015e-38
-0.2261993289 -0.1637170613 0.1065177917 4.940102574e-39
-0.1949049234 -0.03450340405 0.3318953514 7.958835777e-39
-0.01694351435 0.138930738 0.3419063687 1.198381338e-38
0.09902206063 -0.1637151092 0.2233733535 4.940102574e-39
0.2637807727 -0.1743119657 -0.00897103548 4.665672282e-39
0.2243764549 0.1583991349 0.2374429703 1.24411972e-38
-0.1609773636 0.1437758058 0.1142212227 1.207529015e-38
0.1979668736 0.07953375578 0.3624724746 1.061166193e-38
-0.1973503232 -0.03787915036 -0.31257689 7.867359014e-39
0.2645236254 -0.1743108928 -0.07525014877 4.665672282e-39
0.01503708959 -0.1637147218 0.1345857382 4.940102574e-39
0.1155337691 0.1437730789 -0.1474194527 1.207529015e-38
0.1296746433 -0.1637152284 0.2546907067 4.940102574e-39
0.2463248968 -0.06105165184 -0.3588603735 7.318498431e-39
0.2198337913 -0.05574680492 0.361423552 7.409975195e-39
-0.1569526196 0.1437760144 0.08251863718 1.207529015e-38
0.2663236856 -0.1743082702 -0.2358762026 4.665672282e-39
0.03928917646 -0.1637143791 0.1014910266 4.940102574e-39
0.2156132162 -0.1637143046 0.1833734512 4.940102574e-39
0.2452672422 0.1582105905 0.316570878 1.24411972e-38
-0.01645681262 -0.163715899 0.262268424 4.940102574e-39
-0.07621222734 0.1437760144 0.04382562637 1.207529015e-38
0.03932237625 0.143773973 0.2853270769 1.207529015e-38
0.2651749551 -0.174314037 0.3093881607 4.665672282e-39
-0.1100269035 0.1437772065 -0.1155043766 1.207529015e-38
-0.06657469273 -0.17914249 0.3794592023 4.574195519e-39
-0.2241643667 0.1375614256 -0.04216444492 1.198381338e-38
-0.06538289785 -0.1637146622 0.001581311226 4.940102574e-39
0.1979668736 -0.001152670244 0.3624724746 8.690649887e-39
-0.1586309671 0.1437778026 -0.1780301332 1.207529015e-38
-0.1216282174 0.1437762231 0.03422814608 1.207529015e-38
0.2440279722 -0.07047476619 0.3618226051 7.135544904e-39
-0.02146488428 0.1437761486 -0.01377218962 1.207529015e-38
-0.024879843 0.1437754482 0.1042427421 1.207529015e-38
0.1975493729 0.08012977988 -0.3132249117 1.061166193e-38
-0.1865733266 -0.1506905854 0.3512892127 5.214532865e-39
-0.1590384841 -0.1637162715 0.2283098102 4.940102574e-39
-0.1997492909 0.1437778026 -0.1583250761 1.207529015e-38
0.2408294678 0.03949537501 -0.3140386343 9.696894289e-39
0.2391267121 -0.05053721368 0.3613988757 7.592928722e-39
-0.157360673 0.1437751353 0.2178939581 1.207529015e-38
0.1899248064 -0.08839375526 0.3500013947 6.678161085e-39
0.2454679012 0.1085905731 0.3457577229 1.125199927e-38
0.1533920765 0.1437724531 -0.130614996 1.207529015e-38
-0.1047679186 -0.1637151688 -0.1055809334 4.940102574e-39
0.2213688493 0.1385460794 -0.1694558263 1.198381338e-38
0.1889140606 -0.1627931148 0.3757855296 4.940102574e-39
-0.1509233713 -0.163716346 0.2545557618 4.940102574e-39
0.2248018533 0.1599059701 -0.1092623472 1.24411972e-38
-0.1319104433 -0.163715452 -0.2478340864 4.940102574e-39
-0.1857239008 -0.1618757546 -0.3459734917 4.940102574e-39
0.2645925879 -0.1743121594 0.1491981745 4.665672282e-39
0.180991292 -0.1637138873 0.1145762205 4.940102574e-39
0.05802449584 0.1437746137 0.1818292141 1.207529015e-38
0.1443295479 0.1437727511 -0.09319698811 1.207529015e-38
-0.2060160637 -0.1637167335 0.03973042965 4.940102574e-39
-0.120239377 0.1437746435 0.26725775 1.207529015e-38
0.2166244388 0.1375590265 0.1675294042 1.198381338e-38
-0.1143084168 -0.1637154222 0.05290865898 4.940102574e-39
-0.1365183592 0.1437751353 0.2079057693 1.207529015e-38
-0.00650459528 0.1437742263 0.271766305 1.207529015e-38
-0.06430244446 -0.1637145877 -0.09106731415 4.940102574e-39
0.1992260367 -0.09510599077 -0.3049985766 6.495207557e-39
0.07838234305 -0.1637123972 -0.2667027712 4.940102574e-39
-0.1071238518 -0.1637157202 0.1931222677 4.940102574e-39
-0.227240026 -0.1011137217 0.3692657351 6.403730794e-39
-0.2156788111 -0.1439682841 -0.3040970564 5.397486392e-39
-0.1444631815 -0.1637159139 0.09398967028 4.940102574e-39
-0.05952829123 0.1437764615 -0.02861219645 1.207529015e-38
0.2192731798 0.0397897996 -0.3140100241 9.696894289e-39
0.1848679781 -0.1637134105 0.053206563 4.940102574e-39
-0.01946684718 0.1437759548 -0.08274900913 1.207529015e-38
0.2192731798 0.006631611846 -0.3140100241 8.873603415e-39
0.2463248968 -0.02035054937 -0.3588603735 8.233266069e-39
0.1049901769 -0.1637119651 -0.3192374706 4.940102574e-39
-0.1165823936 0.1437760144 0.06317210197 1.207529015e-38
-0.1236567497 -0.1637154073 -0.1699061394 4.940102574e-39
0.08367028832 -0.1637154818 0.261924386 4.940102574e-39
0.06089651585 -0.1622587144 -0.3711463213 4.940102574e-39
0.2541460991 -0.091483064 0.3501883745 6.586684321e-39
0.2593500018 -0.153605774 0.06166684628 5.123056101e-39
-0.1949911714 -0.1637165397 -0.02845329046 4.940102574e-39
0.1572237313 0.1437730491 0.04266172647 1.207529015e-38
0.01500478387 0.1437747777 0.1810449362 1.207529015e-38
0.0384735167 -0.1637147367 0.1439784169 4.940102574e-39
-0.2434585094 0.1049830467 -0.3127036095 1.116052251e-38
0.2198337913 0.04436989874 0.361423552 9.788371052e-39
-0.07516121864 -0.1637151092 0.1339551806 4.940102574e-39
-0.1879556179 -0.119471103 -0.3275725842 5.946346975e-39
-0.1962978244 0.1437758356 0.2120581865 1.207529015e-38
0.2199722975 -0.1637112647 -0.1950465441 4.940102574e-39
0.2323539257 -0.1373422295 0.3687042594 5.488963156e-39
-0.204474628 -0.1637166291 -0.1311866045 4.940102574e-39
-0.04455339909 -0.1637151986 0.1631400585 4.940102574e-39
-0.175041616 0.1375565827 0.3356307149 1.198381338e-38
-0.115526557 -0.1637155265 0.1532965899 4.940102574e-39
0.2408294678 0.1162919328 -0.3140386343 1.14349528e-38
0.1199049875 -0.1637149304 0.2133666873 4.940102574e-39
0.1903809905 -0.117598772 -0.3053920269 5.946346975e-39
0.2455974072 -0.04116206244 0.324911356 7.77588225e-39
0.1993909478 -0.1637140512 0.1417944431 4.940102574e-39
0.2244314551 0.1583991349 0.1929029226 1.24411972e-38
0.2295868844 -0.1637116522 -0.1397540569 4.940102574e-39
-0.180344522 0.1437762231 0.0623665452 1.207529015e-38
-0.213975668 0.06007645652 0.3629953265 1.015427811e-38
-0.2043739557 0.1384583712 -0.3042653799 1.198381338e-38
0.2463248968 -0.002261186717 -0.3588603735 8.690649887e-39
0.08611613512 -0.1637121886 -0.3522886038 4.940102574e-39
-0.0429276228 -0.1793376654 0.3794304729 4.574195519e-39
0.05390492082 -0.1637150794 0.1938277483 4.940102574e-39
-0.1949049234 0.04350430518 0.3318953514 9.788371052e-39
0.2198337913 0.0830513835 0.361423552 1.070313869e-38
0.08047026396 0.1593635082 0.3417879939 1.24411972e-38
-0.06632101536 -0.1637147814 0.08201229572 4.940102574e-39
-0.1216232777 0.1437774897 -0.1957621574 1.207529015e-38
0.06274592876 0.1437750757 0.08792304993 1.207529015e-38
-0.2115651965 -0.1637168229 0.01171469688 4.940102574e-39
0.04510778189 0.1437750906 0.120865941 1.207529015e-38
0.2463248968 0.1198421195 -0.3588603735 1.152642956e-38
-0.1207946837 0.158470571 0.3420320153 1.24411972e-38
-0.17336905 -0.1637161076 -0.1858769655 4.940102574e-39
-0.1413033009 0.1437758058 0.1047928333 1.207529015e-38
0.07556656003 0.1437736303 -0.2044122219 1.207529015e-38
0.2455974072 0.05762688816 0.324911356 1.006280134e-38
-0.04687190056 -0.1637145281 0.07269358635 4.940102574e-39
0.2333660275 -0.1637120992 -0.08704936504 4.940102574e-39
-0.03584203124 0.1437759995 0.02447926998 1.207529015e-38
0.2669013143 -0.1745696217 0.3460691571 4.665672282e-39
-0.002372920513 0.143774122 0.2878991365 1.207529015e-38
0.07969880104 0.1437741071 0.2485682964 1.207529015e-38
-0.08626699448 -0.1637155265 0.1831282377 4.940102574e-39
0.2577165365 -0.154969275 -0.3148747683 5.123056101e-39
0.1465351284 -0.1637113541 -0.3391414881 4.940102574e-39
-0.2434585094 0.06401401013 -0.3127036095 1.024575487e-38
0.1756164432 -0.1637108922 -0.3530739546 4.940102574e-39
0.2391267121 0.06850598752 0.3613988757 1.033723163e-38
0.175114274 -0.1637109816 -0.2753822803 4.940102574e-39
-0.2206892371 0.06361138821 -0.3134719133 1.024575487e-38
0.2455974072 0.07879595459 0.324911356 1.061166193e-38
-0.2428270578 0.1383085549 0.3630226851 1.198381338e-38
-0.19492805 -0.0249886699 0.3509429693 8.141789305e-39
-0.1801784635 0.1437764764 0.02920645475 1.207529015e-38
-0.17336905 -0.1637161076 -0.1858769655 4.940102574e-39
-0.1099904776 -0.1637150794 -0.3029429913 4.940102574e-39
0.2029318213 0.1437754333 0.02073949575 1.207529015e-38
-0.1473919153 -0.1637157798 -0.1208688021 4.940102574e-39
-0.01645681262 -0.163715899 0.262268424 4.940102574e-39
-0.07451736927 -0.1637147963 -0.02327269316 4.940102574e-39
-0.1747069359 0.1437781006 -0.2174559832 1.207529015e-38
-0.1865503788 -0.1448548436 0.3321737051 5.306009629e-39
0.2640855312 -0.1743137836 0.2890205979 4.665672282e-39
-0.08102843165 0.1437769383 -0.1293988228 1.207529015e-38
0.1979668736 0.1579148471 0.3624724746 1.24411972e-38
0.06719744205 0.1437737346 0.3048350811 1.207529015e-38
-0.1040702462 0.143774718 0.2488088906 1.207529015e-38
0.2571078539 -0.1510381252 0.1873782277 5.214532865e-39
0.01902931929 0.1437746137 0.2005167603 1.207529015e-38
-0.1950395703 -0.002569695236 -0.3416494131 8.690649887e-39
0.2641268075 -0.1743142605 0.3296734691 4.665672282e-39
-0.01445737481 -0.1637142599 0.05716145039 4.940102574e-39
-0.1771377921 0.1437760442 0.09219163656 1.207529015e-38
0.05817878246 -0.1637126952 -0.2570232153 4.940102574e-39
-0.08149367571 0.1437766701 -0.05303037167 1.207529015e-38
-0.2043730617 -0.1637166589 -0.05785965919 4.940102574e-39
0.1606997848 -0.1637130529 -0.002403318882 4.940102574e-39
-0.09537088871 -0.16371499 -0.1834579706 4.940102574e-39
-0.2543332577 -0.1637175679 0.1720936298 4.940102574e-39
0.2281248569 0.1563540846 -0.3129780293 1.24411972e-38
0.03347578645 0.1437754631 0.0493388772 1.207529015e-38
0.07969880104 0.1437741071 0.2485682964 1.207529015e-38
0.2463248968 0.1605432183 -0.3588603735 1.253267397e-38
-0.1737251282 -0.1637161821 -0.07254314423 4.940102574e-39
0.1975493729 -1.605000044e-08 -0.3132249117 8.782126651e-39
-0.04655814171 -0.1637157053 0.2236132622 4.940102574e-39
-0.1973246336 0.1437764168 0.101862669 1.207529015e-38
0.2183338404 -0.1637139022 0.132717371 4.940102574e-39
0.2296372652 -0.1159575731 -0.3047016859 6.037823739e-39
0.140406251 -0.1637114882 -0.2230448723 4.940102574e-39
-0.2206892371 -0.06361142546 -0.3134719133 7.227021667e-39
-0.1469602585 -0.1637159884 0.145015955 4.940102574e-39
-0.1956462264 0.1437755078 0.2819895744 1.207529015e-38
0.2167697251 0.137558952 0.1273738146 1.198381338e-38
-0.2173697948 -0.1637170762 0.2459464669 4.940102574e-39
0.01998412609 0.1437754035 -0.03362947702 1.207529015e-38
-0.05202889442 0.1437763721 -0.1432907581 1.207529015e-38
-0.1456149817 0.1437756419 0.1351627111 1.207529015e-38
0.2244926095 0.1583991349 0.1433676481 1.24411972e-38
-0.1879556179 -0.119471103 -0.3275725842 5.946346975e-39
-0.1973503232 0.08333417028 -0.31257689 1.070313869e-38
0.2463248968 0.07914102077 -0.3588603735 1.061166193e-38
0.03866299987 0.1437741071 0.2682337761 1.207529015e-38
-0.06082433462 -0.1637155116 0.1915597916 4.940102574e-39
-0.1868464947 -0.1637164801 0.05977642536 4.940102574e-39
-0.1046902463 -0.1637153178 0.0749335289 4.940102574e-39
0.2283050418 -0.1637132168 0.0530154705 4.940102574e-39
0.1978668571 -0.163710922 -0.250576973 4.940102574e-39
0.2192731798 0.07957959175 -0.3140100241 1.061166193e-38
-0.2428270578 0.1204623133 0.3630226851 1.152642956e-38
0.08266109228 0.1437743157 0.2101759911 1.207529015e-38
-0.2344921827 0.1791833341 0.3630181551 1.289858102e-38
-0.17336905 -0.1637161076 -0.1858769655 4.940102574e-39
-0.200328052 0.1437763721 0.1330745816 1.207529015e-38
0.2669972479 -0.1743093282 -0.1002523899 4.665672282e-39
-0.06684011221 -0.163714692 0.03016585112 4.940102574e-39
0.04469820857 0.1437744796 0.2087148428 1.207529015e-38
-0.1804341972 -0.1637161225 -0.2691942453 4.940102574e-39
0.2574931979 -0.1495016962 -0.1319699287 5.214532865e-39
0.1399790049 -0.1637125909 -0.06893229485 4.940102574e-39
0.08674350381 0.1437736005 -0.1705937386 1.207529015e-38
-0.08524918556 0.1437749118 0.2067270279 1.207529015e-38
0.2455974072 0.017640898 0.324911356 9.148033706e-39
-0.07531833649 0.1379215419 0.3419773579 1.198381338e-38
0.192021504 0.1437728107 0.1479509473 1.207529015e-38
0.1296746433 -0.1637152284 0.2546907067 4.940102574e-39
0.01936861873 0.1437756419 0.02779585123 1.207529015e-38
-0.08626699448 -0.1637155265 0.1831282377 4.940102574e-39
0.257162869 -0.1500277668 0.1426917911 5.214532865e-39
0.1993909478 -0.1637140512 0.1417944431 4.940102574e-39
0.254008621 -0.1382413507 -0.3657416105 5.488963156e-39
-0.06739270687 -0.1637160182 0.2519512773 4.940102574e-39
0.2469038963 -0.07892775536 -0.3553000689 6.861114612e-39
0.08674350381 0.1437736005 -0.1705937386 1.207529015e-38
-0.1473919153 -0.1637157798 -0.1208688021 4.940102574e-39
0.199295789 -0.1370811313 -0.3046462536 5.488963156e-39
0.07838234305 -0.1637123972 -0.2667027712 4.940102574e-39
-0.2248401642 0.1375608146 0.2472268343 1.198381338e-38
0.05986651778 -0.1637154222 0.2421360612 4.940102574e-39
-0.1172264814 0.1437770128 -0.295312047 1.207529015e-38
-0.1941426992 -0.1637164205 -0.1759244204 4.940102574e-39
0.1975493729 0.04006489366 -0.3132249117 9.696894289e-39
0.2502661347 -0.1792740375 0.3790740967 4.574195519e-39
0.1443295479 0.1437727511 -0.09319698811 1.207529015e-38
0.255589813 -0.1459306926 0.3255477548 5.306009629e-39
0.23401317 -0.1791116893 0.3790938258 4.574195519e-39
0.06339687109 0.1437747627 0.1578541994 1.207529015e-38
-0.1732590795 0.139596045 -0.3322042227 1.198381338e-38
0.13242203 -0.1637124121 -0.0931956768 4.940102574e-39
0.1952118278 -0.1203965172 0.3675902486 5.946346975e-39
0.1026315689 0.143773064 -0.2173771858 1.207529015e-38
0.104321897 -0.1637120247 -0.2414653301 4.940102574e-39
0.2408294678 0.1426222175 -0.3140386343 1.207529015e-38
0.2244087756 0.1578500718 0.2112747431 1.24411972e-38
0.2574931979 -0.1495016962 -0.1319699287 5.214532865e-39
0.0594419241 0.1437739581 0.27568537 1.207529015e-38
0.2248796523 0.1583944559 -0.171569407 1.24411972e-38
-0.1480158567 -0.1629731357 0.3769507408 4.940102574e-39
-0.09352254868 -0.1637165099 0.2991969585 4.940102574e-39
-0.2100732923 -0.163716957 0.2209755778 4.940102574e-39
-0.1319104433 -0.163715452 -0.2478340864 4.940102574e-39
-0.2244130373 0.1375618726 -0.1294537783 1.198381338e-38
-0.09689617157 -0.1637152731 0.1443700194 4.940102574e-39
-0.213975668 -0.06007645652 0.3629953265 7.318498431e-39
0.2478183806 -0.1344236135 -0.3233574629 5.58043992e-39
-0.2143925428 -0.1243631467 -0.3124377728 5.854870211e-39
-0.1065032482 -0.1637152731 -0.007947683334 4.940102574e-39
-0.1922501922 -0.1637167335 0.2545350194 4.940102574e-39
-0.213975668 0.0190486256 0.3629953265 9.148033706e-39
-0.1065032482 -0.1637152731 -0.007947683334 4.940102574e-39
0.1596110165 0.1394059211 -0.3325280547 1.198381338e-38
-0.06739270687 -0.1637160182 0.2519512773 4.940102574e-39
0.1904733777 0.1437722743 0.001063704491 1.207529015e-38
-0.01997989416 0.1437757611 0.04665160179 1.207529015e-38
-0.1408094466 -0.1637155414 -0.2881779671 4.940102574e-39
0.1756164432 -0.1637108922 -0.3530739546 4.940102574e-39
-0.1732590795 0.139596045 -0.3322042227 1.198381338e-38
-0.1912198067 0.1437772065 -0.07659459114 1.207529015e-38
0.2222154588 -0.1364730597 -0.3098460436 5.58043992e-39
0.1243232489 0.1437741518 0.2090705037 1.207529015e-38
0.0627091825 -0.1637143642 0.1117422581 4.940102574e-39
0.2249394953 0.1584005356 -0.2201149464 1.24411972e-38
0.2641268075 -0.1743142605 0.3296734691 4.665672282e-39
-0.02484750748 0.1437747777 0.200143218 1.207529015e-38
-0.19483459 0.143776983 -0.03568476439 1.207529015e-38
-0.0359467268 -0.1637146175 0.09182447195 4.940102574e-39
0.2295868844 -0.1637116522 -0.1397540569 4.940102574e-39
-0.20589149 0.1152724773 0.3629844189 1.14349528e-38
-0.1170591116 0.1437752396 0.1740893126 1.207529015e-38
