# .PCD v0.7 - Point Cloud Data file format
VERSION 0.7
FIELDS x y z rgb
SIZE 4 4 4 4
TYPE F F F F
COUNT 1 1 1 1
WIDTH 841
HEIGHT 1
VIEWPOINT 0 0 0 1 0 0 0
POINTS 841
DATA ascii
-0.02812159061 0.08669648319 0.3608061671 1.070313869e-38
-0.1558367014 0.1199548915 0.1013129428 1.14349528e-38
0.15647012 -0.07203148305 0.3610476851 6.952591376e-39
-0.1067770123 -0.001588997082 -0.2540279031 8.599173124e-39
-0.1206744313 -0.06694455445 -0.3676431179 7.135544904e-39
-0.3009775877 0.01351932436 0.360450685 8.965080179e-39
-0.1067530513 0.07929755747 -0.235104084 1.052018516e-38
-0.3077996373 0.002679431811 0.3410221934 8.690649887e-39
-0.3081614971 -0.09231874347 0.06504303217 6.495207557e-39
-0.07128554583 -0.0276421681 0.360750258 8.050312541e-39
0.2070182264 -0.1072341129 0.3611137271 6.129300502e-39
-0.1066716909 0.09765104204 -0.1739001274 1.097756898e-38
-0.07128566504 -0.1080557927 0.3607504964 6.129300502e-39
0.0646302104 -0.1127972305 0.3609278798 6.037823739e-39
0.3151153922 -0.07382450998 0.1686148047 6.952591376e-39
0.1090113521 0.1199574172 0.2436384559 1.14349528e-38
-0.08779603243 0.1035926268 0.3607284427 1.106904574e-38
-0.1107612848 -0.1064502522 -0.2857219279 6.129300502e-39
-0.3082407117 -0.08415160328 0.004430353642 6.678161085e-39
-0.1397126913 0.07992809266 -0.2857595086 1.052018516e-38
-0.07128554583 -0.04774558172 0.360750258 7.501451959e-39
-0.2576560974 0.007691120263 -0.3678213358 8.873603415e-39
-0.1397126913 0.07992809266 -0.2857595086 1.052018516e-38
0.05461078882 -0.03130748868 0.3609140515 7.958835777e-39
-0.1407254338 0.01008712593 -0.3676690459 8.873603415e-39
0.3150880039 0.1284258217 0.1481664777 1.170938309e-38
0.2070182264 -0.1254867464 0.3611137271 5.763393447e-39
-0.1024815366 -0.009919348173 -0.3625770211 8.416219596e-39
-0.102488637 0.1284293085 -0.3662806749 1.170938309e-38
0.3151153624 0.08518212289 0.168614924 1.061166193e-38
0.1657987833 -0.09494950622 0.3610598445 6.403730794e-39
0.3152037263 0.04588127136 0.2343634963 9.696894289e-39
-0.1696588993 0.07801342756 -0.2857985497 1.052018516e-38
-0.3050679564 0.1277883649 -0.3678842187 1.161790633e-38
-0.1066716909 0.03940306604 -0.1739001274 9.605417525e-39
-0.3081521988 -0.1108684689 0.0721052289 6.037823739e-39
0.3152352571 0.0304693263 0.2578813434 9.330987234e-39
0.03436118364 -0.1285304576 0.3608884215 5.671916684e-39
-0.2576568723 -0.07229655236 -0.3678207994 6.952591376e-39
0.3150880039 -0.06886602193 0.1481664777 7.04406814e-39
-0.3079669476 -0.06694859266 0.2120870948 7.135544904e-39
-0.1100928783 -0.002545200288 0.3606994748 8.599173124e-39
0.03208744526 0.1199589223 0.3126208186 1.14349528e-38
-0.2758255601 0.05634203553 0.360483706 9.97132458e-39
-0.07291376591 0.1202698126 0.1495569348 1.14349528e-38
-0.2303730249 -0.08940216154 -0.3677854538 6.586684321e-39
-0.1100930572 -0.1247140467 0.3606999516 5.763393447e-39
-0.2572152019 0.04534722492 0.3605079055 9.696894289e-39
-0.07128566504 -0.1281591654 0.3607504964 5.671916684e-39
-0.2266703844 -0.1241783872 0.3605478406 5.763393447e-39
-0.3078984618 0.053790465 0.2649123073 9.879847816e-39
-0.2061553001 0.1199580804 0.3136748672 1.14349528e-38
-0.1698263288 0.1199603304 -0.001479327679 1.14349528e-38
0.3153020442 0.01054167654 0.3075934052 8.873603415e-39
-0.2213977575 0.007540416438 -0.3677739501 8.873603415e-39
-0.1206744313 -0.04700361937 -0.3676431179 7.592928722e-39
-0.1696588993 -0.02069743723 -0.2857985497 8.141789305e-39
0.1944841743 -0.00189714774 0.106510818 8.599173124e-39
0.3150880039 0.09120092541 0.1481664777 1.079461545e-38
-0.2327327132 -0.002647149609 0.3605399728 8.599173124e-39
0.2250514627 0.08048434556 0.1065531373 1.052018516e-38
0.03436118364 -0.1285304576 0.3608884215 5.671916684e-39
-0.3078376353 -0.05269514769 0.3117278218 7.409975195e-39
0.3150880039 0.05025357753 0.1481664777 9.879847816e-39
0.3151732385 -0.08426592499 0.2116743922 6.678161085e-39
-0.3080717921 0.09181235731 0.1311699748 1.079461545e-38
0.3151153624 0.1154690832 0.168614924 1.134347604e-38
-0.02812159061 -0.04706382751 0.3608061671 7.592928722e-39
-0.3079444766 -0.08771982044 0.229316175 6.586684321e-39
-0.1556823254 0.01291541755 0.3606401086 8.965080179e-39
0.2457975149 0.05780828744 0.1132209897 9.97132458e-39
-0.1397126913 -0.1018691212 -0.2857595086 6.31225403e-39
-0.2576566339 -0.0507613942 -0.3678209186 7.501451959e-39
-0.3080206513 -0.07004205137 0.1705786586 7.04406814e-39
-0.110968858 0.1203154773 -0.310996592 1.14349528e-38
-0.3080717921 -0.04943745211 0.1311699748 7.501451959e-39
-0.2266703844 0.09775747359 0.3605478406 1.097756898e-38
-0.1397126913 0.09873468429 -0.2857595086 1.097756898e-38
-0.1907867193 -0.1280009151 0.3605945706 5.671916684e-39
-0.1067709923 -0.02075084485 -0.2493616939 8.141789305e-39
-0.1067225337 0.03792094067 -0.2154752612 9.513940761e-39
-0.1100928783 0.04326811433 0.3606994748 9.696894289e-39
0.3150614202 0.005491767079 0.1283914447 8.782126651e-39
-0.02812159061 0.08669648319 0.3608061671 1.070313869e-38
-0.1612506509 0.1151884794 -0.3676961064 1.134347604e-38
0.2548120618 0.02031686716 0.1065891385 9.148033706e-39
0.07458102703 0.07414170355 0.3609400392 1.04287084e-38
0.1328730583 -0.07029635459 0.3610168099 7.04406814e-39
-0.2810636163 -0.085672535 -0.3678512573 6.678161085e-39
-0.1066954732 -0.02751609124 -0.1915866882 8.050312541e-39
-0.3078744411 0.09582844377 0.2833043933 1.088609222e-38
-0.1994492412 -0.007449189201 -0.3677453399 8.50769636e-39
0.2548120618 -0.02955177985 0.1065891385 7.958835777e-39
0.3150357008 0.03061595373 0.1092571616 9.422463997e-39
0.09427782893 0.07363411784 0.3609656692 1.04287084e-38
0.3150614202 0.1098356843 0.1283914447 1.125199927e-38
-0.308232218 -0.1127170175 0.01094451547 6.037823739e-39
0.3152037263 -0.01396386605 0.2343634963 8.324742832e-39
0.3153020442 -0.06957501918 0.3075934052 7.04406814e-39
0.3151153922 0.03596578911 0.1686148047 9.513940761e-39
-0.156750381 0.1199593022 0.3402355313 1.14349528e-38
-0.1382243633 0.119956553 -0.3164106011 1.14349528e-38
-0.3080717921 0.03060412034 0.1311699748 9.422463997e-39
0.2909231782 0.1181031093 0.1066383719 1.14349528e-38
-0.2810630202 -0.02648056857 -0.3678517342 8.050312541e-39
0.3151732385 0.09602393955 0.2116743922 1.088609222e-38
-0.1102202833 0.1200110167 -0.05216914415 1.14349528e-38
-0.1907866597 -0.03395942226 0.3605944514 7.867359014e-39
0.2060439587 -0.03963805735 0.1065257192 7.77588225e-39
-0.3009775877 0.0567811057 0.360450685 9.97132458e-39
-0.02812159061 0.04706382751 0.3608061671 9.788371052e-39
0.04452109337 -0.1087495834 0.3609016538 6.129300502e-39
-0.1080208421 0.119957827 0.2992299199 1.14349528e-38
0.3150880039 -0.009306223132 0.1481664777 8.416219596e-39
0.194484055 0.02086852677 0.1065114066 9.148033706e-39
-0.1066864133 -0.03902187943 -0.1845936775 7.77588225e-39
0.1906045973 0.05891120061 0.1065061688 1.006280134e-38
-0.1397126913 -0.001567227184 -0.2857595086 8.599173124e-39
0.3152680099 0.126214698 0.2822747827 1.161790633e-38
0.3153373301 0.03653455153 0.3338910937 9.513940761e-39
0.2657701969 -0.02940603159 0.1066035628 7.958835777e-39
-0.3080441356 -0.1266934574 0.1545758843 5.671916684e-39
0.3150880039 -0.0316411294 0.1481664777 7.958835777e-39
-0.1407254338 -0.0302614402 -0.3676690459 7.958835777e-39
0.2557706833 -0.09188304096 0.3611772656 6.495207557e-39
-0.3081797361 -0.1271157265 0.05112200975 5.671916684e-39
0.0844630599 -0.09295473993 0.360953629 6.495207557e-39
-0.3080206513 0.03139815852 0.1705786586 9.422463997e-39
-0.2696101367 -0.06693437696 0.3604917526 7.135544904e-39
-0.08779603243 0.02273984253 0.3607284427 9.23951047e-39
0.3128598034 0.1057201475 0.1022387072 1.116052251e-38
-0.2303727567 -0.007562799845 -0.3677856028 8.50769636e-39
0.07389861345 0.1214215681 0.1019317508 1.152642956e-38
-0.2696101367 0.0856840685 0.3604917526 1.070313869e-38
0.2548110187 0.07942069322 0.1065936685 1.052018516e-38
-0.1397126913 -0.07992807031 -0.2857595086 6.769637849e-39
-0.3080414534 -0.007171316538 0.1545723081 8.50769636e-39
-0.1511012912 0.119956769 0.2760699391 1.14349528e-38
-0.1407254338 -0.1109585837 -0.3676690459 6.037823739e-39
0.3150880039 0.02791867219 0.1481664777 9.330987234e-39
-0.2572152019 0.03467729315 0.3605079055 9.513940761e-39
0.1138248965 0.1199588329 0.2993075252 1.14349528e-38
-0.3002199531 -0.1148732975 -0.3678761721 5.946346975e-39
-0.2327318192 0.1199578568 0.1130997464 1.14349528e-38
-0.1066434383 0.0786293745 -0.151871264 1.052018516e-38
0.09427782893 -0.05463178083 0.3609656692 7.409975195e-39
0.01104444265 0.1216693968 0.1143744588 1.152642956e-38
-0.1327191591 0.09486775845 0.3606700301 1.088609222e-38
-0.2908251882 0.1199613512 0.1391590238 1.14349528e-38
0.2944703698 0.01995422877 0.1066409871 9.148033706e-39
0.265769124 0.0790290311 0.1066083312 1.052018516e-38
-0.308232218 -0.1127170175 0.01094451547 6.037823739e-39
-0.3080414534 -0.07410348207 0.1545723081 6.952591376e-39
-0.3077996373 0.002679431811 0.3410221934 8.690649887e-39
-0.1735486984 0.1199646816 -0.04641401768 1.14349528e-38
0.3152680099 0.05586552992 0.2822747827 9.97132458e-39
-0.1024815366 0.0694354102 -0.3625770211 1.024575487e-38
0.2548114061 0.03878679127 0.1065919995 9.605417525e-39
-0.2484554648 0.09948731959 -0.3678099513 1.097756898e-38
-0.07128554583 0.05277139693 0.360750258 9.879847816e-39
-0.1407251954 0.1080764905 -0.3676692843 1.116052251e-38
0.06458047032 0.1199549437 0.1244023368 1.14349528e-38
-0.1407254338 -0.1282508373 -0.3676690459 5.671916684e-39
-0.3079444766 -0.02756908722 0.229316175 8.050312541e-39
0.2250521183 -0.03930623829 0.1065506265 7.77588225e-39
-0.00699865818 0.02705435269 0.3608338237 9.330987234e-39
-0.00699865818 -0.04673020542 0.3608338237 7.592928722e-39
0.2548114061 0.03878679127 0.1065919995 9.605417525e-39
0.294470042 0.07800289989 0.1066425368 1.052018516e-38
0.05461078882 0.03130748868 0.3609140515 9.422463997e-39
-0.1696381569 -0.09228453785 -0.3677066267 6.495207557e-39
-0.3081143498 -0.09460707009 0.1010540128 6.403730794e-39
-0.3078744411 0.1165480837 0.2833043933 1.14349528e-38
0.3151438534 0.02503443509 0.1897717118 9.23951047e-39
0.2944703698 -0.001814030344 0.1066409871 8.599173124e-39
-0.1206744313 -0.08688548952 -0.3676431179 6.586684321e-39
-0.3082740903 -0.09109340608 -0.02091449499 6.495207557e-39
0.3152037263 0.005984493531 0.2343634963 8.782126651e-39
-0.1738014817 0.0690202713 -0.3677121997 1.024575487e-38
0.3150614202 0.1098356843 0.1283914447 1.125199927e-38
-0.2572152019 -0.01333743054 0.3605079055 8.324742832e-39
-0.1707401276 0.1199558079 0.2036076188 1.14349528e-38
0.3151732385 0.07250789553 0.2116743922 1.033723163e-38
-0.3079669476 -0.007438744418 0.2120870948 8.50769636e-39
-0.1556823254 -0.03358005732 0.3606401086 7.867359014e-39
0.3150614202 -0.126311034 0.1283914447 5.671916684e-39
-0.2716302276 -0.1100386903 -0.3678389192 6.129300502e-39
-0.3080414534 -0.007171316538 0.1545723081 8.50769636e-39
-0.3081143498 -0.1269119382 0.1010540128 5.671916684e-39
0.2060436606 0.03963807225 0.106526792 9.605417525e-39
-0.3078984618 0.07428213209 0.2649123073 1.04287084e-38
-0.1100928783 0.08399110287 0.3606994748 1.061166193e-38
-0.09078848362 0.1199582592 0.3084941506 1.14349528e-38
-0.3080414534 0.04541828111 0.1545723081 9.696894289e-39
-0.3079669476 -0.02727534994 0.2120870948 8.050312541e-39
-0.3080717921 -0.01177082583 0.1311699748 8.416219596e-39
-0.3079444766 -0.04761935398 0.229316175 7.501451959e-39
0.1656774282 0.1199556068 0.1357472539 1.14349528e-38
0.3152037263 -0.1256747693 0.2343634963 5.763393447e-39
0.3150880039 -0.06886602193 0.1481664777 7.04406814e-39
0.1100909263 0.1199562028 0.1948637366 1.14349528e-38
-0.1271794438 0.05760155246 -0.2857432961 9.97132458e-39
0.124147743 0.1199550405 0.1134284064 1.14349528e-38
-0.3077996373 -0.1044971868 0.3410221934 6.220777266e-39
-0.3078376353 -0.03162303567 0.3117278218 7.958835777e-39
-0.1994492412 -0.0253272187 -0.3677453399 8.050312541e-39
0.03436118364 -0.1285304576 0.3608884215 5.671916684e-39
-0.307921648 -0.0684062764 0.2469204068 7.04406814e-39
-0.2061553001 0.1199580804 0.3136748672 1.14349528e-38
-0.3099448681 -0.030052118 -0.3678893447 7.958835777e-39
0.03436139226 0.08002838492 0.3608875871 1.052018516e-38
-0.2114220262 0.119956851 0.2436622977 1.14349528e-38
0.3150880039 -0.1284258068 0.1481664777 5.671916684e-39
-0.1206744313 -0.00712176552 -0.3676431179 8.50769636e-39
0.07062965631 0.1199563071 0.2230039239 1.14349528e-38
-0.3078744411 0.07510879636 0.2833043933 1.04287084e-38
0.1470789015 -0.09092473239 0.3610354066 6.495207557e-39
0.3153373301 -0.02364000864 0.3338910937 8.141789305e-39
-0.3080916405 -0.07224822789 0.1159589887 6.952591376e-39
-0.3079887629 0.06624279916 0.1952212453 1.024575487e-38
-0.2883527875 0.03501378372 0.3604672551 9.513940761e-39
-0.3079114556 -0.114634648 0.2558690906 5.946346975e-39
-0.2905910611 0.1048951969 -0.3678650856 1.116052251e-38
-0.3082363009 -0.05394303799 0.004425227642 7.409975195e-39
0.294470042 0.09977119416 0.1066425368 1.097756898e-38
-0.2266703844 -0.03963139281 0.3605478406 7.77588225e-39
-0.106789887 0.09920737147 -0.2632334828 1.097756898e-38
-0.2287006378 0.1199568436 0.1724799275 1.14349528e-38
0.0646302104 -0.1127972305 0.3609278798 6.037823739e-39
-0.00699865818 -0.0270543173 0.3608338237 8.050312541e-39
-0.2572152019 -0.125371784 0.3605079055 5.763393447e-39
-0.1500402093 0.1199554726 0.2147247195 1.14349528e-38
-0.00699865818 0.007378427777 0.3608338237 8.873603415e-39
-0.1067522764 0.01780149341 -0.2351049781 9.056556942e-39
-0.2286579609 0.1199571118 0.2344053388 1.14349528e-38
0.3152352571 0.09140791744 0.2578813434 1.079461545e-38
-0.3002199531 -0.1148732975 -0.3678761721 5.946346975e-39
-0.3080206513 -0.0120762242 0.1705786586 8.416219596e-39
-0.3077996373 0.0241147317 0.3410221934 9.23951047e-39
-0.1024600267 -0.1287377477 -0.3435827494 5.671916684e-39
-0.1206744313 -0.06694455445 -0.3676431179 7.135544904e-39
-0.3080206513 0.03139815852 0.1705786586 9.422463997e-39
0.3151438534 0.02503443509 0.1897717118 9.23951047e-39
0.2060438991 0.02076281235 0.1065259576 9.148033706e-39
0.0034506917 -0.08577792346 0.3608480096 6.678161085e-39
-0.07128554583 -0.04774558172 0.360750258 7.501451959e-39
0.3153020442 -0.03162500262 0.3075934052 7.958835777e-39
-0.09078848362 0.1199582592 0.3084941506 1.14349528e-38
0.07458102703 0.007174980827 0.3609400392 8.873603415e-39
-0.00699865818 0.1057577729 0.3608338237 1.116052251e-38
-0.2735369802 0.1199583709 0.2774764895 1.14349528e-38
-0.2303730249 -0.07275355607 -0.3677854538 6.952591376e-39
-0.1066434383 0.0995971933 -0.151871264 1.097756898e-38
-0.1100928783 0.1043525636 0.3606994748 1.106904574e-38
-0.1066954732 -0.02751609124 -0.1915866882 8.050312541e-39
0.3150880039 0.1284258217 0.1481664777 1.170938309e-38
-0.3078376353 -0.05269514769 0.3117278218 7.409975195e-39
-0.1397126913 -0.07992807031 -0.2857595086 6.769637849e-39
-0.3080206513 -0.05072012544 0.1705786586 7.501451959e-39
0.3152037263 -0.1256747693 0.2343634963 5.763393447e-39
-0.1099858582 -0.1251118928 -0.2843441367 5.763393447e-39
-0.1206744313 -0.00712176552 -0.3676431179 8.50769636e-39
0.1137064993 -0.125034675 0.3609918952 5.763393447e-39
-0.2908251882 0.1199613512 0.1391590238 1.14349528e-38
-0.3081333041 -0.1073872596 0.08643740416 6.129300502e-39
0.2557706833 -0.1277398318 0.3611772656 5.671916684e-39
-0.1327191591 0.03333190084 0.3606700301 9.422463997e-39
0.128202498 0.1199579835 0.2539557815 1.14349528e-38
-0.2701163888 0.1199598387 0.1502662301 1.14349528e-38
-0.1994492412 -0.0253272187 -0.3677453399 8.050312541e-39
-0.2883527875 0.03501378372 0.3604672551 9.513940761e-39
-0.2266703844 -0.06076816097 0.3605478406 7.227021667e-39
-0.257656455 -0.03230271116 -0.3678210378 7.867359014e-39
-0.3077865839 0.0350340642 0.3510317206 9.513940761e-39
-0.1066716909 0.09765104204 -0.1739001274 1.097756898e-38
-0.156750381 0.1199593022 0.3402355313 1.14349528e-38
-0.2286579609 0.1199571118 0.2344053388 1.14349528e-38
-0.106788218 0.05826449394 -0.2632353902 1.006280134e-38
0.3152037263 0.06582965702 0.2343634963 1.024575487e-38
-0.3078376353 0.03424213827 0.3117278218 9.422463997e-39
0.3151438534 0.1251722276 0.1897717118 1.161790633e-38
-0.3078995943 -0.1255113035 0.2649139762 5.763393447e-39
-0.1024600267 -0.1287377477 -0.3435827494 5.671916684e-39
-0.1907866597 0.1071028188 0.3605944514 1.116052251e-38
-0.2716302276 -0.1100386903 -0.3678389192 6.129300502e-39
0.3152352571 -0.07109503448 0.2578813434 6.952591376e-39
-0.1206744313 -0.1267673671 -0.3676431179 5.671916684e-39
0.05461078882 0.06983982772 0.3609140515 1.033723163e-38
0.3150880039 -0.009306223132 0.1481664777 8.416219596e-39
0.01382690668 -0.04640127718 0.3608610034 7.592928722e-39
-0.3077996373 0.08842071146 0.3410221934 1.070313869e-38
0.04452109337 -0.08941633999 0.3609016538 6.586684321e-39
0.3151732385 -0.1273787171 0.2116743922 5.671916684e-39
0.2657699585 0.03859543428 0.1066046432 9.605417525e-39
-0.3077996373 0.08842071146 0.3410221934 1.070313869e-38
0.3151438534 -0.04429171234 0.1897717118 7.592928722e-39
0.3150880039 -0.0316411294 0.1481664777 7.958835777e-39
-0.1907866597 0.1071028188 0.3605944514 1.116052251e-38
-0.08779603243 0.06316620111 0.3607284427 1.015427811e-38
-0.2810634375 -0.06698032469 -0.3678514361 7.135544904e-39
0.294470191 0.05986267328 0.1066417098 1.006280134e-38
0.1137064993 -0.07313349098 0.3609918952 6.952591376e-39
0.3150357008 0.04862535745 0.1092571616 9.788371052e-39
-0.106789887 0.08031073958 -0.2632334828 1.052018516e-38
0.01382672787 -0.1245508119 0.3608615994 5.763393447e-39
-0.1206744313 -0.06694455445 -0.3676431179 7.135544904e-39
0.3150614202 0.07505439222 0.1283914447 1.04287084e-38
-0.1066434383 0.04018835351 -0.151871264 9.605417525e-39
-0.3078744411 0.01294979546 0.2833043933 8.965080179e-39
-0.3077996373 -0.04019121081 0.3410221934 7.684405486e-39
-0.02812159061 -0.04706382751 0.3608061671 7.592928722e-39
-0.3002199531 -0.1274621487 -0.3678761721 5.671916684e-39
0.2338269055 -0.05196370184 0.3611486554 7.409975195e-39
-0.1067247391 0.08078835905 -0.2154726982 1.052018516e-38
-0.1066434383 0.0786293745 -0.151871264 1.052018516e-38
-0.3079669476 -0.08678519726 0.2120870948 6.586684321e-39
-0.1112268567 0.1230818182 0.1113106608 1.152642956e-38
-0.3078623414 -0.1119913682 0.2926550508 6.037823739e-39
-0.3080847263 -0.1288278997 0.1235302091 5.671916684e-39
-0.1407254338 -0.07061000168 -0.3676690459 7.04406814e-39
0.3153373301 -0.0537273027 0.3338910937 7.409975195e-39
-0.3078744411 -0.01294979546 0.2833043933 8.324742832e-39
-0.00699865818 0.007378427777 0.3608338237 8.873603415e-39
-0.1023728326 0.1286070645 -0.2771322727 1.170938309e-38
-0.3079558015 0.08725000918 0.2206553817 1.070313869e-38
-0.1067530513 0.07929755747 -0.235104084 1.052018516e-38
0.3151438534 0.07510330528 0.1897717118 1.04287084e-38
-0.3078984618 0.03329886496 0.2649123073 9.422463997e-39
-0.3080414534 0.07410348207 0.1545723081 1.04287084e-38
-0.2125532627 0.1095532328 -0.3677631021 1.125199927e-38
0.3152037263 0.1256747693 0.2343634963 1.161790633e-38
0.3151732385 0.04507247359 0.2116743922 9.696894289e-39
-0.3080414534 -0.007171316538 0.1545723081 8.50769636e-39
0.03436139226 0.0218259152 0.3608875871 9.148033706e-39
-0.1271794438 0.05760155246 -0.2857432961 9.97132458e-39
-0.3083060384 -0.1269149929 -0.04535323381 5.671916684e-39
0.0486446023 0.119959347 0.3215218186 1.14349528e-38
-0.2572152019 -0.03467729315 0.3605079055 7.867359014e-39
0.3150880039 0.06886602193 0.1481664777 1.024575487e-38
-0.1696196198 0.01751288213 -0.2857983708 9.056556942e-39
-0.1928852201 0.1199558005 0.1344832778 1.14349528e-38
-0.2576562762 -0.01076756604 -0.3678212166 8.416219596e-39
0.01935493946 0.1199541166 0.1460900903 1.14349528e-38
0.3150357008 0.08824601024 0.1092571616 1.070313869e-38
-0.3079669476 -0.08678519726 0.2120870948 6.586684321e-39
-0.1612506509 0.1151884794 -0.3676961064 1.134347604e-38
-0.1556825638 -0.1265710443 0.3606404662 5.671916684e-39
-0.1293406487 0.1199551374 0.2258419394 1.14349528e-38
0.03436139226 0.0218259152 0.3608875871 9.148033706e-39
0.2557706833 -0.06947253644 0.3611772656 7.04406814e-39
-0.110648632 0.01393110026 -0.2836456597 8.965080179e-39
0.2693979144 0.1192664206 0.1066126227 1.14349528e-38
-0.1102178097 -0.1255115867 -0.3054497838 5.763393447e-39
-0.1024881005 -0.03246012703 -0.366281271 7.867359014e-39
0.3152352571 0.07109503448 0.2578813434 1.033723163e-38
0.3152352571 -0.07109503448 0.2578813434 6.952591376e-39
-0.2526581883 0.1199593097 0.1024116874 1.14349528e-38
0.3151153922 -0.05489513278 0.1686148047 7.409975195e-39
-0.1067709923 -0.03990548477 -0.2493616939 7.684405486e-39
-0.2266703844 -0.0819048956 0.3605478406 6.769637849e-39
-0.1511012912 0.119956769 0.2760699391 1.14349528e-38
-0.1556823254 0.1059063673 0.3606401086 1.116052251e-38
-0.0387969017 -0.0870071128 0.3607929349 6.586684321e-39
-0.1067247391 0.08078835905 -0.2154726982 1.052018516e-38
-0.110648632 0.0927875489 -0.2836456597 1.079461545e-38
-0.2327318192 0.1199578568 0.1130997464 1.14349528e-38
-0.1397126913 0.09873468429 -0.2857595086 1.097756898e-38
-0.1066573933 -0.02249101549 -0.162994802 8.141789305e-39
-0.3080206513 0.05072009191 0.1705786586 9.879847816e-39
-0.1327191591 0.01281997282 0.3606700301 8.965080179e-39
0.2657696605 0.06065007672 0.1066058278 1.006280134e-38
-0.1729665399 0.1199554726 0.1451812387 1.14349528e-38
0.3152352571 -0.09140791744 0.2578813434 6.495207557e-39
-0.3080206513 0.03139815852 0.1705786586 9.422463997e-39
-0.1585828066 0.1199653894 -0.07862001657 1.14349528e-38
0.294470191 0.05986267328 0.1066417098 1.006280134e-38
0.2338269055 -0.1287795901 0.3611486554 5.671916684e-39
-0.07139265537 0.1199563667 0.2569913268 1.14349528e-38
-0.2125530839 0.1275619268 -0.3677632213 1.161790633e-38
-0.1248564124 0.1199584082 -0.333386898 1.14349528e-38
0.1645262837 0.1206562892 0.1020488068 1.152642956e-38
-0.3099454045 -0.09015639126 -0.3678891063 6.586684321e-39
-0.3078623414 -0.1119913682 0.2926550508 6.037823739e-39
-0.3078984618 0.09477373213 0.2649123073 1.088609222e-38
-0.3078984618 0.01280726679 0.2649123073 8.965080179e-39
-0.3079444766 -0.08771982044 0.229316175 6.586684321e-39
-0.1024815366 -0.1119469032 -0.3625770211 6.037823739e-39
0.09390953183 0.1199582666 0.2886005044 1.14349528e-38
0.3150880039 -0.1284258068 0.1481664777 5.671916684e-39
-0.2266703844 0.118894197 0.3605478406 1.14349528e-38
-0.1994492412 -0.08492071182 -0.3677453399 6.678161085e-39
-0.2026500106 -0.07079738379 0.360578835 7.04406814e-39
-0.10675174 0.09871715307 -0.2351055741 1.097756898e-38
-0.1696381569 0.007339204662 -0.3677066267 8.873603415e-39
-0.3079558015 0.007478549611 0.2206553817 8.873603415e-39
0.3151732385 -0.08426592499 0.2116743922 6.678161085e-39
-0.1429895163 0.1199605763 0.01294207573 1.14349528e-38
0.3150614202 0.04576484859 0.1283914447 9.696894289e-39
-0.3078744411 0.07510879636 0.2833043933 1.04287084e-38
-0.3080717921 -0.01177082583 0.1311699748 8.416219596e-39
0.3152037263 0.02593288012 0.2343634963 9.23951047e-39
-0.1397126913 0.09873468429 -0.2857595086 1.097756898e-38
0.3151153922 0.03596578911 0.1686148047 9.513940761e-39
-0.3083060384 -0.08530352265 -0.04535323381 6.678161085e-39
0.01382690668 0.08547599614 0.3608610034 1.070313869e-38
-0.2303730249 -0.07275355607 -0.3677854538 6.952591376e-39
-0.1696588993 -0.02069743723 -0.2857985497 8.141789305e-39
0.3152680099 0.1055237874 0.2822747827 1.116052251e-38
-0.1696588993 -0.08119765669 -0.2857985497 6.769637849e-39
-0.2303729057 -0.02878040634 -0.3677855134 7.958835777e-39
0.3128598034 -0.03404548019 0.1022387072 7.867359014e-39
0.124147743 0.1199550405 0.1134284064 1.14349528e-38
0.3150614202 -0.1043439135 0.1283914447 6.220777266e-39
-0.3080232143 -0.1086862907 0.1705821157 6.129300502e-39
-0.03000116348 0.1199573874 0.2792429328 1.14349528e-38
-0.1327191591 0.03333190084 0.3606700301 9.422463997e-39
-0.3002184033 0.04563452676 -0.3678772449 9.696894289e-39
-0.1612506509 0.1151884794 -0.3676961064 1.134347604e-38
-0.1407254338 -0.01008714642 -0.3676690459 8.416219596e-39
0.05962926149 0.1081843674 0.360920608 1.116052251e-38
-0.1067522764 0.01780149341 -0.2351049781 9.056556942e-39
-0.08779621124 -0.1238058284 0.3607288003 5.763393447e-39
-0.1556823254 -0.07490937412 0.3606401086 6.952591376e-39
0.2457975149 0.05780828744 0.1132209897 9.97132458e-39
-0.1133822203 0.05778523907 -0.2175892591 9.97132458e-39
-0.3099446297 -0.01107183006 -0.3678895831 8.416219596e-39
-0.08779603243 0.04295302182 0.3607284427 9.696894289e-39
-0.1407253146 0.0879022181 -0.3676691651 1.070313869e-38
-0.2669475675 0.06956757605 -0.367833972 1.024575487e-38
-0.1407254338 -0.0504357107 -0.3676690459 7.501451959e-39
-0.3079995513 -0.09030120075 0.1869209409 6.586684321e-39
-0.3078744411 0.03366943821 0.2833043933 9.422463997e-39
-0.2758255601 0.02414659597 0.360483706 9.23951047e-39
-0.1327191591 -0.09486775845 0.3606700301 6.403730794e-39
0.06009435654 0.1199547425 0.1679852605 1.14349528e-38
0.09427750111 -0.1068883166 0.360966742 6.129300502e-39
-0.3082719445 -0.06990870088 -0.02091693878 7.04406814e-39
-0.205747664 0.1199566424 0.0745177865 1.14349528e-38
-0.2303729057 -0.02878040634 -0.3677855134 7.958835777e-39
0.01382690668 0.02686391957 0.3608610034 9.330987234e-39
0.3151732385 0.04507247359 0.2116743922 9.696894289e-39
0.1138248965 0.1199588329 0.2993075252 1.14349528e-38
0.2249490917 -0.07480014116 0.3611370921 6.952591376e-39
-0.2696101367 -0.04551207274 0.3604917526 7.592928722e-39
-0.3078376353 0.07638636231 0.3117278218 1.04287084e-38
-0.00699865818 0.02705435269 0.3608338237 9.330987234e-39
-0.04954844713 0.007484541275 0.3607786298 8.873603415e-39
-0.07128554583 0.03266801313 0.360750258 9.422463997e-39
0.01382690668 0.1050133631 0.3608610034 1.116052251e-38
-0.1994492412 -0.1266361326 -0.3677453399 5.671916684e-39
-0.3080717921 0.01177082583 0.1311699748 8.965080179e-39
-0.3079995513 -0.0122028701 0.1869209409 8.416219596e-39
0.3151732385 -0.01371771004 0.2116743922 8.324742832e-39
-0.1133822203 0.05778523907 -0.2175892591 9.97132458e-39
-0.3009775877 -0.127081573 0.360450685 5.671916684e-39
-0.2465818524 0.1199578717 0.2919518352 1.14349528e-38
-0.1696588993 0.09870366007 -0.2857985497 1.097756898e-38
0.09427750111 -0.1258906722 0.360966742 5.671916684e-39
-0.3078382611 -0.1264177263 0.3117287755 5.671916684e-39
-0.1066573933 -0.02249101549 -0.162994802 8.141789305e-39
0.06934139132 0.1199598387 0.3326478601 1.14349528e-38
-0.1556823254 0.03358005732 0.3606401086 9.422463997e-39
-0.3077865839 0.0350340642 0.3510317206 9.513940761e-39
-0.07128554583 0.09297823161 0.360750258 1.079461545e-38
-0.1501091123 0.1214972436 0.07249641418 1.152642956e-38
0.3151438534 0.05584608391 0.1897717118 9.97132458e-39
0.3150880039 -0.09120092541 0.1481664777 6.495207557e-39
-0.2327318192 0.1199578568 0.1130997464 1.14349528e-38
0.3150880039 0.009306223132 0.1481664777 8.873603415e-39
0.1328730583 -0.07029635459 0.3610168099 7.04406814e-39
-0.3080206513 0.07004208863 0.1705786586 1.033723163e-38
-0.1067218184 0.1005727798 -0.2154761553 1.097756898e-38
-0.2266703844 0.09775747359 0.3605478406 1.097756898e-38
0.03436139226 0.05092711374 0.3608875871 9.879847816e-39
0.03416371346 0.1199567169 0.2564818263 1.14349528e-38
-0.01536774635 0.1211301833 0.1407373548 1.152642956e-38
0.07458102703 -0.007175015286 0.3609400392 8.50769636e-39
-0.1848717332 -0.06518367678 0.3606022 7.135544904e-39
0.3152352571 0.05078215152 0.2578813434 9.879847816e-39
0.3153740466 -0.03068038635 0.3612254262 7.958835777e-39
0.1470789015 -0.09092473239 0.3610354066 6.495207557e-39
-0.06037777662 -0.06760413945 0.3607643247 7.04406814e-39
-0.08779603243 0.06316620111 0.3607284427 1.015427811e-38
0.2548114061 0.03878679127 0.1065919995 9.605417525e-39
-0.3077997565 -0.1259325147 0.3410224319 5.671916684e-39
-0.3079558015 0.0673071593 0.2206553817 1.024575487e-38
-0.255671978 0.1199602783 0.04773724079 1.14349528e-38
-0.1407254338 0.01008712593 -0.3676690459 8.873603415e-39
-0.1066703796 -0.001713183708 -0.1739017963 8.599173124e-39
-0.3077996373 -0.01875590719 0.3410221934 8.233266069e-39
-0.04954844713 0.107278727 0.3607786298 1.116052251e-38
-0.1696380973 0.04688874632 -0.3677066565 9.788371052e-39
-0.2125530839 0.1275619268 -0.3677632213 1.161790633e-38
-0.1020474434 0.1220607609 -0.02680069208 1.152642956e-38
-0.1994492412 -0.007449189201 -0.3677453399 8.50769636e-39
-0.1556823254 -0.03358005732 0.3606401086 7.867359014e-39
-0.3080516458 0.1070199534 0.1466918588 1.116052251e-38
-0.1695979238 0.08936629444 -0.3677068353 1.079461545e-38
-0.1907866597 -0.01306132693 0.3605944514 8.324742832e-39
-0.3081485033 -0.07014095783 0.07210057974 7.04406814e-39
0.3153373301 0.09670913965 0.3338910937 1.088609222e-38
-0.02812159061 0.08669648319 0.3608061671 1.070313869e-38
-0.05069702864 0.1199568808 0.2681171298 1.14349528e-38
0.3152037263 0.06582965702 0.2343634963 1.024575487e-38
-0.3078744411 0.03366943821 0.2833043933 9.422463997e-39
-0.02558088303 0.1199552491 0.2243648171 1.14349528e-38
-0.1067267135 -0.03792119771 -0.2154703736 7.77588225e-39
-0.02812188864 -0.1065128967 0.3608068824 6.129300502e-39
0.3150614202 -0.06956259906 0.1283914447 7.04406814e-39
-0.1067218184 0.1005727798 -0.2154761553 1.097756898e-38
-0.2572152019 0.03467729315 0.3605079055 9.513940761e-39
-0.1100928783 0.06362957507 0.3606994748 1.015427811e-38
-0.08779621124 -0.1035926491 0.3607288003 6.220777266e-39
0.3151438534 -0.06740040332 0.1897717118 7.04406814e-39
-0.3082407117 -0.08415160328 0.004430353642 6.678161085e-39
0.3151732385 -0.03723378852 0.2116743922 7.77588225e-39
-0.02915948629 0.1199534014 0.1693558097 1.14349528e-38
0.1934146285 -0.09400828928 0.3610958457 6.495207557e-39
0.0646302104 -0.1127972305 0.3609278798 6.037823739e-39
-0.3079669476 -0.04711198807 0.2120870948 7.592928722e-39
0.3153373301 0.06662184745 0.3338910937 1.024575487e-38
-0.1023728326 0.1286070645 -0.2771322727 1.170938309e-38
0.3150880039 -0.0316411294 0.1481664777 7.958835777e-39
0.05461078882 0.08910596371 0.3609140515 1.070313869e-38
-0.1100928783 0.04326811433 0.3606994748 9.696894289e-39
-0.2128059864 0.1199564263 0.123788178 1.14349528e-38
-0.3079995513 -0.05125203729 0.1869209409 7.501451959e-39
0.03416371346 0.1199567169 0.2564818263 1.14349528e-38
0.3152037263 -0.09375736117 0.2343634963 6.495207557e-39
-0.1100928783 0.04326811433 0.3606994748 9.696894289e-39
-0.3077996373 -0.08306185156 0.3410221934 6.678161085e-39
-0.1397126913 0.02037381753 -0.2857595086 9.148033706e-39
-0.1066434383 0.0786293745 -0.151871264 1.052018516e-38
-0.1695979238 0.08936629444 -0.3677068353 1.079461545e-38
-0.1024815366 0.0694354102 -0.3625770211 1.024575487e-38
-0.1696588993 -0.02069743723 -0.2857985497 8.141789305e-39
-0.1994492412 -0.1147174537 -0.3677453399 5.946346975e-39
-0.08779603243 -0.04295302182 0.3607284427 7.684405486e-39
-0.3080414534 0.09322694689 0.1545723081 1.088609222e-38
-0.02558088303 0.1199552491 0.2243648171 1.14349528e-38
-0.1100928783 0.08399110287 0.3606994748 1.061166193e-38
-0.1206744313 0.05270104483 -0.3676431179 9.879847816e-39
0.02924570441 -0.0680346936 0.3608811498 7.04406814e-39
0.3153020442 -0.1117416993 0.3075934052 6.037823739e-39
-0.3078744411 0.01294979546 0.2833043933 8.965080179e-39
0.3152680099 -0.1138001829 0.2822747827 6.037823739e-39
-0.3078984618 -0.09477373213 0.2649123073 6.403730794e-39
-0.3078251481 -0.1033077836 0.3213449121 6.220777266e-39
-0.2266703844 -0.1241783872 0.3605478406 5.763393447e-39
-0.2858146429 0.07339662313 -0.3678585887 1.033723163e-38
-0.2572152019 -0.1147018522 0.3605079055 5.946346975e-39
-0.3080414534 -0.007171316538 0.1545723081 8.50769636e-39
-0.1327191591 0.03333190084 0.3606700301 9.422463997e-39
-0.3099450469 -0.05219577998 -0.3678892255 7.409975195e-39
0.2657701969 -0.001837888383 0.1066035628 8.599173124e-39
0.2621287405 0.09756816924 0.1066021323 1.097756898e-38
-0.3077997565 -0.1259325147 0.3410224319 5.671916684e-39
-0.1206744313 0.0925829187 -0.3676431179 1.079461545e-38
-0.3080414534 0.02629481629 0.1545723081 9.23951047e-39
-0.3078744411 0.0543890819 0.2833043933 9.97132458e-39
0.3151438534 -0.04429171234 0.1897717118 7.592928722e-39
-0.1556823254 -0.05424473435 0.3606401086 7.409975195e-39
-0.1696588993 -0.1003029943 -0.2857985497 6.31225403e-39
-0.1407254338 -0.01008714642 -0.3676690459 8.416219596e-39
-0.3083060384 -0.1269149929 -0.04535323381 5.671916684e-39
-0.1898769736 0.1199564934 0.2552332282 1.14349528e-38
-0.08779603243 0.1035926268 0.3607284427 1.106904574e-38
-0.3078376353 0.01317006536 0.3117278218 8.965080179e-39
0.05143910646 0.1199557409 0.2126865983 1.14349528e-38
0.3153373301 -0.0537273027 0.3338910937 7.409975195e-39
0.3150880039 -0.009306223132 0.1481664777 8.416219596e-39
-0.3078984618 0.01280726679 0.2649123073 8.965080179e-39
0.3150357008 -0.009004700929 0.1092571616 8.416219596e-39
-0.04954844713 0.02744343504 0.3607786298 9.330987234e-39
0.05461078882 -0.05057366192 0.3609140515 7.501451959e-39
-0.3079995513 -0.05125203729 0.1869209409 7.501451959e-39
-0.1313757002 0.1185748577 -0.2857487202 1.14349528e-38
-0.1380244493 0.1199629307 -0.1053757668 1.14349528e-38
0.3152037263 0.005984493531 0.2343634963 8.782126651e-39
-0.2716284394 0.1131381094 -0.3678403497 1.134347604e-38
-0.00699865818 -0.007378462702 0.3608338237 8.50769636e-39
0.3152037263 0.005984493531 0.2343634963 8.782126651e-39
0.3152037263 0.005984493531 0.2343634963 8.782126651e-39
-0.08532530069 0.1199540272 0.1922510266 1.14349528e-38
0.03595042229 0.1199559271 0.1090310216 1.14349528e-38
-0.1696588993 0.03980275616 -0.2857985497 9.605417525e-39
-0.2576566339 -0.0507613942 -0.3678209186 7.501451959e-39
-0.248455286 0.1178541631 -0.3678100705 1.14349528e-38
-0.257655859 0.02922623791 -0.3678215742 9.330987234e-39
-0.08779621124 -0.1035926491 0.3607288003 6.220777266e-39
-0.1397126913 -0.1018691212 -0.2857595086 6.31225403e-39
-0.3079669476 -0.08678519726 0.2120870948 6.586684321e-39
-0.308072865 -0.09181251377 0.1311714053 6.495207557e-39
-0.3080206513 0.1086859629 0.1705786586 1.125199927e-38
-0.08779603243 0.02273984253 0.3607284427 9.23951047e-39
-0.2266703844 0.0237788409 0.3605478406 9.23951047e-39
0.05461058021 -0.1276382953 0.3609147668 5.671916684e-39
-0.1407254338 0.067727983 -0.3676690459 1.024575487e-38
-0.1994492412 -0.08492071182 -0.3677453399 6.678161085e-39
-0.3009775877 0.01351932436 0.360450685 8.965080179e-39
-0.255671978 0.1199602783 0.04773724079 1.14349528e-38
-0.02558088303 0.1199552491 0.2243648171 1.14349528e-38
-0.3080717921 0.1106457189 0.1311699748 1.125199927e-38
0.3151153922 -0.07382450998 0.1686148047 6.952591376e-39
0.1944841743 -0.00189714774 0.106510818 8.599173124e-39
-0.1067709923 -0.03990548477 -0.2493616939 7.684405486e-39
0.3150357008 -0.1278667003 0.1092571616 5.671916684e-39
-0.3078501225 -0.09166868776 0.3021107316 6.495207557e-39
-0.1067880988 0.1181036532 -0.263235569 1.14349528e-38
-0.3078501225 -0.09166868776 0.3021107316 6.495207557e-39
-0.1067709923 -0.03990548477 -0.2493616939 7.684405486e-39
-0.1501091123 0.1214972436 0.07249641418 1.152642956e-38
-0.2266703844 -0.03963139281 0.3605478406 7.77588225e-39
-0.03047424555 0.1199597567 0.3409190774 1.14349528e-38
0.3150357008 -0.07023663819 0.1092571616 7.04406814e-39
-0.3079444766 -0.007518854924 0.229316175 8.50769636e-39
-0.2572152019 0.04534722492 0.3605079055 9.696894289e-39
-0.3078377247 0.05531244352 0.3116734624 9.97132458e-39
0.07458102703 -0.04544170573 0.3609400392 7.592928722e-39
-0.1696588993 -0.08119765669 -0.2857985497 6.769637849e-39
0.3152037263 -0.07380899787 0.2343634963 6.952591376e-39
-0.1100930572 -0.1043525934 0.3606999516 6.220777266e-39
-0.106789887 0.09920737147 -0.2632334828 1.097756898e-38
0.194484055 -0.02086850069 0.1065114066 8.141789305e-39
-0.1133822203 0.05778523907 -0.2175892591 9.97132458e-39
-0.1696588993 0.09870366007 -0.2857985497 1.097756898e-38
-0.1024600267 -0.1287377477 -0.3435827494 5.671916684e-39
-0.1750309467 0.1199552119 0.09100407362 1.14349528e-38
-0.3080206513 0.08936402202 0.1705786586 1.079461545e-38
0.1470789015 -0.1282271892 0.3610354066 5.671916684e-39
-0.2758255601 0.002682972234 0.360483706 8.690649887e-39
0.3152680099 -0.08483284712 0.2822747827 6.678161085e-39
-0.1695981622 -0.07471612096 -0.3677066565 6.952591376e-39
-0.3078377247 0.09745531529 0.3116734624 1.097756898e-38
0.2250506878 0.03930640221 0.1065558791 9.605417525e-39
-0.1024815366 0.08927410841 -0.3625770211 1.079461545e-38
-0.1066988707 0.03864787892 -0.1950846314 9.605417525e-39
-0.3077865839 0.0350340642 0.3510317206 9.513940761e-39
-0.06540977955 0.1199542582 0.2029538751 1.14349528e-38
-0.110648632 0.074232243 -0.2836456597 1.04287084e-38
-0.1155429482 0.1199605614 -0.1288402081 1.14349528e-38
-0.3079558015 0.04736430943 0.2206553817 9.788371052e-39
0.08982044458 0.1199568585 0.2333210111 1.14349528e-38
0.3152680099 0.1055237874 0.2822747827 1.116052251e-38
0.03416371346 0.1199567169 0.2564818263 1.14349528e-38
-0.1696588993 -0.03980277851 -0.2857985497 7.684405486e-39
-0.06037777662 -0.06760413945 0.3607643247 7.04406814e-39
-0.1729665399 0.1199554726 0.1451812387 1.14349528e-38
-0.1407254338 -0.1109585837 -0.3676690459 6.037823739e-39
0.09511640668 0.1203456372 0.1019590497 1.14349528e-38
0.2250514627 0.08048434556 0.1065531373 1.052018516e-38
-0.3080206513 -0.0120762242 0.1705786586 8.416219596e-39
0.2693979144 0.1192664206 0.1066126227 1.14349528e-38
0.2621287405 0.09756816924 0.1066021323 1.097756898e-38
-0.3078865409 -0.07469315082 0.2740574479 6.952591376e-39
-0.1407254338 -0.0302614402 -0.3676690459 7.958835777e-39
0.1540328264 0.1199563667 0.1724782586 1.14349528e-38
0.07458084822 -0.0741417408 0.3609407544 6.952591376e-39
0.3151153922 -0.02460815944 0.1686148047 8.050312541e-39
0.3152680099 -0.1138001829 0.2822747827 6.037823739e-39
0.2060439587 -0.03963805735 0.1065257192 7.77588225e-39
-0.1612506509 0.1151884794 -0.3676961064 1.134347604e-38
-0.2081645131 0.02545038052 -0.367756784 9.23951047e-39
-0.02915948629 0.1199534014 0.1693558097 1.14349528e-38
-0.2889998555 0.1199603528 0.2020278573 1.14349528e-38
-0.3077996373 -0.06162654981 0.3410221934 7.227021667e-39
-0.1556823254 0.03358005732 0.3606401086 9.422463997e-39
0.05461078882 0.05057362467 0.3609140515 9.879847816e-39
0.3150880039 0.009306223132 0.1481664777 8.873603415e-39
-0.2484568357 -0.1147932634 -0.3678088784 5.946346975e-39
-0.1251618862 0.1199546829 0.170855701 1.14349528e-38
0.3152037263 0.1057263836 0.2343634963 1.116052251e-38
-0.3080544472 -0.1070203111 0.1466955543 6.129300502e-39
-0.04954844713 0.007484541275 0.3607786298 8.873603415e-39
-0.1696381569 -0.1274598092 -0.3677066267 5.671916684e-39
0.3128598034 0.005375583656 0.1022387072 8.782126651e-39
-0.3082821965 -0.1286400408 -0.02710717916 5.671916684e-39
-0.3080206513 0.07004208863 0.1705786586 1.033723163e-38
-0.00699865818 0.0860819146 0.3608338237 1.070313869e-38
0.1934146285 -0.09400828928 0.3610958457 6.495207557e-39
-0.1556823254 0.08524172753 0.3606401086 1.070313869e-38
-0.3079887629 0.1054977626 0.1952212453 1.116052251e-38
0.009220302105 0.1199545264 0.1899895072 1.14349528e-38
-0.281062305 0.04517273232 -0.367852211 9.696894289e-39
-0.3079907894 -0.125125587 0.1952241063 5.763393447e-39
0.3152037263 -0.01396386605 0.2343634963 8.324742832e-39
0.3153740466 -0.09423264861 0.3612254262 6.495207557e-39
-0.2572152019 -0.125371784 0.3605079055 5.763393447e-39
-0.1104209423 0.1199641153 -0.09053343534 1.14349528e-38
-0.3082740903 -0.09109340608 -0.02091449499 6.495207557e-39
-0.2061553001 0.1199580804 0.3136748672 1.14349528e-38
-0.1024815366 0.0694354102 -0.3625770211 1.024575487e-38
-0.2701163888 0.1199598387 0.1502662301 1.14349528e-38
0.3152680099 -0.1262147129 0.2822747827 5.671916684e-39
-0.1556824446 -0.1059063822 0.360640347 6.220777266e-39
0.3152352571 -0.03046929836 0.2578813434 7.958835777e-39
-0.3079348207 -0.1285125762 0.238073051 5.671916684e-39
-0.3080206513 -0.07004205137 0.1705786586 7.04406814e-39
0.3150880039 -0.0316411294 0.1481664777 7.958835777e-39
-0.246172905 0.07032863051 -0.3678067625 1.033723163e-38
-0.1206744313 0.03276010603 -0.3676431179 9.422463997e-39
0.2250506878 0.03930640221 0.1065558791 9.605417525e-39
-0.08779603243 0.04295302182 0.3607284427 9.696894289e-39
0.3153020442 0.1286083609 0.3075934052 1.170938309e-38
-0.1024815366 0.08927410841 -0.3625770211 1.079461545e-38
-0.2576566339 -0.0507613942 -0.3678209186 7.501451959e-39
-0.1908175945 0.02520523779 -0.3677341342 9.23951047e-39
-0.00699865818 0.04673020542 0.3608338237 9.788371052e-39
0.2944703698 0.03809437901 0.1066409871 9.513940761e-39
-0.02812159061 0.007431104779 0.3608061671 8.873603415e-39
0.2250521183 -0.001871736953 0.1065506265 8.599173124e-39
0.1328730583 -0.1241902336 0.3610168099 5.763393447e-39
-0.1696588993 -0.03980277851 -0.2857985497 7.684405486e-39
-0.02558088303 0.1199552491 0.2243648171 1.14349528e-38
0.3153740466 0.07670097053 0.3612254262 1.04287084e-38
-0.1397126913 0.02037381753 -0.2857595086 9.148033706e-39
0.03436139226 0.09942918271 0.3608875871 1.097756898e-38
-0.1556823254 0.05424469709 0.3606401086 9.97132458e-39
0.09427750111 -0.1258906722 0.360966742 5.671916684e-39
0.3151732385 0.09602393955 0.2116743922 1.088609222e-38
0.3151438534 0.1059149578 0.1897717118 1.116052251e-38
-0.205747664 0.1199566424 0.0745177865 1.14349528e-38
-0.3079887629 0.04661531746 0.1952212453 9.788371052e-39
-0.06924790144 0.1199588031 0.3200744987 1.14349528e-38
0.07458102703 -0.02630834468 0.3609400392 8.050312541e-39
-0.10218817 0.1221325025 -0.1348310113 1.152642956e-38
0.2693979144 0.1192664206 0.1066126227 1.14349528e-38
-0.2858146429 0.07339662313 -0.3678585887 1.033723163e-38
-0.1024815366 0.02975802496 -0.3625770211 9.330987234e-39
-0.2502037287 0.1199575365 0.2228351235 1.14349528e-38
-0.3009775877 0.07841207087 0.360450685 1.052018516e-38
0.3152680099 -0.08483284712 0.2822747827 6.678161085e-39
-0.2701163888 0.1199598387 0.1502662301 1.14349528e-38
-0.3099446297 -0.01107183006 -0.3678895831 8.416219596e-39
-0.1066434383 0.04018835351 -0.151871264 9.605417525e-39
-0.3082740903 -0.1122779027 -0.02091449499 6.037823739e-39
-0.2669475675 0.06956757605 -0.367833972 1.024575487e-38
0.09427782893 -0.05463178083 0.3609656692 7.409975195e-39
-0.3078744411 0.0543890819 0.2833043933 9.97132458e-39
-0.1836985946 0.1199586168 0.3257476687 1.14349528e-38
-0.1429895163 0.1199605763 0.01294207573 1.14349528e-38
-0.1327191591 0.1051237211 0.3606700301 1.116052251e-38
0.3152352571 -0.1117208079 0.2578813434 6.037823739e-39
0.3150880039 -0.1284258068 0.1481664777 5.671916684e-39
-0.3077996373 -0.1044971868 0.3410221934 6.220777266e-39
-0.3080717921 0.09181235731 0.1311699748 1.079461545e-38
-0.1558367014 0.1199548915 0.1013129428 1.14349528e-38
0.03436139226 0.09942918271 0.3608875871 1.097756898e-38
-0.1696381569 -0.1084210798 -0.3677066267 6.129300502e-39
-0.2494081855 0.1199583337 0.161373198 1.14349528e-38
-0.2026500106 -0.09177437425 0.360578835 6.495207557e-39
-0.2258511186 0.1285015494 -0.3677806258 1.170938309e-38
-0.1407254338 0.01008712593 -0.3676690459 8.873603415e-39
-0.1024478674 0.1210642904 -0.3357654214 1.152642956e-38
0.02412992716 -0.1046451479 0.3608749509 6.220777266e-39
-0.1397126913 0.03918040916 -0.2857595086 9.605417525e-39
0.1934146285 -0.06649366021 0.3610958457 7.135544904e-39
-0.3078984618 0.03329886496 0.2649123073 9.422463997e-39
0.3150357008 -0.07023663819 0.1092571616 7.04406814e-39
-0.3082363009 -0.05394303799 0.004425227642 7.409975195e-39
-0.2327327132 -0.002647149609 0.3605399728 8.599173124e-39
0.175065279 -0.1130987778 0.3610718846 6.037823739e-39
-0.02812159061 -0.04706382751 0.3608061671 7.592928722e-39
-0.08779603243 -0.02273984253 0.3607284427 8.141789305e-39
-0.3078984618 0.03329886496 0.2649123073 9.422463997e-39
-0.110648632 0.074232243 -0.2836456597 1.04287084e-38
-0.3079995513 -0.07077659667 0.1869209409 7.04406814e-39
0.2060439587 -0.02076278441 0.1065257192 8.141789305e-39
-0.1066573933 -0.02249101549 -0.162994802 8.141789305e-39
-0.1067395806 -0.004900177009 -0.2253790498 8.50769636e-39
0.01139098406 0.1199584231 0.3014948964 1.14349528e-38
0.03436139226 0.09942918271 0.3608875871 1.097756898e-38
-0.2758255601 -0.01878069155 0.360483706 8.233266069e-39
0.2548110187 0.07942069322 0.1065936685 1.052018516e-38
-0.3078984618 0.1050195321 0.2649123073 1.116052251e-38
-0.2810634375 -0.06698032469 -0.3678514361 7.135544904e-39
0.03945022821 0.1186226979 0.360894382 1.14349528e-38
0.04157724977 0.119954221 0.1580306888 1.14349528e-38
-0.3079114556 -0.114634648 0.2558690906 5.946346975e-39
-0.3009775877 -0.008111602627 0.360450685 8.50769636e-39
-0.1907866597 0.1071028188 0.3605944514 1.116052251e-38
-0.3078382611 -0.1264177263 0.3117287755 5.671916684e-39
-0.230327785 0.08941479027 -0.3677861691 1.079461545e-38
-0.110648632 0.0927875489 -0.2836456597 1.079461545e-38
0.3151153624 0.1154690832 0.168614924 1.134347604e-38
-0.110648632 -0.08658052981 -0.2836456597 6.678161085e-39
-0.1236311793 -0.1221804768 -0.3384759426 5.763393447e-39
0.2250506878 0.03930640221 0.1065558791 9.605417525e-39
-0.281062603 0.02336521819 -0.3678520322 9.23951047e-39
-0.2758255601 -0.1046352834 0.360483706 6.220777266e-39
-0.3082108498 -0.05470382422 0.02405965328 7.409975195e-39
-0.02812159061 0.1065128073 0.3608061671 1.116052251e-38
-0.3078744411 0.1165480837 0.2833043933 1.14349528e-38
-0.08779603243 0.04295302182 0.3607284427 9.696894289e-39
-0.3081143498 -0.09460707009 0.1010540128 6.403730794e-39
0.3150614202 -0.005491793156 0.1283914447 8.50769636e-39
-0.1147106886 0.1199652329 -0.01479625702 1.14349528e-38
-0.3082363009 -0.05394303799 0.004425227642 7.409975195e-39
-0.3082205057 -0.07187125087 0.01745486259 6.952591376e-39
0.3152352571 -0.01015644055 0.2578813434 8.416219596e-39
-0.3080414534 0.04541828111 0.1545723081 9.696894289e-39
-0.3078984618 0.053790465 0.2649123073 9.879847816e-39
0.07458102703 -0.02630834468 0.3609400392 8.050312541e-39
0.0034506917 -0.08577792346 0.3608480096 6.678161085e-39
-0.1100928783 -0.04326811433 0.3606994748 7.684405486e-39
0.3151438534 0.005777160171 0.1897717118 8.782126651e-39
0.2944703698 0.01995422877 0.1066409871 9.148033706e-39
0.2657701969 -0.001837888383 0.1066035628 8.599173124e-39
0.3153740466 0.1095728502 0.3612254262 1.125199927e-38
-0.3079995513 -0.05125203729 0.1869209409 7.501451959e-39
-0.1020998433 0.1218670011 -0.06718748808 1.152642956e-38
0.03436118364 -0.1285304576 0.3608884215 5.671916684e-39
0.05962926149 0.1081843674 0.360920608 1.116052251e-38
-0.1327191591 -0.07435579598 0.3606700301 6.952591376e-39
0.3151732385 0.1156206802 0.2116743922 1.134347604e-38
-0.1907866597 0.01306132693 0.3605944514 8.965080179e-39
-0.1696588993 0.1194083169 -0.2857985497 1.14349528e-38
-0.3080016971 -0.1098260507 0.1869239211 6.129300502e-39
0.3153020442 0.03162503242 0.3075934052 9.422463997e-39
-0.1327191591 0.05384382978 0.3606700301 9.879847816e-39
-0.1407254338 -0.09078429639 -0.3676690459 6.495207557e-39
-0.08779603243 -0.02273984253 0.3607284427 8.141789305e-39
0.3150614202 0.005491767079 0.1283914447 8.782126651e-39
-0.3009775877 -0.05137341842 0.360450685 7.501451959e-39
0.3153020442 0.04849169403 0.3075934052 9.788371052e-39
-0.07128554583 -0.007538785692 0.360750258 8.50769636e-39
0.06934139132 0.1199598387 0.3326478601 1.14349528e-38
-0.3079444766 -0.08771982044 0.229316175 6.586684321e-39
0.09427782893 -0.02612823434 0.3609656692 8.050312541e-39
-0.2266703844 -0.06076816097 0.3605478406 7.227021667e-39
-0.3077996373 0.1098560169 0.3410221934 1.125199927e-38
-0.3078744411 0.1165480837 0.2833043933 1.14349528e-38
-0.01752263308 -0.06664226949 0.3608202338 7.135544904e-39
-0.3080414534 0.007171282545 0.1545723081 8.873603415e-39
-0.3081143498 -0.1269119382 0.1010540128 5.671916684e-39
0.3150880039 0.1098133773 0.1481664777 1.125199927e-38
-0.308072865 -0.09181251377 0.1311714053 6.495207557e-39
-0.1696588993 -0.001592121087 -0.2857985497 8.599173124e-39
-0.1907866597 -0.01306132693 0.3605944514 8.324742832e-39
-0.1086443737 0.1199554428 0.2369653583 1.14349528e-38
-0.2810636759 -0.1261722744 -0.3678511977 5.671916684e-39
