# .PCD v0.7 - Point Cloud Data file format
VERSION 0.7
FIELDS x y z rgb
SIZE 4 4 4 4
TYPE F F F F
COUNT 1 1 1 1
WIDTH 820
HEIGHT 1
VIEWPOINT 0 0 0 1 0 0 0
POINTS 820
DATA ascii
-0.2381669879 -0.08583363146 -0.1511373967 4.757149046e-39
-0.01123949885 -0.07978021353 -0.1113953292 4.940102574e-39
-0.01123949885 -0.07978021353 -0.1113953292 4.940102574e-39
-0.08703318238 -0.07978168875 -0.1505134553 4.940102574e-39
-0.05935621262 -0.0797875151 0.08897948265 4.940102574e-39
-0.2732722461 -0.08628374338 0.03029744886 4.757149046e-39
0.1577209234 -0.07978537679 -0.1159062833 4.940102574e-39
-0.07331848145 -0.07978167385 -0.2267518342 4.940102574e-39
-0.1129230261 -0.2587738931 0.009126700461 7.321714411e-40
-0.1481849849 -0.1905144602 0.1497792751 2.287276425e-39
-0.0735373497 -0.2135739625 0.1679758579 1.738415842e-39
-0.19144243 -0.07978285104 0.08918001503 4.940102574e-39
-0.1588587165 -0.0797811076 -0.2105932385 4.940102574e-39
-0.07834863663 -0.07978326827 0.2337167561 4.940102574e-39
-0.1902608275 -0.1055106968 -0.2207112461 4.299765227e-39
0.2019857913 -0.07978190482 0.06916509569 4.940102574e-39
-0.2527656853 -0.08399764448 -0.1124964282 4.84862581e-39
-0.06636637449 -0.1612904817 0.2226428688 3.019090535e-39
-0.01687824726 -0.079788059 0.008680298924 4.940102574e-39
-0.02412307262 0.2828944325 0.03772510588 1.34474416e-38
-0.1432767808 -0.243070364 0.01580248773 1.098078496e-39
-0.1925616711 -0.08582255989 0.2108754218 4.757149046e-39
-0.1739070415 -0.2160246968 0.04790397733 1.738415842e-39
-0.1694734693 -0.08623279631 -0.228062138 4.757149046e-39
-0.224688679 -0.07978255302 -0.09175865352 4.940102574e-39
0.0226560235 -0.07978481054 0.173946768 4.940102574e-39
-0.003802239895 0.2146125883 -0.003813505173 1.180085986e-38
0.0320725441 -0.07978124171 0.06945064664 4.940102574e-39
-0.1510438323 -0.2034851611 -0.1236725301 2.012846134e-39
-0.2123955041 -0.1045258045 -0.189634949 4.299765227e-39
0.08122831583 -0.07978402078 0.2746192813 4.940102574e-39
-0.1985321045 -0.1773917228 0.09398183972 2.65318348e-39
-0.2082023621 -0.150913775 -0.1108380705 3.293520826e-39
-0.07150703669 -0.1694174409 0.2156850547 2.836137007e-39
-0.2029889226 -0.1049555913 0.2086137384 4.299765227e-39
-0.147169292 -0.2052413821 0.1269217283 2.012846134e-39
-0.2845988274 -0.08406250179 0.05227757618 4.84862581e-39
-0.08817224205 -0.189874202 0.1892159432 2.378753189e-39
-0.1919310987 -0.07978669554 0.1290982962 4.940102574e-39
-0.2588915825 -0.1169141307 0.00474627316 4.025334936e-39
-0.1259632111 -0.243283242 0.06869725138 1.098078496e-39
-0.1073495448 -0.1246986687 0.2301709503 3.842381409e-39
-0.02217113972 -0.07977871597 -0.1569804996 4.940102574e-39
0.1252974868 -0.07978273928 -0.05003295839 4.940102574e-39
-0.02543032169 -0.07978023589 -0.1706649214 4.940102574e-39
-0.1901178509 -0.1653854549 0.1265954971 2.927613771e-39
-0.1217426136 -0.07978119701 -0.0555793494 4.940102574e-39
-0.1365631819 -0.2373641282 0.06808706373 1.18955526e-39
-0.2541448176 -0.07978148758 -0.05111052096 4.940102574e-39
-0.1889178157 -0.08745208383 -0.2215753049 4.757149046e-39
0.03441861272 -0.07977882773 -0.2453670502 4.940102574e-39
-0.1519625783 -0.1448970437 -0.1861367971 3.38499759e-39
-0.1950869709 -0.1939334422 0.06965963542 2.195799661e-39
-0.01815921068 0.08846080303 0.01820880175 8.873603415e-39
-0.1692306399 -0.1861132681 -0.1301624626 2.378753189e-39
-0.1747429371 -0.1764359772 0.1330637932 2.65318348e-39
-0.2635393739 -0.1004830673 0.1237519532 4.391241991e-39
-0.1102111042 -0.1807523072 0.1859336495 2.561706716e-39
0.02495524287 -0.07977998257 -0.2849511802 4.940102574e-39
-0.05375143886 -0.07978633046 0.2281772196 4.940102574e-39
-0.1765315533 -0.1718003452 -0.1368580312 2.744660244e-39
-0.06841734052 -0.07978159189 -0.2062776834 4.940102574e-39
-0.2654387653 -0.1075248048 0.1089018583 4.299765227e-39
0.1339814067 -0.07978409529 0.1701885909 4.940102574e-39
-0.2488094717 -0.1249673739 -0.05019275844 3.842381409e-39
-0.1514889598 -0.0797874853 0.1690960228 4.940102574e-39
0.1481997967 -0.07978438586 0.2295579463 4.940102574e-39
-0.04470351338 -0.07978142053 -0.2512173355 4.940102574e-39
-0.0001156926228 -0.07978376001 0.07888817787 4.940102574e-39
-0.1236630678 -0.145241946 0.2068512589 3.38499759e-39
-0.176738441 -0.07978631556 0.1083707064 4.940102574e-39
-0.2539215982 -0.08347305655 0.1118000969 4.84862581e-39
-0.03889971972 -0.07978197932 0.1746540368 4.940102574e-39
0.1375084519 -0.07978194207 0.1850314438 4.940102574e-39
-0.05102143809 -0.1512469053 0.2343610525 3.202044062e-39
-0.1848078817 -0.184311226 -0.10696017 2.470229952e-39
-0.1392740011 -0.2392698526 -0.05491532385 1.18955526e-39
0.01179218292 -0.07978399098 0.1286111325 4.940102574e-39
-0.2123955041 -0.1045258045 -0.189634949 4.299765227e-39
-0.1708689034 -0.07978398353 -0.05144860595 4.940102574e-39
-0.106898129 -0.08838740736 0.2681432962 4.757149046e-39
-0.230633527 -0.08743065596 0.1522926837 4.757149046e-39
-0.1516367346 -0.2269650996 -0.06973973662 1.463985551e-39
-0.2374993265 -0.1501649916 -0.01558857411 3.293520826e-39
-0.1102111042 -0.1807523072 0.1859336495 2.561706716e-39
-0.04304128885 0.2765167058 0.002791285515 1.326448808e-38
-0.06308037043 -0.07978132367 -0.05045696348 4.940102574e-39
-0.1277723312 -0.1012517214 -0.2609134912 4.391241991e-39
-0.2617160678 -0.08195656538 0.1276667267 4.84862581e-39
0.1142028868 -0.07978115231 0.08773544431 4.940102574e-39
0.2511638999 -0.07978192717 0.05379547179 4.940102574e-39
0.005624145269 0.2760293484 0.0341007188 1.326448808e-38
-0.09504982829 -0.262299031 -0.04888446629 6.406946774e-40
0.01676821709 0.03431368247 0.01681268215 7.592928722e-39
-0.2778263986 -0.1114865169 0.04939248413 4.208288464e-39
-0.1063128412 -0.07978306711 0.008786432445 4.940102574e-39
-0.1432767808 -0.243070364 0.01580248773 1.098078496e-39
0.0191873312 -0.07978029549 -0.1400616318 4.940102574e-39
-0.1445102394 -0.2232266217 0.08870730549 1.555462315e-39
-0.1972772777 -0.1959210783 0.04845420271 2.195799661e-39
-0.2277072668 -0.1063023806 -0.1801813096 4.299765227e-39
-0.2531250417 -0.07978323847 -0.07339406759 4.940102574e-39
-0.2802098393 -0.1117320806 0.03384000063 4.208288464e-39
-0.1424257755 -0.1363104284 -0.2020885199 3.567951117e-39
-0.2527656853 -0.08399764448 -0.1124964282 4.84862581e-39
0.07740545273 -0.07977811992 -0.2498068064 4.940102574e-39
0.1029284 -0.07978390902 0.2095077038 4.940102574e-39
-0.272711128 -0.1057564765 -0.07504463941 4.299765227e-39
-0.2413268089 -0.1419884712 -0.02739456296 3.476474354e-39
-0.123115927 -0.0797874555 0.1478600204 4.940102574e-39
-0.2264121771 -0.1624693871 -0.0454416424 3.019090535e-39
-0.130218327 -0.07978305966 -0.09105560184 4.940102574e-39
0.04863417149 -0.07977896929 -0.1860023588 4.940102574e-39
-0.1888898611 -0.07978443801 -0.03168421984 4.940102574e-39
-0.1921830028 -0.2066421807 -0.01006032526 1.92136937e-39
-0.09681349993 -0.07978218049 -0.1913835555 4.940102574e-39
-0.01877093315 0.05448495224 -0.01882497966 8.050312541e-39
-0.07150703669 -0.1694174409 0.2156850547 2.836137007e-39
-0.2159765959 -0.0797823891 0.1082699001 4.940102574e-39
-0.04463416338 -0.07977893203 -0.1068236679 4.940102574e-39
-0.1893357038 -0.2081072181 0.009272553027 1.92136937e-39
-0.01123949885 -0.07978021353 -0.1113953292 4.940102574e-39
0.01270261407 0.1942733377 -0.01752629876 1.134347604e-38
-0.1290166974 -0.1859728396 0.1680679321 2.470229952e-39
-0.1649633348 -0.1652353853 0.1628185511 2.927613771e-39
-0.1061391607 -0.1060212925 0.2650276124 4.299765227e-39
-0.2102714479 -0.079784289 -0.03160794079 4.940102574e-39
-0.1290487051 -0.2270324379 0.1071770564 1.463985551e-39
-0.04411646724 -0.0797881335 0.02844452858 4.940102574e-39
-0.1950869709 -0.1939334422 0.06965963542 2.195799661e-39
0.04578286409 -0.07978785783 -0.02936045825 4.940102574e-39
-0.01152543724 -0.04566289485 -0.00967394188 5.671916684e-39
-0.2588915825 -0.1169141307 0.00474627316 4.025334936e-39
-0.1915700138 -0.1857745051 -0.08987049758 2.470229952e-39
-0.2128726989 -0.1719509661 -0.07046539336 2.744660244e-39
0.01911228895 0.00789239537 -0.01916867495 6.952591376e-39
-0.1468631029 -0.2414258569 -0.01127623022 1.098078496e-39
0.2842838168 -0.07978150249 -0.05125618726 4.940102574e-39
-0.06841734052 -0.07978159189 -0.2062776834 4.940102574e-39
-0.08703535795 -0.1465349793 0.2246394306 3.38499759e-39
0.01850640774 -0.02997017279 -0.01901340485 6.037823739e-39
0.06045353413 -0.07978112251 0.1879911274 4.940102574e-39
-0.06879276037 -0.07978811115 0.04954176396 4.940102574e-39
-0.2514648438 -0.1291999072 0.008028879762 3.750904645e-39
-0.2366637886 -0.1064531878 -0.1546527594 4.299765227e-39
-0.2524537742 -0.1062486991 0.1307041794 4.299765227e-39
-0.2487051487 -0.07978469878 0.07029049844 4.940102574e-39
-0.1626333594 -0.07978252321 -0.01699578762 4.940102574e-39
0.05521377921 -0.07978450507 0.01019539684 4.940102574e-39
-0.1514549851 -0.07978076488 0.02975922078 4.940102574e-39
-0.2079274505 -0.184649989 0.05018256232 2.470229952e-39
-0.1202881932 -0.07978260517 -0.1652957648 4.940102574e-39
-0.2163839936 -0.1524764001 -0.09242995083 3.202044062e-39
-0.2226469815 -0.162277326 0.05330925435 3.019090535e-39
-0.1893357038 -0.2081072181 0.009272553027 1.92136937e-39
-0.2366637886 -0.1064531878 -0.1546527594 4.299765227e-39
-0.2288450897 -0.1278114915 0.1085459813 3.750904645e-39
-0.01815921068 0.1094514877 0.01820880175 9.330987234e-39
0.04541603848 -0.07978477329 0.2690069079 4.940102574e-39
-0.01877093315 0.05448495224 -0.01882497966 8.050312541e-39
0.1481997967 -0.07978438586 0.2295579463 4.940102574e-39
-0.2838488817 -0.08678663522 -0.04758246243 4.757149046e-39
-0.186476022 -0.07978118211 0.06788800657 4.940102574e-39
-0.2366637886 -0.1064531878 -0.1546527594 4.299765227e-39
-0.1583327353 -0.2337449938 0.008046269417 1.281032024e-39
0.0593777895 -0.07978626341 -0.1415097564 4.940102574e-39
-0.2358256727 -0.1502115577 -0.03028648533 3.293520826e-39
-0.1432767808 -0.243070364 0.01580248773 1.098078496e-39
-0.2174440324 -0.07978408784 -0.1509293318 4.940102574e-39
-0.2159765959 -0.0797823891 0.1082699001 4.940102574e-39
-0.2778263986 -0.1114865169 0.04939248413 4.208288464e-39
-0.1261087954 -0.07978373766 0.03422498703 4.940102574e-39
0.1029284 -0.07978390902 0.2095077038 4.940102574e-39
-0.1061391607 -0.1060212925 0.2650276124 4.299765227e-39
0.08849343657 -0.07978026569 0.1494006217 4.940102574e-39
-0.1712564677 -0.1473760009 0.1718943864 3.293520826e-39
-0.05660098791 -0.2238855213 0.1645159274 1.555462315e-39
-0.03125938773 0.2761257887 0.009006608278 1.326448808e-38
-0.1256422997 -0.206736505 0.1455478668 1.92136937e-39
-0.1695042253 -0.07978098094 0.04941014946 4.940102574e-39
-0.02583912015 -0.07978561521 0.2290466875 4.940102574e-39
-0.1544306576 -0.07978392392 -0.1922156066 4.940102574e-39
0.06999194622 -0.07977892458 -0.2808133364 4.940102574e-39
-0.2541448176 -0.07978148758 -0.05111052096 4.940102574e-39
0.2068936825 -0.07978315651 0.08959163725 4.940102574e-39
0.008101552725 0.2760311365 -0.04059593379 1.326448808e-38
0.1398551464 -0.07978013903 0.1949262917 4.940102574e-39
-0.100528717 -0.07978180051 -0.206883207 4.940102574e-39
-0.06794813275 -0.07978208363 0.1690595746 4.940102574e-39
-0.1739070415 -0.2160246968 0.04790397733 1.738415842e-39
-0.1680762172 -0.1865208447 0.1268181801 2.378753189e-39
-0.06414139271 -0.1301831007 0.2432209253 3.750904645e-39
-0.0129533615 -0.007620287593 -0.01297075581 6.586684321e-39
-0.230633527 -0.08743065596 0.1522926837 4.757149046e-39
0.01676821709 -0.006238858681 0.01681268215 6.678161085e-39
-0.1202881932 -0.07978260517 -0.1652957648 4.940102574e-39
-0.133289814 -0.2479608506 0.02790729702 1.006601732e-39
-0.1063128412 -0.07978306711 0.008786432445 4.940102574e-39
-0.04411646724 -0.0797881335 0.02844452858 4.940102574e-39
-0.02493017912 -0.07978350669 0.1087825075 4.940102574e-39
-0.07223394513 -0.2286748439 0.1493062228 1.463985551e-39
-0.1736608148 -0.1365363747 0.1794312745 3.567951117e-39
-0.2654387653 -0.1075248048 0.1089018583 4.299765227e-39
-0.09422421455 -0.1773859262 0.1994493604 2.65318348e-39
-0.01815921068 0.04947807267 0.01820880175 7.958835777e-39
0.01103311777 0.1556891352 -0.01392341685 1.04287084e-38
-0.2695199549 -0.08701416105 -0.09087575227 4.757149046e-39
-0.01039311849 0.2760298848 -0.02864704467 1.326448808e-38
-0.1992479563 -0.1934425086 -0.04852055013 2.287276425e-39
-0.06687098742 -0.2211637348 0.1623521745 1.646939079e-39
-0.1296426356 -0.1635350883 0.1875989437 2.927613771e-39
-0.1680762172 -0.1865208447 0.1268181801 2.378753189e-39
-0.1148204282 -0.2360021621 0.1087382361 1.281032024e-39
-0.1739280671 -0.2102614641 0.06902483106 1.829892606e-39
-0.2336050868 -0.1293303967 -0.09138526022 3.750904645e-39
-0.138712585 -0.07978288084 -0.1265250891 4.940102574e-39
0.01270261407 0.1942733377 -0.01752629876 1.134347604e-38
-0.1548965424 -0.133183375 0.1951347291 3.659427881e-39
-0.2579184771 -0.1178170815 -0.01177358627 4.025334936e-39
0.06295657158 -0.07978844643 -0.126676023 4.940102574e-39
0.01270261407 0.1942733377 -0.01752629876 1.134347604e-38
-0.1312078238 -0.07978533208 0.2091939449 4.940102574e-39
-0.1694899499 -0.0873908326 0.2308207154 4.757149046e-39
-0.1915859729 -0.1044642329 0.2108836472 4.299765227e-39
-0.08708038926 -0.07978780568 0.0889159888 4.940102574e-39
-0.2288450897 -0.1278114915 0.1085459813 3.750904645e-39
-0.04994538426 -0.07978437096 0.1284189671 4.940102574e-39
-0.1224036813 -0.1061574221 0.2636889517 4.299765227e-39
-0.1342369765 -0.2494481057 -0.0117049478 9.151249686e-40
-0.1110536456 -0.07978061587 -0.01091265678 4.940102574e-39
0.1481997967 -0.07978438586 0.2295579463 4.940102574e-39
0.01676821709 0.03431368247 0.01681268215 7.592928722e-39
-0.203086853 -0.08505638689 0.2086129487 4.757149046e-39
0.2276074886 -0.07978047431 -0.04450263083 4.940102574e-39
-0.09651783109 -0.07978774607 0.04950243235 4.940102574e-39
-0.1148797274 -0.1686990559 0.1930185407 2.836137007e-39
-0.1397557855 -0.07978731394 0.1734188497 4.940102574e-39
-0.1939636469 -0.1730356812 0.1084682941 2.744660244e-39
-0.1432767808 -0.243070364 0.01580248773 1.098078496e-39
-0.1606072187 -0.218259573 0.07265357673 1.646939079e-39
-0.1309997141 -0.07978116721 0.01390069723 4.940102574e-39
-0.0005130767822 -0.07977966219 -0.2223098129 4.940102574e-39
-0.1467203796 -0.07978321612 0.04943874478 4.940102574e-39
-0.119990468 -0.07978741825 0.05963127315 4.940102574e-39
0.0165912509 -0.02494935691 0.01685080677 6.220777266e-39
-0.003802239895 0.2544692159 -0.003813505173 1.271562749e-38
-0.2539215982 -0.08347305655 0.1118000969 4.84862581e-39
-0.07631641626 -0.1322917342 0.2375781536 3.659427881e-39
-0.2029889226 -0.1049555913 0.2086137384 4.299765227e-39
-0.1950267851 -0.07978366315 -0.1523329914 4.940102574e-39
-0.203086853 -0.08505638689 0.2086129487 4.757149046e-39
-0.2374302745 -0.1480037719 0.03194097057 3.293520826e-39
-0.2193211615 -0.1717868298 -0.05458958447 2.744660244e-39
-0.1692306399 -0.1861132681 -0.1301624626 2.378753189e-39
-0.1791188717 -0.07978376746 -0.08589665592 4.940102574e-39
0.09649056196 -0.07978396863 0.1826165915 4.940102574e-39
-0.1158407927 -0.1048483625 0.2579734921 4.299765227e-39
-0.2539215982 -0.08347305655 0.1118000969 4.84862581e-39
-0.007390677929 0.2760264575 -0.04099777341 1.326448808e-38
0.1117531955 -0.07978812605 -0.1068935543 4.940102574e-39
-0.2037554383 -0.1636566669 0.1087325811 2.927613771e-39
-0.1558318138 -0.2115325779 -0.1043959707 1.829892606e-39
-0.03240191936 0.2840377092 -0.03064961731 1.34474416e-38
-0.1950267851 -0.07978366315 -0.1523329914 4.940102574e-39
-0.043507725 0.2845296264 0.01041726023 1.34474416e-38
0.08358210325 -0.07978129387 0.1288366765 4.940102574e-39
-0.1595779657 -0.07978333533 -0.1055449694 4.940102574e-39
-0.01815921068 -0.005997348111 0.01820880175 6.678161085e-39
-0.1400479972 -0.08968646824 -0.2514502108 4.665672282e-39
-0.1583327353 -0.2337449938 0.008046269417 1.281032024e-39
-0.2724519074 -0.107507214 -0.08960612863 4.299765227e-39
-0.09371920675 -0.2306021154 0.1333947778 1.372508787e-39
-0.2293882668 -0.07978372276 -0.1114295721 4.940102574e-39
0.04578286409 -0.07978785783 -0.02936045825 4.940102574e-39
-0.04918307066 -0.07977921516 -0.1258355528 4.940102574e-39
-0.2850176096 -0.1043388173 -0.009713605046 4.299765227e-39
-0.0298487246 -0.07978669554 -0.04542884231 4.940102574e-39
-0.01105289161 0.1340212822 -0.00979450345 9.879847816e-39
0.05860120058 -0.07978262752 0.02443622053 4.940102574e-39
-0.1277723312 -0.1012517214 -0.2609134912 4.391241991e-39
-0.1780843735 -0.1971509159 0.0929600969 2.195799661e-39
-0.1746535301 -0.07977977395 0.02794931084 4.940102574e-39
-0.1093325317 -0.1932984143 0.1721436232 2.287276425e-39
-0.1730524898 -0.1927514225 0.108449094 2.287276425e-39
-0.174133122 -0.2131902128 -0.05288159847 1.829892606e-39
0.1574296355 -0.07977994531 0.08431952447 4.940102574e-39
-0.186476022 -0.07978118211 0.06788800657 4.940102574e-39
-0.1767175496 -0.2165822089 0.02848267555 1.738415842e-39
-0.09748148918 -0.079786852 0.1536640227 4.940102574e-39
-0.1293374747 -0.08549506217 0.2526753247 4.757149046e-39
-0.1691332906 -0.2065919787 0.08659628779 1.92136937e-39
0.00818374753 -0.07977838069 -0.1859233528 4.940102574e-39
-0.01643368602 -0.07978209853 0.268479526 4.940102574e-39
0.05101931095 -0.07978346944 0.1484760344 4.940102574e-39
-0.1576169729 -0.07978731394 0.1881963909 4.940102574e-39
-0.01815921068 0.1094514877 0.01820880175 9.330987234e-39
-0.01815921068 0.04947807267 0.01820880175 7.958835777e-39
-0.1512230039 -0.08280449361 -0.2489230186 4.84862581e-39
-0.1943095922 -0.1688847989 -0.1115207225 2.836137007e-39
-0.2495982498 -0.08593409508 0.1328582019 4.757149046e-39
-0.1777117252 -0.1051832438 0.2199051082 4.299765227e-39
-0.01877087355 0.03329635784 -0.01882499456 7.592928722e-39
-0.1968537867 -0.07978753746 0.1879604906 4.940102574e-39
-0.2167615891 -0.1760712713 0.03889670968 2.65318348e-39
-0.2664159536 -0.1047394723 -0.1086021587 4.299765227e-39
0.0241420269 0.2760287225 0.02643127739 1.326448808e-38
-0.03235685825 -0.0995624736 0.2893387675 4.482718755e-39
-0.01073148847 -0.07978032529 -0.2650209963 4.940102574e-39
-0.1358828545 -0.07977942377 -0.006424494088 4.940102574e-39
-0.2481725663 -0.1257134527 0.04875726625 3.842381409e-39
0.04541603848 -0.07978477329 0.2690069079 4.940102574e-39
0.1577209234 -0.07978537679 -0.1159062833 4.940102574e-39
-0.03240191936 0.2840377092 -0.03064961731 1.34474416e-38
0.03253373504 -0.07978853583 -0.08472979069 4.940102574e-39
-0.1170332432 -0.07978250831 -0.1516973674 4.940102574e-39
-0.01448531915 -0.05081686378 0.01321592927 5.58043992e-39
-0.1901178509 -0.1653854549 0.1265954971 2.927613771e-39
-0.1431668997 -0.07978531718 0.06419865787 4.940102574e-39
-0.1781365275 -0.1969272196 -0.09176786244 2.195799661e-39
-0.2776200175 -0.1060802042 -0.04863401502 4.299765227e-39
-0.2635539174 -0.08526524901 -0.1225740165 4.757149046e-39
-0.06841734052 -0.07978159189 -0.2062776834 4.940102574e-39
-0.2065094709 -0.07977999747 0.06844762713 4.940102574e-39
-0.1755396724 -0.1559036821 0.1588255763 3.110567299e-39
-0.1010887623 -0.2284285575 -0.1317366809 1.463985551e-39
-0.1984728575 -0.1322725713 -0.1504599303 3.659427881e-39
-0.1739070415 -0.2160246968 0.04790397733 1.738415842e-39
-0.2330348641 -0.07978086919 0.0871392414 4.940102574e-39
0.1292370558 -0.079783611 0.1503991932 4.940102574e-39
0.2842838168 -0.07978150249 -0.05125618726 4.940102574e-39
0.04161939025 -0.0797881186 -0.04676229507 4.940102574e-39
-0.01243646909 0.2730277777 -0.007921631448 1.317301131e-38
-0.2171526551 -0.1272370666 0.1300993711 3.842381409e-39
-0.04470351338 -0.07978142053 -0.2512173355 4.940102574e-39
-0.1586021185 -0.07978712022 0.09471352398 4.940102574e-39
-0.01877087355 0.03329635784 -0.01882499456 7.592928722e-39
-0.1150598228 -0.2521451414 0.05061003566 9.151249686e-40
-0.1432767808 -0.243070364 0.01580248773 1.098078496e-39
-0.1349410713 -0.07978254557 -0.1107592434 4.940102574e-39
-0.2876448333 -0.08631366491 0.01386565715 4.757149046e-39
-0.1315450072 -0.2422934324 -0.06338135898 1.098078496e-39
-0.132117033 -0.1310919821 0.2115509212 3.750904645e-39
-0.1897774935 -0.2005722076 0.06372508407 2.104322897e-39
-0.2040286958 -0.1451634467 -0.1269982904 3.38499759e-39
-0.1968537867 -0.07978753746 0.1879604906 4.940102574e-39
0.01690214872 -0.0797791183 -0.1495469958 4.940102574e-39
-0.08367619663 -0.07978481054 -0.2701551616 4.940102574e-39
-0.2171526551 -0.1272370666 0.1300993711 3.842381409e-39
-0.2102714479 -0.079784289 -0.03160794079 4.940102574e-39
-0.1467203796 -0.07978321612 0.04943874478 4.940102574e-39
0.03796905279 -0.07977855206 -0.230524227 4.940102574e-39
-0.2075921148 -0.1692070067 -0.08491905779 2.836137007e-39
4.410743713e-05 -0.07978397608 0.2130679488 4.940102574e-39
-0.1121976674 -0.1075988263 -0.2644121349 4.299765227e-39
0.2019857913 -0.07978190482 0.06916509569 4.940102574e-39
-0.2114345878 -0.1868005991 -0.006275553256 2.378753189e-39
-0.1586021185 -0.07978712022 0.09471352398 4.940102574e-39
-0.02259850502 -0.07978414744 0.2426444739 4.940102574e-39
-0.1037420034 -0.07978007942 0.2290619314 4.940102574e-39
0.1607452631 -0.07978126407 0.09809662402 4.940102574e-39
-0.0681618154 -0.07977925241 -0.07158821821 4.940102574e-39
-0.005654394627 -0.07978754491 0.1891096979 4.940102574e-39
0.003402888775 -0.07978840172 -0.05063226074 4.940102574e-39
-0.1288358569 -0.1818475872 -0.1730840951 2.561706716e-39
-0.1538994908 -0.1549421102 0.1787307411 3.110567299e-39
-0.1487006992 -0.2289916724 0.06699664146 1.463985551e-39
0.007928729057 0.2760266364 -0.01951903105 1.326448808e-38
-0.1181105971 -0.07978715748 0.168776378 4.940102574e-39
-0.2110819817 -0.1651658118 0.09147113562 2.927613771e-39
-0.1264713407 -0.07978291065 -0.1911334842 4.940102574e-39
0.01860666275 0.2016299963 0.0164167136 1.152642956e-38
-0.174133122 -0.2131902128 -0.05288159847 1.829892606e-39
-0.151541099 -0.1665974557 -0.1670710444 2.836137007e-39
-0.1621610522 -0.2230844349 -0.05337001383 1.555462315e-39
-0.01815921068 0.0149933435 0.01820880175 7.135544904e-39
-0.08779484034 -0.0797816962 0.1943269521 4.940102574e-39
-0.009356379509 0.2842287421 0.04394836724 1.34474416e-38
-0.2876448333 -0.08631366491 0.01386565715 4.757149046e-39
0.1883743405 -0.07978115976 0.2134963423 4.940102574e-39
0.01277611591 0.2760317624 -0.02832640149 1.326448808e-38
0.1694330573 -0.07978341728 0.1342647672 4.940102574e-39
0.1177370474 -0.07977955043 0.1025792733 4.940102574e-39
-0.2291041017 -0.1404528022 -0.08456741273 3.476474354e-39
-0.1509950161 -0.2326236814 -0.04926766455 1.372508787e-39
-0.1121535897 -0.07978207618 -0.1312985569 4.940102574e-39
-0.03209416196 0.2772416174 0.02634890378 1.326448808e-38
-0.1884245723 -0.0797874704 0.170199886 4.940102574e-39
-0.2487051487 -0.07978469878 0.07029049844 4.940102574e-39
-0.0156442523 -0.07978134602 -0.2855901122 4.940102574e-39
-0.2339726835 -0.1462751478 0.05085118115 3.38499759e-39
-0.2528818846 -0.07978577912 0.02911313623 4.940102574e-39
-0.08025223017 -0.2614725828 0.0768686682 6.406946774e-40
-0.1840370297 -0.0797843188 -0.01141203195 4.940102574e-39
-0.2711328268 -0.07978268713 -0.01146583259 4.940102574e-39
-0.0129533615 -0.007620287593 -0.01297075581 6.586684321e-39
0.1978074312 -0.07978603244 -0.1692950577 4.940102574e-39
-0.1538994908 -0.1549421102 0.1787307411 3.110567299e-39
-0.2330348641 -0.07978086919 0.0871392414 4.940102574e-39
-0.2304115891 -0.07978440821 -0.031536825 4.940102574e-39
-0.1426062584 -0.2407509089 0.04853741825 1.18955526e-39
0.01676821709 0.01403741725 0.01681268215 7.135544904e-39
-0.03125938773 0.2761257887 0.009006608278 1.326448808e-38
-0.1278267503 -0.07978774607 0.128173843 4.940102574e-39
-0.03972181678 -0.07977996022 -0.08635437489 4.940102574e-39
0.1851396561 -0.07978653908 -0.2222326845 4.940102574e-39
-0.2110819817 -0.1651658118 0.09147113562 2.927613771e-39
0.1222426891 -0.07977820933 -0.263676405 4.940102574e-39
0.01676821709 0.05303024873 0.01681268215 8.050312541e-39
0.1840170026 -0.0797829628 -0.005942307413 4.940102574e-39
-0.1453503668 -0.2410297245 0.03347799927 1.098078496e-39
-0.09651783109 -0.07978774607 0.04950243235 4.940102574e-39
-0.09211134911 -0.07978801429 0.06789499521 4.940102574e-39
-0.1870000958 -0.1030356511 -0.2111110538 4.391241991e-39
0.009613037109 -0.1048555151 0.2882982194 4.299765227e-39
-0.210040614 -0.1051107943 0.1936529428 4.299765227e-39
-0.2864817977 -0.1014860198 -0.05101503432 4.391241991e-39
-0.1510438323 -0.2034851611 -0.1236725301 2.012846134e-39
-0.1339578927 -0.2492010742 0.00927875936 9.151249686e-40
-0.1848078817 -0.184311226 -0.10696017 2.470229952e-39
-0.2820483446 -0.1037119776 0.06858240813 4.391241991e-39
-0.2732722461 -0.08628374338 0.03029744886 4.757149046e-39
-0.06862747669 -0.1030429527 0.2830530405 4.391241991e-39
0.09274145961 -0.07978472859 -0.1861133277 4.940102574e-39
0.1252842247 -0.07977989316 -0.2510689199 4.940102574e-39
-0.2088610083 -0.1852871329 -0.04606255144 2.470229952e-39
-0.1023440957 -0.07978741825 0.1333323419 4.940102574e-39
0.1602963209 -0.0797842443 -0.1050864011 4.940102574e-39
-0.212878406 -0.07978376001 -0.1318484992 4.940102574e-39
-0.2381669879 -0.08583363146 -0.1511373967 4.757149046e-39
-0.176897645 -0.2171674371 -0.03204715252 1.738415842e-39
-0.1840370297 -0.0797843188 -0.01141203195 4.940102574e-39
-0.2856569588 -0.1080027148 -0.02947961353 4.208288464e-39
0.2218117118 -0.07978706062 -0.06910043955 4.940102574e-39
-0.1958859563 -0.07978209108 0.02855397016 4.940102574e-39
-0.1854385734 -0.1810907871 0.1084234044 2.561706716e-39
-0.1967920363 -0.07978431135 0.1088804975 4.940102574e-39
-0.01643368602 -0.07978209853 0.268479526 4.940102574e-39
-0.225529924 -0.1288383007 -0.1094846278 3.750904645e-39
-0.1855212301 -0.0848429352 -0.2081404626 4.757149046e-39
-0.07544189692 -0.1024621874 0.2725238502 4.391241991e-39
-0.1395289898 -0.07977993041 -0.02167288959 4.940102574e-39
-0.1395289898 -0.07977993041 -0.02167288959 4.940102574e-39
-0.168096289 -0.2084819973 -0.08331065625 1.92136937e-39
0.07503026724 -0.07978300005 0.2487820089 4.940102574e-39
-0.01152543724 -0.04566289485 -0.00967394188 5.671916684e-39
0.1732735634 -0.07978656888 -0.05101700127 4.940102574e-39
0.1927031726 -0.07978800684 -0.1907308996 4.940102574e-39
-0.0129533615 -0.007620287593 -0.01297075581 6.586684321e-39
-0.1382128596 -0.2169196755 0.1155321375 1.738415842e-39
-0.0737554729 -0.07978631556 0.2527782917 4.940102574e-39
0.01179218292 -0.07978399098 0.1286111325 4.940102574e-39
0.1162161231 -0.07978653163 0.2648738921 4.940102574e-39
-0.1093680263 -0.2114659548 0.1493533701 1.829892606e-39
-0.03479132056 -0.07978275418 -0.06589053571 4.940102574e-39
0.03253373504 -0.07978853583 -0.08472979069 4.940102574e-39
0.2176294923 -0.07977914065 0.1346586049 4.940102574e-39
-0.1588587165 -0.0797811076 -0.2105932385 4.940102574e-39
-0.05266749859 -0.0797855556 -0.2846772671 4.940102574e-39
0.1095173955 -0.0797855407 0.06793889403 4.940102574e-39
-0.1554899514 -0.184988305 -0.1446113884 2.470229952e-39
-0.1795426309 -0.2171426415 0.008960865438 1.738415842e-39
-0.006037294865 -0.07978668809 0.05402109027 4.940102574e-39
0.2511638999 -0.07978192717 0.05379547179 4.940102574e-39
-0.01454009581 0.155280143 0.01322812866 1.04287084e-38
-0.1779090762 -0.1517720073 -0.1559405476 3.202044062e-39
0.01690214872 -0.0797791183 -0.1495469958 4.940102574e-39
0.1542872787 -0.07978689671 -0.1303333789 4.940102574e-39
-0.1526827514 -0.1060919389 0.2376052886 4.299765227e-39
-0.08236473799 -0.07978752255 0.1086231619 4.940102574e-39
-0.1148797274 -0.1686990559 0.1930185407 2.836137007e-39
-0.1776687801 -0.0797875151 0.1886367053 4.940102574e-39
0.278041482 -0.07977750897 -0.07707796991 4.940102574e-39
0.02495524287 -0.07977998257 -0.2849511802 4.940102574e-39
0.1883743405 -0.07978115976 0.2134963423 4.940102574e-39
-0.1204120517 -0.07977943122 0.2545044124 4.940102574e-39
-0.09038649499 -0.1044688374 0.273124218 4.299765227e-39
-0.1400479972 -0.08968646824 -0.2514502108 4.665672282e-39
-0.2635539174 -0.08526524901 -0.1225740165 4.757149046e-39
-0.07331848145 -0.07978167385 -0.2267518342 4.940102574e-39
-0.02177721262 -0.07978839427 -0.01179596782 4.940102574e-39
-0.04307791591 0.2834334671 -0.01081649959 1.34474416e-38
0.05521377921 -0.07978450507 0.01019539684 4.940102574e-39
-0.1871896386 -0.1310870796 -0.1650487632 3.750904645e-39
-0.006763935089 0.2724371552 0.01022554561 1.317301131e-38
0.009613037109 -0.1048555151 0.2882982194 4.299765227e-39
-0.1331626028 -0.1048902422 0.2541871071 4.299765227e-39
0.01520836446 0.174373284 0.01714867353 1.088609222e-38
-0.2850176096 -0.1043388173 -0.009713605046 4.299765227e-39
0.08208421618 -0.07977856696 -0.230289638 4.940102574e-39
-0.2861037552 -0.08512226492 -0.02799325436 4.757149046e-39
-0.02543032169 -0.07978023589 -0.1706649214 4.940102574e-39
0.05339971185 -0.07978140563 -0.1662250608 4.940102574e-39
0.01911228895 0.06787454337 -0.01916867495 8.416219596e-39
-0.2723455429 -0.108736597 0.08808809519 4.208288464e-39
-0.2326985002 -0.1050619036 -0.1663155705 4.299765227e-39
-0.176738441 -0.07978631556 0.1083707064 4.940102574e-39
-0.1888898611 -0.07978443801 -0.03168421984 4.940102574e-39
-0.0103982389 -0.07978566736 0.1693799347 4.940102574e-39
-0.1776687801 -0.0797875151 0.1886367053 4.940102574e-39
-0.2556915283 -0.0797836706 0.08853831142 4.940102574e-39
-0.2727362216 -0.08953969181 0.05212701485 4.665672282e-39
-0.1112706959 -0.2489168197 0.07402495295 9.151249686e-40
0.1162161231 -0.07978653163 0.2648738921 4.940102574e-39
-0.03070446849 -0.0797874257 0.2086491138 4.940102574e-39
0.01676821709 0.03431368247 0.01681268215 7.592928722e-39
0.07900774479 -0.07978081703 0.2654979825 4.940102574e-39
-0.181479156 -0.07978332788 -0.09573750198 4.940102574e-39
-0.2123955041 -0.1045258045 -0.189634949 4.299765227e-39
-0.1567670405 -0.07977962494 0.007617175579 4.940102574e-39
-0.1526334882 -0.07978701591 0.2090207785 4.940102574e-39
-0.1720214188 -0.07978726178 0.1280370355 4.940102574e-39
-0.1093325317 -0.1932984143 0.1721436232 2.287276425e-39
0.01676821709 0.09358278662 0.01681268215 8.965080179e-39
-0.1259632111 -0.243283242 0.06869725138 1.098078496e-39
-0.1728297174 -0.07978721708 0.2088575363 4.940102574e-39
-0.2339726835 -0.1462751478 0.05085118115 3.38499759e-39
-0.09297132492 -0.07977925241 -0.05106198043 4.940102574e-39
0.0226560235 -0.07978481054 0.173946768 4.940102574e-39
-0.02157634497 -0.07978153974 0.1228772104 4.940102574e-39
-0.1072657406 -0.07978252321 -0.1109035015 4.940102574e-39
-0.1874817163 -0.1686834693 -0.1248658821 2.836137007e-39
-0.01815921068 0.08846080303 0.01820880175 8.873603415e-39
-0.1670324802 -0.07978760451 0.1488611996 4.940102574e-39
-0.205361113 -0.1272694468 0.1467108577 3.842381409e-39
0.2466343045 -0.0797816813 0.03489165008 4.940102574e-39
-0.04374843836 -0.103553839 0.2881405354 4.391241991e-39
-0.139175266 -0.1700464636 -0.1751711518 2.836137007e-39
-0.2873829305 -0.08705125004 -0.006585363299 4.757149046e-39
-0.1170332432 -0.07978250831 -0.1516973674 4.940102574e-39
-0.1475497633 -0.1053979471 0.2458197176 4.299765227e-39
-0.1325398684 -0.07978778332 0.1084878296 4.940102574e-39
-0.1661551893 -0.07978404313 -0.03176377714 4.940102574e-39
-0.19144243 -0.07978285104 0.08918001503 4.940102574e-39
-0.08703318238 -0.07978168875 -0.1505134553 4.940102574e-39
-0.1329184026 -0.2130854726 0.1328635812 1.829892606e-39
-0.2778263986 -0.1114865169 0.04939248413 4.208288464e-39
-0.2075179815 -0.1885396391 0.02844242193 2.378753189e-39
-0.01352945995 -0.07048670948 -0.01386788953 5.123056101e-39
-0.1991939545 -0.07978402078 0.01466740668 4.940102574e-39
0.01520836446 0.174373284 0.01714867353 1.088609222e-38
-0.1612923145 -0.08019137383 0.2427572757 4.940102574e-39
0.07503026724 -0.07978300005 0.2487820089 4.940102574e-39
-0.2277072668 -0.1063023806 -0.1801813096 4.299765227e-39
-0.08817224205 -0.189874202 0.1892159432 2.378753189e-39
-0.224828124 -0.1223814487 0.1229143068 3.933858172e-39
-0.007390677929 0.2760264575 -0.04099777341 1.326448808e-38
-0.09062215686 -0.2063631266 0.1668299735 1.92136937e-39
0.1029284 -0.07978390902 0.2095077038 4.940102574e-39
0.1516853571 -0.07977894694 0.2443976402 4.940102574e-39
0.02974510193 -0.1059013978 0.2875129879 4.299765227e-39
-0.2374993265 -0.1501649916 -0.01558857411 3.293520826e-39
-0.05022478104 -0.1338021308 0.2452183813 3.659427881e-39
-0.1878029704 -0.148504287 -0.146918118 3.293520826e-39
0.2168493271 -0.07978831232 -0.08990107477 4.940102574e-39
0.1978074312 -0.07978603244 -0.1692950577 4.940102574e-39
-0.1150598228 -0.2521451414 0.05061003566 9.151249686e-40
-0.07223394513 -0.2286748439 0.1493062228 1.463985551e-39
0.0736913383 -0.0797778964 -0.2653062642 4.940102574e-39
-0.1547121704 -0.07978311926 -0.08521386981 4.940102574e-39
-0.1626333594 -0.07978252321 -0.01699578762 4.940102574e-39
0.2511638999 -0.07978192717 0.05379547179 4.940102574e-39
0.01911228895 0.0536682643 -0.01916867495 8.050312541e-39
-0.1741735935 -0.0797842294 -0.1665399373 4.940102574e-39
-0.08469265699 -0.1752808094 0.2070278674 2.65318348e-39
-0.119990468 -0.07978741825 0.05963127315 4.940102574e-39
0.2023078203 -0.07978405058 -0.1503809243 4.940102574e-39
0.177624464 -0.07978927344 -0.03299887478 4.940102574e-39
-0.1314834952 -0.2456414104 0.04870031029 1.006601732e-39
0.2752143145 -0.07977947593 -0.08900882304 4.940102574e-39
0.02968019247 -0.07977879047 -0.2651553154 4.940102574e-39
-0.1224336624 -0.07978640497 0.04946760833 4.940102574e-39
0.01179218292 -0.07978399098 0.1286111325 4.940102574e-39
-0.1148204282 -0.2360021621 0.1087382361 1.281032024e-39
0.0272076726 -0.07978641242 -0.1068683937 4.940102574e-39
-0.2732722461 -0.08628374338 0.03029744886 4.757149046e-39
-0.1072093546 -0.07978770882 0.1130006984 4.940102574e-39
0.01911228895 -0.02052021027 -0.01916867495 6.31225403e-39
0.1406253576 -0.07978829741 0.01368314773 4.940102574e-39
0.2168493271 -0.07978831232 -0.08990107477 4.940102574e-39
-0.1072093546 -0.07978770882 0.1130006984 4.940102574e-39
-0.01352945995 -0.07048670948 -0.01386788953 5.123056101e-39
-0.2113341391 -0.07978203893 0.04822467268 4.940102574e-39
-0.2291041017 -0.1404528022 -0.08456741273 3.476474354e-39
-0.283293128 -0.08740606904 -0.06407345831 4.757149046e-39
-0.1527507901 -0.2374493629 -0.01748135686 1.18955526e-39
-0.2876448333 -0.08631366491 0.01386565715 4.757149046e-39
9.140372276e-05 0.01385092456 -0.001602426171 7.135544904e-39
-0.1790612042 -0.07978186756 -0.1868589669 4.940102574e-39
-0.2037554383 -0.1636566669 0.1087325811 2.927613771e-39
-0.230335325 -0.07978460193 0.04822386801 4.940102574e-39
-0.0002388954163 -0.0797881484 -0.06583027542 4.940102574e-39
-0.1454631686 -0.07978766412 0.1495684236 4.940102574e-39
0.01520836446 -0.06538999081 0.01714867353 5.214532865e-39
-0.08316218853 -0.07978363335 -0.01028146595 4.940102574e-39
0.2271569967 -0.07978159934 0.1743114889 4.940102574e-39
-0.08779484034 -0.0797816962 0.1943269521 4.940102574e-39
-0.1649158299 -0.07978335768 0.06848478317 4.940102574e-39
-0.2724519074 -0.107507214 -0.08960612863 4.299765227e-39
-0.1637077928 -0.07978768647 0.1627441347 4.940102574e-39
-0.2664159536 -0.1047394723 -0.1086021587 4.299765227e-39
-0.2426269352 -0.144099772 0.01332816482 3.38499759e-39
-0.2843191624 -0.1044707969 0.01020543929 4.299765227e-39
-0.01815921068 0.02848738246 0.01820880175 7.409975195e-39
-0.08708038926 -0.07978780568 0.0889159888 4.940102574e-39
-0.1412253976 -0.07978328317 -0.1370364577 4.940102574e-39
-0.1513799429 -0.1371787637 -0.1939520985 3.567951117e-39
-0.2569984794 -0.09975600988 0.1165429428 4.482718755e-39
-0.1440292299 -0.08747705817 0.2465975732 4.757149046e-39
-0.1915694177 -0.1885304153 0.08630483598 2.378753189e-39
0.2168493271 -0.07978831232 -0.08990107477 4.940102574e-39
-0.1501443088 -0.07978361845 -0.0661559552 4.940102574e-39
-0.1781365275 -0.1969272196 -0.09176786244 2.195799661e-39
-0.1443848014 -0.07978170365 -0.1501665562 4.940102574e-39
-0.006037294865 -0.07978668809 0.05402109027 4.940102574e-39
-0.1159254014 -0.1337226629 0.2190106362 3.659427881e-39
0.09773305058 -0.07978832722 -0.1654604971 4.940102574e-39
-0.1290487051 -0.2270324379 0.1071770564 1.463985551e-39
0.06045353413 -0.07978112251 0.1879911274 4.940102574e-39
0.01911228895 0.06787454337 -0.01916867495 8.416219596e-39
-0.09748148918 -0.079786852 0.1536640227 4.940102574e-39
0.1095173955 -0.0797855407 0.06793889403 4.940102574e-39
-0.09263560176 -0.07978452742 0.1739960313 4.940102574e-39
0.0438901186 -0.07977843285 -0.2057880759 4.940102574e-39
0.001053571701 0.2844688296 0.04506273568 1.34474416e-38
-0.07331848145 -0.07978167385 -0.2267518342 4.940102574e-39
-0.09901106358 -0.07978197932 0.24874717 4.940102574e-39
0.09649056196 -0.07978396863 0.1826165915 4.940102574e-39
0.2715089321 -0.07978668064 -0.1049352065 4.940102574e-39
-0.04493457079 -0.189958781 0.2058913261 2.378753189e-39
0.1801887751 -0.07978730649 -0.0221773088 4.940102574e-39
-0.2654837072 -0.08830913156 0.1094146818 4.757149046e-39
-0.1150598228 -0.2521451414 0.05061003566 9.151249686e-40
-0.2717329562 -0.08636955917 -0.03117133118 4.757149046e-39
-0.1112154126 -0.2327968031 -0.113732025 1.372508787e-39
-0.1876404285 -0.2047560066 0.04697349668 2.012846134e-39
-0.1471779346 -0.1262074113 0.2055603117 3.842381409e-39
-0.1093680263 -0.2114659548 0.1493533701 1.829892606e-39
-0.09681349993 -0.07978218049 -0.1913835555 4.940102574e-39
0.01690214872 -0.0797791183 -0.1495469958 4.940102574e-39
-0.224828124 -0.1223814487 0.1229143068 3.933858172e-39
0.2842838168 -0.07978150249 -0.05125618726 4.940102574e-39
0.145518899 -0.07978384197 0.03436294198 4.940102574e-39
0.01676821709 0.07486623526 0.01681268215 8.50769636e-39
-0.09296599776 -0.08237756789 0.2717645764 4.84862581e-39
0.2646743059 -0.07977702469 0.1105142534 4.940102574e-39
-0.1519625783 -0.1448970437 -0.1861367971 3.38499759e-39
0.01625654101 0.1340548247 0.01692291349 9.879847816e-39
-0.1471779346 -0.1262074113 0.2055603117 3.842381409e-39
0.01911228895 -0.00631391909 -0.01916867495 6.678161085e-39
-0.1943095922 -0.1688847989 -0.1115207225 2.836137007e-39
0.145518899 -0.07978384197 0.03436294198 4.940102574e-39
-0.1124854088 -0.2438607812 0.08922722936 1.098078496e-39
-0.2109897435 -0.07978496701 0.1290091574 4.940102574e-39
0.001717090607 0.05395549536 -0.00199469924 8.050312541e-39
0.06427958608 -0.07978240401 0.04816383123 4.940102574e-39
-0.01123949885 -0.07978021353 -0.1113953292 4.940102574e-39
-0.1124854088 -0.2438607812 0.08922722936 1.098078496e-39
0.08208421618 -0.07977856696 -0.230289638 4.940102574e-39
-0.1649158299 -0.07978335768 0.06848478317 4.940102574e-39
-0.225391537 -0.07978171855 0.06897098571 4.940102574e-39
-0.130218327 -0.07978305966 -0.09105560184 4.940102574e-39
-0.048715204 -0.07978666574 0.2491975576 4.940102574e-39
0.04578286409 -0.07978785783 -0.02936045825 4.940102574e-39
-0.01851075888 -0.02697472461 0.0182871148 6.129300502e-39
-0.2860520184 -0.1081809103 0.02765681408 4.208288464e-39
-0.1909193397 -0.0797797814 0.04938150942 4.940102574e-39
0.2606037855 -0.07977722585 0.09350111336 4.940102574e-39
-0.0600169301 -0.2289449126 0.1565984637 1.463985551e-39
-0.1453503668 -0.2410297245 0.03347799927 1.098078496e-39
-0.2413268089 -0.1419884712 -0.02739456296 3.476474354e-39
-0.2113275528 -0.07978079468 0.08801887184 4.940102574e-39
-0.2301149964 -0.07978534698 0.009393595159 4.940102574e-39
-0.2075179815 -0.1885396391 0.02844242193 2.378753189e-39
-0.08212345839 -0.2659902275 0.04656052589 5.492179136e-40
0.1348746717 -0.07978767902 -0.2114552557 4.940102574e-39
0.08849343657 -0.07978026569 0.1494006217 4.940102574e-39
-0.01815921068 0.1094514877 0.01820880175 9.330987234e-39
-0.2727362216 -0.08953969181 0.05212701485 4.665672282e-39
0.05698645115 -0.0797843188 -0.1513962597 4.940102574e-39
0.03172510862 0.276027143 0.009701544419 1.326448808e-38
-0.2327172458 -0.08462457359 -0.1703635752 4.757149046e-39
-0.2523296475 -0.07978520542 0.006406600587 4.940102574e-39
-0.2370362431 -0.1539587826 0.00688816607 3.202044062e-39
0.01103311777 0.1556891352 -0.01392341685 1.04287084e-38
0.03172510862 0.276027143 0.009701544419 1.326448808e-38
-0.2253020555 -0.165646255 0.03348014131 2.927613771e-39
-0.01352945995 -0.07048670948 -0.01386788953 5.123056101e-39
-0.1984728575 -0.1322725713 -0.1504599303 3.659427881e-39
-0.2683386803 -0.08644657582 -0.1075524762 4.757149046e-39
-0.1968537867 -0.07978753746 0.1879604906 4.940102574e-39
-0.2724519074 -0.107507214 -0.08960612863 4.299765227e-39
0.1732735634 -0.07978656888 -0.05101700127 4.940102574e-39
-0.04941546917 -0.07978326082 -0.2709851265 4.940102574e-39
-0.2778263986 -0.1114865169 0.04939248413 4.208288464e-39
-0.02157634497 -0.07978153974 0.1228772104 4.940102574e-39
-0.2066851109 -0.1899177879 -0.02535618469 2.378753189e-39
0.1602963209 -0.0797842443 -0.1050864011 4.940102574e-39
-0.07544189692 -0.1024621874 0.2725238502 4.391241991e-39
0.0320725441 -0.07978124171 0.06945064664 4.940102574e-39
-0.1694610119 -0.2242322713 -0.02930988371 1.555462315e-39
-0.1855212301 -0.0848429352 -0.2081404626 4.757149046e-39
-0.0005329847336 0.09378964454 -0.001451775432 8.965080179e-39
-0.17558676 -0.07978343219 -0.07113178074 4.940102574e-39
-0.2340901792 -0.07978461683 -0.1311000437 4.940102574e-39
-0.01815921068 0.04947807267 0.01820880175 7.958835777e-39
0.1528826356 -0.07977909595 0.0653751269 4.940102574e-39
-0.230633527 -0.08743065596 0.1522926837 4.757149046e-39
0.09131443501 -0.07978222519 -0.007914453745 4.940102574e-39
0.04161939025 -0.0797881186 -0.04676229507 4.940102574e-39
-0.1992479563 -0.1934425086 -0.04852055013 2.287276425e-39
-0.205361113 -0.1272694468 0.1467108577 3.842381409e-39
-0.1150598228 -0.2521451414 0.05061003566 9.151249686e-40
0.05339971185 -0.07978140563 -0.1662250608 4.940102574e-39
-0.2488094717 -0.1249673739 -0.05019275844 3.842381409e-39
-0.2476665378 -0.1178265288 -0.07348148525 4.025334936e-39
0.07900774479 -0.07978081703 0.2654979825 4.940102574e-39
-0.210040614 -0.1051107943 0.1936529428 4.299765227e-39
-0.1236630678 -0.145241946 0.2068512589 3.38499759e-39
-0.1691332906 -0.2065919787 0.08659628779 1.92136937e-39
-0.1120753214 -0.07978792489 0.09266900271 4.940102574e-39
-0.0120010376 0.1939045489 -0.00880375877 1.134347604e-38
0.07243224978 -0.07978832722 -0.08709388971 4.940102574e-39
-0.09514400363 -0.2223652601 0.1444264948 1.555462315e-39
-0.04374843836 -0.103553839 0.2881405354 4.391241991e-39
-0.1293238997 -0.2048724443 -0.1427570432 2.012846134e-39
0.2276074886 -0.07978047431 -0.04450263083 4.940102574e-39
-0.07009315491 -0.0797874853 0.2680274844 4.940102574e-39
0.02968019247 -0.07977879047 -0.2651553154 4.940102574e-39
-0.2293882668 -0.07978372276 -0.1114295721 4.940102574e-39
-0.224688679 -0.07978255302 -0.09175865352 4.940102574e-39
-0.1777117252 -0.1051832438 0.2199051082 4.299765227e-39
-0.03889971972 -0.07978197932 0.1746540368 4.940102574e-39
0.0272076726 -0.07978641242 -0.1068683937 4.940102574e-39
-0.1514549851 -0.07978076488 0.02975922078 4.940102574e-39
0.01273158193 -0.07977867872 -0.1669441015 4.940102574e-39
-0.006835013628 -0.1085090265 0.2853424251 4.208288464e-39
-0.2495982498 -0.08593409508 0.1328582019 4.757149046e-39
-0.1740504503 -0.1325597316 -0.1766933352 3.659427881e-39
-0.08839952946 -0.07978069782 -0.03202985227 4.940102574e-39
-0.1626333594 -0.07978252321 -0.01699578762 4.940102574e-39
0.2357274294 -0.07977846265 -0.01047004759 4.940102574e-39
-0.01815921068 0.07496678084 0.01820880175 8.50769636e-39
-0.1112706959 -0.2489168197 0.07402495295 9.151249686e-40
-0.1606072187 -0.218259573 0.07265357673 1.646939079e-39
-0.01448531915 -0.05081686378 0.01321592927 5.58043992e-39
0.02262195945 -0.07978268713 -0.1258356422 4.940102574e-39
-0.1313425303 -0.0797843039 -0.2115377188 4.940102574e-39
-0.2850176096 -0.1043388173 -0.009713605046 4.299765227e-39
-0.06414139271 -0.1301831007 0.2432209253 3.750904645e-39
-0.1468631029 -0.2414258569 -0.01127623022 1.098078496e-39
-0.2876448333 -0.08631366491 0.01386565715 4.757149046e-39
0.2715089321 -0.07978668064 -0.1049352065 4.940102574e-39
-0.0920933485 -0.07978180051 -0.1716524065 4.940102574e-39
-0.2617160678 -0.08195656538 0.1276667267 4.84862581e-39
-0.1331626028 -0.1048902422 0.2541871071 4.299765227e-39
-0.1539162397 -0.1522306502 -0.1776370853 3.202044062e-39
0.00846067071 -0.07978220284 0.2482987642 4.940102574e-39
-0.1649633348 -0.1652353853 0.1628185511 2.927613771e-39
-0.1300384402 -0.2170557529 -0.1217096895 1.738415842e-39
-0.03235685825 -0.0995624736 0.2893387675 4.482718755e-39
-0.1602885723 -0.07978115976 -0.007149815559 4.940102574e-39
-0.1027110815 -0.07978215814 -0.09186501801 4.940102574e-39
-0.01123949885 -0.07978021353 -0.1113953292 4.940102574e-39
-0.2350308001 -0.07978584617 0.02857068926 4.940102574e-39
-0.020006001 -0.0797829628 0.2535223663 4.940102574e-39
-0.02177721262 -0.07978839427 -0.01179596782 4.940102574e-39
-0.1288358569 -0.1818475872 -0.1730840951 2.561706716e-39
0.1637274623 -0.07978256047 -0.09065973759 4.940102574e-39
0.254745245 -0.07977905124 0.06892378628 4.940102574e-39
-0.03433710337 -0.07978750765 0.06931652874 4.940102574e-39
0.05608674884 -0.07978110015 0.1697541177 4.940102574e-39
-0.01448531915 -0.05081686378 0.01321592927 5.58043992e-39
-0.1730524898 -0.1927514225 0.108449094 2.287276425e-39
-0.1312078238 -0.07978533208 0.2091939449 4.940102574e-39
-0.1297990978 -0.1952085942 0.1570481509 2.195799661e-39
-0.01888942719 -0.07978034019 0.134152025 4.940102574e-39
-0.1313425303 -0.0797843039 -0.2115377188 4.940102574e-39
-0.1930194497 -0.1916514635 -0.07064527273 2.287276425e-39
-0.07373821735 -0.1903288066 0.1967532337 2.287276425e-39
-0.09528613091 -0.2624125481 0.03680125624 6.406946774e-40
-0.1363438964 -0.1490010917 0.1949058324 3.293520826e-39
-0.1984149218 -0.1994427443 0.009477898479 2.104322897e-39
-0.2253020555 -0.165646255 0.03348014131 2.927613771e-39
0.007598102093 -0.06610261649 -0.01145709679 5.214532865e-39
-0.1903199106 -0.2053000331 -0.03311787918 2.012846134e-39
-0.1746535301 -0.07977977395 0.02794931084 4.940102574e-39
-0.01361966133 0.1758536994 -0.01384580135 1.088609222e-38
-0.08316218853 -0.07978363335 -0.01028146595 4.940102574e-39
-0.1977550983 -0.1306774467 0.1535660625 3.750904645e-39
-0.01902240515 0.1347981542 0.01840109378 9.97132458e-39
0.005624145269 0.2760293484 0.0341007188 1.326448808e-38
0.1851396561 -0.07978653908 -0.2222326845 4.940102574e-39
-0.0677626133 -0.08487608284 0.2831412554 4.757149046e-39
-0.2352691591 -0.07978229225 -0.0517501086 4.940102574e-39
-0.2179410756 -0.1691429764 0.0533496663 2.836137007e-39
-0.1950267851 -0.07978366315 -0.1523329914 4.940102574e-39
0.1996074915 -0.07978523523 -0.1617292911 4.940102574e-39
-0.1028299928 -0.0797855109 0.02323171496 4.940102574e-39
-0.2251608223 -0.166718483 -0.03271282837 2.836137007e-39
-0.218744874 -0.1771989167 -0.0247811228 2.65318348e-39
-0.1902608275 -0.1055106968 -0.2207112461 4.299765227e-39
-0.2138821483 -0.1167404205 0.1459998488 4.025334936e-39
-0.225391537 -0.07978171855 0.06897098571 4.940102574e-39
0.007598102093 -0.06610261649 -0.01145709679 5.214532865e-39
0.04161939025 -0.0797881186 -0.04676229507 4.940102574e-39
-0.1481849849 -0.1905144602 0.1497792751 2.287276425e-39
-0.1229047775 -0.07978128642 -0.1761678606 4.940102574e-39
-0.1426062584 -0.2407509089 0.04853741825 1.18955526e-39
-0.01361966133 0.1758536994 -0.01384580135 1.088609222e-38
0.1607452631 -0.07978126407 0.09809662402 4.940102574e-39
-0.09635281563 -0.252900213 0.08492147923 8.236482049e-40
-0.0681618154 -0.07977925241 -0.07158821821 4.940102574e-39
-0.2465815395 -0.1057613194 0.1503703445 4.299765227e-39
-0.1628749967 -0.1812095493 0.1437763572 2.561706716e-39
-0.2171526551 -0.1272370666 0.1300993711 3.842381409e-39
-0.1986027956 -0.07978376001 -0.07222573459 4.940102574e-39
-0.19144243 -0.07978285104 0.08918001503 4.940102574e-39
-0.2514648438 -0.1291999072 0.008028879762 3.750904645e-39
-0.1242326498 -0.08641630411 0.2635372579 4.757149046e-39
-0.0005329847336 0.09378964454 -0.001451775432 8.965080179e-39
