ply
format ascii 1.0
comment Created by Open3D
element vertex 1185
property double x
property double y
property double z
property uchar red
property uchar green
property uchar blue
end_header
0.0904549 -0.392051 0.234602 128 254 179
0.0702257 -0.22153 0.363323 128 254 179
0.0846236 -0.373963 0.312285 128 254 179
0.113276 -0.344209 0.353558 128 254 179
0.237091 -0.403781 0.0861673 128 254 179
0.392961 -0.324456 0.0982232 128 254 179
0.108373 -0.338773 0.350899 128 254 179
0.0918504 -0.297741 0.437423 128 254 179
0.118385 -0.379526 0.197192 128 254 179
0.378139 -0.19878 0.105318 128 254 179
0.100508 -0.371401 0.298087 128 254 179
0.392627 -0.244389 0.10183 128 254 179
0.363673 -0.353859 0.0963164 128 254 179
0.0602737 -0.270309 0.28589 128 254 179
0.28626 -0.308854 0.0898419 128 254 179
0.158712 -0.372498 0.13085 128 254 179
0.295284 -0.386646 0.096865 128 254 179
0.0938059 -0.353875 0.357548 128 254 179
0.097239 -0.355076 0.353235 128 254 179
0.0753183 -0.264215 0.358541 128 254 179
0.414259 -0.296584 0.08995 128 254 179
0.230262 -0.383181 0.125854 128 254 179
0.113486 -0.402047 0.168485 128 254 179
0.0611891 -0.377628 0.268336 128 254 179
0.126316 -0.424831 0.0860089 128 254 179
0.1001 -0.351451 0.299874 128 254 179
0.333993 -0.37093 0.0968582 128 254 179
0.271813 -0.350779 0.0911584 128 254 179
0.0944324 -0.28682 0.419177 128 254 179
0.248063 -0.331484 0.0972489 128 254 179
0.163017 -0.394794 0.148558 128 254 179
0.314847 -0.349129 0.0902279 128 254 179
0.271796 -0.283628 0.0898824 128 254 179
0.124836 -0.432445 0.0955804 128 254 179
0.347089 -0.231593 0.102048 128 254 179
0.0896 -0.345961 0.246001 128 254 179
0.242526 -0.364195 0.0963618 128 254 179
0.37887 -0.333172 0.0947404 128 254 179
0.0922471 -0.316526 0.419396 128 254 179
0.0634026 -0.392926 0.221887 128 254 179
0.0939652 -0.218756 0.379364 128 254 179
0.108839 -0.402612 0.170026 128 254 179
0.0713735 -0.212602 0.371468 128 254 179
0.0928497 -0.269893 0.416844 128 254 179
0.105154 -0.32909 0.355986 128 254 179
0.364523 -0.254333 0.102284 128 254 179
0.0977714 -0.329437 0.326563 128 254 179
0.223855 -0.381592 0.118005 128 254 179
0.0730839 -0.299635 0.293868 128 254 179
0.0863068 -0.303781 0.434758 128 254 179
0.0909499 -0.328803 0.40315 128 254 179
0.100402 -0.328621 0.399276 128 254 179
0.404072 -0.260021 0.0943175 128 254 179
0.205917 -0.316566 0.098839 128 254 179
0.154433 -0.404229 0.134731 128 254 179
0.112798 -0.428515 0.101086 128 254 179
0.0898048 -0.295377 0.370741 128 254 179
0.219006 -0.381883 0.117081 128 254 179
0.0922244 -0.281852 0.418775 128 254 179
0.0677884 -0.388739 0.2595 128 254 179
0.159516 -0.390896 0.168844 128 254 179
0.392158 -0.342366 0.0957982 128 254 179
0.0932031 -0.316452 0.418989 128 254 179
0.352271 -0.27545 0.0979095 128 254 179
0.0898488 -0.312914 0.425151 128 254 179
0.106792 -0.341116 0.341919 128 254 179
0.0549281 -0.281492 0.249741 128 254 179
0.0790152 -0.326621 0.267722 128 254 179
0.0742944 -0.39897 0.12507 128 254 179
0.0767846 -0.225611 0.379693 128 254 179
0.107284 -0.333127 0.357191 128 254 179
0.0884987 -0.346538 0.374453 128 254 179
0.094084 -0.306311 0.361744 128 254 179
0.0707409 -0.318905 0.23722 128 254 179
0.344113 -0.33884 0.0892898 128 254 179
0.319008 -0.357565 0.0955441 128 254 179
0.409591 -0.284477 0.0919108 128 254 179
0.189852 -0.404553 0.121144 128 254 179
0.16259 -0.42372 0.0972734 128 254 179
0.165745 -0.423172 0.0963963 128 254 179
0.0888986 -0.380018 0.283484 128 254 179
0.22577 -0.407024 0.0860741 128 254 179
0.245756 -0.300765 0.0909285 128 254 179
0.0855204 -0.313275 0.426139 128 254 179
0.109473 -0.371445 0.211928 128 254 179
0.0862701 -0.375806 0.302586 128 254 179
0.0868964 -0.299907 0.416577 128 254 179
0.184742 -0.403956 0.123245 128 254 179
0.253008 -0.360953 0.0929219 128 254 179
0.121064 -0.373265 0.185593 128 254 179
0.308468 -0.383452 0.0821091 128 254 179
0.0872069 -0.275553 0.388748 128 254 179
0.296689 -0.364318 0.0973419 128 254 179
0.145865 -0.429666 0.0894922 128 254 179
0.312768 -0.375221 0.103914 128 254 179
0.123296 -0.430275 0.102087 128 254 179
0.102236 -0.316628 0.412802 128 254 179
0.110523 -0.338115 0.357497 128 254 179
0.222055 -0.386299 0.125885 128 254 179
0.0758767 -0.390187 0.111599 128 254 179
0.115926 -0.39833 0.177375 128 254 179
0.405308 -0.284203 0.0973659 128 254 179
0.108793 -0.368127 0.294516 128 254 179
0.359894 -0.354917 0.0979944 128 254 179
0.357261 -0.328662 0.0907599 128 254 179
0.0921015 -0.290955 0.437445 128 254 179
0.159644 -0.346056 0.135676 128 254 179
0.307655 -0.383648 0.0821629 128 254 179
0.377278 -0.350429 0.0945062 128 254 179
0.0812638 -0.328664 0.38181 128 254 179
0.180412 -0.41923 0.0972891 128 254 179
0.10943 -0.42468 0.102323 128 254 179
0.0756627 -0.322956 0.261802 128 254 179
0.264348 -0.29913 0.0900468 128 254 179
0.303261 -0.38212 0.09902 128 254 179
0.0619689 -0.383283 0.229846 128 254 179
0.353265 -0.360185 0.0959513 128 254 179
0.382336 -0.186972 0.0973459 128 254 179
0.192014 -0.397596 0.126372 128 254 179
0.270333 -0.391837 0.0976873 128 254 179
0.344297 -0.286413 0.0952829 128 254 179
0.0911357 -0.345075 0.225946 128 254 179
0.221332 -0.397945 0.115925 128 254 179
0.344139 -0.288419 0.0951689 128 254 179
0.100307 -0.401906 0.178645 128 254 179
0.100633 -0.397587 0.193372 128 254 179
0.143562 -0.39322 0.176327 128 254 179
0.097961 -0.417493 0.141861 128 254 179
0.107414 -0.379194 0.251605 128 254 179
0.297228 -0.369338 0.101318 128 254 179
0.20124 -0.415152 0.0834306 128 254 179
0.338944 -0.329348 0.0893822 128 254 179
0.223992 -0.394992 0.118733 128 254 179
0.0938394 -0.238214 0.421368 128 254 179
0.314353 -0.372404 0.105274 128 254 179
0.0893449 -0.280096 0.434289 128 254 179
0.0904156 -0.382091 0.276338 128 254 179
0.280183 -0.391487 0.0952291 128 254 179
0.0779687 -0.232878 0.380893 128 254 179
0.102252 -0.369212 0.259989 128 254 179
0.0871276 -0.272763 0.352985 128 254 179
0.265474 -0.311117 0.0902305 128 254 179
0.266604 -0.395045 0.0912807 128 254 179
0.322359 -0.359215 0.0982968 128 254 179
0.37851 -0.306196 0.100565 128 254 179
0.338421 -0.305515 0.0918882 128 254 179
0.365128 -0.285954 0.100308 128 254 179
0.0926565 -0.354847 0.270606 128 254 179
0.161601 -0.421323 0.101305 128 254 179
0.364758 -0.354715 0.0955569 128 254 179
0.0917623 -0.400636 0.193654 128 254 179
0.306031 -0.264175 0.090849 128 254 179
0.16251 -0.424181 0.0954697 128 254 179
0.235501 -0.380764 0.116283 128 254 179
0.109777 -0.320218 0.399366 128 254 179
0.108693 -0.317827 0.397019 128 254 179
0.104738 -0.31604 0.378039 128 254 179
0.0707791 -0.205608 0.373206 128 254 179
0.251405 -0.382319 0.118357 128 254 179
0.334937 -0.378362 0.0900967 128 254 179
0.0756377 -0.423432 0.138704 128 254 179
0.198651 -0.334564 0.110297 128 254 179
0.388999 -0.24338 0.10487 128 254 179
0.0754858 -0.31175 0.169371 128 254 179
0.386298 -0.315912 0.0987058 128 254 179
0.0968336 -0.360943 0.226147 128 254 179
0.0615252 -0.36247 0.217308 128 254 179
0.0891767 -0.407435 0.107744 128 254 179
0.340281 -0.371048 0.0962289 128 254 179
0.308908 -0.337637 0.0905891 128 254 179
0.093076 -0.273726 0.416597 128 254 179
0.103186 -0.322166 0.359832 128 254 179
0.399369 -0.269226 0.101049 128 254 179
0.105548 -0.419171 0.13464 128 254 179
0.0886919 -0.356331 0.254102 128 254 179
0.0957429 -0.424814 0.108066 128 254 179
0.0723455 -0.280977 0.322133 128 254 179
0.144319 -0.402227 0.144998 128 254 179
0.0936233 -0.317308 0.417726 128 254 179
0.109389 -0.420052 0.100493 128 254 179
0.105072 -0.42856 0.10721 128 254 179
0.206778 -0.403016 0.114089 128 254 179
0.392827 -0.221245 0.0942292 128 254 179
0.0897855 -0.26593 0.367789 128 254 179
0.0888858 -0.313743 0.424581 128 254 179
0.12265 -0.415997 0.132792 128 254 179
0.0514769 -0.231249 0.290145 128 254 179
0.313145 -0.383684 0.0880331 128 254 179
0.312118 -0.38459 0.093998 128 254 179
0.222843 -0.395914 0.118171 128 254 179
0.107678 -0.314448 0.40569 128 254 179
0.0663025 -0.306651 0.20265 128 254 179
0.0893615 -0.272642 0.380355 128 254 179
0.108144 -0.325359 0.37247 128 254 179
0.152331 -0.427022 0.092381 128 254 179
0.175123 -0.387872 0.151843 128 254 179
0.406021 -0.283646 0.0965005 128 254 179
0.0772551 -0.349909 0.358559 128 254 179
0.123817 -0.430643 0.101294 128 254 179
0.0888559 -0.319705 0.416659 128 254 179
0.112626 -0.422705 0.09919 128 254 179
0.0950869 -0.356431 0.275835 128 254 179
0.0997409 -0.32131 0.409472 128 254 179
0.238458 -0.38628 0.119333 128 254 179
0.0976103 -0.189227 0.39653 128 254 179
0.330731 -0.302456 0.0912015 128 254 179
0.190045 -0.417034 0.0945671 128 254 179
0.174612 -0.389547 0.15387 128 254 179
0.293829 -0.358486 0.0925941 128 254 179
0.0951954 -0.319824 0.413782 128 254 179
0.0767643 -0.321339 0.268922 128 254 179
0.0687668 -0.315805 0.244609 128 254 179
0.0932003 -0.263165 0.409852 128 254 179
0.0775628 -0.412983 0.124382 128 254 179
0.195225 -0.383804 0.122955 128 254 179
0.0825274 -0.310662 0.347809 128 254 179
0.0994087 -0.329715 0.332457 128 254 179
0.0883064 -0.393534 0.229988 128 254 179
0.0801545 -0.397936 0.214745 128 254 179
0.076922 -0.266592 0.362424 128 254 179
0.098736 -0.326881 0.335231 128 254 179
0.101679 -0.330163 0.164198 128 254 179
0.098562 -0.340634 0.311875 128 254 179
0.0937773 -0.286388 0.431124 128 254 179
0.278187 -0.331348 0.0935261 128 254 179
0.404586 -0.281046 0.0981768 128 254 179
0.0858232 -0.296326 0.372948 128 254 179
0.0808664 -0.392346 0.2386 128 254 179
0.0974304 -0.298793 0.387826 128 254 179
0.109643 -0.319607 0.395481 128 254 179
0.107044 -0.361358 0.301202 128 254 179
0.0529159 -0.277275 0.202601 128 254 179
0.0921666 -0.340019 0.203043 128 254 179
0.396811 -0.267436 0.102761 128 254 179
0.232366 -0.382959 0.124861 128 254 179
0.0752885 -0.376384 0.308815 128 254 179
0.0885623 -0.309494 0.430084 128 254 179
0.398694 -0.340134 0.0955387 128 254 179
0.388607 -0.233121 0.103075 128 254 179
0.0950347 -0.346248 0.372315 128 254 179
0.0603667 -0.355652 0.22121 128 254 179
0.183492 -0.381369 0.120436 128 254 179
0.0697726 -0.376894 0.120486 128 254 179
0.392969 -0.251621 0.103236 128 254 179
0.0862318 -0.277383 0.350127 128 254 179
0.235058 -0.403034 0.0945811 128 254 179
0.0691286 -0.398416 0.166614 128 254 179
0.240218 -0.396562 0.107959 128 254 179
0.144207 -0.408001 0.134995 128 254 179
0.0919366 -0.281493 0.420502 128 254 179
0.100918 -0.29806 0.409914 128 254 179
0.214082 -0.407542 0.0984555 128 254 179
0.321098 -0.380794 0.0961625 128 254 179
0.102576 -0.368613 0.307022 128 254 179
0.0902519 -0.269903 0.417683 128 254 179
0.074578 -0.323631 0.256756 128 254 179
0.347787 -0.270563 0.0976225 128 254 179
0.0601529 -0.376667 0.240049 128 254 179
0.0974635 -0.37273 0.297107 128 254 179
0.362942 -0.211705 0.100924 128 254 179
0.103587 -0.343569 0.32877 128 254 179
0.412139 -0.301144 0.0919522 128 254 179
0.0988796 -0.361619 0.33484 128 254 179
0.136165 -0.394347 0.179988 128 254 179
0.11901 -0.400096 0.169781 128 254 179
0.268859 -0.368088 0.0980069 128 254 179
0.322168 -0.329046 0.0902073 128 254 179
0.0845675 -0.312721 0.407719 128 254 179
0.0878112 -0.376949 0.295116 128 254 179
0.183153 -0.371391 0.112544 128 254 179
0.401511 -0.343074 0.0895616 128 254 179
0.124425 -0.343393 0.161548 128 254 179
0.168762 -0.350972 0.131149 128 254 179
0.168208 -0.42372 0.0873004 128 254 179
0.222512 -0.383296 0.127418 128 254 179
0.0588157 -0.295496 0.216635 128 254 179
0.325872 -0.381326 0.0926532 128 254 179
0.412635 -0.313828 0.0929999 128 254 179
0.104563 -0.306865 0.408997 128 254 179
0.0933103 -0.295111 0.382469 128 254 179
0.0943768 -0.362445 0.261771 128 254 179
0.120514 -0.389658 0.217895 128 254 179
0.123535 -0.389377 0.20603 128 254 179
0.074372 -0.374973 0.314339 128 254 179
0.331608 -0.35846 0.100313 128 254 179
0.107627 -0.320275 0.380775 128 254 179
0.134915 -0.394754 0.178834 128 254 179
0.0782925 -0.259369 0.373572 128 254 179
0.121368 -0.392407 0.207805 128 254 179
0.060742 -0.318485 0.239159 128 254 179
0.0884429 -0.301663 0.438918 128 254 179
0.0957612 -0.392344 0.225552 128 254 179
0.093204 -0.245489 0.414574 128 254 179
0.0929984 -0.307546 0.429959 128 254 179
0.0964677 -0.3524 0.221613 128 254 179
0.135417 -0.379031 0.165204 128 254 179
0.0681474 -0.291272 0.266106 128 254 179
0.408417 -0.333708 0.0945546 128 254 179
0.381569 -0.353014 0.0888099 128 254 179
0.0804788 -0.333038 0.378725 128 254 179
0.110471 -0.399982 0.176346 128 254 179
0.16783 -0.390111 0.159766 128 254 179
0.0941586 -0.237957 0.411433 128 254 179
0.0793129 -0.415041 0.159612 128 254 179
0.112692 -0.417486 0.0963065 128 254 179
0.0725169 -0.226677 0.367563 128 254 179
0.15546 -0.388129 0.148495 128 254 179
0.112213 -0.334479 0.369097 128 254 179
0.133619 -0.397509 0.16737 128 254 179
0.31402 -0.28223 0.0901595 128 254 179
0.0987535 -0.181245 0.40076 128 254 179
0.0938633 -0.298932 0.433595 128 254 179
0.0769925 -0.314865 0.170893 128 254 179
0.0943361 -0.317049 0.417688 128 254 179
0.312257 -0.269615 0.0912136 128 254 179
0.0989425 -0.339036 0.315812 128 254 179
0.292515 -0.38909 0.0913627 128 254 179
0.0591727 -0.338747 0.232559 128 254 179
0.149356 -0.410958 0.128886 128 254 179
0.0930601 -0.246044 0.387547 128 254 179
0.170459 -0.390005 0.156457 128 254 179
0.101809 -0.318394 0.362851 128 254 179
0.100158 -0.296529 0.412327 128 254 179
0.100811 -0.373241 0.289023 128 254 179
0.0921399 -0.389385 0.246255 128 254 179
0.284096 -0.38147 0.108221 128 254 179
0.0751961 -0.293347 0.31805 128 254 179
0.0924703 -0.240591 0.375806 128 254 179
0.176454 -0.41928 0.0991114 128 254 179
0.0706155 -0.320819 0.289081 128 254 179
0.114929 -0.416344 0.0928541 128 254 179
0.203957 -0.413807 0.0908245 128 254 179
0.17976 -0.404004 0.124731 128 254 179
0.0927073 -0.249986 0.409701 128 254 179
0.398618 -0.345232 0.0890926 128 254 179
0.0644537 -0.383549 0.281258 128 254 179
0.15787 -0.389991 0.16763 128 254 179
0.106855 -0.361501 0.300253 128 254 179
0.214432 -0.345799 0.110654 128 254 179
0.0807637 -0.242234 0.385327 128 254 179
0.0884458 -0.320632 0.415536 128 254 179
0.0694886 -0.404468 0.169405 128 254 179
0.0813977 -0.328324 0.383471 128 254 179
0.097248 -0.34291 0.202126 128 254 179
0.359923 -0.355684 0.096339 128 254 179
0.08429 -0.328054 0.405863 128 254 179
0.387982 -0.350474 0.087433 128 254 179
0.193851 -0.416915 0.0858659 128 254 179
0.0845312 -0.283849 0.372248 128 254 179
0.0689969 -0.396512 0.166501 128 254 179
0.179245 -0.400417 0.127611 128 254 179
0.0935226 -0.409202 0.162367 128 254 179
0.398569 -0.276124 0.102517 128 254 179
0.407521 -0.332963 0.095259 128 254 179
0.371736 -0.324851 0.093449 128 254 179
0.111697 -0.346964 0.344074 128 254 179
0.312324 -0.332887 0.0905679 128 254 179
0.252077 -0.392887 0.109908 128 254 179
0.190094 -0.398076 0.126448 128 254 179
0.0783876 -0.391859 0.241915 128 254 179
0.200329 -0.314574 0.0992605 128 254 179
0.375663 -0.333664 0.0939881 128 254 179
0.110266 -0.389546 0.239713 128 254 179
0.0856707 -0.302378 0.439508 128 254 179
0.177793 -0.410186 0.116802 128 254 179
0.141427 -0.403384 0.144951 128 254 179
0.399672 -0.25836 0.0986917 128 254 179
0.0917694 -0.240162 0.40772 128 254 179
0.13741 -0.369338 0.161166 128 254 179
0.104546 -0.323604 0.362591 128 254 179
0.0654937 -0.307228 0.212639 128 254 179
0.326851 -0.377049 0.0968978 128 254 179
0.172897 -0.416165 0.106305 128 254 179
0.0993609 -0.303473 0.423381 128 254 179
0.270749 -0.379309 0.113547 128 254 179
0.10811 -0.389585 0.238202 128 254 179
0.382308 -0.243369 0.104602 128 254 179
0.108309 -0.335346 0.356875 128 254 179
0.0695356 -0.403351 0.166884 128 254 179
0.0717036 -0.392466 0.131216 128 254 179
0.0994649 -0.393104 0.21672 128 254 179
0.0978026 -0.364438 0.327082 128 254 179
0.0879178 -0.342536 0.263252 128 254 179
0.0809616 -0.337271 0.392637 128 254 179
0.154333 -0.404523 0.134309 128 254 179
0.362134 -0.257196 0.102131 128 254 179
0.0927116 -0.220638 0.371954 128 254 179
0.361285 -0.305494 0.0967761 128 254 179
0.247924 -0.399183 0.0961453 128 254 179
0.0702184 -0.349122 0.301547 128 254 179
0.361784 -0.264326 0.101438 128 254 179
0.0786835 -0.341952 0.368973 128 254 179
0.110837 -0.340661 0.367256 128 254 179
0.0888726 -0.343695 0.379795 128 254 179
0.0882991 -0.402425 0.106983 128 254 179
0.0864827 -0.230276 0.398563 128 254 179
0.12134 -0.406353 0.152396 128 254 179
0.383217 -0.226307 0.105952 128 254 179
0.311669 -0.308861 0.0897658 128 254 179
0.227725 -0.370756 0.103528 128 254 179
0.402571 -0.339611 0.0944436 128 254 179
0.05026 -0.27753 0.218445 128 254 179
0.0811645 -0.37786 0.30229 128 254 179
0.0849485 -0.25767 0.393346 128 254 179
0.27715 -0.354163 0.0893698 128 254 179
0.388581 -0.300818 0.104999 128 254 179
0.092809 -0.241473 0.378615 128 254 179
0.409383 -0.284208 0.0923222 128 254 179
0.08514 -0.379652 0.292916 128 254 179
0.109938 -0.350957 0.349266 128 254 179
0.0896537 -0.30819 0.431108 128 254 179
0.0763628 -0.220236 0.38085 128 254 179
0.105227 -0.366832 0.215994 128 254 179
0.313989 -0.3767 0.10088 128 254 179
0.10314 -0.367664 0.273824 128 254 179
0.276645 -0.321083 0.0908287 128 254 179
0.241267 -0.387408 0.117692 128 254 179
0.300055 -0.386498 0.0957486 128 254 179
0.1226 -0.393785 0.194213 128 254 179
0.100065 -0.34632 0.3104 128 254 179
0.273797 -0.389429 0.101152 128 254 179
0.107531 -0.337962 0.377571 128 254 179
0.0855506 -0.310965 0.425477 128 254 179
0.182948 -0.3644 0.121238 128 254 179
0.129895 -0.40326 0.1539 128 254 179
0.177096 -0.388823 0.154622 128 254 179
0.0977593 -0.294543 0.421791 128 254 179
0.375427 -0.2563 0.103703 128 254 179
0.0962482 -0.364921 0.248282 128 254 179
0.082099 -0.319206 0.370103 128 254 179
0.0773173 -0.379539 0.295133 128 254 179
0.0897207 -0.271503 0.402127 128 254 179
0.0789664 -0.335693 0.348696 128 254 179
0.108967 -0.400229 0.176789 128 254 179
0.0950087 -0.352844 0.28164 128 254 179
0.387863 -0.347197 0.0929718 128 254 179
0.367963 -0.239575 0.102153 128 254 179
0.0816266 -0.329453 0.392152 128 254 179
0.102367 -0.303086 0.396507 128 254 179
0.086746 -0.275002 0.351802 128 254 179
0.080596 -0.360047 0.350245 128 254 179
0.0648189 -0.38402 0.27951 128 254 179
0.39193 -0.30585 0.103661 128 254 179
0.0838664 -0.307728 0.369105 128 254 179
0.0532261 -0.219307 0.309352 128 254 179
0.135983 -0.364315 0.164241 128 254 179
0.172623 -0.399434 0.131208 128 254 179
0.344479 -0.225261 0.101853 128 254 179
0.161578 -0.393616 0.153545 128 254 179
0.131052 -0.390446 0.194338 128 254 179
0.129398 -0.343951 0.157047 128 254 179
0.0928871 -0.357981 0.347915 128 254 179
0.195676 -0.416704 0.0841396 128 254 179
0.0918443 -0.306027 0.432426 128 254 179
0.0597745 -0.203895 0.340925 128 254 179
0.0722111 -0.301136 0.288145 128 254 179
0.097647 -0.185569 0.395939 128 254 179
0.123061 -0.394831 0.187208 128 254 179
0.352558 -0.332235 0.0897459 128 254 179
0.124435 -0.428787 0.0934916 128 254 179
0.267038 -0.387039 0.109837 128 254 179
0.130629 -0.401224 0.158509 128 254 179
0.086136 -0.267723 0.340763 128 254 179
0.0642163 -0.300032 0.259654 128 254 179
0.241168 -0.364042 0.0963166 128 254 179
0.0898484 -0.27063 0.403092 128 254 179
0.256702 -0.397941 0.0863806 128 254 179
0.402193 -0.340243 0.0935121 128 254 179
0.093187 -0.243402 0.425578 128 254 179
0.214251 -0.307257 0.0938825 128 254 179
0.176214 -0.420615 0.096152 128 254 179
0.087939 -0.287682 0.411367 128 254 179
0.30594 -0.380723 0.100203 128 254 179
0.102052 -0.328259 0.398849 128 254 179
0.092407 -0.28306 0.42428 128 254 179
0.37727 -0.257083 0.104154 128 254 179
0.077162 -0.228366 0.380053 128 254 179
0.39252 -0.307087 0.103421 128 254 179
0.105688 -0.360019 0.329884 128 254 179
0.0574476 -0.325677 0.202687 128 254 179
0.234138 -0.398734 0.106332 128 254 179
0.103466 -0.365903 0.278484 128 254 179
0.21263 -0.41093 0.0874453 128 254 179
0.117434 -0.340025 0.163127 128 254 179
0.0982473 -0.354987 0.28786 128 254 179
0.10216 -0.362187 0.283808 128 254 179
0.312708 -0.379742 0.0977064 128 254 179
0.105403 -0.370131 0.28637 128 254 179
0.186577 -0.402959 0.123356 128 254 179
0.103342 -0.347953 0.19927 128 254 179
0.0847605 -0.308426 0.397406 128 254 179
0.0753624 -0.224937 0.376043 128 254 179
0.410508 -0.326462 0.0942506 128 254 179
0.106137 -0.401404 0.175576 128 254 179
0.0992358 -0.166012 0.342614 160 249 161
0.0960798 -0.075844 0.263302 160 249 161
0.100825 -0.374802 0.273836 160 249 161
0.0928595 -0.129404 0.205609 160 249 161
0.099852 -0.4035 0.148303 160 249 161
0.100198 -0.329038 0.327603 160 249 161
0.104367 -0.301059 0.116219 160 249 161
0.0965294 -0.26436 0.301016 160 249 161
0.0886333 -0.00491624 0.194688 160 249 161
0.0883003 0.0177615 0.206421 160 249 161
0.0993437 -0.391315 0.192376 160 249 161
0.0990587 -0.175622 0.370649 160 249 161
0.0998413 -0.156041 0.379096 160 249 161
0.099696 -0.159276 0.379938 160 249 161
0.101312 -0.358716 0.319019 160 249 161
0.0997898 -0.357062 0.371676 160 249 161
0.0953443 -0.250231 0.218509 160 249 161
0.0926335 -0.145199 0.235746 160 249 161
0.0929486 -0.106448 0.228583 160 249 161
0.100744 -0.313569 0.19376 160 249 161
0.104257 -0.314616 0.117942 160 249 161
0.100068 -0.155591 0.360817 160 249 161
0.0985386 -0.220434 0.349219 160 249 161
0.0937153 -0.201847 0.265215 160 249 161
0.0985456 -0.197236 0.355562 160 249 161
0.0967495 -0.0583951 0.122856 160 249 161
0.0942563 -0.0351692 0.25404 160 249 161
0.101012 -0.321251 0.380886 160 249 161
0.0932882 -0.189074 0.221127 160 249 161
0.102118 -0.294588 0.179725 160 249 161
0.0901781 -0.0562188 0.184709 160 249 161
0.100626 -0.379175 0.196776 160 249 161
0.102726 -0.297554 0.154937 160 249 161
0.100783 -0.284113 0.353633 160 249 161
0.103359 -0.296903 0.125256 160 249 161
0.0934657 -0.100453 0.249404 160 249 161
0.101098 -0.37104 0.22329 160 249 161
0.103005 -0.224698 0.105198 160 249 161
0.0938026 -0.144496 0.181515 160 249 161
0.0993271 -0.273269 0.338442 160 249 161
0.098257 -0.188944 0.335465 160 249 161
0.100638 -0.28185 0.186449 160 249 161
0.103837 -0.382752 0.126825 160 249 161
0.100529 -0.175719 0.115616 160 249 161
0.0988411 -0.18124 0.356279 160 249 161
0.0985563 -0.161422 0.319407 160 249 161
0.0884192 0.00270441 0.192067 160 249 161
0.103909 -0.346463 0.131047 160 249 161
0.0902678 -0.0319499 0.169495 160 249 161
0.102523 -0.284929 0.157244 160 249 161
0.0937957 -0.099199 0.153431 160 249 161
0.100969 -0.342611 0.300201 160 249 161
0.101519 -0.348419 0.277996 160 249 161
0.0937997 0.0207133 0.125804 160 249 161
0.106254 -0.422072 0.121295 160 249 161
0.098638 -0.104631 0.301398 160 249 161
0.0998292 -0.317386 0.31784 160 249 161
0.111018 -0.38088 0.109073 160 249 161
0.0912448 0.00353248 0.237203 160 249 161
0.100485 -0.364422 0.338124 160 249 161
0.102038 -0.255331 0.120804 160 249 161
0.0994107 -0.164171 0.349954 160 249 161
0.0960018 -0.200651 0.187112 160 249 161
0.0993243 -0.325164 0.289049 160 249 161
0.0984784 -0.203068 0.378977 160 249 161
0.098931 -0.394411 0.194103 160 249 161
0.0940236 -0.121062 0.255081 160 249 161
0.092746 -0.163484 0.229005 160 249 161
0.10156 -0.375955 0.25247 160 249 161
0.089071 0.00394184 0.211346 160 249 161
0.0923726 -0.0873648 0.222814 160 249 161
0.0990242 -0.291233 0.248149 160 249 161
0.0995762 -0.164456 0.365839 160 249 161
0.101624 -0.320858 0.189023 160 249 161
0.101315 -0.366833 0.220782 160 249 161
0.098627 -0.195298 0.380134 160 249 161
0.0986526 -0.133405 0.311959 160 249 161
0.0949212 -0.136815 0.156216 160 249 161
0.100188 -0.0680119 0.310988 160 249 161
0.100291 -0.0640518 0.311745 160 249 161
0.0956466 -0.163911 0.283933 160 249 161
0.101159 -0.36133 0.301897 160 249 161
0.104701 -0.347576 0.117232 160 249 161
0.0981649 -0.398515 0.20616 160 249 161
0.0933705 -0.144042 0.207179 160 249 161
0.0973612 -0.282124 0.268368 160 249 161
0.100516 -0.375447 0.214625 160 249 161
0.100906 -0.254727 0.156515 160 249 161
0.102442 -0.286527 0.15096 160 249 161
0.101092 -0.374441 0.191953 160 249 161
0.102066 -0.359463 0.189578 160 249 161
0.0985636 -0.132204 0.310512 160 249 161
0.100319 -0.145441 0.344718 160 249 161
0.101721 -0.34708 0.234424 160 249 161
0.0960584 -0.262707 0.226204 160 249 161
0.098523 -0.160499 0.129173 160 249 161
0.101141 -0.379688 0.174683 160 249 161
0.0999865 -0.25803 0.179313 160 249 161
0.0980592 -0.398547 0.221386 160 249 161
0.0982851 -0.24313 0.34387 160 249 161
0.094752 -0.210678 0.280588 160 249 161
0.101591 -0.111193 0.347008 160 249 161
0.0936997 -0.216906 0.220492 160 249 161
0.0977747 -0.113359 0.128721 160 249 161
0.0935465 -0.184733 0.217613 160 249 161
0.103758 -0.347784 0.144843 160 249 161
0.0902199 -0.0454657 0.208361 160 249 161
0.107728 -0.34404 0.10888 160 249 161
0.0989573 -0.406213 0.163801 160 249 161
0.0990549 -0.326914 0.279111 160 249 161
0.1029 -0.289286 0.12757 160 249 161
0.102051 -0.356944 0.247651 160 249 161
0.100925 -0.363561 0.30741 160 249 161
0.0958566 -0.253769 0.27802 160 249 161
0.101376 -0.339164 0.227181 160 249 161
0.101462 -0.360422 0.20694 160 249 161
0.0886148 0.00727212 0.205127 160 249 161
0.0923908 -0.169035 0.233177 160 249 161
0.0998719 -0.309064 0.314962 160 249 161
0.0986466 -0.21457 0.38093 160 249 161
0.0894293 0.00256764 0.173094 160 249 161
0.100285 -0.389151 0.165488 160 249 161
0.0974372 -0.269414 0.252714 160 249 161
0.0927852 -0.160373 0.246214 160 249 161
0.0958445 -0.215028 0.304261 160 249 161
0.103087 -0.31415 0.159592 160 249 161
0.0939959 -0.235922 0.22828 160 249 161
0.093436 -0.120544 0.169495 160 249 161
0.105006 -0.359646 0.118022 160 249 161
0.100695 -0.317796 0.197154 160 249 161
0.102985 -0.381745 0.130479 160 249 161
0.0906668 0.0163622 0.15581 160 249 161
0.0952077 -0.169946 0.174213 160 249 161
0.0979601 -0.171102 0.13462 160 249 161
0.101811 -0.349228 0.225349 160 249 161
0.0959465 -0.0994879 0.267 160 249 161
0.103113 -0.420122 0.134601 160 249 161
0.0914369 -0.0343709 0.230083 160 249 161
0.100547 -0.338305 0.284199 160 249 161
0.101248 -0.347503 0.299378 160 249 161
0.0986632 -0.137656 0.313305 160 249 161
0.101449 -0.334336 0.356693 160 249 161
0.0948636 -0.215475 0.281543 160 249 161
0.0992092 -0.169092 0.348408 160 249 161
0.0944567 -0.189067 0.20675 160 249 161
0.0991542 -0.16424 0.337103 160 249 161
0.0998334 -0.271514 0.346494 160 249 161
0.10394 -0.348855 0.162699 160 249 161
0.101994 -0.275858 0.17339 160 249 161
0.101623 -0.356917 0.282226 160 249 161
0.099217 -0.228274 0.159549 160 249 161
0.101811 -0.365718 0.265237 160 249 161
0.0928868 -0.144162 0.246124 160 249 161
0.0957032 -0.254939 0.217485 160 249 161
0.101226 -0.333802 0.364945 160 249 161
0.102185 -0.313641 0.182467 160 249 161
0.100961 -0.256192 0.155685 160 249 161
0.100709 -0.335299 0.378681 160 249 161
0.0927175 -0.152669 0.232198 160 249 161
0.0992463 -0.0725717 0.298343 160 249 161
0.0945421 -0.174442 0.194111 160 249 161
0.100276 -0.0413806 0.308226 160 249 161
0.100237 -0.381457 0.218697 160 249 161
0.0997085 -0.322158 0.305481 160 249 161
0.0991869 -0.378949 0.310489 160 249 161
0.0962014 -0.265346 0.281978 160 249 161
0.0932741 -0.209317 0.222332 160 249 161
0.10143 -0.358823 0.214139 160 249 161
0.0957603 -0.225064 0.203388 160 249 161
0.094565 -0.233325 0.253513 160 249 161
0.101935 -0.346988 0.197367 160 249 161
0.101628 -0.350431 0.274873 160 249 161
0.100711 -0.341228 0.250734 160 249 161
0.09658 -0.227657 0.319798 160 249 161
0.0926976 -0.0594824 0.243643 160 249 161
0.0967166 -0.22789 0.321854 160 249 161
0.100371 -0.126746 0.333401 160 249 161
0.0976802 -0.108564 0.128092 160 249 161
0.100659 -0.31444 0.234406 160 249 161
0.094319 -0.0328248 0.137525 160 249 161
0.0985454 -0.413648 0.18258 160 249 161
0.0970253 -0.221024 0.325019 160 249 161
0.0998367 -0.393752 0.162881 160 249 161
0.100913 -0.327017 0.374708 160 249 161
0.111285 -0.343219 0.102524 160 249 161
0.099211 -0.171711 0.375349 160 249 161
0.0970104 -0.169272 0.301053 160 249 161
0.100989 -0.236 0.125188 160 249 161
0.0984155 -0.170559 0.323012 160 249 161
0.0957155 -0.181675 0.174563 160 249 161
0.101502 -0.347867 0.265908 160 249 161
0.101269 -0.281929 0.378344 160 249 161
0.100482 -0.338385 0.27544 160 249 161
0.0907441 -0.0679646 0.177058 160 249 161
0.102597 -0.281935 0.166032 160 249 161
0.10104 -0.118912 0.386916 160 249 161
0.102661 -0.34995 0.180417 160 249 161
0.0890226 0.015063 0.176449 160 249 161
0.103103 -0.300661 0.171145 160 249 161
0.102737 -0.349804 0.179275 160 249 161
0.101962 -0.319872 0.186201 160 249 161
0.101752 -0.292866 0.377874 160 249 161
0.102349 -0.0552751 0.352101 160 249 161
0.095811 -0.186401 0.178309 160 249 161
0.098528 -0.395149 0.221348 160 249 161
0.0961057 -0.239892 0.313388 160 249 161
0.100886 -0.377154 0.265031 160 249 161
0.0988627 -0.0432378 0.29023 160 249 161
0.102139 -0.28153 0.148195 160 249 161
0.0991851 -0.153634 0.326656 160 249 161
0.0925488 -0.126012 0.201237 160 249 161
0.0959889 -0.252473 0.302593 160 249 161
0.100362 -0.263448 0.374332 160 249 161
0.0985145 -0.228424 0.348005 160 249 161
0.101809 -0.386051 0.139781 160 249 161
0.0931288 -0.219143 0.235527 160 249 161
0.0963891 -0.189127 0.298358 160 249 161
0.0932041 -0.0656641 0.247048 160 249 161
0.0962478 -0.068774 0.263668 160 249 161
0.0930109 -0.139093 0.247048 160 249 161
0.0980284 -0.399031 0.225945 160 249 161
0.100991 -0.257172 0.145299 160 249 161
0.0896237 -0.0299012 0.203376 160 249 161
0.0953537 -0.243382 0.29679 160 249 161
0.0998821 -0.161137 0.119579 160 249 161
0.100821 -0.327224 0.373851 160 249 161
0.0931455 -0.178212 0.222031 160 249 161
0.0921956 -0.180029 0.237766 160 249 161
0.0981221 -0.302754 0.291341 160 249 161
0.109041 -0.39227 0.114124 160 249 161
0.0947975 -0.180408 0.189919 160 249 161
0.0998121 -0.159667 0.366516 160 249 161
0.0939095 -0.217961 0.259539 160 249 161
0.103745 -0.3513 0.149306 160 249 161
0.0900263 -0.0122485 0.219176 160 249 161
0.100469 -0.25637 0.173729 160 249 161
0.0974517 -0.148849 0.301584 160 249 161
0.0940411 -0.201597 0.271802 160 249 161
0.102749 -0.315394 0.172799 160 249 161
0.0942428 -0.0178339 0.134232 160 249 161
0.0935621 -0.143612 0.185114 160 249 161
0.0953085 -0.243807 0.281248 160 249 161
0.100556 -0.335207 0.318753 160 249 161
0.098207 -0.291412 0.30834 160 249 161
0.0947892 -0.079629 0.256945 160 249 161
0.095564 -0.17521 0.171274 160 249 161
0.096041 -0.209155 0.306 160 249 161
0.107848 -0.402474 0.116291 160 249 161
0.101333 -0.336788 0.219226 160 249 161
0.100774 -0.185206 0.114266 160 249 161
0.101846 -0.35816 0.263773 160 249 161
0.108625 -0.394288 0.114923 160 249 161
0.102987 -0.301584 0.133003 160 249 161
0.0998869 -0.155095 0.378286 160 249 161
0.100624 -0.387763 0.159108 160 249 161
0.101777 -0.357186 0.276711 160 249 161
0.0950007 -0.0975231 0.258648 160 249 161
0.103907 -0.345844 0.136959 160 249 161
0.0969556 -0.265618 0.258737 160 249 161
0.0953422 -0.149609 0.155367 160 249 161
0.0957011 -0.111956 0.143113 160 249 161
0.0992501 -0.114095 0.120383 160 249 161
0.102926 -0.369472 0.146659 160 249 161
0.0971254 -0.177281 0.14588 160 249 161
0.089957 0.0354207 0.158539 160 249 161
0.0984959 -0.308359 0.266829 160 249 161
0.0994532 -0.28819 0.328244 160 249 161
0.0972602 -0.191864 0.15396 160 249 161
0.101438 -0.357212 0.322607 160 249 161
0.11371 -0.359808 0.102009 160 249 161
0.0990147 -0.222227 0.371612 160 249 161
0.100546 -0.0894774 0.321608 160 249 161
0.0984797 -0.284665 0.21071 160 249 161
0.100624 -0.26747 0.361085 160 249 161
0.0977089 -0.230727 0.19024 160 249 161
0.10035 -0.126126 0.332754 160 249 161
0.100092 -0.359522 0.364612 160 249 161
0.100909 -0.370421 0.210477 160 249 161
0.0995653 -0.298258 0.21375 160 249 161
0.095006 -0.16522 0.174461 160 249 161
0.101223 -0.0347869 0.326806 160 249 161
0.0897122 -0.0225184 0.175049 160 249 161
0.100327 -0.40383 0.142226 160 249 161
0.0972132 -0.263182 0.319698 160 249 161
0.103942 -0.350618 0.128497 160 249 161
0.0993778 -0.401249 0.155975 160 249 161
0.10157 -0.345132 0.332251 160 249 161
0.102818 -0.395679 0.131844 160 249 161
0.0997871 -0.35794 0.370389 160 249 161
0.100705 -0.269779 0.369009 160 249 161
0.0986647 -0.398074 0.24881 160 249 161
0.102149 -0.098388 0.363011 160 249 161
0.0951021 -0.251944 0.226663 160 249 161
0.0984153 -0.0922821 0.292502 160 249 161
0.0987987 -0.393032 0.223726 160 249 161
0.109455 -0.31691 0.104059 160 249 161
0.0921068 -0.104942 0.181384 160 249 161
0.098298 -0.398213 0.202093 160 249 161
0.0889414 0.00878517 0.212946 160 249 161
0.101625 -0.380214 0.159118 160 249 161
0.0947849 -0.0241445 0.128512 160 249 161
0.0983788 -0.41274 0.184823 160 249 161
0.0978011 -0.161866 0.308635 160 249 161
0.089458 0.00825047 0.223523 160 249 161
0.102406 -0.347339 0.186263 160 249 161
0.100187 -0.151221 0.369668 160 249 161
0.0930168 -0.133031 0.191099 160 249 161
0.1005 -0.334714 0.244759 160 249 161
0.0948028 -0.213236 0.207534 160 249 161
0.092583 -0.145511 0.238963 160 249 161
0.102055 -0.371399 0.239384 160 249 161
0.100486 -0.314621 0.199033 160 249 161
0.101969 -0.358599 0.193188 160 249 161
0.101708 -0.291177 0.370675 160 249 161
0.0964947 -0.141967 0.142145 160 249 161
0.0987661 -0.139555 0.126605 160 249 161
0.103804 -0.357817 0.135837 160 249 161
0.102422 -0.0864989 0.35683 160 249 161
0.0984103 -0.141943 0.311207 160 249 161
0.0993541 -0.388243 0.214758 160 249 161
0.0960205 -0.244946 0.312274 160 249 161
0.100887 -0.339833 0.378452 160 249 161
0.0911418 -0.0540217 0.166356 160 249 161
0.0994899 -0.303183 0.312114 160 249 161
0.100121 -0.381888 0.214486 160 249 161
0.101404 -0.057734 0.330514 160 249 161
0.0965598 -0.248656 0.20668 160 249 161
0.0919018 -0.0250515 0.15479 160 249 161
0.0982159 -0.0512504 0.281537 160 249 161
0.10015 -0.259466 0.376858 160 249 161
0.0922076 -0.0822203 0.22295 160 249 161
0.0903244 -0.0576315 0.205433 160 249 161
0.0930265 -0.146875 0.247763 160 249 161
0.100816 -0.283279 0.354679 160 249 161
0.0953811 -0.246454 0.247255 160 249 161
0.0929371 -0.0231806 0.146497 160 249 161
0.101687 -0.360511 0.280671 160 249 161
0.0997103 -0.297404 0.243344 160 249 161
0.0903003 -0.0643838 0.187113 160 249 161
0.100203 -0.387478 0.25033 160 249 161
0.101127 -0.116862 0.341103 160 249 161
0.0923325 -0.120868 0.197469 160 249 161
0.0958648 -0.181493 0.290642 160 249 161
0.0971483 -0.287261 0.281793 160 249 161
0.0921004 -0.102075 0.177371 160 249 161
0.0989651 -0.288747 0.205008 160 249 161
0.0996558 -0.300419 0.202502 160 249 161
0.0879274 0.0235888 0.1888 160 249 161
0.0967443 -0.260182 0.248241 160 249 161
0.0947563 -0.0112595 0.257973 160 249 161
0.0981795 -0.212275 0.158348 160 249 161
0.0976362 -0.175068 0.138268 160 249 161
0.0944414 -0.0630572 0.143644 160 249 161
0.0924254 -0.160004 0.24214 160 249 161
0.0993697 -0.416158 0.169172 160 249 161
0.0976209 -0.0810151 0.27815 160 249 161
0.0963067 -0.252741 0.209824 160 249 161
0.0983943 -0.28177 0.206907 160 249 161
0.103052 -0.313619 0.156158 160 249 161
0.0949708 -0.223364 0.209351 160 249 161
0.093177 -0.172874 0.220802 160 249 161
0.0962272 -0.257098 0.302593 160 249 161
0.0991669 -0.155767 0.327343 160 249 161
0.0965062 -0.258407 0.310313 160 249 161
0.100719 -0.323484 0.204065 160 249 161
0.10125 -0.118217 0.38278 160 249 161
0.0956302 -0.255665 0.219191 160 249 161
0.0888306 0.0292928 0.17636 160 249 161
0.0934558 -0.101278 0.249325 160 249 161
0.101201 -0.374438 0.263384 160 249 161
0.0976905 -0.213415 0.333469 160 249 161
0.0983509 -0.237437 0.186824 160 249 161
0.0945441 -0.225693 0.26374 160 249 161
0.092337 -0.19292 0.23847 160 249 161
0.101435 -0.294911 0.358064 160 249 161
0.0945175 -0.202518 0.208463 160 249 161
0.100502 -0.0466305 0.312994 160 249 161
0.10058 -0.282485 0.187225 160 249 161
0.101666 -0.351188 0.253517 160 249 161
0.0991267 -0.230046 0.372683 160 249 161
0.0958095 -0.061582 0.260916 160 249 161
0.101758 -0.27228 0.156819 160 249 161
0.0935917 -0.210828 0.219285 160 249 161
0.101249 -0.107713 0.33724 160 249 161
0.096858 -0.194897 0.313097 160 249 161
0.0991595 -0.230008 0.363202 160 249 161
0.0982078 -0.303893 0.291948 160 249 161
0.0991592 -0.317397 0.295325 160 249 161
0.101336 -0.368717 0.199053 160 249 161
0.0917557 -0.003379 0.23999 160 249 161
0.101804 -0.341989 0.352148 160 249 161
0.101266 -0.0668742 0.327333 160 249 161
0.101841 -0.3742 0.169861 160 249 161
0.100357 -0.129125 0.115053 160 249 161
0.0980714 -0.116645 0.299301 160 249 161
0.0974168 -0.23428 0.195936 160 249 161
0.103843 -0.353734 0.16463 160 249 161
0.0974616 -0.409295 0.20079 160 249 161
0.101466 -0.0553438 0.332178 160 249 161
0.0966481 -0.137579 0.14025 160 249 161
0.0946708 -0.177694 0.193397 160 249 161
0.10089 -0.280093 0.183546 160 249 161
0.0968247 -0.261338 0.253325 160 249 161
0.0999366 -0.124253 0.117656 160 249 161
0.0911233 -0.0712398 0.213079 160 249 161
0.100541 -0.365436 0.32746 160 249 161
0.0918313 -0.0516905 0.228689 160 249 161
0.101033 -0.287061 0.185661 160 249 161
0.102621 -0.299669 0.149401 160 249 161
0.0921927 0.040203 0.133773 160 249 161
0.0960985 -0.142241 0.283 160 249 161
0.101451 -0.373456 0.258917 160 249 161
0.0939446 -0.058523 0.251816 160 249 161
0.0975662 -0.147183 0.302536 160 249 161
0.0948815 -0.181795 0.189028 160 249 161
0.0941212 -0.119953 0.158988 160 249 161
0.1015 -0.341754 0.337151 160 249 161
0.100115 -0.297124 0.196371 160 249 161
0.0955316 -0.227512 0.206017 160 249 161
0.0933396 -0.0337605 0.145981 160 249 161
0.094215 -0.226113 0.255694 160 249 161
0.0929371 -0.129152 0.187112 160 249 161
0.09703 -0.0215355 0.273201 160 249 161
0.098907 -0.224196 0.35573 160 249 161
0.101383 -0.263308 0.135678 160 249 161
0.10003 -0.377134 0.292533 160 249 161
0.101577 -0.086186 0.335849 160 249 161
0.0904901 -0.00234705 0.161894 160 249 161
0.101104 -0.343713 0.260312 160 249 161
0.100065 -0.327062 0.327652 160 249 161
0.101688 -0.110747 0.376287 160 249 161
0.102817 -0.294067 0.133149 160 249 161
0.0975238 -0.248899 0.333539 160 249 161
0.101195 -0.346426 0.373529 160 249 161
0.0942341 -0.202584 0.211069 160 249 161
0.0995094 -0.331451 0.266314 160 249 161
0.101806 -0.31337 0.185698 160 249 161
0.101592 -0.357596 0.284051 160 249 161
0.104518 -0.297651 0.114893 160 249 161
0.0885049 0.0140433 0.183756 160 249 161
0.10248 -0.283831 0.172802 160 249 161
0.0971967 -0.181008 0.14638 160 249 161
0.1037 -0.299047 0.121035 160 249 161
0.105198 -0.373218 0.120104 160 249 161
0.101003 -0.136591 0.351493 160 249 161
0.10233 -0.0692254 0.362258 160 249 161
0.10082 -0.327086 0.37556 160 249 161
0.102086 -0.279019 0.139872 160 249 161
0.0928572 -0.159985 0.246981 160 249 161
0.102866 -0.315578 0.150606 160 249 161
0.101537 -0.34842 0.275111 160 249 161
0.096186 -0.260845 0.294037 160 249 161
0.0930134 -0.128582 0.245993 160 249 161
0.0989703 -0.175679 0.38818 160 249 161
0.093379 -0.134209 0.250377 160 249 161
0.0993829 -0.308718 0.305109 160 249 161
0.0944325 -0.166837 0.184466 160 249 161
0.0922435 -0.11452 0.186696 160 249 161
0.0972779 -0.0616843 0.120572 160 249 161
0.0963209 -0.145958 0.287201 160 249 161
0.100828 -0.382851 0.24791 160 249 161
0.0998417 -0.392328 0.177283 160 249 161
0.101003 -0.277971 0.361308 160 249 161
0.091529 -0.0756892 0.169551 160 249 161
0.0972529 -0.254018 0.32787 160 249 161
0.0968743 -0.0595261 0.122306 160 249 161
0.0987202 -0.0993597 0.300267 160 249 161
0.0944388 -0.112662 0.151895 160 249 161
0.101599 -0.125586 0.362023 160 249 161
0.0935566 -0.0195697 0.140849 160 249 161
0.0977779 -0.193029 0.14491 160 249 161
0.0952209 -0.239219 0.214603 160 249 161
0.0971009 -0.185589 0.151197 160 249 161
0.0913965 -0.019084 0.157872 160 249 161
0.101518 -0.324637 0.370107 160 249 161
0.105536 -0.37627 0.119116 160 249 161
0.0945955 -0.205536 0.208123 160 249 161
0.0953002 -0.239054 0.261762 160 249 161
0.0996805 -0.0919051 0.311583 160 249 161
0.0996565 -0.249119 0.377881 160 249 161
0.0993679 -0.392005 0.268083 160 249 161
0.0938311 -0.0872668 0.149321 160 249 161
0.092939 -0.131302 0.229718 160 249 161
0.0970517 -0.184973 0.152361 160 249 161
0.0991398 -0.230253 0.370316 160 249 161
0.0936458 -0.0152895 0.250785 160 249 161
0.100174 -0.153303 0.355957 160 249 161
0.100496 -0.120759 0.114446 160 249 161
0.10091 -0.325595 0.345305 160 249 161
0.095892 -0.255073 0.239303 160 249 161
0.0987333 -0.285727 0.20596 160 249 161
0.0966668 -0.264637 0.23662 160 249 161
0.103701 -0.415942 0.132437 160 249 161
0.102264 -0.0966815 0.358453 160 249 161
0.0995999 -0.320988 0.300443 160 249 161
0.100704 -0.379 0.194221 160 249 161
0.110915 -0.382265 0.109404 160 249 161
0.1017 -0.37561 0.243614 160 249 161
0.0958856 -0.21971 0.306316 160 249 161
0.100075 -0.369324 0.326414 160 249 161
0.0887247 0.0142379 0.213638 160 249 161
0.0975646 -0.216825 0.176464 160 249 161
0.100679 -0.397226 0.141301 160 249 161
0.0964148 -0.266479 0.227233 160 249 161
0.0914298 0.0307785 0.143569 160 249 161
0.0984329 -0.0673616 0.283103 160 249 161
0.0978161 -0.228484 0.187228 160 249 161
0.0968804 -0.267004 0.214842 160 249 161
0.0889552 -0.0117561 0.185477 160 249 161
0.0979786 -0.200055 0.334423 160 249 161
0.100584 -0.323471 0.339783 160 249 161
0.102306 -0.278262 0.164083 160 249 161
0.0948465 -0.414451 0.113504 192 234 140
0.314122 -0.0817798 0.097128 192 234 140
0.222201 -0.185201 0.095287 192 234 140
0.314624 -0.285338 0.101757 192 234 140
0.273504 -0.0996096 0.0943803 192 234 140
0.35898 -0.132603 0.104901 192 234 140
0.183734 -0.166451 0.0959941 192 234 140
0.264768 -0.268343 0.0976384 192 234 140
0.165842 -0.347473 0.0988184 192 234 140
0.162206 -0.130606 0.0938727 192 234 140
0.206052 -0.110488 0.092573 192 234 140
0.293283 -0.0840736 0.0949133 192 234 140
0.289826 -0.0864511 0.0947185 192 234 140
0.347116 -0.247852 0.104308 192 234 140
0.13399 -0.266149 0.101669 192 234 140
0.170987 -0.172747 0.0971203 192 234 140
0.341288 -0.356413 0.108429 192 234 140
0.347699 -0.0758952 0.10257 192 234 140
0.215335 -0.388518 0.103887 192 234 140
0.340898 -0.170654 0.103234 192 234 140
0.180153 -0.385347 0.103943 192 234 140
0.140134 -0.153129 0.0969865 192 234 140
0.242066 -0.210145 0.0963667 192 234 140
0.117363 -0.366226 0.106077 192 234 140
0.296301 -0.352776 0.104138 192 234 140
0.137454 -0.377614 0.106106 192 234 140
0.281393 -0.106614 0.0950109 192 234 140
0.267965 -0.372627 0.105387 192 234 140
0.332185 -0.231007 0.102718 192 234 140
0.125811 -0.313031 0.103081 192 234 140
0.20344 -0.221346 0.0959139 192 234 140
0.133131 -0.39872 0.108931 192 234 140
0.320597 -0.0984619 0.0985178 192 234 140
0.255791 -0.307054 0.0975644 192 234 140
0.351199 -0.0783357 0.103313 192 234 140
0.15152 -0.395565 0.107189 192 234 140
0.302265 -0.356576 0.104854 192 234 140
0.246393 -0.304633 0.0973847 192 234 140
0.233217 -0.378502 0.103224 192 234 140
0.231096 -0.304346 0.0972515 192 234 140
0.330238 -0.155074 0.101605 192 234 140
0.364889 -0.279347 0.105251 192 234 140
0.203536 -0.37903 0.102528 192 234 140
0.368328 -0.296023 0.10631 192 234 140
0.13496 -0.312956 0.101908 192 234 140
0.144219 -0.27522 0.100625 192 234 140
0.164447 -0.318483 0.0980026 192 234 140
0.258313 -0.291785 0.0971027 192 234 140
0.146174 -0.248668 0.100692 192 234 140
0.142534 -0.190458 0.0992434 192 234 140
0.132722 -0.153311 0.097536 192 234 140
0.35441 -0.310524 0.105452 192 234 140
0.10599 -0.412171 0.112187 192 234 140
0.287944 -0.260004 0.0994417 192 234 140
0.1931 -0.349043 0.0991969 192 234 140
0.14493 -0.373997 0.105133 192 234 140
0.24109 -0.285307 0.096976 192 234 140
0.226164 -0.175881 0.0953338 192 234 140
0.178479 -0.171806 0.0966965 192 234 140
0.250498 -0.165728 0.0953325 192 234 140
0.281838 -0.336512 0.101241 192 234 140
0.192002 -0.214954 0.096654 192 234 140
0.340901 -0.258854 0.104091 192 234 140
0.355362 -0.298945 0.105186 192 234 140
0.15871 -0.210483 0.0990213 192 234 140
0.340095 -0.0864562 0.101449 192 234 140
0.280393 -0.33403 0.100834 192 234 140
0.310896 -0.283008 0.101184 192 234 140
0.2178 -0.246721 0.0959319 192 234 140
0.129904 -0.391396 0.108308 192 234 140
0.168717 -0.342471 0.0981321 192 234 140
0.155554 -0.307268 0.0995423 192 234 140
0.195176 -0.317826 0.0972537 192 234 140
0.229344 -0.222557 0.0958597 192 234 140
0.261065 -0.239311 0.0978749 192 234 140
0.272317 -0.290726 0.0973876 192 234 140
0.362673 -0.348518 0.110081 192 234 140
0.114176 -0.25433 0.104293 192 234 140
0.233976 -0.114784 0.0928179 192 234 140
0.320926 -0.0947434 0.098479 192 234 140
0.180289 -0.156261 0.0955165 192 234 140
0.329253 -0.0921739 0.0999544 192 234 140
0.365055 -0.137926 0.105589 192 234 140
0.111693 -0.271494 0.104676 192 234 140
0.317553 -0.347945 0.104855 192 234 140
0.285885 -0.342327 0.102198 192 234 140
0.360721 -0.10922 0.104997 192 234 140
0.206896 -0.333503 0.0983212 192 234 140
0.192951 -0.389333 0.103651 192 234 140
0.240692 -0.361827 0.101498 192 234 140
0.140582 -0.377358 0.105906 192 234 140
0.228606 -0.330801 0.099264 192 234 140
0.2745 -0.338967 0.101263 192 234 140
0.182685 -0.189534 0.0970211 192 234 140
0.371603 -0.322567 0.108402 192 234 140
0.144121 -0.310658 0.100803 192 234 140
0.176914 -0.181001 0.097249 192 234 140
0.352934 -0.286433 0.104539 192 234 140
0.212972 -0.28202 0.095764 192 234 140
0.369647 -0.230682 0.105547 192 234 140
0.119616 -0.408282 0.110668 192 234 140
0.215775 -0.217994 0.095582 192 234 140
0.329887 -0.218555 0.102643 192 234 140
0.125598 -0.194269 0.10097 192 234 140
0.201365 -0.335048 0.0980887 192 234 140
0.110848 -0.0750302 0.0940717 192 234 140
0.299781 -0.180873 0.0993345 192 234 140
0.326069 -0.110353 0.0997923 192 234 140
0.354145 -0.274334 0.104535 192 234 140
0.0745138 -0.421302 0.116919 192 234 140
0.31098 -0.166442 0.0995659 192 234 140
0.242191 -0.0569906 0.0913255 192 234 140
0.215928 -0.294131 0.0960163 192 234 140
0.159589 -0.320947 0.0983806 192 234 140
0.170653 -0.377117 0.103849 192 234 140
0.187142 -0.293075 0.0970257 192 234 140
0.358503 -0.253171 0.105237 192 234 140
0.295789 -0.353172 0.104166 192 234 140
0.353184 -0.353889 0.109755 192 234 140
0.156896 -0.384971 0.105892 192 234 140
0.209099 -0.296338 0.0961541 192 234 140
0.35207 -0.153154 0.104053 192 234 140
0.219265 -0.331729 0.0989389 192 234 140
0.127046 -0.374382 0.106139 192 234 140
0.304037 -0.0789928 0.0959213 192 234 140
0.306708 -0.273624 0.100378 192 234 140
0.253237 -0.231214 0.0972722 192 234 140
0.254805 -0.306184 0.0974974 192 234 140
0.185743 -0.361133 0.100683 192 234 140
0.33249 -0.224433 0.102817 192 234 140
0.240992 -0.0610712 0.0912894 192 234 140
0.364347 -0.139762 0.105553 192 234 140
0.20532 -0.202856 0.095886 192 234 140
0.226042 -0.305523 0.0970597 192 234 140
0.353531 -0.178752 0.104313 192 234 140
0.235288 -0.161559 0.0951375 192 234 140
0.204613 -0.342986 0.0992475 192 234 140
0.33535 -0.333015 0.104964 192 234 140
0.226813 -0.281698 0.0962206 192 234 140
0.302094 -0.331389 0.102329 192 234 140
0.310845 -0.159725 0.0993454 192 234 140
0.292289 -0.15923 0.0978608 192 234 140
0.360859 -0.228361 0.104966 192 234 140
0.088544 -0.39988 0.112213 192 234 140
0.368105 -0.159194 0.105898 192 234 140
0.205207 -0.372893 0.102193 192 234 140
0.118683 -0.323304 0.104095 192 234 140
0.20842 -0.366601 0.10183 192 234 140
0.178335 -0.396891 0.105341 192 234 140
0.281996 -0.311101 0.0989856 192 234 140
0.117517 -0.395865 0.109563 192 234 140
0.336879 -0.332251 0.104998 192 234 140
0.114712 -0.300072 0.104487 192 234 140
0.209735 -0.230459 0.0957463 192 234 140
0.278389 -0.29468 0.0979592 192 234 140
0.115754 -0.315234 0.104474 192 234 140
0.358871 -0.34536 0.109204 192 234 140
0.355206 -0.310881 0.105544 192 234 140
0.343082 -0.170116 0.103454 192 234 140
0.293281 -0.194551 0.0994002 192 234 140
0.363954 -0.134332 0.105465 192 234 140
0.327088 -0.173528 0.101546 192 234 140
0.169808 -0.202854 0.0979886 192 234 140
0.158793 -0.338938 0.0989416 192 234 140
0.158808 -0.300517 0.0993787 192 234 140
0.159864 -0.223435 0.0992099 192 234 140
0.321541 -0.266867 0.102096 192 234 140
0.257952 -0.0811419 0.0924326 192 234 140
0.138473 -0.367611 0.104511 192 234 140
0.335667 -0.318599 0.103867 192 234 140
0.185495 -0.06481 0.0908642 192 234 140
0.250363 -0.273853 0.0972394 192 234 140
0.311749 -0.268631 0.100946 192 234 140
0.243783 -0.220099 0.0966455 192 234 140
0.299854 -0.267866 0.0997194 192 234 140
0.204249 -0.0517401 0.0902652 192 234 140
0.130457 -0.101823 0.0942082 192 234 140
0.196514 -0.0516903 0.0902837 192 234 140
0.315173 -0.218697 0.101032 192 234 140
