ply
format ascii 1.0
comment Created by Open3D
element vertex 1153
property double x
property double y
property double z
property uchar red
property uchar green
property uchar blue
end_header
0.0101313 -0.248994 -0.235455 192 234 140
-0.222232 -0.231457 -0.229619 192 234 140
0.0144951 -0.461673 -0.238969 192 234 140
0.18771 -0.217639 -0.230794 192 234 140
0.280735 -0.445776 -0.236973 192 234 140
0.188964 -0.0348382 -0.232649 192 234 140
-0.135965 -0.294509 -0.22925 192 234 140
0.247074 -0.335196 -0.231553 192 234 140
0.0141619 -0.208957 -0.238187 192 234 140
-0.0127656 -0.418524 -0.235991 192 234 140
0.114547 -0.312408 -0.2383 192 234 140
0.323544 -0.127341 -0.145147 192 234 140
-0.19204 -0.0430473 -0.235475 192 234 140
0.00472703 -0.120159 -0.238689 192 234 140
0.327907 -0.443916 -0.0650831 192 234 140
0.164511 -0.0736309 -0.232692 192 234 140
-0.205575 -0.0392608 -0.235458 192 234 140
0.125524 -0.361213 -0.239467 192 234 140
0.276065 -0.452422 -0.23736 192 234 140
0.325206 -0.320056 -0.0307254 192 234 140
-0.13605 -0.482885 -0.229085 192 234 140
0.0220089 -0.0256082 -0.23641 192 234 140
-0.101601 -0.312034 -0.230111 192 234 140
-0.252898 -0.471009 -0.23185 192 234 140
0.220174 -0.365555 -0.23195 192 234 140
0.252073 -0.475043 -0.240558 192 234 140
-0.12214 -0.176875 -0.234553 192 234 140
0.333001 -0.431165 0.045034 192 234 140
0.276411 -0.205611 -0.231962 192 234 140
-0.163526 -0.411439 -0.235448 192 234 140
0.119757 -0.475812 -0.242699 192 234 140
-0.147799 -0.100388 -0.235135 192 234 140
0.0933701 -0.193131 -0.238261 192 234 140
-0.263677 -0.432505 -0.238774 192 234 140
-0.156192 -0.00663375 -0.235787 192 234 140
0.209201 -0.479994 -0.236429 192 234 140
0.265494 -0.431817 -0.235982 192 234 140
-0.145557 -0.00976591 -0.235865 192 234 140
0.138955 -0.436836 -0.238266 192 234 140
0.122216 -0.329988 -0.238896 192 234 140
-0.138831 -0.476872 -0.237314 192 234 140
0.174913 -0.301219 -0.232795 192 234 140
0.076781 -0.178506 -0.238359 192 234 140
-0.227668 -0.141119 -0.23506 192 234 140
-0.161532 -0.120649 -0.234847 192 234 140
0.325885 -0.187512 -0.0311666 192 234 140
-0.159382 -0.361313 -0.231771 192 234 140
-0.148509 -0.0630361 -0.235537 192 234 140
-0.0300018 -0.478123 -0.237962 192 234 140
-0.281405 -0.448167 -0.236076 192 234 140
0.295946 -0.384338 -0.231786 192 234 140
0.223926 -0.12999 -0.234747 192 234 140
0.158582 -0.00908031 -0.23268 192 234 140
-0.15718 -0.331448 -0.230162 192 234 140
0.026883 -0.244332 -0.236035 192 234 140
-0.0920239 -0.447693 -0.237312 192 234 140
-0.162664 -0.396277 -0.234249 192 234 140
-0.0163702 -0.453205 -0.238448 192 234 140
0.223316 -0.383684 -0.232368 192 234 140
0.154421 -0.455608 -0.237544 192 234 140
0.316485 -0.461196 -0.213543 192 234 140
0.276065 -0.299567 -0.231924 192 234 140
-0.0148564 -0.216911 -0.237071 192 234 140
0.144435 -0.446285 -0.238061 192 234 140
0.0959817 -0.429747 -0.239164 192 234 140
0.31872 -0.107014 -0.181076 192 234 140
0.232779 -0.403469 -0.233204 192 234 140
-0.292669 -0.456302 -0.229839 192 234 140
0.244266 -0.212655 -0.23036 192 234 140
0.182941 -0.0593408 -0.232509 192 234 140
0.302628 -0.179011 -0.214299 192 234 140
0.331585 -0.325439 0.0619527 192 234 140
-0.0484802 -0.377694 -0.233034 192 234 140
0.318364 -0.453525 -0.201261 192 234 140
0.0852713 -0.147981 -0.237281 192 234 140
-0.231781 -0.299015 -0.229412 192 234 140
0.325424 -0.43786 -0.115339 192 234 140
0.0565837 -0.0222296 -0.23371 192 234 140
0.31456 -0.477793 -0.204426 192 234 140
0.127336 -0.398342 -0.239107 192 234 140
0.320541 -0.405535 -0.186893 192 234 140
-0.221359 -0.212131 -0.231637 192 234 140
0.324261 -0.0226708 -0.173296 192 234 140
0.21338 -0.248293 -0.229232 192 234 140
0.323232 -0.0433532 -0.17328 192 234 140
0.0787757 -0.0490344 -0.234407 192 234 140
0.0408131 -0.341503 -0.236576 192 234 140
0.313839 -0.397686 -0.217478 192 234 140
0.182388 -0.295413 -0.232366 192 234 140
-0.185288 -0.083595 -0.234987 192 234 140
-0.201548 -0.374777 -0.23327 192 234 140
0.0748014 -0.478562 -0.240938 192 234 140
0.304585 -0.388355 -0.2298 192 234 140
0.324527 -0.419422 -0.145636 192 234 140
-0.251556 -0.422882 -0.236439 192 234 140
0.186593 -0.0721914 -0.232627 192 234 140
0.291586 0.00699607 -0.236196 192 234 140
0.282328 0.0129876 -0.240024 192 234 140
-0.125236 -0.421946 -0.235565 192 234 140
0.174571 -0.459008 -0.236485 192 234 140
0.284614 -0.270606 -0.231114 192 234 140
-0.0505052 -0.259489 -0.232313 192 234 140
-0.189161 -0.121121 -0.234838 192 234 140
-0.260007 -0.261313 -0.228389 192 234 140
-0.0278104 -0.312222 -0.23235 192 234 140
-0.165138 -0.465603 -0.240292 192 234 140
0.286982 -0.479515 -0.235041 192 234 140
0.266721 -0.174616 -0.234117 192 234 140
0.044652 -0.467373 -0.239292 192 234 140
0.0380661 -0.376613 -0.23729 192 234 140
0.311494 -0.012202 -0.207474 192 234 140
-0.153153 -0.324027 -0.229881 192 234 140
0.21108 -0.48055 -0.235757 192 234 140
-0.0539198 -0.0614968 -0.237776 192 234 140
0.300728 -0.0415473 -0.224022 192 234 140
-0.126341 -0.435243 -0.236718 192 234 140
0.305806 -0.191659 -0.206793 192 234 140
0.316269 -0.28514 -0.169909 192 234 140
0.245273 -0.468797 -0.239587 192 234 140
0.314454 -0.164942 -0.189756 192 234 140
0.235462 -0.212542 -0.230078 192 234 140
0.246368 -0.0663408 -0.236938 192 234 140
0.0993351 -0.227672 -0.237052 192 234 140
-0.084897 -0.192106 -0.235288 192 234 140
0.178212 -0.119032 -0.233062 192 234 140
-0.0989166 -0.441857 -0.237111 192 234 140
0.225392 0.0138731 -0.236466 192 234 140
-0.100525 -0.299155 -0.230139 192 234 140
0.325441 -0.189817 -0.0370491 192 234 140
-0.160129 -0.0626484 -0.235431 192 234 140
-0.00320568 -0.463202 -0.239403 192 234 140
-0.149889 -0.0409519 -0.235747 192 234 140
0.241041 0.00188711 -0.237509 192 234 140
0.324212 -0.211541 -0.0402189 192 234 140
0.0126867 -0.24238 -0.235982 192 234 140
0.22066 -0.443177 -0.235161 192 234 140
-0.0584857 -0.384485 -0.233332 192 234 140
-0.0165067 -0.0314931 -0.23754 192 234 140
0.0427965 -0.183374 -0.238889 192 234 140
-0.104376 -0.274585 -0.229463 192 234 140
0.114437 -0.273947 -0.236289 192 234 140
-0.111476 -0.0468441 -0.236442 192 234 140
0.111093 -0.475755 -0.242569 192 234 140
-0.100695 -0.242727 -0.231908 192 234 140
0.320027 -0.445725 -0.189759 192 234 140
-0.115808 -0.456523 -0.239247 192 234 140
-0.10096 -0.331088 -0.230052 192 234 140
0.319771 -0.330405 -0.157304 192 234 140
0.321359 -0.384915 -0.172726 192 234 140
0.264636 -0.0511697 -0.238555 192 234 140
0.159685 -0.414957 -0.236401 192 234 140
0.0727288 -0.08719 -0.235495 192 234 140
0.321377 -0.468644 -0.113103 192 234 140
0.320594 -0.22155 -0.129432 192 234 140
-0.185135 -0.446132 -0.238936 192 234 140
-0.187945 -0.347721 -0.231318 192 234 140
0.261746 -0.154274 -0.235458 192 234 140
0.0372606 -0.448227 -0.238198 192 234 140
0.137613 -0.472756 -0.241518 192 234 140
0.180615 -0.166513 -0.233614 192 234 140
0.333573 -0.432525 0.0725829 192 234 140
0.0715912 -0.181804 -0.238561 192 234 140
-0.0177282 -0.346568 -0.233548 192 234 140
-0.0793842 -0.243754 -0.232538 192 234 140
0.253407 -0.393239 -0.233633 192 234 140
0.222656 -0.424654 -0.233911 192 234 140
0.116696 -0.133887 -0.235368 192 234 140
0.164797 -0.0878453 -0.232765 192 234 140
0.159919 -0.000461906 -0.232568 192 234 140
0.14163 -0.0514342 -0.232744 192 234 140
-0.0960912 -0.00770017 -0.236726 192 234 140
-0.116154 -0.403527 -0.234183 192 234 140
0.246416 -0.330714 -0.231413 192 234 140
0.261584 -0.448864 -0.236956 192 234 140
0.307274 -0.295736 -0.206968 192 234 140
0.208148 -0.173459 -0.231918 192 234 140
0.272236 -0.139163 -0.236604 192 234 140
-0.0873694 -0.3168 -0.230248 192 234 140
0.305812 -0.333063 -0.220421 192 234 140
0.117031 -0.43555 -0.239684 192 234 140
-0.024892 -0.0678643 -0.238295 192 234 140
0.0518976 -0.467538 -0.239378 192 234 140
0.235564 -0.191587 -0.231397 192 234 140
0.230384 -0.159796 -0.233563 192 234 140
0.00253286 -0.408129 -0.235967 192 234 140
-0.146706 -0.484829 -0.22949 192 234 140
0.2844 -0.22695 -0.230988 192 234 140
-0.0583547 -0.00574144 -0.236992 192 234 140
0.0775845 -0.279295 -0.237525 192 234 140
0.218788 -0.25933 -0.229522 192 234 140
-0.235489 -0.347092 -0.236268 224 210 119
-0.0836341 -0.0567118 -0.245705 224 210 119
-0.0318957 -0.128943 -0.244201 224 210 119
-0.414123 -0.0466514 -0.261543 224 210 119
-0.282295 -0.177736 -0.244034 224 210 119
-0.296877 -0.203727 -0.245213 224 210 119
-0.280475 -0.277287 -0.241291 224 210 119
-0.354906 -0.25027 -0.245823 224 210 119
-0.270915 -0.395356 -0.258276 224 210 119
0.150768 -0.242875 -0.240721 224 210 119
-0.436661 -0.0246315 -0.271323 224 210 119
-0.384953 -0.0655744 -0.267274 224 210 119
0.0498566 -0.365749 -0.238834 224 210 119
-0.0878439 -0.438219 -0.244048 224 210 119
-0.118801 -0.017461 -0.249235 224 210 119
-0.222858 -0.0206644 -0.246302 224 210 119
-0.451177 -0.0189878 -0.266595 224 210 119
-0.092662 -0.268664 -0.245199 224 210 119
-0.255533 -0.222441 -0.242234 224 210 119
-0.172814 -0.0158092 -0.250411 224 210 119
-0.121438 -0.192676 -0.243377 224 210 119
-0.0325122 -0.370662 -0.242825 224 210 119
-0.332983 -0.259408 -0.24578 224 210 119
-0.361033 -0.166438 -0.246866 224 210 119
0.0996794 -0.414516 -0.238644 224 210 119
-0.324646 -0.377871 -0.245492 224 210 119
0.0159843 -0.292801 -0.242757 224 210 119
0.112802 -0.106642 -0.247664 224 210 119
-0.332072 -0.0439429 -0.249386 224 210 119
-0.33848 -0.0174304 -0.253028 224 210 119
-0.336503 -0.293112 -0.265975 224 210 119
-0.13782 -0.073911 -0.253215 224 210 119
-0.274571 -0.159779 -0.244246 224 210 119
-0.181755 -0.346935 -0.237298 224 210 119
-0.353622 -0.412482 -0.249977 224 210 119
-0.192707 -0.420077 -0.239061 224 210 119
0.179967 -0.19169 -0.245824 224 210 119
0.0349934 -0.203198 -0.243225 224 210 119
-0.166095 -0.0685476 -0.241467 224 210 119
-0.0527274 -0.264729 -0.245609 224 210 119
-0.396237 -0.385876 -0.24997 224 210 119
0.145536 -0.0262425 -0.255321 224 210 119
-0.320439 -0.251772 -0.246229 224 210 119
-0.181527 -0.373066 -0.237515 224 210 119
-0.104802 -0.141818 -0.240979 224 210 119
-0.205198 -0.375722 -0.275652 224 210 119
-0.314383 -0.0801117 -0.245254 224 210 119
-0.364083 -0.190143 -0.246123 224 210 119
-0.41496 -0.288964 -0.252048 224 210 119
0.134567 -0.377055 -0.237189 224 210 119
-0.327046 -0.00312144 -0.254039 224 210 119
-0.239602 -0.390134 -0.26505 224 210 119
-0.15454 -0.376457 -0.276694 224 210 119
-0.213612 -0.415355 -0.238237 224 210 119
-0.385024 -0.183891 -0.248849 224 210 119
-0.3606 -0.396754 -0.250631 224 210 119
-0.0261745 -0.0832727 -0.246678 224 210 119
-0.258368 -0.22434 -0.242261 224 210 119
-0.453925 -0.044236 -0.259893 224 210 119
-0.353391 -0.234314 -0.250011 224 210 119
-0.333596 -0.105832 -0.245717 224 210 119
0.0883803 -0.233095 -0.241895 224 210 119
-0.281602 -0.291455 -0.24062 224 210 119
-0.301057 -0.0932038 -0.243995 224 210 119
0.121029 -0.038281 -0.253372 224 210 119
-0.356661 -0.295706 -0.257304 224 210 119
-0.30042 -0.00675155 -0.250989 224 210 119
-0.159184 -0.0448991 -0.242064 224 210 119
-0.0180468 -0.135384 -0.244213 224 210 119
0.088247 -0.14706 -0.246265 224 210 119
-0.294945 -0.284446 -0.242952 224 210 119
0.0823214 -0.0774766 -0.249321 224 210 119
0.0452198 -0.171221 -0.243709 224 210 119
-0.00912011 -0.165938 -0.243286 224 210 119
0.185348 -0.273754 -0.240578 224 210 119
-0.173924 -0.179881 -0.241744 224 210 119
-0.152919 -0.43249 -0.241268 224 210 119
0.0916677 -0.234699 -0.241745 224 210 119
-0.312457 -0.0204283 -0.249257 224 210 119
-0.288683 -0.371334 -0.276507 224 210 119
-0.228793 -0.0134493 -0.25038 224 210 119
-0.443195 -0.241874 -0.252279 224 210 119
-0.40985 -0.251374 -0.251162 224 210 119
-0.0307148 -0.0500542 -0.248433 224 210 119
-0.126272 -0.432427 -0.242124 224 210 119
-0.23365 -0.376681 -0.236388 224 210 119
0.0861356 -0.10624 -0.247362 224 210 119
0.0370329 -0.0767271 -0.247944 224 210 119
0.187367 -0.191637 -0.245845 224 210 119
-0.390978 -0.428026 -0.250464 224 210 119
0.118957 -0.162502 -0.246645 224 210 119
-0.164023 -0.159167 -0.240562 224 210 119
-0.280533 -0.373713 -0.274875 224 210 119
-0.296805 -0.328913 -0.241367 224 210 119
-0.28286 -0.393524 -0.238757 224 210 119
0.160359 -0.308999 -0.236754 224 210 119
-0.343713 -0.411963 -0.24847 224 210 119
-0.118747 -0.187528 -0.242885 224 210 119
-0.293316 -0.0102084 -0.251759 224 210 119
0.00850228 -0.302564 -0.242665 224 210 119
-0.314751 -0.0950611 -0.244475 224 210 119
-0.0695084 -0.0793698 -0.244275 224 210 119
-0.347393 -0.438931 -0.248004 224 210 119
-0.187517 -0.14608 -0.259829 224 210 119
-0.236218 -0.291526 -0.238404 224 210 119
-0.267514 -0.397758 -0.255832 224 210 119
-0.242328 -0.168291 -0.255559 224 210 119
0.17674 -0.110467 -0.247412 224 210 119
-0.0873704 -0.36776 -0.242258 224 210 119
-0.0262784 -0.319201 -0.243372 224 210 119
-0.132906 -0.0388564 -0.243447 224 210 119
-0.261004 -0.0112335 -0.248122 224 210 119
-0.437777 -0.322568 -0.251072 224 210 119
-0.435409 -0.240233 -0.253877 224 210 119
-0.196826 -0.440429 -0.239669 224 210 119
-0.285215 -0.287907 -0.241256 224 210 119
-0.251632 -0.163309 -0.242287 224 210 119
0.0547069 -0.258775 -0.242819 224 210 119
-0.255472 -0.161862 -0.242819 224 210 119
-0.210598 -0.0131769 -0.250853 224 210 119
0.155215 -0.0848778 -0.248815 224 210 119
-0.115417 -0.129069 -0.266011 224 210 119
-0.362395 -0.18354 -0.246217 224 210 119
0.0443668 -0.162053 -0.243902 224 210 119
0.0803968 -0.153038 -0.24549 224 210 119
-0.304129 -0.00657297 -0.251864 224 210 119
-0.0670544 -0.18516 -0.242825 224 210 119
0.0488069 -0.0941754 -0.24729 224 210 119
-0.14085 -0.340609 -0.240121 224 210 119
0.198354 -0.0892978 -0.248139 224 210 119
0.14168 -0.223408 -0.243013 224 210 119
-0.32675 -0.0907381 -0.245526 224 210 119
-0.26489 -0.37704 -0.273372 224 210 119
-0.37079 -0.322618 -0.247954 224 210 119
-0.2142 -0.231482 -0.242154 224 210 119
-0.450634 -0.0254785 -0.265826 224 210 119
0.149092 -0.177593 -0.246278 224 210 119
0.111033 -0.198564 -0.244596 224 210 119
-0.156413 -0.378033 -0.239124 224 210 119
-0.110234 -0.083183 -0.242586 224 210 119
-0.451772 -0.0499991 -0.261471 224 210 119
-0.391161 -0.209887 -0.249017 224 210 119
-0.286101 -0.0175867 -0.247052 224 210 119
0.00292105 -0.0421169 -0.248115 224 210 119
-0.205603 -0.0326131 -0.24412 224 210 119
0.146208 -0.204508 -0.245213 224 210 119
0.08089 -0.181178 -0.243385 224 210 119
-0.192783 -0.0181467 -0.251321 224 210 119
0.0745636 -0.102373 -0.247525 224 210 119
-0.410086 -0.327958 -0.251269 224 210 119
-0.198443 -0.160328 -0.256326 224 210 119
-0.288042 -0.322879 -0.240342 224 210 119
-0.388126 -0.182804 -0.249274 224 210 119
0.202247 -0.34118 -0.239265 224 210 119
-0.18562 -0.0612215 -0.241982 224 210 119
0.0408238 -0.233354 -0.2421 224 210 119
-0.0590066 -0.224734 -0.244677 224 210 119
-0.0588483 -0.325519 -0.244413 224 210 119
-0.359664 -0.426628 -0.25051 224 210 119
-0.435526 -0.316797 -0.251903 224 210 119
-0.0317723 -0.129108 -0.244196 224 210 119
-0.189943 -0.374274 -0.27705 224 210 119
-0.262112 -0.0256988 -0.245643 224 210 119
0.134501 -0.239393 -0.240306 224 210 119
0.0442138 -0.0478548 -0.248748 224 210 119
-0.454363 -0.0270009 -0.263762 224 210 119
-0.0137493 -0.05856 -0.248728 224 210 119
-0.00734727 -0.376429 -0.241421 224 210 119
-0.155566 -0.0200442 -0.25029 224 210 119
-0.145542 -0.285281 -0.24182 224 210 119
0.179031 -0.244391 -0.24174 224 210 119
-0.266236 -0.317813 -0.238829 224 210 119
-0.0533037 -0.315904 -0.244668 224 210 119
-0.280019 -0.324717 -0.239492 224 210 119
-0.417449 -0.206624 -0.253012 224 210 119
-0.357905 -0.202943 -0.245414 224 210 119
0.147335 -0.0654677 -0.250841 224 210 119
-0.0233647 -0.170809 -0.243063 224 210 119
-0.448388 -0.0618353 -0.261438 224 210 119
-0.164164 -0.307848 -0.27225 224 210 119
-0.096817 -0.400225 -0.242755 224 210 119
-0.176038 -0.176016 -0.24145 224 210 119
-0.275206 -0.37324 -0.238097 224 210 119
-0.0410366 -0.399877 -0.24352 224 210 119
-0.170718 -0.201153 -0.242876 224 210 119
-0.32889 -0.273249 -0.246697 224 210 119
-0.246198 -0.138845 -0.243277 224 210 119
0.0541729 -0.234011 -0.24243 224 210 119
-0.341765 -0.218283 -0.24412 224 210 119
-0.352138 -0.206805 -0.245825 224 210 119
0.0365114 -0.427045 -0.239533 224 210 119
0.198927 -0.385424 -0.237539 224 210 119
-0.225377 -0.0750618 -0.243542 224 210 119
-0.398261 -0.161256 -0.251406 224 210 119
0.157663 -0.0585768 -0.25192 224 210 119
0.0203334 -0.199497 -0.24284 224 210 119
-0.320735 -0.414106 -0.244132 224 210 119
-0.159362 -0.323076 -0.275263 224 210 119
-0.376206 -0.0176769 -0.270089 224 210 119
-0.114536 -0.0442196 -0.244492 224 210 119
-0.430795 -0.0656546 -0.261631 224 210 119
-0.0255347 -0.219542 -0.242653 224 210 119
-0.0291298 -0.425378 -0.243959 224 210 119
-0.18978 -0.357251 -0.236964 224 210 119
-0.0729483 -0.0411948 -0.246445 224 210 119
-0.432522 -0.167244 -0.256572 224 210 119
-0.45173 -0.0325609 -0.264209 224 210 119
-0.157613 -0.370182 -0.280065 224 210 119
0.100601 -0.299284 -0.240105 224 210 119
-0.345711 -0.371128 -0.249453 224 210 119
0.115143 -0.0752827 -0.249616 224 210 119
0.086574 -0.410104 -0.23848 224 210 119
-0.120856 -0.0626575 -0.24361 224 210 119
0.0302007 -0.154269 -0.244124 224 210 119
-0.0574113 -0.13337 -0.242789 224 210 119
0.0354048 -0.33938 -0.24016 224 210 119
0.0622925 -0.356237 -0.238972 224 210 119
-0.32739 -0.00895652 -0.252061 224 210 119
-0.0525044 -0.233751 -0.244649 224 210 119
-0.420595 -0.261127 -0.252229 224 210 119
0.00828138 -0.112736 -0.245992 224 210 119
-0.317907 -0.166465 -0.242866 224 210 119
-0.334595 -0.357519 -0.273834 224 210 119
-0.305911 -0.151863 -0.243015 224 210 119
0.095584 -0.109356 -0.247285 224 210 119
-0.200523 -0.0152256 -0.24801 224 210 119
-0.0613109 -0.0953112 -0.244123 224 210 119
-0.196132 -0.197297 -0.242447 224 210 119
-0.294781 -0.416758 -0.239683 224 210 119
0.0826432 -0.105963 -0.247351 224 210 119
-0.160239 -0.375472 -0.277139 224 210 119
-0.369043 -0.041074 -0.270098 224 210 119
0.0817103 -0.153914 -0.245533 224 210 119
-0.440094 -0.29803 -0.25213 224 210 119
0.0320628 -0.353686 -0.239744 224 210 119
-0.351513 -0.135915 -0.246634 224 210 119
0.172592 -0.156826 -0.24625 224 210 119
-0.419879 -0.345106 -0.251893 224 210 119
0.101839 -0.0464062 -0.252237 224 210 119
0.0378441 -0.194701 -0.243339 224 210 119
-0.347774 -0.184025 -0.244679 224 210 119
-0.244126 -0.205117 -0.241853 224 210 119
-0.412373 -0.290934 -0.251808 224 210 119
-0.367433 -0.0590287 -0.253675 224 210 119
-0.231688 -0.191748 -0.241574 224 210 119
-0.31107 -0.0342633 -0.247223 224 210 119
-0.400814 -0.291387 -0.250846 224 210 119
-0.109547 -0.358053 -0.241533 224 210 119
-0.333463 -0.175541 -0.246811 224 210 119
0.184628 -0.216908 -0.244949 224 210 119
-0.185336 -0.239457 -0.261304 224 210 119
-0.011327 -0.43278 -0.243303 224 210 119
-0.397859 -0.057807 -0.269237 224 210 119
-0.296629 -0.2808 -0.243458 224 210 119
0.0387479 -0.0898908 -0.247404 224 210 119
-0.0123803 -0.0703163 -0.248515 224 210 119
-0.0189082 -0.18766 -0.242652 224 210 119
-0.20954 -0.161659 -0.241011 224 210 119
-0.276562 -0.177602 -0.244147 224 210 119
0.153698 -0.268837 -0.238737 224 210 119
-0.389913 -0.198678 -0.249109 224 210 119
-0.233218 -0.313934 -0.237158 224 210 119
-0.260521 -0.246279 -0.24174 224 210 119
0.193364 -0.13989 -0.246513 224 210 119
0.00903029 -0.0936971 -0.247155 224 210 119
-0.155374 -0.180236 -0.260567 224 210 119
0.136654 -0.216424 -0.243612 224 210 119
-0.244077 -0.317076 -0.237492 224 210 119
-0.253163 -0.312291 -0.238161 224 210 119
0.0510965 -0.192629 -0.243673 224 210 119
-0.273064 -0.26383 -0.241231 224 210 119
-0.357736 -0.0691101 -0.266012 224 210 119
-0.280224 -0.0455924 -0.245586 224 210 119
0.132037 -0.350554 -0.23661 224 210 119
-0.297092 -0.0515915 -0.245726 224 210 119
-0.300232 -0.17935 -0.252411 224 210 119
-0.0873349 -0.37382 -0.242323 224 210 119
-0.118998 -0.0172902 -0.249648 224 210 119
-0.11098 -0.250852 -0.245315 224 210 119
0.0650948 -0.087916 -0.248125 224 210 119
-0.405607 -0.0483509 -0.270253 224 210 119
-0.264133 -0.121654 -0.244524 224 210 119
-0.378642 -0.00620628 -0.260123 224 210 119
-0.449323 -0.0433921 -0.263063 224 210 119
0.00555753 -0.0609222 -0.248932 224 210 119
0.0214486 -0.0486323 -0.248483 224 210 119
-0.261428 -0.0354851 -0.256178 224 210 119
-0.294394 -0.120847 -0.243281 224 210 119
-0.37166 -0.372372 -0.248884 224 210 119
-0.224607 -0.284602 -0.238471 224 210 119
-0.249409 -0.0175548 -0.249599 224 210 119
-0.429749 -0.14513 -0.2572 224 210 119
-0.246769 -0.330893 -0.237086 224 210 119
-0.179435 -0.159072 -0.240667 224 210 119
-0.321675 -0.0051799 -0.254174 224 210 119
-0.3266 -0.162975 -0.243132 224 210 119
-0.185296 -0.229501 -0.242002 224 210 119
-0.088052 -0.174087 -0.242055 224 210 119
0.16124 -0.0224527 -0.25583 224 210 119
-0.0742136 -0.250473 -0.246024 224 210 119
-0.379373 -0.345501 -0.248644 224 210 119
0.0945763 -0.171002 -0.245237 224 210 119
0.0692526 -0.109385 -0.247116 224 210 119
-0.343384 -0.422938 -0.248045 224 210 119
-0.121379 -0.0273469 -0.244718 224 210 119
-0.269025 -0.206495 -0.242856 224 210 119
-0.41942 -0.282665 -0.25242 224 210 119
-0.0399474 -0.117243 -0.244385 224 210 119
-0.0732641 -0.0181454 -0.249428 224 210 119
-0.0360433 -0.236568 -0.243995 224 210 119
-0.26032 -0.197795 -0.24198 224 210 119
-0.145719 -0.38011 -0.274827 224 210 119
-0.30882 -0.290831 -0.245012 224 210 119
-0.210148 -0.0810418 -0.241939 224 210 119
-0.433578 -0.27737 -0.253564 224 210 119
-0.240135 -0.0161521 -0.246189 224 210 119
-0.115996 -0.416752 -0.242131 224 210 119
0.0916625 -0.272424 -0.241383 224 210 119
-0.3162 -0.373082 -0.243921 224 210 119
-0.135554 -0.371306 -0.240088 224 210 119
-0.393948 -0.154842 -0.251231 224 210 119
0.1041 -0.210923 -0.242733 224 210 119
-0.0222052 -0.420826 -0.243568 224 210 119
0.138948 -0.314266 -0.237518 224 210 119
-0.346639 -0.300511 -0.246773 224 210 119
-0.236229 -0.390985 -0.264436 224 210 119
-0.388894 -0.001588 -0.267187 224 210 119
-0.416624 -0.33094 -0.251667 224 210 119
0.0157333 -0.430297 -0.241219 224 210 119
-0.340046 -0.341786 -0.248954 224 210 119
-0.262236 -0.154508 -0.243898 224 210 119
-0.454305 -0.0452333 -0.259288 224 210 119
-0.453487 -0.0319255 -0.263283 224 210 119
0.0485766 -0.102051 -0.246874 224 210 119
0.0399387 -0.0356902 -0.247859 224 210 119
-0.283942 -0.10337 -0.243591 224 210 119
0.0211197 -0.135252 -0.244915 224 210 119
-0.337215 -0.0399207 -0.250296 224 210 119
0.090723 -0.386358 -0.237882 224 210 119
-0.244642 -0.133633 -0.243361 224 210 119
-0.146429 -0.0360055 -0.242558 224 210 119
-0.281402 -0.242787 -0.243621 224 210 119
-0.437109 -0.258227 -0.252943 224 210 119
0.12012 -0.258934 -0.239484 224 210 119
0.140579 -0.118873 -0.247294 224 210 119
0.0993927 -0.206654 -0.242865 224 210 119
-0.325373 -0.00328298 -0.253769 224 210 119
-0.0351627 -0.378053 -0.243051 224 210 119
-0.391658 -0.318303 -0.249863 224 210 119
-0.24587 -0.0175573 -0.249627 224 210 119
-0.196173 -0.198295 -0.258591 224 210 119
0.19181 -0.237967 -0.243292 224 210 119
-0.00110502 -0.320272 -0.242397 224 210 119
-0.264389 -0.19365 -0.242347 224 210 119
0.0104394 -0.397253 -0.240396 224 210 119
-0.0188007 -0.271206 -0.24445 224 210 119
0.0402072 -0.151268 -0.244328 224 210 119
-0.225646 -0.441659 -0.238716 224 210 119
0.0393401 -0.164857 -0.243738 224 210 119
-0.070869 -0.133136 -0.242356 224 210 119
-0.401735 -0.342065 -0.250604 224 210 119
0.146695 -0.0495062 -0.253103 224 210 119
-0.0988228 -0.121346 -0.241678 224 210 119
-0.251709 -0.394256 -0.260873 224 210 119
-0.219604 -0.0491803 -0.253262 224 210 119
-0.124644 -0.345762 -0.240961 224 210 119
0.174725 -0.344768 -0.236706 224 210 119
-0.0835647 -0.163292 -0.241881 224 210 119
-0.351406 -0.326004 -0.247369 224 210 119
-0.029017 -0.283623 -0.244534 224 210 119
-0.263965 -0.381204 -0.270659 224 210 119
-0.18189 -0.288962 -0.239074 224 210 119
-0.306172 -0.245008 -0.260215 224 210 119
-0.117669 -0.0584903 -0.243991 224 210 119
0.139679 -0.207048 -0.244719 224 210 119
-0.400722 -0.38436 -0.250383 224 210 119
-0.0197051 -0.0915621 -0.246348 224 210 119
0.0504717 -0.384465 -0.238522 224 210 119
-0.204841 -0.393985 -0.262539 224 210 119
-0.403455 -0.267062 -0.250758 224 210 119
-0.12084 -0.081004 -0.242284 224 210 119
-0.130783 -0.196472 -0.243654 224 210 119
0.0389845 -0.0388858 -0.24794 224 210 119
0.172238 -0.200751 -0.24568 224 210 119
-0.263196 -0.0565803 -0.257039 224 210 119
-0.162803 -0.409389 -0.240882 224 210 119
0.0558014 -0.348903 -0.239315 224 210 119
-0.0599271 -0.209535 -0.244046 224 210 119
-0.38816 -0.267485 -0.249543 224 210 119
-0.23765 -0.103808 -0.244153 224 210 119
0.053226 -0.104488 -0.247073 224 210 119
-0.329481 -0.232062 -0.244604 224 210 119
0.104589 -0.242802 -0.240784 224 210 119
-0.0699771 -0.376223 -0.243009 224 210 119
0.148288 -0.302776 -0.237254 224 210 119
0.100226 -0.0913619 -0.24833 224 210 119
-0.0377955 -0.257972 -0.245184 224 210 119
-0.151406 -0.193899 -0.243008 224 210 119
-0.323558 -0.0352943 -0.248936 224 210 119
0.178855 -0.105315 -0.247633 224 210 119
0.186864 -0.0669971 -0.250783 224 210 119
-0.0885092 -0.165898 -0.241798 224 210 119
-0.235606 -0.377095 -0.274107 224 210 119
0.204077 -0.103008 -0.247276 224 210 119
-0.00841197 -0.0695736 -0.248568 224 210 119
-0.0840642 -0.343719 -0.242765 224 210 119
-0.430164 -0.0159854 -0.273526 224 210 119
0.0372829 -0.186592 -0.243383 224 210 119
-0.244927 -0.0220672 -0.245365 224 210 119
-0.161469 -0.218757 -0.24368 224 210 119
-0.316965 -0.375039 -0.244058 224 210 119
-0.0646167 -0.237738 -0.245452 224 210 119
0.157261 -0.220142 -0.244023 224 210 119
-0.0101182 -0.277234 -0.244033 224 210 119
-0.25404 -0.0151726 -0.249477 224 210 119
-0.307018 -0.179932 -0.243048 224 210 119
-0.281411 -0.188226 -0.244494 224 210 119
-0.396712 -0.397185 -0.250076 224 210 119
0.149535 -0.164367 -0.246218 224 210 119
-0.454549 -0.0247717 -0.264032 224 210 119
0.120142 -0.312353 -0.238679 224 210 119
-0.223627 -0.112492 -0.242137 224 210 119
-0.181165 -0.0831499 -0.240934 224 210 119
-0.00697494 -0.429792 -0.242939 224 210 119
-0.342053 -0.0272695 -0.252418 224 210 119
-0.279714 -0.381705 -0.23846 224 210 119
-0.310579 -0.406943 -0.242201 224 210 119
-0.278597 -0.16738 -0.243993 224 210 119
-0.209692 -0.0917317 -0.263326 224 210 119
-0.338964 -0.319391 -0.248068 224 210 119
-0.195488 -0.0206812 -0.245078 224 210 119
-0.356554 -0.0381482 -0.253272 224 210 119
0.162709 -0.388818 -0.237547 224 210 119
-0.263136 -0.214505 -0.242474 224 210 119
-0.191409 -0.209868 -0.242495 224 210 119
-0.00865715 -0.0439568 -0.248313 224 210 119
-0.178619 -0.375845 -0.237722 224 210 119
0.139155 -0.0213183 -0.254905 224 210 119
-0.224348 -0.406734 -0.237487 224 210 119
0.149535 -0.236902 -0.241582 224 210 119
-0.146655 -0.109201 -0.265434 224 210 119
-0.356823 -0.355794 -0.248596 224 210 119
-0.0947115 -0.108751 -0.242247 224 210 119
-0.324557 -0.0624227 -0.247324 224 210 119
-0.0421031 -0.322678 -0.243997 224 210 119
-0.278587 -0.10086 -0.243851 224 210 119
-0.369338 -0.197492 -0.246504 224 210 119
-0.353235 -0.370125 -0.268653 224 210 119
-0.195483 -0.375789 -0.237032 224 210 119
-0.197667 -0.406131 -0.238234 224 210 119
-0.0636794 -0.25537 -0.245875 224 210 119
-0.246405 -0.183513 -0.241001 224 210 119
-0.175238 -0.250985 -0.241266 224 210 119
-0.438776 -0.256828 -0.252757 224 210 119
-0.397879 -0.38256 -0.250111 224 210 119
-0.174934 -0.214484 -0.242852 224 210 119
-0.118679 -0.437093 -0.242614 224 210 119
-0.164507 -0.244256 -0.242498 224 210 119
0.0243793 -0.0564081 -0.248789 224 210 119
-0.00669991 -0.0356307 -0.247565 224 210 119
0.078567 -0.393666 -0.238085 224 210 119
-0.0589886 -0.36111 -0.243119 224 210 119
-0.00428153 -0.379259 -0.24126 224 210 119
-0.392766 -0.42334 -0.250451 224 210 119
-0.372472 -0.0999399 -0.261917 224 210 119
-0.260275 -0.0933636 -0.244455 224 210 119
-0.0628515 -0.204768 -0.243881 224 210 119
0.113263 -0.413393 -0.238503 224 210 119
-0.401865 -0.108039 -0.255116 224 210 119
-0.350828 -0.120753 -0.25854 224 210 119
-0.0727205 -0.0612909 -0.245799 224 210 119
-0.343469 -0.0645756 -0.249747 224 210 119
0.127172 -0.0694177 -0.250166 224 210 119
-0.297213 -0.18999 -0.243999 224 210 119
0.17144 -0.240429 -0.24182 224 210 119
-0.368965 -0.114724 -0.258485 224 210 119
-0.133102 -0.372826 -0.240247 224 210 119
0.031337 -0.396698 -0.239199 224 210 119
0.0446366 -0.0979552 -0.246962 224 210 119
0.197872 -0.105944 -0.247274 224 210 119
-0.0601081 -0.0904514 -0.244313 224 210 119
-0.0572792 -0.224611 -0.244563 224 210 119
0.162994 -0.0188424 -0.255937 224 210 119
-0.400654 -0.0521049 -0.259401 224 210 119
-0.353087 -0.23319 -0.249977 224 210 119
-0.0570685 -0.265556 -0.245693 224 210 119
-0.212391 -0.0360364 -0.244377 224 210 119
-0.303029 -0.401272 -0.240828 224 210 119
-0.369949 -0.415713 -0.250665 224 210 119
-0.218753 -0.409039 -0.244026 224 210 119
-0.0578166 -0.0750139 -0.245354 224 210 119
-0.394472 -0.0999138 -0.254718 224 210 119
-0.154324 -0.184114 -0.242109 224 210 119
-0.377783 -0.0676862 -0.266437 224 210 119
0.0984911 -0.225555 -0.241737 224 210 119
-0.334762 -0.440534 -0.245665 224 210 119
-0.418265 -0.383973 -0.251733 224 210 119
-0.188249 -0.0148832 -0.250666 224 210 119
-0.224201 -0.405636 -0.237434 224 210 119
-0.0645397 -0.183684 -0.242771 224 210 119
-0.263748 -0.199201 -0.242312 224 210 119
-0.0963397 -0.36046 -0.241996 224 210 119
-0.155425 -0.31573 -0.273154 224 210 119
-0.372965 -0.322084 -0.248127 224 210 119
0.00207006 -0.376656 -0.240977 224 210 119
-0.262398 -0.222226 -0.242382 224 210 119
-0.217248 -0.181853 -0.241671 224 210 119
-0.4173 -0.181315 -0.253777 224 210 119
-0.28704 -0.439122 -0.239162 224 210 119
-0.0520696 -0.017707 -0.251795 224 210 119
-0.057652 -0.240803 -0.245602 224 210 119
-0.312193 -0.375224 -0.272263 224 210 119
0.194039 -0.485392 0.155015 255 178 96
-0.027047 -0.48806 0.0833346 255 178 96
0.00433827 -0.488505 -0.0453923 255 178 96
-0.162189 -0.487745 0.0696494 255 178 96
0.264709 -0.488693 -0.0163233 255 178 96
-0.295622 -0.487317 -0.15683 255 178 96
-0.392035 -0.487041 -0.187835 255 178 96
-0.0919941 -0.488293 -0.0602697 255 178 96
0.0687681 -0.48957 -0.115732 255 178 96
0.166044 -0.48804 0.160527 255 178 96
0.114979 -0.488991 0.016233 255 178 96
0.21536 -0.488939 -0.059164 255 178 96
-0.0411325 -0.488331 0.0235199 255 178 96
-0.215804 -0.487185 0.000807822 255 178 96
-0.201553 -0.487081 0.097443 255 178 96
-0.111712 -0.487896 -0.0190672 255 178 96
-0.169191 -0.485272 0.155086 255 178 96
-0.0790813 -0.488634 -0.149848 255 178 96
-0.0834034 -0.487112 0.118209 255 178 96
-0.146387 -0.459404 -0.22581 255 178 96
0.253461 -0.488658 -0.00995675 255 178 96
-0.0443899 -0.487211 0.118956 255 178 96
-0.119041 -0.488312 -0.090983 255 178 96
0.0741107 -0.488803 0.00512625 255 178 96
-0.330778 -0.487484 -0.127382 255 178 96
-0.246067 -0.479241 -0.214057 255 178 96
-0.0508945 -0.458004 -0.19366 255 178 96
-0.0862228 -0.488203 0.0564225 255 178 96
-0.0530001 -0.488309 0.0349078 255 178 96
0.135192 -0.467553 -0.213998 255 178 96
-0.34273 -0.487518 -0.119813 255 178 96
0.303624 -0.488839 0.00120774 255 178 96
-0.177349 -0.482076 -0.211085 255 178 96
-0.0688101 -0.48873 -0.138266 255 178 96
0.0732997 -0.488623 -0.0285169 255 178 96
0.28461 -0.48902 -0.110335 255 178 96
0.0254586 -0.46905 -0.222833 255 178 96
-0.210172 -0.487507 -0.0574474 255 178 96
-0.12372 -0.488331 -0.111198 255 178 96
0.253845 -0.489007 -0.089134 255 178 96
-0.139339 -0.487654 0.00279798 255 178 96
-0.257342 -0.477852 0.175407 255 178 96
0.0878184 -0.489496 -0.133497 255 178 96
0.138882 -0.462312 -0.146902 255 178 96
0.226698 -0.488847 0.0713493 255 178 96
-0.258805 -0.485742 0.143892 255 178 96
-0.286043 -0.4875 -0.0759613 255 178 96
-0.214284 -0.487064 0.0922474 255 178 96
0.291801 -0.488754 7.7635e-06 255 178 96
-0.234922 -0.487521 -0.0780782 255 178 96
0.19683 -0.489066 -0.0340554 255 178 96
-0.29882 -0.487511 -0.119074 255 178 96
-0.127666 -0.483033 0.165299 255 178 96
0.25072 -0.488724 0.040904 255 178 96
-0.382085 -0.4821 -0.215267 255 178 96
-0.200808 -0.486076 0.148483 255 178 96
-0.107717 -0.48843 -0.138562 255 178 96
-0.0420884 -0.488295 -0.00326004 255 178 96
-0.115204 -0.487863 0.00339419 255 178 96
-0.104799 -0.48829 -0.181118 255 178 96
-0.0452084 -0.472471 -0.211961 255 178 96
-0.0640786 -0.487401 0.106179 255 178 96
-0.163978 -0.471299 -0.218609 255 178 96
-0.195787 -0.487356 0.0438051 255 178 96
-0.118925 -0.459603 -0.225201 255 178 96
0.0898542 -0.489206 -0.0796517 255 178 96
0.276547 -0.488981 -0.112578 255 178 96
0.0871522 -0.488107 0.12477 255 178 96
-0.282529 -0.486663 0.0702374 255 178 96
-0.388108 -0.487695 -0.0478997 255 178 96
-0.285138 -0.487179 0.00380343 255 178 96
-0.293367 -0.486486 0.0820489 255 178 96
0.00473903 -0.488508 0.026732 255 178 96
-0.208671 -0.486938 0.103008 255 178 96
-0.357073 -0.487283 -0.159674 255 178 96
-0.169932 -0.485834 0.15184 255 178 96
-0.000226282 -0.480013 0.185867 255 178 96
-0.171677 -0.487489 0.0871861 255 178 96
-0.0341691 -0.488337 0.0159799 255 178 96
-0.29529 -0.487378 -0.0443734 255 178 96
0.0262582 -0.469895 -0.238243 255 178 96
-0.275038 -0.486282 0.108299 255 178 96
0.198872 -0.487567 0.149461 255 178 96
-0.22741 -0.468927 -0.220811 255 178 96
0.174284 -0.483791 0.16687 255 178 96
0.057752 -0.465109 -0.199875 255 178 96
-0.241214 -0.487436 -0.0577016 255 178 96
-0.291101 -0.48733 -0.0339396 255 178 96
-0.0823875 -0.469501 0.206009 255 178 96
-0.225585 -0.486478 0.123884 255 178 96
-0.300537 -0.487175 0.0183127 255 178 96
-0.283283 -0.484334 0.16058 255 178 96
-0.0087839 -0.488945 -0.20014 255 178 96
-0.223483 -0.487518 -0.0672185 255 178 96
0.0814334 -0.489374 -0.0959466 255 178 96
-0.0237427 -0.462649 -0.212519 255 178 96
0.101741 -0.478974 -0.214756 255 178 96
0.171148 -0.487097 -0.195295 255 178 96
-0.0717884 -0.447281 -0.215116 255 178 96
-0.17571 -0.487347 0.000422038 255 178 96
-0.388823 -0.487639 -0.0831622 255 178 96
-0.349325 -0.487442 -0.135254 255 178 96
-0.299659 -0.460234 -0.232547 255 178 96
0.199745 -0.474606 -0.193545 255 178 96
0.0798509 -0.486479 0.165616 255 178 96
-0.181332 -0.486555 0.130601 255 178 96
-0.0651643 -0.462941 -0.208344 255 178 96
-0.358277 -0.486936 -0.200081 255 178 96
-0.354327 -0.465636 -0.233805 255 178 96
-0.270492 -0.487479 -0.0719689 255 178 96
-0.297466 -0.487263 -0.0132156 255 178 96
-0.263373 -0.486762 0.0758503 255 178 96
0.00686906 -0.48848 -0.0385952 255 178 96
-0.188844 -0.487258 0.0125896 255 178 96
-0.140946 -0.48778 0.082861 255 178 96
-0.357843 -0.487579 -0.0931975 255 178 96
-0.0790534 -0.488131 -0.0257843 255 178 96
-0.0112099 -0.487866 0.0975154 255 178 96
-0.369164 -0.47944 -0.217206 255 178 96
0.13194 -0.489406 -0.087415 255 178 96
0.233983 -0.488648 0.123651 255 178 96
-0.160741 -0.486795 0.124065 255 178 96
0.178559 -0.489318 -0.105388 255 178 96
-0.148589 -0.478776 -0.213927 255 178 96
-0.136315 -0.487146 0.112838 255 178 96
-0.184999 -0.487485 0.0476122 255 178 96
-0.30813 -0.485974 0.10004 255 178 96
-0.310818 -0.48726 0.0030157 255 178 96
-0.219237 -0.475323 -0.21628 255 178 96
-0.31086 -0.459584 -0.234265 255 178 96
0.185643 -0.48954 -0.183956 255 178 96
-0.343045 -0.486831 0.0423706 255 178 96
-0.362752 -0.487142 -0.179441 255 178 96
0.173559 -0.489285 -0.0859949 255 178 96
-0.356439 -0.487216 -0.16948 255 178 96
-0.242606 -0.486814 0.092005 255 178 96
-0.229171 -0.480713 0.179748 255 178 96
-0.109816 -0.476915 0.198254 255 178 96
-0.094714 -0.478161 0.189035 255 178 96
0.218711 -0.489151 -0.0992206 255 178 96
-0.115017 -0.488125 -0.058937 255 178 96
-0.348247 -0.487503 -0.123186 255 178 96
-0.163874 -0.48685 0.120622 255 178 96
-0.14469 -0.487634 0.0137402 255 178 96
0.0943809 -0.45411 -0.0836715 255 178 96
-0.181526 -0.473476 -0.216923 255 178 96
0.293592 -0.489055 -0.108791 255 178 96
-0.0531403 -0.488792 -0.0971818 255 178 96
-0.329755 -0.487481 -0.127907 255 178 96
-0.25054 -0.485632 0.149718 255 178 96
-0.379275 -0.48741 -0.13018 255 178 96
-0.0386945 -0.48895 -0.12106 255 178 96
-0.00363512 -0.468923 -0.227094 255 178 96
-0.0462041 -0.488894 -0.135067 255 178 96
0.132666 -0.488494 0.116756 255 178 96
-0.107637 -0.487508 0.0999639 255 178 96
0.00631988 -0.488414 -0.00296361 255 178 96
0.282876 -0.466943 -0.167296 255 178 96
-0.270356 -0.487072 0.0411133 255 178 96
-0.179594 -0.480118 0.184982 255 178 96
-0.222574 -0.48724 0.0576951 255 178 96
-0.343702 -0.486923 0.0367502 255 178 96
-0.124182 -0.488284 -0.0915239 255 178 96
-0.315779 -0.486666 0.0578695 255 178 96
-0.266298 -0.487233 -0.166912 255 178 96
-0.0458898 -0.457753 -0.212775 255 178 96
0.258039 -0.488668 0.0164457 255 178 96
-0.0215924 -0.441657 -0.0270604 255 178 96
0.0769511 -0.478184 0.191625 255 178 96
0.1238 -0.488916 -0.0240331 255 178 96
0.149843 -0.48922 -0.143379 255 178 96
-0.115693 -0.487138 0.116929 255 178 96
0.266012 -0.488918 -0.0781156 255 178 96
0.291269 -0.488752 0.00846374 255 178 96
0.212598 -0.488804 0.104943 255 178 96
-0.351487 -0.487298 0.00890185 255 178 96
-0.0566135 -0.488772 -0.150949 255 178 96
0.263629 -0.488948 -0.0816868 255 178 96
0.164539 -0.489119 -0.0305271 255 178 96
-0.116651 -0.488356 -0.115191 255 178 96
-0.00775069 -0.487309 0.126395 255 178 96
-0.350308 -0.471314 -0.225817 255 178 96
0.270466 -0.488724 0.0533051 255 178 96
0.27009 -0.488938 -0.0881625 255 178 96
0.0109068 -0.488546 0.0289187 255 178 96
-0.134807 -0.487855 0.0815476 255 178 96
-0.329572 -0.487524 -0.0514236 255 178 96
-0.214944 -0.483841 0.164675 255 178 96
-0.0987098 -0.488212 -0.0556729 255 178 96
-0.15261 -0.48754 -0.20565 255 178 96
0.0850086 -0.462481 0.221969 255 178 96
-0.0390771 -0.488388 0.0453178 255 178 96
-0.00695809 -0.455395 0.230343 255 178 96
0.0486008 -0.488818 0.0515916 255 178 96
-0.299801 -0.47596 0.165463 255 178 96
-0.268717 -0.487266 -0.032218 255 178 96
0.230476 -0.488709 0.0116108 255 178 96
0.0825773 -0.487542 0.154413 255 178 96
-0.388206 -0.487635 -0.0847749 255 178 96
0.10811 -0.48881 -0.0288403 255 178 96
0.16309 -0.489279 -0.135107 255 178 96
-0.314265 -0.480725 -0.214261 255 178 96
-0.221187 -0.478213 -0.214077 255 178 96
-0.327495 -0.487447 -0.0293596 255 178 96
-0.0215632 -0.465491 -0.209179 255 178 96
-0.327476 -0.487401 -0.0154814 255 178 96
0.0836096 -0.488689 0.091214 255 178 96
-0.266556 -0.487506 -0.081416 255 178 96
-0.246474 -0.487112 0.0447763 255 178 96
-0.333598 -0.487358 0.000904031 255 178 96
0.175661 -0.489137 -0.0482446 255 178 96
0.292829 -0.489507 -0.131614 255 178 96
0.18123 -0.489307 -0.104168 255 178 96
-0.194676 -0.487784 -0.136515 255 178 96
-0.200689 -0.485345 0.154817 255 178 96
-0.312047 -0.487348 -0.154289 255 178 96
-0.232793 -0.487388 -0.170392 255 178 96
0.139247 -0.488814 0.0916544 255 178 96
0.0250213 -0.488495 0.00973867 255 178 96
-0.0895636 -0.48294 0.161745 255 178 96
0.105086 -0.48879 -0.0263727 255 178 96
0.0761661 -0.488878 0.0388082 255 178 96
0.214729 -0.466098 0.174409 255 178 96
-0.0575407 -0.449839 0.237002 255 178 96
-0.0740312 -0.488452 -0.183369 255 178 96
-0.138609 -0.487646 -0.003834 255 178 96
-0.338983 -0.487176 0.0189889 255 178 96
-0.287546 -0.48724 -0.0161734 255 178 96
-0.233571 -0.487378 -0.0463644 255 178 96
0.139591 -0.465528 -0.185532 255 178 96
-0.240936 -0.455127 -0.232247 255 178 96
-0.00624853 -0.483307 0.165527 255 178 96
-0.353715 -0.487255 -0.164352 255 178 96
-0.385223 -0.487657 -0.0300731 255 178 96
-0.391888 -0.487344 -0.13467 255 178 96
0.0241008 -0.488976 -0.0789775 255 178 96
-0.0331912 -0.488998 -0.111774 255 178 96
-0.158983 -0.488031 -0.134556 255 178 96
0.183013 -0.473012 0.182565 255 178 96
-0.187412 -0.487657 -0.179562 255 178 96
0.103105 -0.489232 -0.0796948 255 178 96
-0.303348 -0.486469 0.0791642 255 178 96
-0.112397 -0.488124 -0.056547 255 178 96
0.0051825 -0.488498 -0.0435109 255 178 96
-0.0973763 -0.48801 0.0119717 255 178 96
0.224596 -0.459617 -0.106422 255 178 96
0.0760437 -0.488664 -0.0391744 255 178 96
-0.138321 -0.48765 -0.00319437 255 178 96
0.00869468 -0.481655 0.178451 255 178 96
0.0107672 -0.488038 0.0976587 255 178 96
-0.167899 -0.484866 0.157359 255 178 96
-0.224858 -0.487194 -0.00799076 255 178 96
-0.253488 -0.487162 -0.000737451 255 178 96
-0.141541 -0.488155 -0.153208 255 178 96
0.170439 -0.488763 0.102782 255 178 96
-0.0808088 -0.484287 0.153431 255 178 96
-0.252568 -0.487547 -0.10477 255 178 96
-0.156972 -0.48718 0.106201 255 178 96
-0.358196 -0.487456 -0.00546098 255 178 96
0.123024 -0.467327 -0.21004 255 178 96
-0.0384972 -0.488328 -0.039301 255 178 96
0.038359 -0.483685 0.173365 255 178 96
-0.331163 -0.486383 0.0658681 255 178 96
-0.0705158 -0.488197 0.0250585 255 178 96
-0.287935 -0.481444 -0.212504 255 178 96
-0.282557 -0.457789 -0.233185 255 178 96
-0.0282254 -0.488368 -0.0312316 255 178 96
-0.292714 -0.48735 -0.0385999 255 178 96
-0.374264 -0.487061 -0.188504 255 178 96
-0.255847 -0.487487 -0.0698291 255 178 96
0.229849 -0.488796 0.054049 255 178 96
-0.27961 -0.48603 0.120028 255 178 96
0.296273 -0.466779 -0.181439 255 178 96
-0.37823 -0.487329 -0.145641 255 178 96
-0.387286 -0.466711 -0.238503 255 178 96
-0.391177 -0.487633 -0.0895751 255 178 96
0.201318 -0.488848 0.11154 255 178 96
-0.165226 -0.487815 -0.0675167 255 178 96
-0.251506 -0.487477 -0.0662599 255 178 96
0.165433 -0.488952 0.0482955 255 178 96
-0.0469966 -0.488856 -0.145724 255 178 96
-0.0634621 -0.488281 -0.0413883 255 178 96
-0.234307 -0.487532 -0.136929 255 178 96
0.271893 -0.488724 0.054816 255 178 96
0.162452 -0.46663 -0.197653 255 178 96
-0.31336 -0.485248 0.118242 255 178 96
-0.303345 -0.485699 0.113383 255 178 96
-0.149723 -0.487888 0.063438 255 178 96
-0.243213 -0.486908 0.0839292 255 178 96
0.0536403 -0.449205 -0.0571589 255 178 96
-0.042612 -0.487771 0.0924555 255 178 96
-0.122157 -0.488007 -0.19702 255 178 96
-0.205863 -0.487299 -0.0247413 255 178 96
-0.294594 -0.487038 0.0372081 255 178 96
0.128164 -0.488984 0.00152723 255 178 96
-0.283032 -0.469584 0.177287 255 178 96
-0.399713 -0.487372 -0.12564 255 178 96
-0.00197296 -0.48905 -0.155803 255 178 96
0.0203774 -0.489136 -0.0936074 255 178 96
-0.00752797 -0.488522 0.0543642 255 178 96
-0.159466 -0.487221 0.103604 255 178 96
-0.0353039 -0.488748 -0.079045 255 178 96
0.126185 -0.488688 0.102306 255 178 96
-0.334612 -0.487453 -0.0207172 255 178 96
-0.369015 -0.487595 -0.0999292 255 178 96
-0.148891 -0.487885 0.060294 255 178 96
-0.382484 -0.487544 -0.10275 255 178 96
-0.182654 -0.48234 0.171366 255 178 96
-0.234669 -0.486335 0.128137 255 178 96
-0.219302 -0.486633 0.116997 255 178 96
-0.307746 -0.478572 -0.216221 255 178 96
-0.0884759 -0.488492 -0.165941 255 178 96
-0.336709 -0.487589 -0.0991534 255 178 96
-0.378493 -0.487645 -0.0685861 255 178 96
-0.0827515 -0.488105 0.0708057 255 178 96
0.040933 -0.485048 -0.208229 255 178 96
-0.304945 -0.486575 0.0684245 255 178 96
-0.17013 -0.487888 -0.156252 255 178 96
-0.0754064 -0.474425 0.196819 255 178 96
0.228306 -0.488833 0.0840465 255 178 96
0.185789 -0.460301 -0.121598 255 178 96
-0.273133 -0.487124 -0.199305 255 178 96
-0.259789 -0.486546 0.100042 255 178 96
-0.39549 -0.487113 -0.175755 255 178 96
-0.26261 -0.485968 0.13468 255 178 96
-0.277367 -0.4875 -0.0784016 255 178 96
0.126147 -0.488907 -0.164736 255 178 96
0.2066 -0.488783 0.0408341 255 178 96
-0.153529 -0.487107 0.110557 255 178 96
-0.183187 -0.482093 0.172751 255 178 96
-0.311046 -0.486758 0.052197 255 178 96
0.145557 -0.489415 -0.0915695 255 178 96
-0.365159 -0.487596 -0.0878385 255 178 96
-0.029068 -0.488874 -0.15843 255 178 96
-0.354326 -0.487565 -0.107451 255 178 96
0.145559 -0.488274 0.135672 255 178 96
-0.289673 -0.487484 -0.0676817 255 178 96
-0.29695 -0.485656 -0.20918 255 178 96
-0.246195 -0.486905 0.0787861 255 178 96
0.237464 -0.488766 0.0928455 255 178 96
-0.225878 -0.487203 0.0532817 255 178 96
-0.172164 -0.487621 -0.199712 255 178 96
-0.108153 -0.444831 -0.225884 255 178 96
-0.102862 -0.488131 0.0584632 255 178 96
0.21683 -0.466662 -0.206871 255 178 96
-0.332803 -0.486859 0.0419765 255 178 96
0.0716662 -0.488846 0.0314445 255 178 96
-0.263507 -0.487338 -0.148767 255 178 96
-0.131758 -0.480278 0.182674 255 178 96
-0.197173 -0.487664 -0.157964 255 178 96
0.194481 -0.489253 -0.103227 255 178 96
0.0174004 -0.488838 -0.0680127 255 178 96
-0.355619 -0.479463 -0.215463 255 178 96
-0.275769 -0.465488 -0.226189 255 178 96
-0.37766 -0.486865 -0.198948 255 178 96
-0.044468 -0.488838 -0.151838 255 178 96
-0.383422 -0.487427 -0.00399903 255 178 96
-0.0385051 -0.48885 -0.154336 255 178 96
-0.282612 -0.486637 0.0728506 255 178 96
-0.268429 -0.478378 -0.214744 255 178 96
-0.0884647 -0.488582 -0.135398 255 178 96
0.202097 -0.489039 -0.0625986 255 178 96
-0.22141 -0.48752 -0.153002 255 178 96
-0.117266 -0.488302 -0.163341 255 178 96
-0.259964 -0.487351 -0.0467743 255 178 96
0.272165 -0.488967 -0.104424 255 178 96
0.0221332 -0.488592 0.0259834 255 178 96
-0.0926891 -0.488067 0.0243572 255 178 96
0.137328 -0.464279 -0.163362 255 178 96
-0.00677125 -0.489127 -0.14079 255 178 96
0.0735185 -0.488852 0.0296203 255 178 96
-0.250975 -0.486833 0.0834499 255 178 96
-0.218112 -0.472194 -0.218148 255 178 96
-0.193147 -0.487676 -0.163241 255 178 96
0.279502 -0.489266 -0.134441 255 178 96
-0.358879 -0.478195 -0.217641 255 178 96
-0.278594 -0.486589 0.082032 255 178 96
-0.299945 -0.487152 -0.181592 255 178 96
-0.0940096 -0.488192 -0.195513 255 178 96
-0.142665 -0.486529 0.14038 255 178 96
0.147505 -0.488991 0.0533314 255 178 96
-0.0222801 -0.466772 -0.212122 255 178 96
-0.206051 -0.486965 0.102617 255 178 96
-0.392776 -0.483422 -0.215638 255 178 96
0.210577 -0.489186 -0.0997301 255 178 96
-0.383554 -0.487681 -0.0394872 255 178 96
-0.0969803 -0.486891 0.1286 255 178 96
0.22865 -0.48879 0.120927 255 178 96
-0.136979 -0.487968 -0.0581513 255 178 96
0.215787 -0.478498 0.158427 255 178 96
-0.000134006 -0.454245 -0.108196 255 178 96
0.280247 -0.488734 0.0212062 255 178 96
-0.380031 -0.487136 -0.173965 255 178 96
-0.147414 -0.487657 0.0261884 255 178 96
-0.202433 -0.487635 -0.155684 255 178 96
-0.344422 -0.487562 -0.0452732 255 178 96
-0.134986 -0.487926 -0.19741 255 178 96
0.166689 -0.479773 -0.210521 255 178 96
-0.243966 -0.487496 -0.0694334 255 178 96
-0.213052 -0.484892 0.159048 255 178 96
-0.295731 -0.486588 0.0712097 255 178 96
-0.258655 -0.48741 -0.0564732 255 178 96
0.224969 -0.488772 0.0990159 255 178 96
-0.0818274 -0.462534 0.21716 255 178 96
-0.11762 -0.487921 0.0278584 255 178 96
-0.120149 -0.488024 0.0519437 255 178 96
-0.333553 -0.486455 0.0620298 255 178 96
-0.124706 -0.458877 0.229512 255 178 96
0.103119 -0.488947 0.0509519 255 178 96
0.00619514 -0.487152 0.143731 255 178 96
-0.0840323 -0.488397 -0.183342 255 178 96
0.152769 -0.463575 -0.155207 255 178 96
-0.266608 -0.485781 0.137246 255 178 96
-0.286344 -0.486601 0.0746002 255 178 96
-0.344594 -0.487586 -0.0560638 255 178 96
0.052019 -0.458171 0.230188 255 178 96
0.0419596 -0.488792 -0.0592483 255 178 96
0.0234401 -0.488569 -0.0464377 255 178 96
-0.346307 -0.487226 0.0148652 255 178 96
0.0908648 -0.466805 -0.209513 255 178 96
-0.212326 -0.482553 0.170669 255 178 96
-0.180587 -0.47844 0.19466 255 178 96
0.175884 -0.488852 0.0702648 255 178 96
-0.0350476 -0.488831 -0.159657 255 178 96
-0.208206 -0.48598 0.150421 255 178 96
-0.0571893 -0.488241 -0.0252509 255 178 96
-0.337311 -0.4861 0.0719947 255 178 96
-0.147905 -0.480109 0.184984 255 178 96
-0.356636 -0.487244 -0.165317 255 178 96
0.0794178 -0.488597 0.0945567 255 178 96
-0.231442 -0.487148 0.0466419 255 178 96
0.297241 -0.488831 -0.00947822 255 178 96
-0.159193 -0.487792 0.0619065 255 178 96
-0.25685 -0.487089 -0.206654 255 178 96
0.285783 -0.464693 -0.176721 255 178 96
0.256645 -0.463341 -0.14485 255 178 96
-0.260734 -0.461741 -0.228632 255 178 96
-0.348231 -0.487569 -0.0896771 255 178 96
0.10684 -0.4644 -0.184098 255 178 96
-0.188905 -0.487747 -0.147752 255 178 96
-0.305299 -0.485802 0.108652 255 178 96
0.254987 -0.467919 -0.178317 255 178 96
-0.0937335 -0.488111 0.0337438 255 178 96
-0.0172362 -0.488462 0.0366987 255 178 96
-0.0834228 -0.46292 -0.22001 255 178 96
-0.355271 -0.487599 -0.0435886 255 178 96
-0.177301 -0.487865 -0.138467 255 178 96
0.172481 -0.489272 -0.16525 255 178 96
-0.250437 -0.487522 -0.0829658 255 178 96
0.147175 -0.451966 -0.0600182 255 178 96
-0.213572 -0.486518 0.125779 255 178 96
