ply
format ascii 1.0
comment Created by Open3D
element vertex 1145
property double x
property double y
property double z
property uchar red
property uchar green
property uchar blue
end_header
-0.205981 2.59578e-05 0.138934 160 249 161
-0.201422 0.00750718 -0.122111 160 249 161
-0.202093 -0.0756464 0.0839684 160 249 161
-0.208967 -0.0993066 0.231054 160 249 161
-0.204596 -0.409112 0.166235 160 249 161
-0.20499 -0.356217 0.285554 160 249 161
-0.192635 -0.207059 -0.0438372 160 249 161
-0.193521 -0.394314 -0.00563638 160 249 161
-0.20412 -0.336899 0.235075 160 249 161
-0.203482 -0.403188 0.153691 160 249 161
-0.193318 -0.264221 -0.0103243 160 249 161
-0.194648 -0.0209369 -0.061689 160 249 161
-0.19772 -0.226835 0.0909425 160 249 161
-0.215342 -0.0368065 0.268528 160 249 161
-0.202295 -0.170919 0.120592 160 249 161
-0.200027 -0.336326 0.087787 160 249 161
-0.195156 -0.0471295 -0.0689414 160 249 161
-0.19664 -0.136635 0.0122152 160 249 161
-0.19929 -0.359859 0.0333521 160 249 161
-0.205318 -0.358334 0.22429 160 249 161
-0.200594 0.0215323 0.0832305 160 249 161
-0.204507 -0.210847 0.211485 160 249 161
-0.198111 -0.276776 -0.124348 160 249 161
-0.193222 -0.0403555 -0.0193872 160 249 161
-0.200571 -0.204659 0.116683 160 249 161
-0.204622 -0.356958 0.22096 160 249 161
-0.194754 -0.144448 -0.00773016 160 249 161
-0.206346 -0.191791 0.24005 160 249 161
-0.204349 -0.180518 0.178488 160 249 161
-0.204101 -0.41978 0.147269 160 249 161
-0.198748 -0.329113 0.124384 160 249 161
-0.19774 -0.143289 0.0224987 160 249 161
-0.21597 0.00369964 0.242988 160 249 161
-0.194582 -0.434449 -0.0193654 160 249 161
-0.20437 -0.381573 0.177361 160 249 161
-0.198358 -0.148973 0.0310497 160 249 161
-0.208157 -0.140483 0.245004 160 249 161
-0.203873 0.00672932 -0.138428 160 249 161
-0.203974 -0.289285 0.268475 160 249 161
-0.208618 0.0311432 0.17099 160 249 161
-0.203852 0.0109638 0.124461 160 249 161
-0.206554 -0.131546 0.202132 160 249 161
-0.208795 -0.154335 0.276455 160 249 161
-0.195756 0.0193932 0.0249626 160 249 161
-0.208499 -0.159174 0.273797 160 249 161
-0.198322 -0.181981 -0.109484 160 249 161
-0.207082 -0.429341 -0.178383 160 249 161
-0.196553 0.0514227 0.0395433 160 249 161
-0.206738 -0.179323 0.227323 160 249 161
-0.196335 -0.186184 0.0116262 160 249 161
-0.20024 -0.316592 0.163468 160 249 161
-0.192294 0.0518657 -0.0133113 160 249 161
-0.199764 -0.238321 -0.148057 160 249 161
-0.196842 -0.457981 -0.169876 160 249 161
-0.197475 -0.377767 -0.182597 160 249 161
-0.197435 0.0304981 -0.0902666 160 249 161
-0.199425 -0.306996 0.147313 160 249 161
-0.19312 -0.096318 -0.0662469 160 249 161
-0.195285 -0.193816 0.00169754 160 249 161
-0.20285 -0.16222 0.12874 160 249 161
-0.19564 0.0249631 0.0248223 160 249 161
-0.192721 -0.321229 -0.0207567 160 249 161
-0.198417 -0.4484 0.0202686 160 249 161
-0.19714 -0.238586 0.0537213 160 249 161
-0.204477 -0.0182122 0.124805 160 249 161
-0.19363 0.0108335 0.00110254 160 249 161
-0.20104 -0.246192 0.166496 160 249 161
-0.209997 -0.0560716 0.22386 160 249 161
-0.204704 -0.348022 0.285549 160 249 161
-0.191637 -0.224765 -0.0589107 160 249 161
-0.202892 -0.201822 0.16077 160 249 161
-0.203501 -0.312978 0.219506 160 249 161
-0.197889 -0.325341 0.0229573 160 249 161
-0.209843 -0.10433 0.253008 160 249 161
-0.201239 -0.0908273 -0.12613 160 249 161
-0.196854 -0.327573 -0.187338 160 249 161
-0.20447 -0.0592644 0.125564 160 249 161
-0.19901 -0.229213 0.11178 160 249 161
-0.192136 0.00225108 -0.0325041 160 249 161
-0.202001 -0.156656 -0.140758 160 249 161
-0.193647 -0.42079 -0.0464623 160 249 161
-0.206509 -0.0339159 0.146554 160 249 161
-0.204844 -0.0592431 0.136248 160 249 161
-0.205775 -0.137168 0.192446 160 249 161
-0.204562 -0.345369 0.279886 160 249 161
-0.196656 -0.3452 0.0144874 160 249 161
-0.20121 -0.244349 0.170432 160 249 161
-0.192274 3.99351e-05 -0.0144391 160 249 161
-0.208773 -0.0823541 0.219822 160 249 161
-0.189184 -0.479741 -0.0879975 160 249 161
-0.200722 -0.0534066 -0.116715 160 249 161
-0.200884 -0.371284 0.098896 160 249 161
-0.203291 -0.240542 0.217544 160 249 161
-0.197996 -0.154048 0.0750524 160 249 161
-0.201034 -0.119904 -0.126879 160 249 161
-0.205615 -0.408013 0.184374 160 249 161
-0.191236 -0.274009 -0.0539172 160 249 161
-0.197546 -0.0317563 0.0281311 160 249 161
-0.201276 -0.383743 0.132804 160 249 161
-0.190961 -0.289726 -0.0582959 160 249 161
-0.207643 -0.0572329 0.185812 160 249 161
-0.197321 -0.356078 -0.17263 160 249 161
-0.203917 -0.32532 0.230579 160 249 161
-0.197063 -0.319908 -0.162978 160 249 161
-0.198944 -0.248219 -0.13037 160 249 161
-0.19103 -0.34738 -0.0257785 160 249 161
-0.196153 -0.153256 -0.0894438 160 249 161
-0.202359 0.0478636 0.11402 160 249 161
-0.202154 -0.00147277 0.0984885 160 249 161
-0.192444 -0.215154 -0.0246888 160 249 161
-0.197101 -0.0706495 0.0165967 160 249 161
-0.203638 -0.268493 0.254246 160 249 161
-0.201296 -0.216843 0.140678 160 249 161
-0.198664 -0.0254776 0.0580616 160 249 161
-0.194153 -0.381551 -0.0965988 160 249 161
-0.204262 -0.100131 0.144421 160 249 161
-0.204639 -0.0995004 0.153939 160 249 161
-0.19896 -0.0305755 -0.0986093 160 249 161
-0.194726 -0.0633391 -0.006042 160 249 161
-0.196712 -0.220745 -0.102713 160 249 161
-0.197614 -0.206866 0.0795757 160 249 161
-0.194068 -0.355553 -0.00727018 160 249 161
-0.205441 -0.185097 0.200944 160 249 161
-0.200023 -0.0254587 -0.108214 160 249 161
-0.207045 -0.195102 0.283917 160 249 161
-0.199416 -0.231145 -0.134537 160 249 161
-0.197067 -0.288354 0.026486 160 249 161
-0.193497 -0.0845239 -0.0215416 160 249 161
-0.204528 -0.332249 0.278911 160 249 161
-0.201402 -0.121863 -0.131261 160 249 161
-0.203121 0.0484715 -0.125887 160 249 161
-0.19507 -0.204976 -0.0899985 160 249 161
-0.197509 -0.158396 -0.0989758 160 249 161
-0.205372 -0.358905 0.250837 160 249 161
-0.202708 -0.0352298 0.0959223 160 249 161
-0.202019 -0.330458 0.180398 160 249 161
-0.190646 -0.344558 -0.0432624 160 249 161
-0.200953 -0.147483 0.0984904 160 249 161
-0.20497 -0.349547 0.297807 160 249 161
-0.200518 -0.348637 0.156927 160 249 161
-0.211216 -0.0912573 0.259361 160 249 161
-0.205938 -0.209351 0.256311 160 249 161
-0.192963 -0.406345 -0.0597103 160 249 161
-0.201869 -0.330387 0.178567 160 249 161
-0.199187 0.0458281 -0.105848 160 249 161
-0.198363 -0.167425 0.0390809 160 249 161
-0.211593 -0.0762456 0.255114 160 249 161
-0.201536 0.0277506 0.0954272 160 249 161
-0.19804 -0.289971 -0.140767 160 249 161
-0.198909 -0.329902 0.137295 160 249 161
-0.198795 -0.369164 0.0307761 160 249 161
-0.193372 -0.184562 -0.0302426 160 249 161
-0.194486 -0.15728 -0.0106778 160 249 161
-0.204711 -0.392775 0.177659 160 249 161
-0.193287 -0.377749 -0.0920245 160 249 161
-0.201918 -0.40601 0.0925986 160 249 161
-0.192763 -0.206525 -0.036142 160 249 161
-0.200777 0.0265238 -0.116437 160 249 161
-0.19803 -0.156739 -0.102877 160 249 161
-0.212343 0.000101805 0.214101 160 249 161
-0.191568 -0.25914 -0.0448511 160 249 161
-0.200799 -0.47387 -0.146614 160 249 161
-0.194008 -0.424834 -0.0145766 160 249 161
-0.201671 -0.0322057 0.0840672 160 249 161
-0.19708 -0.386798 0.0167124 160 249 161
-0.20387 -0.324796 0.225543 160 249 161
-0.203641 -0.340158 0.204189 160 249 161
-0.206268 -0.0846149 0.174906 160 249 161
-0.193731 -0.0469775 -0.0157416 160 249 161
-0.200955 -0.156091 -0.131409 160 249 161
-0.194123 -0.0447921 -0.0604914 160 249 161
-0.20469 -0.00471487 0.129019 160 249 161
-0.198169 -0.148631 0.07197 160 249 161
-0.191481 -0.286997 -0.0475073 160 249 161
-0.205559 -0.239016 0.28875 160 249 161
-0.195039 -0.368304 -0.110783 160 249 161
-0.208276 0.0107349 0.166543 160 249 161
-0.19666 -0.359814 -0.130621 160 249 161
-0.196893 -0.345138 -0.145113 160 249 161
-0.20251 -0.287682 0.195688 160 249 161
-0.207713 -0.177828 0.280751 160 249 161
-0.202442 -0.0778048 0.087411 160 249 161
-0.206783 -0.362969 0.279582 160 249 161
-0.194612 -0.0231228 -0.0613555 160 249 161
-0.199437 -0.2937 0.138607 160 249 161
-0.203769 0.0377255 0.127474 160 249 161
-0.205155 -0.215265 0.237099 160 249 161
-0.210827 -0.0900087 0.254253 160 249 161
-0.199743 -0.330999 0.0767813 160 249 161
-0.201186 -0.0801598 0.0765276 160 249 161
-0.199829 -0.0659024 0.0681436 160 249 161
-0.193191 -0.0253837 -0.0149606 160 249 161
-0.200131 -0.368273 0.065536 160 249 161
-0.198099 -0.18906 0.0480031 160 249 161
-0.198598 -0.423621 0.0207581 160 249 161
-0.201062 -0.380618 0.123999 160 249 161
-0.20061 0.00493037 -0.116725 160 249 161
-0.199181 -0.317281 0.043686 160 249 161
0.367705 -0.403917 -0.208298 192 234 140
0.227281 -0.0302431 -0.194254 192 234 140
-0.10743 -0.139507 -0.187366 192 234 140
-0.101816 -0.350373 -0.188383 192 234 140
0.21206 -0.172922 -0.194849 192 234 140
0.304265 -0.142974 -0.200626 192 234 140
0.171951 -0.456826 -0.199955 192 234 140
0.378667 -0.234925 -0.201474 192 234 140
0.11586 -0.409499 -0.192038 192 234 140
-0.0482431 -0.274514 -0.189994 192 234 140
-0.10617 -0.414884 -0.195045 192 234 140
-0.0934568 -0.13917 -0.187306 192 234 140
0.0547296 -0.155284 -0.187759 192 234 140
0.134414 -0.232785 -0.191813 192 234 140
0.205867 -0.407424 -0.197518 192 234 140
-0.0934254 -0.388766 -0.191184 192 234 140
0.309575 0.0130138 -0.199636 192 234 140
0.0649873 -0.0105389 -0.188067 192 234 140
0.249826 -0.341129 -0.195583 192 234 140
0.00937643 -0.412885 -0.192705 192 234 140
-0.07204 -0.021605 -0.181755 192 234 140
0.22564 -0.317893 -0.193168 192 234 140
0.146356 -0.0842245 -0.190767 192 234 140
0.117609 -0.0071218 -0.190657 192 234 140
-0.0387943 -0.229703 -0.188903 192 234 140
-0.123729 -0.104425 -0.185477 192 234 140
0.188987 -0.148475 -0.192816 192 234 140
-0.13586 -0.126608 -0.186712 192 234 140
0.0777055 -0.166842 -0.189833 192 234 140
0.3222 -0.449361 -0.208263 192 234 140
0.349008 0.0362086 -0.201119 192 234 140
0.321175 -0.273128 -0.196713 192 234 140
0.296851 -0.0412835 -0.198717 192 234 140
0.0218146 -0.0667686 -0.185157 192 234 140
-0.0631941 -0.373955 -0.188764 192 234 140
0.167686 -0.303675 -0.191138 192 234 140
0.0593016 -0.151004 -0.18822 192 234 140
0.132222 -0.225344 -0.192056 192 234 140
-0.0641889 -0.0984041 -0.185074 192 234 140
0.314115 -0.318187 -0.198708 192 234 140
0.333617 -0.41283 -0.206485 192 234 140
0.00372764 -0.285979 -0.186324 192 234 140
-0.0894467 -0.392304 -0.191515 192 234 140
0.380787 -0.293469 -0.201615 192 234 140
0.211854 -0.453447 -0.202034 192 234 140
-0.0592509 -0.436088 -0.197091 192 234 140
0.293436 0.0360401 -0.19848 192 234 140
0.230204 -0.254983 -0.194364 192 234 140
-0.0551168 -0.3881 -0.189804 192 234 140
0.087851 -0.176873 -0.190205 192 234 140
-0.0908581 0.0406558 -0.180564 192 234 140
0.0206648 -0.381916 -0.186295 192 234 140
0.175046 -0.113364 -0.191637 192 234 140
0.299134 -0.284624 -0.195882 192 234 140
0.283017 -0.21024 -0.198149 192 234 140
0.237269 -0.28991 -0.194076 192 234 140
-0.0341199 0.0277354 -0.182675 192 234 140
0.161369 -0.104232 -0.191156 192 234 140
0.0322921 -0.283169 -0.186393 192 234 140
-0.121615 -0.0154489 -0.182428 192 234 140
0.00576313 -0.322209 -0.186269 192 234 140
0.117705 -0.258717 -0.19095 192 234 140
-0.127293 -0.337151 -0.189073 192 234 140
0.159536 -0.252478 -0.191247 192 234 140
0.232347 0.007484 -0.194705 192 234 140
0.0752123 0.0171969 -0.189137 192 234 140
0.251828 -0.409097 -0.200542 192 234 140
0.364545 -0.372412 -0.205477 192 234 140
0.2687 -0.343564 -0.197053 192 234 140
-0.0948384 -0.266302 -0.190847 192 234 140
0.281583 -0.365325 -0.199455 192 234 140
0.0173485 -0.192191 -0.184704 192 234 140
0.159694 -0.425423 -0.196455 192 234 140
0.218302 -0.307541 -0.193166 192 234 140
0.313749 -0.312068 -0.198289 192 234 140
-0.137224 -0.040967 -0.183091 192 234 140
0.213248 -0.463309 -0.202668 192 234 140
0.0764685 -0.208419 -0.189809 192 234 140
0.176021 -0.0871786 -0.191506 192 234 140
0.225443 0.0164579 -0.194351 192 234 140
0.217946 -0.154291 -0.195017 192 234 140
0.229097 -0.363951 -0.195382 192 234 140
0.318373 -0.27631 -0.196479 192 234 140
0.208877 -0.364997 -0.19425 192 234 140
0.290134 -0.0346883 -0.198389 192 234 140
0.390327 0.0054426 -0.203519 192 234 140
0.0637152 -0.348085 -0.184813 192 234 140
0.253536 -0.0943361 -0.196464 192 234 140
0.254126 -0.181124 -0.198026 192 234 140
-0.128285 -0.384325 -0.19207 192 234 140
0.299045 -0.348573 -0.199527 192 234 140
0.367046 0.0422727 -0.201594 192 234 140
0.232795 -0.284021 -0.194026 192 234 140
0.244566 -0.252457 -0.194933 192 234 140
0.0211029 -0.417773 -0.192855 192 234 140
0.306594 -0.159326 -0.201116 192 234 140
0.22369 -0.383957 -0.196614 192 234 140
0.0146041 -0.219468 -0.185027 192 234 140
0.333627 -0.249276 -0.198263 192 234 140
0.0413348 -0.457832 -0.197231 192 234 140
0.304631 -0.307343 -0.197408 192 234 140
0.349601 -0.420062 -0.207936 192 234 140
0.370786 0.0276025 -0.201979 192 234 140
-0.00148835 -0.457073 -0.196794 192 234 140
-0.0487016 -0.358039 -0.187065 192 234 140
-0.131583 -0.0627626 -0.183699 192 234 140
-0.0511252 -0.0982817 -0.184798 192 234 140
0.136381 -0.301669 -0.190502 192 234 140
0.368591 -0.253897 -0.199661 192 234 140
0.309594 -0.178377 -0.200806 192 234 140
0.365025 -0.432198 -0.210092 192 234 140
-0.109445 -0.360637 -0.189345 192 234 140
0.0903592 -0.31316 -0.188457 192 234 140
0.238227 -0.0979561 -0.195413 192 234 140
0.12426 -0.290728 -0.190791 192 234 140
0.307638 -0.417565 -0.205135 192 234 140
0.160716 -0.288007 -0.19098 192 234 140
0.330727 -0.121105 -0.201565 192 234 140
0.392258 -0.0675235 -0.205797 192 234 140
0.341839 -0.259802 -0.198032 192 234 140
-0.152129 -0.313633 -0.191231 192 234 140
-0.0375193 -0.347561 -0.186568 192 234 140
-0.057736 -0.30483 -0.189607 192 234 140
0.272491 -0.31137 -0.195675 192 234 140
0.146528 -0.324034 -0.190044 192 234 140
0.297214 -0.388823 -0.202362 192 234 140
0.194779 -0.363109 -0.193239 192 234 140
0.0973312 0.00362502 -0.190182 192 234 140
0.12064 -0.157064 -0.190953 192 234 140
0.119106 -0.408611 -0.192308 192 234 140
-0.0114165 -0.120279 -0.185431 192 234 140
0.310168 -0.0790951 -0.19931 192 234 140
-0.0710217 -0.450262 -0.199105 192 234 140
0.164609 -0.411361 -0.195352 192 234 140
0.0824354 -0.319129 -0.187459 192 234 140
-0.0408784 -0.251668 -0.18978 192 234 140
0.293048 -0.10957 -0.198886 192 234 140
0.0873972 -0.320322 -0.187812 192 234 140
0.344198 -0.0177205 -0.201263 192 234 140
0.0858976 -0.333788 -0.186868 192 234 140
-0.0235048 -0.325204 -0.187853 192 234 140
-0.0491407 -0.251221 -0.189901 192 234 140
0.39234 -0.434743 -0.210535 192 234 140
0.226944 -0.413342 -0.199384 192 234 140
-0.148144 -0.124572 -0.186631 192 234 140
0.353634 -0.340387 -0.202062 192 234 140
0.0143379 0.0067593 -0.185179 192 234 140
0.0359009 -0.0286508 -0.186412 192 234 140
0.245476 -0.428486 -0.201818 192 234 140
0.328764 -0.0722215 -0.200247 192 234 140
0.350115 0.00632301 -0.201572 192 234 140
0.349555 -0.257887 -0.198413 192 234 140
0.30064 -0.0904311 -0.198966 192 234 140
0.0137178 -0.458212 -0.196464 192 234 140
-0.00148821 -0.447081 -0.198073 192 234 140
0.294204 -0.284063 -0.195658 192 234 140
-0.0804964 -0.441589 -0.19863 192 234 140
0.134498 0.0080964 -0.191107 192 234 140
-0.0812465 -0.31298 -0.189657 192 234 140
0.0550752 -0.32979 -0.185689 192 234 140
0.243061 -0.432478 -0.201973 192 234 140
0.163566 -0.10353 -0.191205 192 234 140
0.281169 0.00777581 -0.197878 192 234 140
0.172093 -0.308748 -0.191252 192 234 140
0.230758 -0.440132 -0.201963 192 234 140
0.0654184 -0.266404 -0.187602 192 234 140
0.0685068 -0.272703 -0.187721 192 234 140
0.050113 -0.0302108 -0.187061 192 234 140
0.0705939 0.0310555 -0.18895 192 234 140
0.286194 -0.266982 -0.195865 192 234 140
0.278018 -0.378581 -0.200226 192 234 140
0.141511 -0.110273 -0.190741 192 234 140
0.14563 -0.0892831 -0.190728 192 234 140
0.371663 -0.252892 -0.199932 192 234 140
0.176612 -0.0144041 -0.192092 192 234 140
0.0414603 0.0124388 -0.186819 192 234 140
0.0875085 -0.24357 -0.190444 192 234 140
-0.155409 -0.466619 -0.192413 192 234 140
0.352522 -0.0886751 -0.201943 192 234 140
-0.0891941 0.0126075 -0.180911 192 234 140
0.209914 -0.165114 -0.194651 192 234 140
0.362463 -0.227413 -0.200568 192 234 140
-0.115331 -0.444096 -0.199011 192 234 140
0.369558 -0.214486 -0.201578 192 234 140
-0.00834639 -0.212394 -0.186042 192 234 140
0.132095 -0.448396 -0.197119 192 234 140
0.328675 -0.0205394 -0.200397 192 234 140
-0.028804 -0.128278 -0.186315 192 234 140
0.203357 -0.440244 -0.200374 192 234 140
-0.0112081 -0.437604 -0.196593 192 234 140
0.202623 -0.0300157 -0.192711 192 234 140
0.265073 -0.169632 -0.198873 192 234 140
0.358785 -0.430764 -0.209471 192 234 140
0.0249848 -0.445475 -0.197288 192 234 140
0.261561 -0.211116 -0.197198 192 234 140
-0.0504041 -0.0464854 -0.182599 192 234 140
0.335499 -0.286075 -0.197745 192 234 140
0.283001 -0.28358 -0.195376 192 234 140
0.144458 -0.14027 -0.191286 192 234 140
-0.0644129 -0.443287 -0.198579 192 234 140
0.388963 -0.438687 -0.210814 192 234 140
0.00436362 -0.292828 -0.18638 192 234 140
0.347134 -0.150699 -0.202766 192 234 140
0.293292 -0.079124 -0.198519 192 234 140
0.150647 -0.376864 -0.191005 192 234 140
0.128393 0.0255616 -0.190945 192 234 140
0.156616 -0.128531 -0.191408 192 234 140
0.348351 0.0396914 -0.20104 192 234 140
0.392237 0.0147204 -0.203398 192 234 140
0.0698475 0.0478445 -0.189072 192 234 140
0.295281 -0.2459 -0.197239 192 234 140
0.0642723 -0.310289 -0.186569 192 234 140
0.12951 -0.461218 -0.198214 192 234 140
0.259763 0.0244497 -0.196435 192 234 140
-0.110569 -0.218931 -0.189296 192 234 140
-0.0453864 0.0204068 -0.182036 192 234 140
-0.0117705 -0.179908 -0.186608 192 234 140
-0.123126 -0.455442 -0.199613 192 234 140
0.366593 -0.23931 -0.2003 192 234 140
0.109734 -0.398392 -0.19051 192 234 140
-0.142152 -0.266369 -0.191771 192 234 140
0.311763 -0.0312093 -0.199482 192 234 140
0.0241904 -0.239882 -0.185794 192 234 140
-0.0199632 -0.453965 -0.198989 192 234 140
0.0092493 -0.424513 -0.194599 192 234 140
0.0665976 -0.179137 -0.188882 192 234 140
0.030807 -0.0454467 -0.185995 192 234 140
0.198148 -0.22952 -0.193327 192 234 140
0.38219 -0.0636313 -0.204022 192 234 140
-0.0277462 -0.0924023 -0.184086 192 234 140
-0.0832671 -0.304787 -0.190195 192 234 140
0.174909 -0.26633 -0.191463 192 234 140
0.2128 -0.424864 -0.199582 192 234 140
0.271706 -0.4 -0.201291 192 234 140
0.0231244 0.0107973 -0.185757 192 234 140
0.297019 -0.397612 -0.202929 192 234 140
0.26195 -0.377573 -0.198768 192 234 140
0.369799 0.0228491 -0.202028 192 234 140
0.300576 -0.0442864 -0.198896 192 234 140
-0.159057 -0.42904 -0.199243 192 234 140
-0.119796 -0.450952 -0.199959 192 234 140
0.329056 -0.434752 -0.207749 192 234 140
-0.00036929 -0.303822 -0.187236 192 234 140
-0.105448 -0.198661 -0.188585 192 234 140
-0.0652571 -0.229943 -0.189253 192 234 140
0.291928 -0.435837 -0.205538 192 234 140
0.108619 -0.218387 -0.191293 192 234 140
0.317772 -0.257469 -0.19736 192 234 140
-0.126989 -0.393394 -0.193002 192 234 140
0.0499038 -0.191853 -0.187247 192 234 140
0.153825 -0.288105 -0.191001 192 234 140
0.221929 -0.0712421 -0.193911 192 234 140
0.265939 -0.255368 -0.195666 192 234 140
0.253924 0.0251035 -0.196077 192 234 140
0.0890597 -0.416457 -0.190336 192 234 140
0.324608 -0.276611 -0.196707 192 234 140
0.235454 -0.0583467 -0.1948 192 234 140
0.242011 -0.0925265 -0.195627 192 234 140
0.176747 -0.269848 -0.191631 192 234 140
0.254018 -0.230119 -0.196261 192 234 140
-0.129973 -0.0488839 -0.183246 192 234 140
0.226714 -0.342102 -0.194301 192 234 140
0.181863 -0.121116 -0.191883 192 234 140
0.246307 -0.430456 -0.202027 192 234 140
0.165219 -0.269362 -0.191093 192 234 140
0.190047 -0.186277 -0.193269 192 234 140
-0.15971 -0.462674 -0.196172 192 234 140
0.0954304 -0.278547 -0.189911 192 234 140
0.0905499 -0.370067 -0.186941 192 234 140
0.159497 -0.301536 -0.190757 192 234 140
0.0650944 -0.179949 -0.188755 192 234 140
0.370979 -0.133045 -0.204235 192 234 140
0.144646 -0.289419 -0.190951 192 234 140
0.139528 -0.457747 -0.198158 192 234 140
0.0142615 -0.2226 -0.185113 192 234 140
0.172853 0.011555 -0.192131 192 234 140
0.116913 -0.444655 -0.195621 192 234 140
0.0633647 -0.45948 -0.197373 192 234 140
0.0459018 -0.389685 -0.186627 192 234 140
0.0482173 -0.269607 -0.186348 192 234 140
0.338058 -0.270215 -0.197436 192 234 140
0.178087 -0.0880781 -0.191562 192 234 140
0.390211 -0.179647 -0.205601 192 234 140
0.374923 0.00240278 -0.202666 192 234 140
-0.0293256 -0.204057 -0.18789 192 234 140
0.159342 -0.173415 -0.192384 192 234 140
0.17392 -0.213614 -0.192814 192 234 140
0.262297 -0.28425 -0.194925 192 234 140
-0.0307283 -0.377856 -0.188276 192 234 140
0.177822 -0.239311 -0.191842 192 234 140
0.102192 -0.140352 -0.190455 192 234 140
0.393162 -0.0800048 -0.206251 192 234 140
0.353582 -0.389213 -0.20601 192 234 140
0.358099 -0.0778725 -0.202176 192 234 140
0.317072 -0.434802 -0.207143 192 234 140
0.0552308 -0.448202 -0.194686 192 234 140
0.16708 -0.240819 -0.191687 192 234 140
0.318986 -0.328042 -0.199528 192 234 140
0.33518 0.0123319 -0.200879 192 234 140
0.200217 -0.0235153 -0.192525 192 234 140
0.328383 -0.143611 -0.202233 192 234 140
0.227325 -0.343456 -0.194425 192 234 140
0.068572 -0.190319 -0.189086 192 234 140
-0.0557837 -0.432282 -0.196221 192 234 140
0.199426 -0.146704 -0.193572 192 234 140
0.390991 -0.398331 -0.208572 192 234 140
0.304649 -0.380747 -0.202233 192 234 140
0.11293 -0.325815 -0.189115 192 234 140
0.106697 -0.0611076 -0.189882 192 234 140
0.369543 -0.386515 -0.20694 192 234 140
0.0503531 -0.436156 -0.192496 192 234 140
0.111285 -0.329529 -0.1889 192 234 140
0.113179 -0.228816 -0.191439 192 234 140
0.145343 -0.377464 -0.190739 192 234 140
0.310829 -0.123716 -0.200296 192 234 140
-0.0951387 -0.316804 -0.189868 192 234 140
-0.00452291 -0.243277 -0.1867 192 234 140
0.396971 -0.426683 -0.210027 192 234 140
-0.0514407 -0.464867 -0.198527 192 234 140
0.0717441 -0.317836 -0.186739 192 234 140
0.14937 -0.311387 -0.190443 192 234 140
0.159507 -0.114265 -0.191256 192 234 140
0.2262 -0.1648 -0.195758 192 234 140
0.190844 -0.0141847 -0.192345 192 234 140
0.158325 -0.402399 -0.19394 192 234 140
0.308973 -0.0548066 -0.199282 192 234 140
-0.139625 -0.344271 -0.189441 192 234 140
0.394172 -0.362727 -0.206139 192 234 140
0.122525 -0.335942 -0.188987 192 234 140
0.158501 -0.0396088 -0.191511 192 234 140
0.275276 -0.102636 -0.197935 192 234 140
0.176172 -0.0510155 -0.191785 192 234 140
0.0633507 -0.415031 -0.189209 192 234 140
0.0695349 0.0175834 -0.188696 192 234 140
-0.07586 -0.415962 -0.194134 192 234 140
0.229569 -0.316701 -0.19333 192 234 140
0.0815278 -0.38245 -0.186922 192 234 140
0.326331 -0.378368 -0.203395 192 234 140
0.00433671 -0.378292 -0.188161 192 234 140
0.0218364 -0.281295 -0.186394 192 234 140
0.338683 -0.292809 -0.198478 192 234 140
0.224592 -0.220962 -0.19521 192 234 140
-0.0517525 -0.224095 -0.188763 192 234 140
0.292956 -0.338982 -0.198626 192 234 140
0.388306 -0.115735 -0.206591 192 234 140
-0.0135928 -0.332581 -0.18751 192 234 140
0.0162755 -0.301037 -0.186491 192 234 140
0.297498 -0.0274136 -0.198819 192 234 140
-0.135801 0.0250505 -0.181719 192 234 140
0.278224 -0.143521 -0.198925 192 234 140
0.368578 -0.198228 -0.202282 192 234 140
0.295754 0.0194245 -0.198755 192 234 140
0.037965 -0.437025 -0.193108 192 234 140
-0.109699 -0.269021 -0.191131 192 234 140
0.137417 -0.439873 -0.19678 192 234 140
0.384978 -0.234411 -0.202204 192 234 140
-0.0907048 -0.426059 -0.196312 192 234 140
0.290931 -0.0084487 -0.198607 192 234 140
-0.1337 0.0233985 -0.181697 192 234 140
-0.0773494 0.022762 -0.180819 192 234 140
0.0291718 -0.314932 -0.186331 192 234 140
0.385552 -0.237886 -0.202087 192 234 140
0.0027145 -0.161663 -0.1842 192 234 140
0.376101 -0.0968548 -0.203965 192 234 140
0.300068 -0.0314607 -0.198906 192 234 140
0.0938856 -0.307158 -0.189043 192 234 140
-0.124436 -0.429833 -0.198352 192 234 140
0.343275 -0.102872 -0.201691 192 234 140
0.32104 -0.230751 -0.19883 192 234 140
0.182532 -0.202296 -0.192826 192 234 140
-0.045277 -0.126937 -0.186544 192 234 140
0.259051 -0.0159431 -0.196471 192 234 140
0.0692618 -0.187543 -0.189131 192 234 140
0.324725 -0.41781 -0.206271 192 234 140
0.238881 -0.180721 -0.196966 192 234 140
0.171263 -0.456471 -0.199891 192 234 140
0.301202 0.0384559 -0.198963 192 234 140
0.0480793 -0.3506 -0.184702 192 234 140
-0.139961 -0.262012 -0.191665 192 234 140
-0.0768605 -0.0858841 -0.184667 192 234 140
0.353202 -0.166953 -0.202695 192 234 140
0.158369 -0.166164 -0.192306 192 234 140
0.319721 -0.193456 -0.200632 192 234 140
0.26583 -0.159293 -0.198657 192 234 140
0.0809121 -0.00674428 -0.189274 192 234 140
0.12734 -0.386396 -0.190531 192 234 140
0.262542 -0.215352 -0.197065 192 234 140
-0.019183 -0.0215716 -0.182924 192 234 140
-0.00439125 -0.294499 -0.187747 192 234 140
0.0955136 -0.45946 -0.197193 192 234 140
0.111898 -0.0359691 -0.190244 192 234 140
0.226709 -0.0327553 -0.19421 192 234 140
-0.138382 -0.449452 -0.199927 192 234 140
0.139475 -0.0772991 -0.190668 192 234 140
0.143972 -0.170084 -0.191737 192 234 140
0.0878101 -0.093669 -0.189306 192 234 140
0.202469 -0.409241 -0.197432 192 234 140
-0.00993435 -0.145336 -0.185483 192 234 140
0.335408 -0.300341 -0.198822 192 234 140
0.0223067 -0.0504663 -0.18534 192 234 140
-0.0391339 -0.130792 -0.186681 192 234 140
0.383039 -0.137802 -0.205705 192 234 140
0.372912 -0.403338 -0.208563 192 234 140
-0.0891354 -0.24748 -0.190462 192 234 140
0.358713 -0.285336 -0.198903 192 234 140
-0.124191 0.0300291 -0.181197 192 234 140
0.377534 0.0296899 -0.202185 192 234 140
0.110992 -0.0470833 -0.190122 192 234 140
0.00890682 -0.360131 -0.186387 192 234 140
0.25034 -0.219327 -0.196427 192 234 140
0.0478385 -0.00848103 -0.187068 192 234 140
-0.0468708 -0.33889 -0.187273 192 234 140
-0.0332731 -0.255702 -0.189675 192 234 140
0.340699 -0.269334 -0.197567 192 234 140
0.207554 -0.420852 -0.198842 192 234 140
0.142689 -0.133701 -0.191051 192 234 140
0.127631 -0.279029 -0.190813 192 234 140
-0.0470659 0.0542136 -0.18234 192 234 140
0.0868764 -0.460359 -0.198324 192 234 140
0.14698 -0.271268 -0.19111 192 234 140
-0.142174 -0.0717489 -0.183986 192 234 140
0.254809 -0.161419 -0.197913 192 234 140
0.185247 -0.255489 -0.191984 192 234 140
0.251656 -0.342121 -0.195766 192 234 140
0.121394 -0.253272 -0.191095 192 234 140
0.194458 -0.166939 -0.19354 192 234 140
-0.105875 -0.45734 -0.199469 192 234 140
0.328857 -0.126661 -0.201684 192 234 140
0.359625 -0.322283 -0.201338 192 234 140
0.323636 -0.351223 -0.201101 192 234 140
-0.142211 -0.0523868 -0.183433 192 234 140
0.188803 -0.0284007 -0.19223 192 234 140
0.344759 -0.433034 -0.20834 192 234 140
0.0306529 -0.268708 -0.186219 192 234 140
0.0104939 -0.147124 -0.184735 192 234 140
-0.0910739 -0.218506 -0.188958 192 234 140
0.350368 -0.33005 -0.201213 192 234 140
-0.0649836 -0.357676 -0.187651 192 234 140
0.369232 -0.00576931 -0.202599 192 234 140
-0.154751 -0.355611 -0.190783 192 234 140
-0.111915 -0.276381 -0.191291 192 234 140
0.0767702 -0.208774 -0.189833 192 234 140
-0.166492 -0.365265 -0.191954 192 234 140
0.350404 0.0367327 -0.201155 192 234 140
0.370071 -0.00810728 -0.20269 192 234 140
-0.0877499 -0.462895 -0.198693 192 234 140
0.300898 -0.26052 -0.196655 192 234 140
4.00729e-05 -0.187935 -0.184618 192 234 140
0.119742 -0.428992 -0.194115 192 234 140
0.336323 -0.301272 -0.198935 192 234 140
0.373367 0.0282632 -0.202067 192 234 140
-0.0780255 -0.269861 -0.190569 192 234 140
-0.0728209 -0.373168 -0.188989 192 234 140
0.16303 -0.358069 -0.190826 192 234 140
-0.0057877 -0.240725 -0.186955 192 234 140
0.184584 -0.234504 -0.192382 192 234 140
0.308664 0.00892943 -0.199591 192 234 140
0.0663117 -0.0170029 -0.188086 192 234 140
0.00915248 -0.243079 -0.186134 192 234 140
0.173716 -0.0548097 -0.191695 192 234 140
-0.132435 -0.327685 -0.189915 192 234 140
0.400619 -0.425094 -0.209601 192 234 140
0.074033 -0.42789 -0.190721 192 234 140
0.141613 -0.351308 -0.189011 192 234 140
0.0298264 -0.426606 -0.192211 192 234 140
-0.0645385 0.00708202 -0.181101 192 234 140
0.0531385 -0.0584845 -0.187204 192 234 140
-0.0684558 -0.0205271 -0.181687 192 234 140
0.104485 -0.0359735 -0.189996 192 234 140
0.358911 -0.444741 -0.2103 192 234 140
0.111604 -0.437902 -0.194427 192 234 140
0.0530155 -0.189803 -0.187563 192 234 140
0.106247 0.0441222 -0.190494 192 234 140
0.120691 -0.176767 -0.190926 192 234 140
0.0578803 -0.0778086 -0.187351 192 234 140
0.270447 -0.272006 -0.195178 192 234 140
0.150448 -0.313125 -0.190423 192 234 140
0.202327 -0.136426 -0.193585 192 234 140
0.364339 -0.123844 -0.20377 192 234 140
0.210571 0.00942652 -0.193366 192 234 140
0.190635 -0.00853661 -0.192383 192 234 140
0.202094 -0.421169 -0.198561 192 234 140
0.235426 -0.0255788 -0.194792 192 234 140
0.0236729 -0.396317 -0.187831 192 234 140
0.262834 -0.13997 -0.197819 192 234 140
0.396431 -0.354282 -0.205552 192 234 140
0.345524 -0.404089 -0.206497 192 234 140
0.151641 -0.212392 -0.192414 192 234 140
0.149461 -0.204058 -0.19219 192 234 140
0.025149 -0.18874 -0.185313 192 234 140
0.0190239 -0.389989 -0.188038 192 234 140
0.197591 -0.127627 -0.193083 192 234 140
0.378187 -0.347528 -0.204442 192 234 140
0.305144 -0.266964 -0.196447 192 234 140
0.37414 -0.0998776 -0.203876 192 234 140
0.260022 -0.0489671 -0.196629 192 234 140
-0.0360809 -0.0705819 -0.183306 192 234 140
-0.0955445 -0.300513 -0.190827 192 234 140
0.29035 -0.0560782 -0.198357 192 234 140
-0.0702594 -0.351367 -0.187429 192 234 140
-0.0105871 -0.130718 -0.185501 192 234 140
-0.13001 -0.0631569 -0.183718 192 234 140
0.203416 -0.214371 -0.19406 192 234 140
0.295963 -0.262226 -0.196393 192 234 140
0.042544 -0.124405 -0.186796 192 234 140
0.240635 -0.418059 -0.200588 192 234 140
0.14184 -0.221651 -0.192235 192 234 140
0.328495 -0.301042 -0.198474 192 234 140
0.342527 -0.129007 -0.202587 192 234 140
0.00315037 -0.0215301 -0.184261 192 234 140
-0.00505589 -0.342275 -0.187224 192 234 140
0.0718829 -0.133246 -0.18905 192 234 140
-0.179946 -0.0155264 -0.173315 224 210 119
-0.0349155 -0.0378177 -0.198549 224 210 119
0.159872 -0.0476826 -0.205068 224 210 119
-0.117081 -0.0842638 -0.203616 224 210 119
-0.102342 -0.0948169 -0.201441 224 210 119
0.122357 -0.202979 -0.201757 224 210 119
-0.174527 -0.18067 0.116518 224 210 119
-0.188352 0.0355342 -0.160803 224 210 119
-0.174907 -0.187047 0.163963 224 210 119
-0.176586 -0.0705859 0.224991 224 210 119
-0.175085 -0.146767 0.184564 224 210 119
-0.171673 -0.0906236 0.0255781 224 210 119
0.113077 0.0142838 -0.199722 224 210 119
0.0860734 -0.0312794 -0.199506 224 210 119
-0.199952 0.0439644 -0.0574192 224 210 119
0.12964 -0.0811185 -0.203308 224 210 119
-0.175357 -0.356762 0.145736 224 210 119
-0.206951 -0.065175 0.280124 224 210 119
-0.176682 -0.292759 0.0231657 224 210 119
-0.0336178 -0.405351 -0.197198 224 210 119
0.157935 -0.039786 -0.204282 224 210 119
0.190019 -0.209374 -0.202271 224 210 119
-0.167925 -0.146031 -0.202006 224 210 119
0.127698 -0.175306 -0.204011 224 210 119
0.10844 -0.273323 -0.195209 224 210 119
-0.176045 -0.34287 0.0903533 224 210 119
0.0283333 -0.0889558 -0.197933 224 210 119
0.221852 0.0195623 -0.203716 224 210 119
-0.193048 -0.285706 -0.134085 224 210 119
-0.156569 0.0397016 -0.199212 224 210 119
-0.181645 0.0145685 0.242698 224 210 119
-0.141412 -0.102791 -0.205708 224 210 119
-0.17819 -0.182583 -0.194125 224 210 119
-0.171463 -0.13472 0.030622 224 210 119
-0.176005 -0.0476412 -0.185166 224 210 119
-0.188638 0.0276486 0.0303394 224 210 119
-0.181842 -0.0130404 -0.168592 224 210 119
-0.196963 0.0139309 -0.0901302 224 210 119
0.0506523 -0.157726 -0.200667 224 210 119
-0.174767 -0.312589 0.186882 224 210 119
-0.133531 -0.131278 -0.203372 224 210 119
-0.10413 0.0317979 -0.20758 224 210 119
-0.0889344 0.0601576 -0.207453 224 210 119
-0.188685 -0.0854244 -0.0668525 224 210 119
-0.169076 0.00121072 -0.188517 224 210 119
-0.172556 -0.0660332 0.0221927 224 210 119
-0.189665 -0.370415 -0.0898459 224 210 119
0.0858134 -0.329535 -0.190198 224 210 119
-0.181917 -0.0697176 -0.175088 224 210 119
0.202067 -0.0841679 -0.20714 224 210 119
-0.174568 -0.0413671 0.100205 224 210 119
-0.175901 -0.359543 0.098107 224 210 119
0.177288 -0.0335657 -0.204939 224 210 119
-0.174579 -0.257683 0.120111 224 210 119
0.0311009 -0.148666 -0.200944 224 210 119
-0.181847 -0.297052 -0.0379364 224 210 119
-0.182411 -0.307839 -0.0404648 224 210 119
-0.174594 -0.151447 0.168058 224 210 119
-0.185187 -0.344168 -0.170246 224 210 119
-0.141026 -0.305413 -0.204725 224 210 119
-0.175121 -0.14737 0.185874 224 210 119
-0.174602 -0.2268 0.179371 224 210 119
-0.173292 -0.0542932 0.0213621 224 210 119
-0.194919 0.0414585 0.0096186 224 210 119
-0.0253951 -0.226204 -0.202125 224 210 119
-0.204347 0.0537464 -0.0472956 224 210 119
-0.183935 -0.169064 -0.18537 224 210 119
-0.180338 -0.345381 -0.000701781 224 210 119
-0.173665 -0.125197 0.123258 224 210 119
0.220384 -0.167216 -0.205927 224 210 119
-0.198078 0.0651466 -0.156539 224 210 119
-0.17436 -0.153426 0.153497 224 210 119
-0.193288 0.0339418 -0.0322038 224 210 119
0.0249326 0.0393777 -0.195944 224 210 119
-0.197878 0.0134228 -0.101141 224 210 119
0.136933 -0.314592 -0.192424 224 210 119
0.127985 0.0239785 -0.200375 224 210 119
-0.181866 0.0172558 0.21503 224 210 119
-0.203576 0.0494796 -0.123105 224 210 119
-0.176739 -0.0356912 0.00438252 224 210 119
-0.118645 -0.31405 -0.205653 224 210 119
-0.197539 0.042863 -0.0384196 224 210 119
-0.0930059 -0.343068 -0.204249 224 210 119
-0.171721 -0.0778421 0.0532703 224 210 119
-0.0641399 -0.0793181 -0.200519 224 210 119
0.07159 0.0258854 -0.19807 224 210 119
0.196277 -0.285258 -0.197195 224 210 119
-0.162702 -0.335719 -0.197578 224 210 119
0.142668 -0.182429 -0.204066 224 210 119
0.105283 -0.337447 -0.18978 224 210 119
-0.172408 -0.0403987 -0.189218 224 210 119
-0.0888831 -0.359538 -0.203215 224 210 119
0.0611823 -0.0603357 -0.200119 224 210 119
-0.094142 0.0167147 -0.205527 224 210 119
-0.0347022 -0.00200525 -0.198139 224 210 119
-0.0565228 0.0515163 -0.200792 224 210 119
0.227602 0.0171122 -0.20391 224 210 119
-0.178423 -0.105497 -0.189439 224 210 119
-0.0209924 -0.081508 -0.199142 224 210 119
-0.181934 -0.3692 -0.00989743 224 210 119
-0.187697 -0.333059 -0.0782267 224 210 119
-0.122632 -0.164463 -0.203479 224 210 119
0.0912722 -0.194089 -0.201392 224 210 119
0.133415 -0.261495 -0.197011 224 210 119
-0.181123 -0.0791583 -0.0388155 224 210 119
-0.178896 -0.0488913 -0.17948 224 210 119
-0.19077 -0.169393 -0.117536 224 210 119
-0.0518604 -0.0336286 -0.199513 224 210 119
-0.123379 -0.0546576 -0.206855 224 210 119
-0.18351 0.016722 0.148762 224 210 119
-0.188728 0.0299119 0.0888275 224 210 119
-0.157189 -0.096312 -0.204316 224 210 119
-0.0403471 -0.228653 -0.202492 224 210 119
0.0944892 0.0121489 -0.198885 224 210 119
0.236517 0.00848569 -0.204314 224 210 119
-0.208441 0.0564928 -0.0869158 224 210 119
-0.195796 0.008254 -0.121688 224 210 119
0.0454388 -0.265826 -0.1967 224 210 119
-0.0775549 0.0484991 -0.20464 224 210 119
-0.133049 -0.00878764 -0.208669 224 210 119
0.152494 -0.294831 -0.194504 224 210 119
-0.188293 -0.225926 -0.172874 224 210 119
0.00422224 -0.329164 -0.195768 224 210 119
-0.171962 -0.0957281 0.0160407 224 210 119
-0.192789 -0.317346 -0.124995 224 210 119
-0.191421 -0.0448622 -0.074813 224 210 119
-0.161483 -0.00372195 -0.195427 224 210 119
-0.170613 0.0670453 -0.184537 224 210 119
0.156429 -0.0565566 -0.204955 224 210 119
-0.191422 0.00924673 0.308198 224 210 119
-0.180313 -0.256035 -0.0212188 224 210 119
0.088637 -0.128629 -0.202784 224 210 119
-0.193048 -0.355891 -0.140207 224 210 119
0.132843 -0.116534 -0.204683 224 210 119
-0.181187 -0.315992 -0.029401 224 210 119
-0.191998 -0.270727 -0.149176 224 210 119
-0.194877 0.0143858 -0.0734919 224 210 119
-0.179799 -0.307054 -0.0138136 224 210 119
0.0862203 0.0343616 -0.199122 224 210 119
-0.176693 -0.0348369 0.184285 224 210 119
-0.174464 -0.18119 0.10056 224 210 119
0.0826171 -0.267536 -0.195783 224 210 119
0.0285002 -0.388188 -0.191144 224 210 119
-0.173203 -0.172198 0.0562465 224 210 119
0.093266 -0.0600011 -0.201478 224 210 119
-0.034563 -0.141363 -0.201202 224 210 119
-0.180285 -0.00201481 0.0772634 224 210 119
-0.0687139 -0.079939 -0.200591 224 210 119
0.0495995 -0.000324428 -0.19645 224 210 119
-0.189276 -0.321188 -0.153845 224 210 119
-0.176522 -0.066908 0.219687 224 210 119
0.143994 0.0413161 -0.201687 224 210 119
-0.184136 -0.306446 -0.171973 224 210 119
-0.181682 0.00404062 0.0475215 224 210 119
0.178088 -0.0112888 -0.203109 224 210 119
-0.191417 -0.200679 -0.111832 224 210 119
0.194269 -0.400629 -0.196431 224 210 119
-0.0413253 -0.303961 -0.20192 224 210 119
-0.175076 -0.201997 0.0807734 224 210 119
-0.186605 -0.371223 -0.0619439 224 210 119
-0.191255 -0.280063 -0.150775 224 210 119
-0.189147 -0.140147 -0.165463 224 210 119
-0.177299 -0.0364624 0.212117 224 210 119
-0.201542 0.0511771 -0.0465913 224 210 119
0.0397531 -0.0644155 -0.197958 224 210 119
-0.026706 -0.40948 -0.196164 224 210 119
-0.178694 -0.0382717 0.253941 224 210 119
-0.186122 -0.0263272 -0.0516949 224 210 119
-0.187176 0.0281696 0.135883 224 210 119
0.125827 -0.109748 -0.203983 224 210 119
-0.174291 -0.250286 0.153896 224 210 119
-0.0298323 -0.169309 -0.202438 224 210 119
-0.18988 -0.118009 -0.146341 224 210 119
-0.131527 -0.240701 -0.205938 224 210 119
0.176695 -0.0559904 -0.205988 224 210 119
-0.18597 -0.3784 -0.0572395 224 210 119
-0.185233 -0.184723 -0.182979 224 210 119
-0.0356002 -0.279993 -0.201622 224 210 119
-0.0172415 -0.209679 -0.202275 224 210 119
-0.00501271 -0.3038 -0.197625 224 210 119
-0.19183 -0.195442 -0.153212 224 210 119
-0.102547 0.00729645 -0.206483 224 210 119
-0.176335 -0.0315074 0.153755 224 210 119
0.227376 -0.00419358 -0.204723 224 210 119
0.0863699 -0.353781 -0.189512 224 210 119
-0.197778 0.0321751 0.11154 224 210 119
-0.194411 -0.398604 -0.141755 224 210 119
-0.132478 -0.0407043 -0.208428 224 210 119
-0.203785 0.043684 -0.0964592 224 210 119
0.0486228 -0.0600961 -0.198731 224 210 119
-0.0830421 -0.00815181 -0.202056 224 210 119
-0.19604 0.00563055 -0.117177 224 210 119
-0.0286655 -0.178938 -0.202588 224 210 119
-0.0545909 -0.0219333 -0.19946 224 210 119
-0.0400143 -0.0725443 -0.19988 224 210 119
-0.150068 -0.177869 -0.205151 224 210 119
-0.175543 -0.130482 -0.0137767 224 210 119
0.0616913 -0.141263 -0.201274 224 210 119
0.0976831 -0.0529738 -0.201688 224 210 119
-0.155625 -0.0164612 -0.20056 224 210 119
0.15998 0.0178919 -0.201436 224 210 119
-0.177465 -0.17873 -0.0075464 224 210 119
-0.0223129 -0.0649426 -0.198712 224 210 119
-0.0985757 -0.00046207 -0.205427 224 210 119
-0.172613 -0.156739 0.0508435 224 210 119
-0.188848 0.0156069 -0.153902 224 210 119
0.0533947 -0.0679473 -0.199038 224 210 119
-0.0320609 0.0558484 -0.198673 224 210 119
-0.180125 -0.160394 -0.0295783 224 210 119
0.0293055 -0.391716 -0.191026 224 210 119
-0.0856877 -0.345045 -0.20393 224 210 119
-0.0770086 -0.165242 -0.202687 224 210 119
0.169348 -0.346263 -0.192482 224 210 119
-0.17779 -0.0206346 0.171591 224 210 119
-0.146295 0.0460494 -0.204998 224 210 119
0.131888 -0.333201 -0.191063 224 210 119
-0.20356 0.0515204 -0.0287958 224 210 119
-0.147769 -0.0855488 -0.206986 224 210 119
-0.202344 0.0515828 -0.0317026 224 210 119
-0.0478596 -0.0798863 -0.200122 224 210 119
-0.0196559 -0.0347041 -0.197733 224 210 119
-0.186166 0.0197924 0.0530556 224 210 119
-0.0115882 0.0362813 -0.197432 224 210 119
0.187003 -0.0376332 -0.206215 224 210 119
-0.190354 -0.124234 -0.120317 224 210 119
-0.190589 -0.0600859 -0.120402 224 210 119
-0.189395 0.0281932 0.00240674 224 210 119
-0.0458983 -0.0252969 -0.199051 224 210 119
-0.1734 -0.0749028 0.00391827 224 210 119
-0.190748 -0.152808 -0.123555 224 210 119
0.0134446 0.0255551 -0.195681 224 210 119
-0.184403 0.059501 -0.171783 224 210 119
-0.0671983 -0.055531 -0.200437 224 210 119
-0.0356303 -0.377386 -0.199058 224 210 119
-0.203107 0.0449502 -0.115751 224 210 119
0.138183 -0.373361 -0.189492 224 210 119
-0.0252022 -0.128911 -0.200398 224 210 119
0.237127 -0.00647364 -0.205343 224 210 119
0.146493 -0.32006 -0.192536 224 210 119
-0.10007 -0.0223924 -0.204635 224 210 119
-0.174632 -0.113329 0.17161 224 210 119
-0.189147 0.061365 -0.166096 224 210 119
-0.181637 0.00274082 0.0993498 224 210 119
-0.0530467 0.0559857 -0.200551 224 210 119
-0.146099 -0.0449167 -0.205816 224 210 119
-0.184159 -0.163333 -0.0453839 224 210 119
-0.0961671 -0.14004 -0.202003 224 210 119
-0.175775 -0.300844 0.0995154 224 210 119
-0.00661536 -0.293474 -0.198113 224 210 119
-0.175613 -0.373949 0.111745 224 210 119
-0.174505 -0.182445 0.105599 224 210 119
-0.0693729 -0.0284109 -0.200223 224 210 119
-0.190849 -0.140393 -0.131297 224 210 119
0.0145122 0.0134513 -0.19551 224 210 119
-0.104431 -0.187595 -0.204353 224 210 119
-0.202495 0.0402661 -0.0926637 224 210 119
-0.204033 0.0579564 -0.132387 224 210 119
-0.175365 -0.0657748 0.181629 224 210 119
-0.0451185 -0.276515 -0.201977 224 210 119
-0.174654 -0.315684 0.205455 224 210 119
-0.180888 -0.131039 -0.187772 224 210 119
-0.169432 -0.0556157 -0.19379 224 210 119
0.0313273 -0.235837 -0.198841 224 210 119
-0.202298 0.0482246 -0.00107655 224 210 119
0.070402 -0.0713259 -0.200566 224 210 119
-0.081054 -0.081161 -0.200874 224 210 119
-0.0720808 -0.410901 -0.200403 224 210 119
-0.1758 -0.297771 0.0539514 224 210 119
-0.190797 -0.0505604 -0.0716871 224 210 119
-0.0497836 -0.0618659 -0.199809 224 210 119
0.182343 -0.21503 -0.201682 224 210 119
-0.174532 -0.311004 0.213345 224 210 119
0.157044 -0.0871398 -0.205101 224 210 119
-0.0506909 -0.10202 -0.200169 224 210 119
-0.174607 -0.0678134 0.159477 224 210 119
-0.130742 0.0312162 -0.209584 224 210 119
-0.201957 0.0418924 -0.11995 224 210 119
-0.174808 -0.215949 0.192793 224 210 119
-0.193495 0.00690774 -0.0726387 224 210 119
-0.199727 0.0260952 -0.106606 224 210 119
-0.187247 -0.00970126 -0.149648 224 210 119
-0.193064 -0.281326 -0.140709 224 210 119
-0.193818 -0.0194877 -0.0980998 224 210 119
-0.180992 0.0068303 0.16146 224 210 119
-0.174478 -0.266565 0.119688 224 210 119
-0.201146 0.0370442 -0.123335 224 210 119
0.23388 -0.00828553 -0.205383 224 210 119
0.14404 -0.212785 -0.201412 224 210 119
-0.175724 -0.0474874 0.00316139 224 210 119
-0.177657 -0.292515 0.00611141 224 210 119
0.182497 -0.360313 -0.192815 224 210 119
-0.135005 -0.156399 -0.203603 224 210 119
-0.188188 -0.0224164 -0.141611 224 210 119
-0.0980501 -0.162829 -0.203265 224 210 119
-0.133892 -0.182805 -0.204185 224 210 119
-0.171869 -0.0717914 0.0520852 224 210 119
-0.109633 -0.383218 -0.202148 224 210 119
-0.182625 -0.223839 -0.0321447 224 210 119
-0.0785289 -0.0581364 -0.200911 224 210 119
-0.00623412 0.0201564 -0.196622 224 210 119
-0.0440422 -0.022351 -0.198894 224 210 119
-0.159057 -0.113859 -0.204563 224 210 119
-0.0102478 -0.174323 -0.202472 224 210 119
-0.191088 -0.0894976 -0.117903 224 210 119
-0.185478 0.0209858 0.220413 224 210 119
0.204578 -0.0694949 -0.207173 224 210 119
-0.184877 0.0656545 -0.172116 224 210 119
-0.208689 0.0589652 -0.115888 224 210 119
-0.173892 -0.0551942 0.0138392 224 210 119
-0.0250633 -0.210964 -0.202436 224 210 119
0.153897 -0.111623 -0.20569 224 210 119
-0.171939 -0.0701451 0.0533704 224 210 119
-0.192666 -0.255719 -0.133255 224 210 119
-0.17353 -0.0557477 0.0170804 224 210 119
0.0305274 -0.185234 -0.200416 224 210 119
0.201436 -0.0994616 -0.207352 224 210 119
0.00773375 -0.360444 -0.19406 224 210 119
-0.174244 -0.278665 0.183309 224 210 119
0.19469 -0.350124 -0.193987 224 210 119
0.173023 -0.0753628 -0.205655 224 210 119
-0.185332 -0.177299 -0.0462102 224 210 119
-0.189617 -0.10917 -0.145318 224 210 119
-0.175497 -0.0813845 0.202405 224 210 119
-0.173126 -0.20544 -0.198893 224 210 119
0.0911712 -0.0225758 -0.199362 224 210 119
-0.17581 -0.30596 0.118965 224 210 119
-0.0849963 -0.188801 -0.203993 224 210 119
-0.171445 -0.108807 0.0391246 224 210 119
0.163522 -0.393307 -0.19223 224 210 119
-0.115279 -0.0105429 -0.207987 224 210 119
0.0263831 -0.189696 -0.200506 224 210 119
-0.176187 -0.321737 -0.190185 224 210 119
-0.188501 -0.233188 -0.171541 224 210 119
-0.0614932 -0.0453806 -0.200038 224 210 119
-0.193445 0.0383323 0.0179181 224 210 119
-0.208409 0.0557135 -0.0976533 224 210 119
-0.1809 -0.0277175 -0.171615 224 210 119
0.00777365 0.00836328 -0.195843 224 210 119
-0.195424 -0.391078 -0.1247 224 210 119
-0.0625497 -0.132996 -0.201135 224 210 119
-0.174412 -0.195625 0.0479122 224 210 119
0.0246854 -0.163167 -0.201621 224 210 119
0.168593 -0.170685 -0.205315 224 210 119
-0.172433 -0.148381 0.021151 224 210 119
0.0239766 -0.311498 -0.194518 224 210 119
0.0560073 -0.11379 -0.199798 224 210 119
-0.0245808 0.0516025 -0.198466 224 210 119
-0.191639 -0.0434794 -0.103688 224 210 119
0.141524 -0.398389 -0.189823 224 210 119
-0.0829002 -0.395818 -0.201038 224 210 119
-0.0233793 -0.126216 -0.20026 224 210 119
-0.0203759 -0.0703292 -0.199006 224 210 119
0.213573 0.0184587 -0.203429 224 210 119
-0.182015 -0.0956249 -0.0440511 224 210 119
0.02919 -0.251635 -0.198179 224 210 119
0.100945 -0.307431 -0.191555 224 210 119
-0.192664 0.0135398 -0.138439 224 210 119
0.0519045 -0.130284 -0.200024 224 210 119
0.00371309 -0.0537788 -0.197517 224 210 119
-0.188715 -0.00115018 -0.0553474 224 210 119
-0.175682 -0.316822 0.124883 224 210 119
-0.187885 0.0255715 0.0241945 224 210 119
-0.176292 -0.0821763 -0.020891 224 210 119
-0.0652152 -0.326964 -0.203202 224 210 119
-0.182848 -0.0849559 -0.178351 224 210 119
-0.182376 -0.0357944 -0.167791 224 210 119
-0.175 -0.26146 0.0889202 224 210 119
0.00828376 -0.0431766 -0.196876 224 210 119
-0.186676 -0.0585722 -0.151723 224 210 119
-0.199015 0.0414338 0.0549326 224 210 119
-0.0130738 -0.217691 -0.202053 224 210 119
-0.174898 -0.189923 0.159459 224 210 119
-0.175039 -0.226982 0.0998193 224 210 119
-0.0580647 -0.262377 -0.202876 224 210 119
0.0323202 -0.173774 -0.200719 224 210 119
-0.176924 -0.0542276 0.227319 224 210 119
-0.175376 -0.151613 0.197214 224 210 119
-0.175295 -0.088878 0.196204 224 210 119
0.0696738 -0.0149547 -0.198009 224 210 119
-0.175649 -0.315485 0.138224 224 210 119
-0.186957 -0.373841 -0.17433 224 210 119
-0.179426 -0.00703398 0.190101 224 210 119
-0.201113 0.00548621 0.175307 224 210 119
-0.189967 -0.247704 -0.0976525 224 210 119
-0.158177 -0.409914 -0.196866 224 210 119
-0.186024 -0.138201 -0.175522 224 210 119
-0.174237 -0.363345 -0.192068 224 210 119
-0.156324 -0.402259 -0.197458 224 210 119
-0.143941 0.0502132 -0.205847 224 210 119
0.0665722 -0.264848 -0.196269 224 210 119
-0.0322109 -0.242724 -0.201942 224 210 119
-0.189614 -0.228231 -0.168501 224 210 119
-0.174624 -0.083949 0.178179 224 210 119
0.0943046 -0.383053 -0.188227 224 210 119
-0.191736 -0.222935 -0.155698 224 210 119
-0.191329 -0.220605 -0.116393 224 210 119
-0.180399 -0.332632 -0.185175 224 210 119
0.244443 0.0314609 -0.204602 224 210 119
-0.193105 -0.0298081 -0.0848303 224 210 119
0.187934 -0.371771 -0.193904 224 210 119
-0.0111891 -0.0465182 -0.19749 224 210 119
-0.193166 -0.025205 -0.0850847 224 210 119
-0.0634747 -0.403298 -0.200151 224 210 119
-0.105514 0.0305606 -0.207661 224 210 119
0.0677682 -0.0965816 -0.200416 224 210 119
-0.181819 -0.244593 -0.0305249 224 210 119
-0.190315 -0.395353 -0.162852 224 210 119
-0.190878 -0.0607866 -0.111146 224 210 119
-0.17542 -0.276804 0.0665691 224 210 119
0.127475 -0.2949 -0.193297 224 210 119
-0.0803163 -0.249967 -0.20469 224 210 119
0.0924 -0.0782432 -0.201099 224 210 119
-0.0883697 -0.0964155 -0.201009 224 210 119
0.181566 -0.197908 -0.20314 224 210 119
-0.174238 -0.296868 0.199879 224 210 119
-0.0158598 -0.0338379 -0.19756 224 210 119
-0.201322 0.036717 -0.102114 224 210 119
-0.177347 -0.0178207 0.100454 224 210 119
0.0707574 -0.321389 -0.191977 224 210 119
-0.199729 0.0483976 -0.0325067 224 210 119
-0.0596235 -0.204386 -0.203652 224 210 119
-0.205215 -0.00336045 0.135317 224 210 119
-0.17423 -0.291154 0.196134 224 210 119
-0.120909 -0.0281419 -0.208205 224 210 119
-0.0785727 -0.159721 -0.202433 224 210 119
0.171592 -0.10818 -0.206466 224 210 119
0.196348 -0.340121 -0.194472 224 210 119
-0.186289 0.0182993 0.0806061 224 210 119
-0.191689 -0.0186172 -0.117113 224 210 119
0.155592 -0.251068 -0.198146 224 210 119
0.19349 -0.247498 -0.199994 224 210 119
-0.173517 -0.0492185 0.0668286 224 210 119
-0.176955 -0.0210353 0.092 224 210 119
-0.149106 -0.151324 -0.204925 224 210 119
-0.190528 -0.0908559 -0.0870914 224 210 119
