ply
format ascii 1.0
comment Created by Open3D
element vertex 1155
property double x
property double y
property double z
property uchar red
property uchar green
property uchar blue
end_header
-0.163238 -0.478207 -0.208076 160 249 161
-0.184134 -0.432646 0.142505 160 249 161
-0.176389 -0.373816 -0.0682648 160 249 161
-0.182914 -0.388738 0.0839939 160 249 161
-0.19002 -0.359048 0.300388 160 249 161
-0.197379 -0.241857 0.297732 160 249 161
-0.184422 -0.304298 -0.0337842 160 249 161
-0.181053 -0.317202 -0.167433 160 249 161
-0.186903 -0.450462 -0.192403 160 249 161
-0.192427 -0.231754 -0.00433785 160 249 161
-0.195736 -0.26398 0.209759 160 249 161
-0.186868 -0.428997 0.325669 160 249 161
-0.176815 -0.414096 -0.0212226 160 249 161
-0.175872 -0.380068 -0.0757325 160 249 161
-0.184623 -0.274616 -0.0977761 160 249 161
-0.178475 -0.42877 -0.0183943 160 249 161
-0.190534 -0.264049 -0.00164178 160 249 161
0.00759706 -0.489848 -0.162862 160 249 161
-0.184704 -0.467421 0.299748 160 249 161
-0.190451 -0.296782 0.151488 160 249 161
0.15548 -0.488949 0.0145053 160 249 161
-0.190947 -0.265844 0.0125166 160 249 161
-0.0103904 -0.488552 0.0263466 160 249 161
-0.182251 -0.417665 -0.150146 160 249 161
0.179673 -0.492019 -0.11278 160 249 161
-0.193106 -0.212621 -0.00416313 160 249 161
-0.194022 -0.286032 0.191581 160 249 161
-0.184669 -0.316561 0.0321671 160 249 161
-0.184651 -0.305447 0.0762424 160 249 161
-0.00178598 -0.480674 0.112255 160 249 161
-0.18763 -0.473566 -0.0232624 160 249 161
-0.172209 -0.481739 -0.065387 160 249 161
-0.185889 -0.308849 -0.00579885 160 249 161
-0.178177 -0.375996 -0.205215 160 249 161
-0.19371 -0.281491 0.183466 160 249 161
-0.190387 -0.332089 0.194195 160 249 161
-0.184607 -0.432058 -0.109235 160 249 161
-0.175504 -0.372286 -0.0920775 160 249 161
-0.182726 -0.347856 -0.00204244 160 249 161
-0.179492 -0.414962 -0.0777595 160 249 161
-0.018414 -0.489298 -0.12255 160 249 161
-0.188048 -0.224575 -0.100949 160 249 161
-0.196747 -0.249962 0.257891 160 249 161
-0.18447 -0.481372 0.0478631 160 249 161
-0.184365 -0.248918 -0.140486 160 249 161
-0.189205 -0.466105 0.0167066 160 249 161
-0.197304 -0.23124 0.268836 160 249 161
-0.187855 -0.461042 -0.185996 160 249 161
-0.191995 -0.219109 0.14781 160 249 161
-0.19138 -0.250432 -0.00294765 160 249 161
-0.183236 -0.347075 0.0191213 160 249 161
-0.185272 -0.413 0.176373 160 249 161
-0.183168 -0.466736 0.355571 160 249 161
-0.192402 -0.282279 0.1614 160 249 161
0.00885243 -0.483068 0.128548 160 249 161
-0.193408 -0.326461 0.316241 160 249 161
-0.186111 -0.272686 -0.0807474 160 249 161
-0.18779 -0.287291 0.0346246 160 249 161
-0.194666 -0.248573 0.177499 160 249 161
-0.188409 -0.474917 -0.134204 160 249 161
-0.176059 -0.372975 -0.0772543 160 249 161
-0.188014 -0.282404 0.0485731 160 249 161
-0.186791 -0.399708 0.282448 160 249 161
-0.191783 -0.474412 0.0379145 160 249 161
-0.182529 -0.289133 -0.128741 160 249 161
-0.120698 -0.481097 0.173726 160 249 161
-0.18636 -0.378263 0.18888 160 249 161
-0.176287 -0.370249 -0.117392 160 249 161
-0.1924 -0.220583 -0.0406079 160 249 161
-0.183451 -0.473409 0.335289 160 249 161
-0.190999 -0.478656 0.0315347 160 249 161
-0.186787 -0.427289 0.323735 160 249 161
-0.180101 -0.338694 -0.0801651 160 249 161
-0.185768 -0.372883 0.167689 160 249 161
-0.190272 -0.362318 0.242137 160 249 161
-0.194518 -0.215841 0.181601 160 249 161
-0.191968 -0.230431 0.137794 160 249 161
-0.193191 -0.253821 0.155525 160 249 161
-0.177129 -0.342098 -0.137431 160 249 161
-0.181761 -0.401763 1.63019e-05 160 249 161
-0.185205 -0.446572 0.0104511 160 249 161
-0.190836 -0.353488 0.230098 160 249 161
-0.196662 -0.249464 0.277372 160 249 161
-0.188201 -0.385834 0.321792 160 249 161
-0.191514 -0.226719 0.0993934 160 249 161
0.156478 -0.490144 -0.0420129 160 249 161
-0.185991 -0.369012 0.166971 160 249 161
-0.185875 -0.400923 0.208152 160 249 161
-0.188228 -0.45461 -0.144526 160 249 161
-0.183525 -0.423855 0.0973296 160 249 161
-0.196079 -0.246815 0.209316 160 249 161
-0.18642 -0.438281 0.27031 160 249 161
-0.182722 -0.238073 -0.15023 160 249 161
-0.183632 -0.414576 0.0512606 160 249 161
-0.130374 -0.481683 -0.197836 160 249 161
-0.187571 -0.408945 0.338911 160 249 161
-0.196418 -0.260287 0.246465 160 249 161
-0.186439 -0.379585 0.19359 160 249 161
-0.0824148 -0.482054 0.0996867 160 249 161
-0.183604 -0.378063 0.136104 160 249 161
-0.186937 -0.297058 0.115598 160 249 161
-0.185798 -0.235257 -0.126466 160 249 161
0.204555 -0.49278 -0.119418 160 249 161
-0.177395 -0.35615 -0.0846515 160 249 161
-0.183161 -0.466276 0.353254 160 249 161
0.191967 -0.490936 -0.0351792 160 249 161
-0.194675 -0.293187 0.206858 160 249 161
-0.188484 -0.284472 -0.000112822 160 249 161
-0.178469 -0.398308 -0.0174125 160 249 161
-0.186436 -0.435427 0.27524 160 249 161
-0.186485 -0.283635 -0.0429655 160 249 161
-0.180261 -0.357351 -0.0153398 160 249 161
-0.191574 -0.219067 0.116908 160 249 161
-0.180838 -0.303812 -0.136593 160 249 161
-0.182808 -0.33522 0.0494447 160 249 161
-0.198354 -0.21306 0.287533 160 249 161
-0.148425 -0.482675 0.024767 160 249 161
-0.190258 -0.326381 0.180812 160 249 161
-0.187939 -0.382195 0.234916 160 249 161
-0.190766 -0.278652 0.140975 160 249 161
-0.183864 -0.440208 0.0691834 160 249 161
-0.186699 -0.419412 0.320569 160 249 161
-0.181888 -0.41686 -0.161481 160 249 161
-0.185194 -0.449597 0.151265 160 249 161
-0.181538 -0.433087 0.000113877 160 249 161
-0.190127 -0.362525 0.27711 160 249 161
-0.197042 -0.227783 0.259462 160 249 161
-0.182382 -0.375032 -0.00231655 160 249 161
-0.183764 -0.437928 0.0678109 160 249 161
-0.18322 -0.442964 -0.00349679 160 249 161
-0.0788386 -0.481758 0.132347 160 249 161
-0.180234 -0.472115 -0.240254 160 249 161
-0.185547 -0.264046 -0.120451 160 249 161
-0.188793 -0.283243 0.120989 160 249 161
-0.179531 -0.328767 -0.156498 160 249 161
0.187093 -0.493136 -0.16695 160 249 161
-0.18143 -0.303708 -0.161465 160 249 161
-0.194259 -0.206304 0.18647 160 249 161
-0.183214 -0.391978 0.0647924 160 249 161
-0.183543 -0.430621 0.0929 160 249 161
-0.184271 -0.475799 -0.202256 160 249 161
-0.181772 -0.306975 -0.185337 160 249 161
-0.195859 -0.284721 0.284728 160 249 161
-0.176324 -0.418005 -0.022526 160 249 161
0.00232976 -0.488863 -0.220022 160 249 161
-0.144401 -0.48271 0.0269566 160 249 161
-0.177903 -0.361771 -0.0548614 160 249 161
-0.186349 -0.437955 -0.136474 160 249 161
-0.178079 -0.40173 -0.110889 160 249 161
-0.182844 -0.394819 0.0956027 160 249 161
-0.181338 -0.354369 -0.00972317 160 249 161
-0.18865 -0.463245 0.245047 160 249 161
-0.188048 -0.275201 -0.0252296 160 249 161
-0.192679 -0.208503 -0.032144 160 249 161
-0.181558 -0.328553 -0.0665257 160 249 161
-0.188021 -0.465384 -0.0987475 160 249 161
-0.190708 -0.249014 0.0719791 160 249 161
-0.185742 -0.466131 0.280465 160 249 161
-0.187536 -0.238848 -0.110639 160 249 161
-0.185112 -0.438863 0.171574 160 249 161
-0.191436 -0.343505 0.305883 160 249 161
-0.000916376 -0.488616 -0.0294059 160 249 161
-0.178871 -0.370919 -0.218984 160 249 161
-0.189184 -0.218903 -0.0812974 160 249 161
-0.17868 -0.408815 -0.0881418 160 249 161
-0.177301 -0.479893 0.286113 160 249 161
-0.19568 -0.28535 0.251769 160 249 161
-0.18361 -0.398615 0.037706 160 249 161
-0.186587 -0.406226 0.254843 160 249 161
0.155173 -0.492006 -0.146805 160 249 161
-0.18119 -0.337724 -0.193932 160 249 161
-0.178117 -0.362322 -0.0448928 160 249 161
-0.110268 -0.486486 -0.135115 160 249 161
-0.188161 -0.279698 0.0556066 160 249 161
-0.185749 -0.43965 0.19491 160 249 161
-0.178438 -0.36638 -0.188744 160 249 161
-0.192983 -0.328536 0.281366 160 249 161
-0.182678 -0.35998 0.0620945 160 249 161
-0.194379 -0.311353 0.257775 160 249 161
-0.124914 -0.4837 -0.0449628 160 249 161
-0.182806 -0.331956 -0.0123244 160 249 161
-0.183618 -0.424961 0.129505 160 249 161
-0.191047 -0.310333 0.167434 160 249 161
-0.186995 -0.328759 0.149621 160 249 161
-0.186185 -0.441045 0.324102 160 249 161
-0.189458 -0.277659 0.00076023 160 249 161
-0.174434 -0.48088 0.193737 160 249 161
-0.185256 -0.423584 0.178889 160 249 161
-0.182632 -0.368315 0.0727246 160 249 161
-0.190739 -0.310076 0.163264 160 249 161
-0.19072 -0.472275 0.0264945 160 249 161
-0.184555 -0.323204 -0.00593956 160 249 161
-0.188445 -0.377609 0.244118 160 249 161
-0.182044 -0.337164 0.0928011 160 249 161
-0.000200264 -0.48865 -0.0558317 160 249 161
-0.0233746 -0.488777 0.0318475 160 249 161
-0.183021 -0.286167 -0.120856 160 249 161
-0.18472 -0.401497 0.157128 160 249 161
-0.187613 -0.30721 0.137736 160 249 161
-0.186575 -0.418642 0.315612 160 249 161
-0.183495 -0.466697 0.331384 160 249 161
-0.190092 -0.466779 0.0312971 160 249 161
-0.192225 -0.2069 0.156485 160 249 161
-0.185325 -0.420991 0.194729 160 249 161
-0.195926 -0.273824 0.246669 160 249 161
-0.171011 -0.48191 -0.0607839 160 249 161
-0.17555 -0.368119 -0.104691 160 249 161
-0.0260839 -0.48914 -0.0983998 160 249 161
-0.182924 -0.354818 0.049435 160 249 161
-0.194908 -0.214816 0.197549 160 249 161
-0.179403 -0.353408 -0.0295796 160 249 161
-0.184854 -0.460859 0.317268 160 249 161
-0.163029 -0.481122 -0.119642 160 249 161
-0.179779 -0.358863 -0.208827 160 249 161
-0.193098 -0.474381 0.133815 160 249 161
-0.186682 -0.43318 0.336688 160 249 161
-0.194394 -0.206262 0.192246 160 249 161
-0.185014 -0.395941 0.17083 160 249 161
-0.188586 -0.374786 0.292963 160 249 161
-0.182777 -0.359768 0.0590687 160 249 161
-0.19129 -0.226907 0.0779473 160 249 161
-0.187261 -0.427507 0.337986 160 249 161
0.243405 -0.493029 -0.0734357 160 249 161
-0.195809 -0.274548 0.232186 160 249 161
-0.187239 -0.249091 -0.102233 160 249 161
-0.178427 -0.357674 -0.0511791 160 249 161
-0.18626 -0.449817 0.0608279 160 249 161
-0.185372 -0.445114 0.346649 160 249 161
-0.186554 -0.236644 -0.12083 160 249 161
-0.185997 -0.255884 -0.123721 160 249 161
-0.183091 -0.325169 0.10242 160 249 161
-0.194208 -0.313634 0.2578 160 249 161
-0.194826 -0.285895 0.202984 160 249 161
-0.152564 -0.478693 -0.229885 160 249 161
-0.187357 -0.480548 0.0208517 160 249 161
-0.156827 -0.482242 0.0862316 160 249 161
-0.18714 -0.45512 0.28309 160 249 161
-0.187005 -0.300525 0.128863 160 249 161
-0.183154 -0.377331 0.0403085 160 249 161
-0.192116 -0.233224 -0.0199146 160 249 161
-0.176658 -0.47736 -0.201834 160 249 161
-0.181828 -0.305231 -0.196395 160 249 161
-0.188282 -0.475682 8.81907e-05 160 249 161
-0.178575 -0.329038 -0.117991 160 249 161
-0.182295 -0.293255 -0.184389 160 249 161
-0.179432 -0.319943 -0.115912 160 249 161
0.0447425 -0.490213 -0.162211 160 249 161
-0.183462 -0.414999 0.0652078 160 249 161
-0.184694 -0.449524 0.121758 160 249 161
-0.187635 -0.387675 0.301854 160 249 161
-0.195057 -0.292129 0.215396 160 249 161
-0.183908 -0.331551 -0.00564931 160 249 161
-0.182138 -0.35894 0.0897022 160 249 161
-0.183132 -0.380911 0.0452956 160 249 161
-0.108028 -0.482847 0.0505754 160 249 161
0.00703341 -0.489862 -0.15681 160 249 161
-0.176724 -0.391583 -0.198658 160 249 161
-0.188914 -0.298159 0.141046 160 249 161
-0.179451 -0.352505 -0.0324278 160 249 161
-0.183094 -0.388995 0.0409881 160 249 161
-0.183737 -0.357781 0.134884 160 249 161
-0.183645 -0.417431 0.0521439 160 249 161
-0.17756 -0.334643 -0.126916 160 249 161
-0.189403 -0.272302 0.0424034 160 249 161
-0.176029 -0.478675 -0.168354 160 249 161
-0.187313 -0.393627 0.305489 160 249 161
-0.192552 -0.283359 0.165468 160 249 161
-0.181257 -0.302808 -0.15677 160 249 161
-0.189649 -0.278984 0.0111896 160 249 161
-0.188772 -0.370478 0.230609 160 249 161
-0.175162 -0.480616 -0.109495 160 249 161
-0.179584 -0.431996 -0.236554 160 249 161
-0.177205 -0.352016 -0.101391 160 249 161
-0.187482 -0.288536 0.103109 160 249 161
-0.184475 -0.428528 -0.131311 160 249 161
-0.181683 -0.308936 -0.195856 160 249 161
-0.191792 -0.252228 0.0315271 160 249 161
-0.193993 -0.211096 0.033412 160 249 161
-0.182564 -0.481542 0.104148 160 249 161
-0.17809 -0.361363 -0.0492292 160 249 161
0.0700894 -0.487129 0.104883 160 249 161
-0.187918 -0.474898 0.00263424 160 249 161
-0.183688 -0.430239 0.131481 160 249 161
-0.180082 -0.337679 -0.0820448 160 249 161
-0.185252 -0.412137 0.168252 160 249 161
-0.182811 -0.481216 0.159587 160 249 161
-0.178769 -0.425117 -0.0106749 160 249 161
-0.179831 -0.408851 -0.00630653 160 249 161
-0.191666 -0.228631 0.0717082 160 249 161
-0.195029 -0.273692 0.197994 160 249 161
-0.183488 -0.398722 0.0530981 160 249 161
0.0722468 -0.490786 -0.211437 160 249 161
-0.183083 -0.363249 0.0397421 160 249 161
-0.196475 -0.22849 0.23431 160 249 161
-0.186425 -0.447003 -0.191076 160 249 161
-0.183603 -0.263919 -0.175372 160 249 161
0.0454278 -0.489499 -0.112265 160 249 161
-0.181611 -0.29699 -0.111423 160 249 161
-0.183834 -0.335617 0.0196805 160 249 161
-0.176992 -0.389938 -0.217947 160 249 161
-0.185213 -0.420772 0.183888 160 249 161
-0.183869 -0.470345 -0.224716 160 249 161
-0.19589 -0.273215 0.289614 160 249 161
-0.191621 -0.24036 0.0631995 160 249 161
0.0366294 -0.488105 0.0206604 160 249 161
-0.18221 -0.34142 0.0697397 160 249 161
-0.189255 -0.263614 0.0805364 160 249 161
-0.176352 -0.385306 -0.123117 160 249 161
-0.0641536 -0.4895 -0.117877 160 249 161
-0.185379 -0.40954 0.200099 160 249 161
-0.186027 -0.244245 -0.128926 160 249 161
-0.18012 -0.427834 -0.0034029 160 249 161
-0.182121 -0.349595 0.101549 160 249 161
-0.190383 -0.282748 0.140571 160 249 161
-0.18854 -0.270791 -0.0268401 160 249 161
-0.179606 -0.341199 -0.0821515 160 249 161
-0.184066 -0.289428 -0.0849367 160 249 161
-0.178464 -0.330523 -0.117493 160 249 161
-0.191695 -0.246141 0.13052 160 249 161
-0.192803 -0.472537 0.102243 160 249 161
-0.180364 -0.428025 -0.0523288 160 249 161
-0.183324 -0.283285 -0.12525 160 249 161
-0.191849 -0.25634 0.0172609 160 249 161
-0.183018 -0.444504 -0.215753 160 249 161
-0.123907 -0.481062 0.17836 160 249 161
-0.191802 -0.237892 -0.0162372 160 249 161
-0.0439894 -0.482824 0.0261067 160 249 161
-0.180207 -0.399375 -0.00784888 160 249 161
-0.187255 -0.267024 -0.0738181 160 249 161
-0.183627 -0.26537 -0.17626 160 249 161
-0.188538 -0.253876 -0.0746672 160 249 161
-0.193523 -0.255146 0.159257 160 249 161
-0.17992 -0.482149 0.0204571 160 249 161
-0.187776 -0.361431 0.184011 160 249 161
-0.185323 -0.445903 0.017618 160 249 161
-0.193755 -0.223378 0.0227278 160 249 161
-0.185766 -0.301252 0.0485954 160 249 161
-0.191946 -0.230429 0.13648 160 249 161
-0.17876 -0.402303 -0.15096 160 249 161
-0.195485 -0.29403 0.270529 160 249 161
-0.177159 -0.343715 -0.117603 160 249 161
-0.144103 -0.480812 0.199731 160 249 161
-0.182491 -0.331022 0.0568318 160 249 161
-0.178749 -0.402157 -0.149094 160 249 161
-0.182003 -0.293854 -0.121885 160 249 161
-0.186784 -0.441696 -0.145763 160 249 161
-0.196721 -0.224546 0.254738 160 249 161
-0.183105 -0.286985 -0.102822 160 249 161
-0.183669 -0.26793 -0.17583 160 249 161
-0.184149 -0.437163 -0.0705398 160 249 161
-0.18473 -0.438172 0.159198 160 249 161
-0.182187 -0.299295 -0.101625 160 249 161
0.113727 -0.295353 -0.253918 192 234 140
0.438004 -0.440048 -0.169479 192 234 140
0.0348146 -0.337239 -0.250251 192 234 140
0.211111 -0.265806 -0.254806 192 234 140
0.170701 -0.295693 -0.255858 192 234 140
0.29811 -0.374545 -0.243604 192 234 140
0.104786 -0.294171 -0.253203 192 234 140
0.419976 -0.366973 -0.164924 192 234 140
0.321423 -0.357096 -0.236527 192 234 140
0.341118 -0.409937 -0.233796 192 234 140
0.405059 -0.343434 -0.177774 192 234 140
0.167659 -0.475459 0.0261454 192 234 140
0.280573 -0.341187 -0.245839 192 234 140
0.113194 -0.281189 -0.254174 192 234 140
0.416895 -0.361697 -0.167878 192 234 140
-0.019186 -0.376409 -0.248917 192 234 140
0.151829 -0.439253 -0.25181 192 234 140
0.443152 -0.398118 -0.129594 192 234 140
0.0727279 -0.422578 -0.248379 192 234 140
0.0974714 -0.473348 -0.254657 192 234 140
0.344049 -0.3477 -0.227968 192 234 140
0.173305 -0.304999 -0.254805 192 234 140
0.445375 -0.473007 -0.155356 192 234 140
0.255826 -0.45486 -0.257889 192 234 140
0.0200552 -0.244002 -0.255067 192 234 140
0.339985 -0.310988 -0.205917 192 234 140
0.159557 -0.43614 -0.250394 192 234 140
0.462087 -0.458238 -0.0916519 192 234 140
0.0636652 -0.292591 -0.253224 192 234 140
-0.01447 -0.477942 -0.254843 192 234 140
0.211814 -0.437297 -0.250893 192 234 140
0.0450216 -0.3101 -0.252601 192 234 140
0.115666 -0.223434 -0.253894 192 234 140
0.25295 -0.320281 -0.249605 192 234 140
-0.0025944 -0.191112 -0.257143 192 234 140
0.306934 -0.31151 -0.232882 192 234 140
0.00889698 -0.395654 -0.248614 192 234 140
0.103763 -0.478481 -0.0828796 192 234 140
0.298257 -0.483689 -0.135026 192 234 140
0.111973 -0.214684 -0.254008 192 234 140
0.129631 -0.474643 0.0216503 192 234 140
0.42749 -0.388678 -0.161144 192 234 140
0.0837617 -0.444907 -0.252476 192 234 140
0.0408159 -0.296785 -0.253517 192 234 140
0.293139 -0.292604 -0.236953 192 234 140
0.360362 -0.475384 -0.238064 192 234 140
0.0144405 -0.326979 -0.251985 192 234 140
0.333264 -0.325317 -0.228623 192 234 140
0.256783 -0.258335 -0.23883 192 234 140
0.341078 -0.310636 -0.208544 192 234 140
0.27899 -0.357402 -0.246941 192 234 140
0.449914 -0.47512 -0.133006 192 234 140
0.197284 -0.227491 -0.254839 192 234 140
0.0625885 -0.430125 -0.249041 192 234 140
0.193928 -0.30081 -0.254872 192 234 140
0.384025 -0.365082 -0.210374 192 234 140
0.0270482 -0.277585 -0.255076 192 234 140
-0.0107062 -0.363476 -0.248737 192 234 140
0.0437047 -0.43386 -0.250517 192 234 140
0.354843 -0.326159 -0.221078 192 234 140
0.00158001 -0.321213 -0.252577 192 234 140
0.0615663 -0.262838 -0.253542 192 234 140
0.186337 -0.480728 -0.25529 192 234 140
0.0269491 -0.332287 -0.251193 192 234 140
0.404837 -0.364353 -0.186495 192 234 140
0.367479 -0.383228 -0.221415 192 234 140
0.169004 -0.484343 -0.176603 192 234 140
0.274568 -0.356156 -0.247881 192 234 140
0.32098 -0.484231 -0.241122 192 234 140
0.207526 -0.480732 -0.255397 192 234 140
0.400297 -0.37138 -0.19454 192 234 140
0.41925 -0.486302 -0.179349 192 234 140
0.265103 -0.425519 -0.24768 192 234 140
0.305941 -0.433376 -0.24859 192 234 140
0.457206 -0.451247 -0.116997 192 234 140
0.257624 -0.274855 -0.244767 192 234 140
0.16975 -0.485836 -0.206105 192 234 140
0.211653 -0.398408 -0.248683 192 234 140
0.169027 -0.228453 -0.254416 192 234 140
0.338382 -0.324753 -0.224914 192 234 140
0.253695 -0.324665 -0.250684 192 234 140
0.203004 -0.301392 -0.254211 192 234 140
0.421277 -0.355075 -0.156993 192 234 140
0.275654 -0.448574 -0.255878 192 234 140
0.443625 -0.428565 -0.138419 192 234 140
0.146598 -0.225261 -0.255689 192 234 140
0.0887349 -0.477011 -0.25411 192 234 140
0.202284 -0.46584 -0.259516 192 234 140
0.239247 -0.378743 -0.251595 192 234 140
0.190392 -0.33275 -0.252952 192 234 140
0.328632 -0.32215 -0.225476 192 234 140
0.0606732 -0.377303 -0.250197 192 234 140
0.0767985 -0.404854 -0.249539 192 234 140
-0.0402625 -0.48421 -0.22642 192 234 140
0.0150765 -0.450583 -0.252964 192 234 140
0.10065 -0.248288 -0.253117 192 234 140
0.251391 -0.353427 -0.251763 192 234 140
0.130354 -0.241283 -0.255364 192 234 140
0.30454 -0.372577 -0.242183 192 234 140
0.035956 -0.193816 -0.254999 192 234 140
0.316174 -0.472865 -0.253412 192 234 140
0.20331 -0.383853 -0.249959 192 234 140
0.245907 -0.343395 -0.252404 192 234 140
0.325998 -0.323197 -0.227057 192 234 140
0.0975674 -0.217927 -0.25356 192 234 140
0.121992 -0.335748 -0.252675 192 234 140
0.344233 -0.350248 -0.228176 192 234 140
0.343874 -0.373777 -0.231251 192 234 140
0.42895 -0.369238 -0.149354 192 234 140
0.181673 -0.42334 -0.246031 192 234 140
0.141912 -0.475987 -0.00446947 192 234 140
0.0962648 -0.247639 -0.253076 192 234 140
0.360636 -0.399422 -0.225147 192 234 140
0.224611 -0.234931 -0.252028 192 234 140
0.426672 -0.479107 -0.197834 192 234 140
0.137127 -0.356221 -0.253563 192 234 140
0.260432 -0.483926 -0.132141 192 234 140
-0.0312886 -0.469023 0.0602245 192 234 140
0.187729 -0.468354 -0.258508 192 234 140
0.151715 -0.430934 -0.249148 192 234 140
0.225246 -0.421434 -0.247036 192 234 140
0.371369 -0.349407 -0.215964 192 234 140
0.186535 -0.42932 -0.246934 192 234 140
-0.0342092 -0.476352 -0.0772211 192 234 140
0.44656 -0.442214 -0.144268 192 234 140
0.26836 -0.432532 -0.249873 192 234 140
0.38549 -0.447494 -0.22531 192 234 140
0.196991 -0.478044 -0.0147154 192 234 140
0.089441 -0.435447 -0.250373 192 234 140
0.0237391 -0.274991 -0.255205 192 234 140
0.217657 -0.307435 -0.252426 192 234 140
0.1757 -0.36348 -0.251455 192 234 140
0.114208 -0.310786 -0.253349 192 234 140
0.40193 -0.48439 -0.218896 192 234 140
0.0365913 -0.450222 -0.251835 192 234 140
0.191678 -0.350151 -0.252218 192 234 140
0.424724 -0.36497 -0.15552 192 234 140
0.287324 -0.462604 -0.258363 192 234 140
0.121531 -0.374373 -0.253492 192 234 140
0.0395412 -0.199623 -0.254734 192 234 140
0.101333 -0.348081 -0.251643 192 234 140
0.411046 -0.485959 -0.161041 192 234 140
0.277945 -0.298776 -0.242638 192 234 140
0.181291 -0.402518 -0.248577 192 234 140
-0.0490481 -0.485179 -0.244573 192 234 140
0.178457 -0.428632 -0.246946 192 234 140
0.220249 -0.484833 -0.162016 192 234 140
0.421223 -0.454812 -0.200197 192 234 140
-0.0124175 -0.2842 -0.255728 192 234 140
0.0695846 -0.439373 -0.251902 192 234 140
0.316675 -0.305211 -0.195364 192 234 140
0.238238 -0.387085 -0.250861 192 234 140
0.257697 -0.288787 -0.24873 192 234 140
0.182771 -0.480955 -0.102746 192 234 140
0.0689995 -0.266335 -0.253472 192 234 140
0.128513 -0.473836 0.0430242 192 234 140
0.282215 -0.452861 -0.256749 192 234 140
0.135539 -0.337323 -0.253001 192 234 140
0.375229 -0.405207 -0.218323 192 234 140
0.00980059 -0.36808 -0.248429 192 234 140
0.158694 -0.251987 -0.255796 192 234 140
0.133432 -0.329217 -0.253095 192 234 140
0.139513 -0.477794 -0.0521583 192 234 140
0.115204 -0.321466 -0.252945 192 234 140
0.293445 -0.290669 -0.221008 192 234 140
0.122833 -0.239734 -0.254583 192 234 140
0.173556 -0.421565 -0.246668 192 234 140
-0.0915944 -0.469498 0.0182665 192 234 140
0.22489 -0.479948 -0.254835 192 234 140
0.190768 -0.351791 -0.252102 192 234 140
0.42668 -0.393962 -0.163605 192 234 140
0.406996 -0.348621 -0.177651 192 234 140
0.317222 -0.459438 -0.255034 192 234 140
0.216921 -0.479083 -0.254022 192 234 140
0.0353191 -0.199364 -0.254966 192 234 140
0.267517 -0.388002 -0.248471 192 234 140
-0.00077101 -0.303901 -0.254019 192 234 140
0.392162 -0.436864 -0.216242 192 234 140
0.444347 -0.421747 -0.130259 192 234 140
0.138576 -0.23276 -0.255681 192 234 140
0.365946 -0.339347 -0.217699 192 234 140
-0.00317434 -0.354223 -0.248647 192 234 140
0.068259 -0.482958 -0.186174 192 234 140
0.181388 -0.350827 -0.251645 192 234 140
0.189338 -0.454437 -0.256626 192 234 140
0.174872 -0.318895 -0.252658 192 234 140
0.318662 -0.375677 -0.239151 192 234 140
0.445446 -0.474116 -0.155854 192 234 140
0.116476 -0.482128 -0.160057 192 234 140
0.116453 -0.278293 -0.25438 192 234 140
0.257826 -0.320725 -0.248745 192 234 140
0.457835 -0.461199 -0.110415 192 234 140
-0.00532169 -0.408073 -0.248572 192 234 140
0.341376 -0.393187 -0.233477 192 234 140
0.175872 -0.400894 -0.249384 192 234 140
0.105991 -0.292984 -0.253365 192 234 140
0.0799031 -0.221027 -0.253192 192 234 140
0.251599 -0.264975 -0.244654 192 234 140
0.0980857 -0.403482 -0.250267 192 234 140
0.367475 -0.42167 -0.223962 192 234 140
0.41768 -0.420805 -0.183558 192 234 140
0.40514 -0.484292 -0.135865 192 234 140
0.308984 -0.318598 -0.23335 192 234 140
0.285091 -0.410734 -0.24614 192 234 140
0.180226 -0.314803 -0.253622 192 234 140
0.435366 -0.397587 -0.147297 192 234 140
0.193698 -0.369477 -0.250906 192 234 140
0.0975218 -0.36038 -0.252262 192 234 140
0.0726881 -0.483132 -0.260505 192 234 140
0.108744 -0.379533 -0.252575 192 234 140
0.150657 -0.336723 -0.253201 192 234 140
0.115985 -0.475246 -0.000815805 192 234 140
0.173448 -0.483781 -0.1668 192 234 140
0.195304 -0.26223 -0.255096 192 234 140
0.0530012 -0.279081 -0.253935 192 234 140
0.347003 -0.346608 -0.226939 192 234 140
0.0801012 -0.248361 -0.25298 192 234 140
0.208384 -0.482324 -0.2538 192 234 140
0.421945 -0.424185 -0.178681 192 234 140
0.0420481 -0.484566 -0.214376 192 234 140
0.345087 -0.427673 -0.233232 192 234 140
-0.0346694 -0.482455 -0.262848 192 234 140
0.379814 -0.454083 -0.22998 192 234 140
0.105064 -0.481824 -0.155932 192 234 140
0.186487 -0.303142 -0.254931 192 234 140
0.455402 -0.433295 -0.107296 192 234 140
0.343631 -0.314834 -0.179376 192 234 140
0.0369076 -0.436896 -0.251604 192 234 140
0.2378 -0.250635 -0.249452 192 234 140
0.43648 -0.434 -0.166774 192 234 140
0.110185 -0.284887 -0.254059 192 234 140
0.414958 -0.356783 -0.169261 192 234 140
0.326852 -0.310624 -0.177954 192 234 140
-0.00363061 -0.446862 -0.252959 192 234 140
0.0211458 -0.444254 -0.252761 192 234 140
0.399477 -0.394307 -0.200119 192 234 140
0.350886 -0.315112 -0.183498 192 234 140
0.207255 -0.311099 -0.25295 192 234 140
0.231154 -0.351271 -0.25328 192 234 140
0.447351 -0.415434 -0.121203 192 234 140
0.326501 -0.43036 -0.242284 192 234 140
0.0602524 -0.205445 -0.253579 192 234 140
0.456411 -0.435638 -0.106204 192 234 140
0.291182 -0.348249 -0.243719 192 234 140
0.32678 -0.350276 -0.234319 192 234 140
0.193067 -0.292482 -0.255684 192 234 140
0.240452 -0.432782 -0.249842 192 234 140
0.299019 -0.390557 -0.243747 192 234 140
0.167424 -0.225492 -0.2545 192 234 140
0.0546527 -0.200323 -0.253863 192 234 140
0.405486 -0.486886 -0.193466 192 234 140
-0.101337 -0.46822 0.0358288 192 234 140
0.445686 -0.46918 -0.152781 192 234 140
0.0143517 -0.48006 -0.137112 192 234 140
0.14869 -0.484913 -0.191477 192 234 140
0.221262 -0.375322 -0.251783 192 234 140
0.267032 -0.282902 -0.245964 192 234 140
0.386137 -0.386164 -0.210743 192 234 140
0.397921 -0.468537 -0.222333 192 234 140
-0.00156837 -0.401228 -0.248502 192 234 140
0.0255613 -0.470941 -0.257036 192 234 140
0.423853 -0.465402 -0.198786 192 234 140
0.379251 -0.32688 -0.19636 192 234 140
0.0909637 -0.463051 -0.257596 192 234 140
0.260363 -0.292037 -0.247741 192 234 140
0.316808 -0.464386 -0.25587 192 234 140
0.171701 -0.253975 -0.254727 192 234 140
0.220604 -0.285012 -0.254155 192 234 140
0.132835 -0.335851 -0.252886 192 234 140
-0.0386064 -0.46819 0.0707552 192 234 140
0.306464 -0.298657 -0.210606 192 234 140
0.303253 -0.436525 -0.251021 192 234 140
0.337515 -0.382904 -0.23442 192 234 140
0.0341171 -0.33814 -0.250099 192 234 140
0.130261 -0.34885 -0.253419 192 234 140
0.234128 -0.247825 -0.251006 192 234 140
0.285043 -0.280884 -0.219533 192 234 140
0.132568 -0.297838 -0.255526 192 234 140
0.0824045 -0.406193 -0.249535 192 234 140
0.279699 -0.320712 -0.24314 192 234 140
0.159576 -0.33312 -0.25297 192 234 140
0.13039 -0.277038 -0.255695 192 234 140
0.194632 -0.221252 -0.254899 192 234 140
0.123734 -0.414713 -0.249142 192 234 140
0.207606 -0.352581 -0.252757 192 234 140
0.263821 -0.258451 -0.232699 192 234 140
0.0641649 -0.392353 -0.249822 192 234 140
0.0803929 -0.483334 -0.18847 192 234 140
0.309926 -0.308555 -0.230716 192 234 140
-0.0956478 -0.478801 -0.153627 192 234 140
0.232385 -0.485171 -0.160125 192 234 140
0.157863 -0.214262 -0.255042 192 234 140
0.0864746 -0.435246 -0.250356 192 234 140
0.399782 -0.409911 -0.201771 192 234 140
0.163929 -0.267497 -0.255945 192 234 140
0.171688 -0.46977 -0.257135 192 234 140
-0.011839 -0.31659 -0.253118 192 234 140
0.408927 -0.457784 -0.211789 192 234 140
0.216316 -0.268189 -0.254615 192 234 140
-0.00863945 -0.376048 -0.248769 192 234 140
0.212569 -0.383855 -0.250332 192 234 140
0.0424604 -0.226939 -0.254186 192 234 140
0.405513 -0.382215 -0.191171 192 234 140
0.225815 -0.319279 -0.2526 192 234 140
0.106007 -0.485301 -0.213561 192 234 140
0.150579 -0.215782 -0.255419 192 234 140
0.120431 -0.271596 -0.254635 192 234 140
0.203806 -0.342761 -0.253021 192 234 140
-0.0884752 -0.477188 -0.120341 192 234 140
0.199817 -0.443943 -0.253543 192 234 140
0.248945 -0.304655 -0.24879 192 234 140
-0.0528556 -0.480328 -0.163105 192 234 140
0.177224 -0.477822 -0.0254618 192 234 140
0.336857 -0.37461 -0.233947 192 234 140
0.337144 -0.482892 -0.103427 192 234 140
0.195892 -0.294294 -0.25537 192 234 140
0.376324 -0.405161 -0.217857 192 234 140
0.271534 -0.470581 -0.257106 192 234 140
0.308181 -0.484377 -0.171159 192 234 140
0.0463867 -0.21213 -0.254228 192 234 140
0.269514 -0.282264 -0.244244 192 234 140
0.358838 -0.354225 -0.223456 192 234 140
-0.0015247 -0.267314 -0.256136 192 234 140
0.0549114 -0.284185 -0.253871 192 234 140
0.105846 -0.408127 -0.249527 192 234 140
0.34815 -0.388185 -0.230606 192 234 140
0.197792 -0.239548 -0.254773 192 234 140
0.107368 -0.484609 -0.256626 192 234 140
0.165801 -0.404368 -0.249716 192 234 140
0.134956 -0.328404 -0.253184 192 234 140
0.399152 -0.469983 -0.222225 192 234 140
0.197423 -0.309294 -0.253747 192 234 140
0.0350452 -0.212 -0.254831 192 234 140
0.37153 -0.34459 -0.214919 192 234 140
0.0353859 -0.478557 -0.101184 192 234 140
0.367821 -0.409389 -0.222209 192 234 140
0.39935 -0.327802 -0.166908 192 234 140
0.390876 -0.471801 -0.225547 192 234 140
0.354002 -0.313899 -0.195851 192 234 140
0.25401 -0.427496 -0.248524 192 234 140
-0.0147807 -0.389891 -0.248882 192 234 140
0.281559 -0.285529 -0.229869 192 234 140
0.170529 -0.417023 -0.247535 192 234 140
0.147787 -0.213822 -0.255486 192 234 140
0.401019 -0.472001 -0.218978 192 234 140
0.0726521 -0.342201 -0.250276 192 234 140
0.287569 -0.465439 -0.258487 192 234 140
-0.0239604 -0.436061 -0.251388 192 234 140
0.0935708 -0.460472 -0.25692 192 234 140
0.0160444 -0.36176 -0.248242 192 234 140
0.405453 -0.365989 -0.186059 192 234 140
0.16966 -0.223467 -0.254316 192 234 140
0.0546267 -0.327286 -0.251081 192 234 140
0.309825 -0.406244 -0.241758 192 234 140
-0.015782 -0.372325 -0.248845 192 234 140
0.116747 -0.278179 -0.254408 192 234 140
-0.0571735 -0.475994 -0.0812681 192 234 140
0.0514319 -0.428324 -0.248788 192 234 140
0.00995498 -0.198051 -0.2564 192 234 140
0.21882 -0.231393 -0.2528 192 234 140
0.283239 -0.483883 -0.242114 192 234 140
0.24565 -0.412639 -0.248192 192 234 140
-0.064599 -0.471172 0.0015346 192 234 140
0.189204 -0.238113 -0.254828 192 234 140
0.0238622 -0.297972 -0.254099 192 234 140
0.359824 -0.388594 -0.225487 192 234 140
0.450099 -0.469743 -0.138787 192 234 140
0.258268 -0.26765 -0.240984 192 234 140
0.0253899 -0.408913 -0.24894 192 234 140
0.124958 -0.21402 -0.254826 192 234 140
0.276175 -0.277393 -0.22811 192 234 140
0.344129 -0.433491 -0.236613 192 234 140
0.259805 -0.278296 -0.247247 192 234 140
0.321848 -0.304754 -0.212695 192 234 140
0.0112632 -0.277056 -0.255747 192 234 140
-0.000544388 -0.476994 -0.256345 192 234 140
0.0677814 -0.483588 -0.195049 192 234 140
0.397101 -0.484003 -0.131067 192 234 140
0.295412 -0.291303 -0.218796 192 234 140
0.455941 -0.444707 -0.117159 192 234 140
0.366137 -0.391691 -0.222263 192 234 140
0.307568 -0.307675 -0.231615 192 234 140
0.308847 -0.320487 -0.233702 192 234 140
0.0935621 -0.269945 -0.253133 192 234 140
0.4332 -0.399913 -0.152323 192 234 140
0.139136 -0.282716 -0.25629 192 234 140
0.369661 -0.345365 -0.216379 192 234 140
0.383458 -0.342453 -0.203419 192 234 140
0.02715 -0.428201 -0.249209 192 234 140
0.0531417 -0.374646 -0.249834 192 234 140
0.10244 -0.237982 -0.253129 192 234 140
0.358214 -0.469682 -0.240079 192 234 140
0.371439 -0.435354 -0.22711 192 234 140
0.425757 -0.388594 -0.163686 192 234 140
0.223934 -0.343741 -0.253303 192 234 140
0.162823 -0.484866 -0.186404 192 234 140
0.317718 -0.324412 -0.233391 192 234 140
-0.0832285 -0.469437 0.0237252 192 234 140
0.00392485 -0.263103 -0.255963 192 234 140
0.117017 -0.366184 -0.253231 192 234 140
-0.098247 -0.465997 0.0742923 192 234 140
-0.0799904 -0.477324 -0.118909 192 234 140
0.249993 -0.469684 -0.258804 192 234 140
0.308249 -0.299201 -0.163249 192 234 140
0.187328 -0.358203 -0.25147 192 234 140
0.339431 -0.360681 -0.231258 192 234 140
-0.0349181 -0.415895 -0.248294 192 234 140
0.30276 -0.482576 -0.0810959 192 234 140
0.0471122 -0.334075 -0.250565 192 234 140
0.1198 -0.299158 -0.254529 192 234 140
0.126612 -0.445295 -0.253513 192 234 140
0.197009 -0.441679 -0.252792 192 234 140
-0.00502693 -0.205596 -0.256875 192 234 140
0.358972 -0.484063 -0.237075 192 234 140
0.0674456 -0.202096 -0.253435 192 234 140
0.163084 -0.451506 -0.2551 192 234 140
0.197245 -0.318068 -0.253136 192 234 140
0.000428967 -0.423163 -0.249049 192 234 140
0.24561 -0.283227 -0.251281 192 234 140
0.189641 -0.306874 -0.254416 192 234 140
0.295315 -0.341742 -0.242243 192 234 140
0.204433 -0.369246 -0.251452 192 234 140
0.291205 -0.295598 -0.237873 192 234 140
0.00327725 -0.269944 -0.255981 192 234 140
-0.0123844 -0.367766 -0.248777 192 234 140
0.0559501 -0.231465 -0.253475 192 234 140
-0.0151028 -0.481729 -0.26012 192 234 140
0.087377 -0.263648 -0.252979 192 234 140
0.0869119 -0.483926 -0.194522 192 234 140
0.165827 -0.298105 -0.255775 192 234 140
-0.00720177 -0.472395 0.0139918 192 234 140
0.298678 -0.314555 -0.236964 192 234 140
0.39749 -0.349503 -0.190604 192 234 140
-0.0126016 -0.431833 -0.250589 192 234 140
0.0754231 -0.260488 -0.253389 192 234 140
0.127735 -0.39587 -0.252275 192 234 140
0.11097 -0.31964 -0.25267 192 234 140
-0.0238085 -0.470444 0.0389292 192 234 140
0.234146 -0.412603 -0.247754 192 234 140
0.137774 -0.485339 -0.201608 192 234 140
0.416149 -0.433463 -0.192041 192 234 140
0.276402 -0.26216 -0.217581 192 234 140
0.105483 -0.248576 -0.253226 192 234 140
0.077732 -0.485976 -0.242544 192 234 140
0.207684 -0.27842 -0.255108 192 234 140
0.197061 -0.322161 -0.253547 192 234 140
0.366481 -0.317393 -0.182609 192 234 140
0.382712 -0.326858 -0.190326 192 234 140
0.193662 -0.301265 -0.254835 192 234 140
0.16323 -0.263701 -0.255803 192 234 140
0.34579 -0.371409 -0.2302 192 234 140
0.077837 -0.224138 -0.253059 192 234 140
0.310574 -0.400224 -0.241491 192 234 140
0.122048 -0.278447 -0.255122 192 234 140
0.344357 -0.315044 -0.177814 192 234 140
0.0612972 -0.206126 -0.253539 192 234 140
0.144464 -0.366481 -0.253517 192 234 140
0.108412 -0.474072 -0.25446 192 234 140
0.350358 -0.360773 -0.227412 192 234 140
0.0469671 -0.361137 -0.249483 192 234 140
0.222147 -0.257135 -0.253922 192 234 140
0.336255 -0.325224 -0.227122 192 234 140
0.124663 -0.478908 -0.255883 192 234 140
0.0341525 -0.440632 -0.25252 192 234 140
0.342222 -0.457629 -0.245767 192 234 140
0.0592592 -0.367994 -0.250432 192 234 140
0.228026 -0.458873 -0.259568 192 234 140
0.0811921 -0.48602 -0.244704 192 234 140
-0.00898975 -0.301168 -0.254368 192 234 140
0.123958 -0.222841 -0.254661 192 234 140
0.215974 -0.265125 -0.254637 192 234 140
0.29954 -0.469817 -0.255417 192 234 140
0.457689 -0.457361 -0.112773 192 234 140
0.000174604 -0.193815 -0.256945 192 234 140
0.348992 -0.329221 -0.224763 192 234 140
0.0520159 -0.278993 -0.253976 192 234 140
0.0176944 -0.459088 -0.256835 192 234 140
0.12131 -0.215108 -0.254395 192 234 140
0.0933267 -0.483375 -0.185059 192 234 140
0.271897 -0.357415 -0.248465 192 234 140
0.24526 -0.427379 -0.248401 192 234 140
0.348489 -0.440491 -0.237987 192 234 140
0.102893 -0.244506 -0.25314 192 234 140
0.220971 -0.377979 -0.251441 192 234 140
0.446195 -0.402873 -0.125077 192 234 140
0.379173 -0.390786 -0.216407 192 234 140
0.0337719 -0.345329 -0.248875 192 234 140
0.118374 -0.213163 -0.254257 192 234 140
0.265939 -0.295752 -0.246083 192 234 140
0.322699 -0.305172 -0.211851 192 234 140
0.0869794 -0.212737 -0.253515 192 234 140
0.342444 -0.324798 -0.223078 192 234 140
0.033821 -0.193694 -0.25512 192 234 140
0.18293 -0.264431 -0.255082 192 234 140
0.238412 -0.486207 -0.216109 192 234 140
0.106297 -0.26013 -0.253326 192 234 140
-0.0206023 -0.354654 -0.248831 192 234 140
0.186544 -0.302394 -0.255004 192 234 140
0.412366 -0.483712 -0.137511 192 234 140
0.153761 -0.239747 -0.255711 192 234 140
0.39689 -0.327627 -0.17335 192 234 140
0.351244 -0.325598 -0.221062 192 234 140
0.228645 -0.319376 -0.252507 192 234 140
0.20568 -0.22938 -0.254579 192 234 140
0.133284 -0.47956 -0.0971099 192 234 140
0.247268 -0.305667 -0.24915 192 234 140
0.426562 -0.391146 -0.163093 192 234 140
0.0477826 -0.238716 -0.253875 192 234 140
0.0996305 -0.43164 -0.249175 192 234 140
0.177665 -0.314655 -0.253567 192 234 140
0.336336 -0.485858 -0.212413 192 234 140
0.181032 -0.22567 -0.254645 192 234 140
-0.18717 -0.330494 0.185219 224 210 119
-0.166832 -0.331917 -0.195872 224 210 119
-0.186088 -0.367661 -0.0111922 224 210 119
0.124565 -0.359727 -0.231868 224 210 119
-0.187437 -0.374164 -0.0329081 224 210 119
-0.0956965 -0.341304 -0.236196 224 210 119
-0.187298 -0.342705 -0.0241351 224 210 119
-0.185529 -0.448791 -0.0901524 224 210 119
-0.19255 -0.274552 0.0277125 224 210 119
-0.189344 -0.282157 -0.123774 224 210 119
0.142189 -0.282082 -0.24513 224 210 119
-0.189354 -0.272527 -0.0306834 224 210 119
0.0530817 -0.230554 -0.241938 224 210 119
-0.186669 -0.369602 0.182274 224 210 119
-0.0463721 -0.320308 -0.240818 224 210 119
-0.187596 -0.336347 0.0762082 224 210 119
-0.19245 -0.231128 0.168923 224 210 119
-0.119675 -0.258257 -0.229443 224 210 119
-0.189069 -0.274968 -0.0355443 224 210 119
-0.187015 -0.39219 -0.144788 224 210 119
0.153981 -0.245967 -0.250159 224 210 119
-0.120488 -0.47432 -0.235554 224 210 119
-0.185238 -0.392888 -0.0333159 224 210 119
-0.186155 -0.362054 0.105041 224 210 119
-0.178742 -0.340617 -0.17872 224 210 119
-0.0772491 -0.318125 -0.166478 224 210 119
-0.0481047 -0.332326 -0.240283 224 210 119
-0.196011 -0.221083 -0.000727367 224 210 119
-0.184804 -0.379328 0.112694 224 210 119
-0.0875108 -0.397373 -0.23823 224 210 119
-0.186136 -0.34165 0.111005 224 210 119
-0.109694 -0.238002 -0.229486 224 210 119
0.0596756 -0.236687 -0.24175 224 210 119
-0.182208 -0.272929 -0.176905 224 210 119
-0.180763 -0.4497 0.0246083 224 210 119
-0.189162 -0.289428 -0.0370743 224 210 119
-0.186214 -0.32682 0.117122 224 210 119
-0.189268 -0.336796 0.0241006 224 210 119
-0.191366 -0.323485 -0.113415 224 210 119
-0.187901 -0.340736 0.013861 224 210 119
-0.181509 -0.292566 -0.174824 224 210 119
-0.189208 -0.330168 -0.0420093 224 210 119
-0.0426888 -0.443318 -0.23256 224 210 119
-0.108318 -0.23508 -0.226616 224 210 119
-0.145384 -0.290996 -0.214004 224 210 119
-0.199611 -0.229839 0.0683305 224 210 119
-0.185365 -0.415542 0.20685 224 210 119
0.0321721 -0.270493 -0.238693 224 210 119
-0.16648 -0.474972 0.193488 224 210 119
-0.0611761 -0.281857 -0.243423 224 210 119
-0.186783 -0.319948 0.168386 224 210 119
-0.0486266 -0.469271 -0.234553 224 210 119
-0.187386 -0.350332 0.183708 224 210 119
0.0266873 -0.292706 -0.238332 224 210 119
0.0349174 -0.423626 -0.229058 224 210 119
-0.190193 -0.301337 -0.102491 224 210 119
-0.189114 -0.366107 -0.0688341 224 210 119
-0.19009 -0.324868 -0.138368 224 210 119
-0.184855 -0.424443 0.20676 224 210 119
-0.0975169 -0.35528 -0.236706 224 210 119
0.091534 -0.362893 -0.231314 224 210 119
-0.189277 -0.329718 -0.0370734 224 210 119
-0.188666 -0.27944 -0.151981 224 210 119
0.070972 -0.297198 -0.239514 224 210 119
-0.0438081 -0.475249 -0.235846 224 210 119
-0.189419 -0.356441 0.0402418 224 210 119
-0.18368 -0.440766 0.202203 224 210 119
0.108218 -0.449144 -0.229833 224 210 119
-0.185228 -0.378078 -0.00215883 224 210 119
-0.0800254 -0.359472 -0.239556 224 210 119
0.111995 -0.223993 -0.248978 224 210 119
0.035377 -0.415597 -0.229433 224 210 119
-0.183649 -0.417115 0.0788494 224 210 119
-0.189175 -0.358471 -0.0635941 224 210 119
-0.185867 -0.35416 0.124082 224 210 119
-0.0732633 -0.472294 -0.234825 224 210 119
0.14291 -0.282149 -0.245113 224 210 119
-0.189542 -0.384706 -0.0785486 224 210 119
-0.190435 -0.356239 -0.0905735 224 210 119
0.128397 -0.390879 -0.22797 224 210 119
-0.207522 -0.288226 0.196754 224 210 119
-0.106262 -0.278266 -0.232254 224 210 119
0.115842 -0.386697 -0.228136 224 210 119
-0.173722 -0.363207 -0.184968 224 210 119
-0.189768 -0.297164 -0.132567 224 210 119
-0.0913249 -0.317484 -0.15329 224 210 119
-0.186939 -0.340806 -0.00411901 224 210 119
0.0431191 -0.330726 -0.233667 224 210 119
-0.191778 -0.300322 0.0361699 224 210 119
0.117558 -0.300464 -0.241383 224 210 119
-0.092779 -0.334002 -0.236726 224 210 119
0.0995144 -0.275637 -0.245263 224 210 119
-0.192482 -0.220241 0.10554 224 210 119
-0.0973197 -0.299993 -0.236077 224 210 119
0.0605481 -0.288193 -0.23994 224 210 119
-0.104016 -0.355465 -0.235138 224 210 119
-0.199289 -0.237618 -0.115726 224 210 119
-0.185293 -0.452802 -0.0588863 224 210 119
-0.187718 -0.37281 0.0329814 224 210 119
0.0421941 -0.238501 -0.239982 224 210 119
-0.18634 -0.45229 -0.084507 224 210 119
-0.195168 -0.224852 -0.0342227 224 210 119
-0.189634 -0.284482 -0.137142 224 210 119
0.176064 -0.365289 -0.231191 224 210 119
0.0915393 -0.223175 -0.247393 224 210 119
-0.17073 -0.317046 -0.190026 224 210 119
-0.185201 -0.441492 -0.0932816 224 210 119
-0.0312746 -0.225014 -0.243417 224 210 119
-0.173658 -0.379103 0.0989557 224 210 119
0.0991419 -0.223653 -0.24804 224 210 119
-0.151089 -0.336236 -0.212351 224 210 119
-0.186247 -0.27894 -0.166429 224 210 119
-0.187269 -0.241104 -0.053733 224 210 119
-0.193207 -0.237462 -0.114429 224 210 119
-0.170286 -0.466331 -0.164075 224 210 119
0.0545667 -0.235267 -0.241405 224 210 119
-0.180551 -0.373895 0.257286 224 210 119
-0.0320903 -0.227443 -0.243185 224 210 119
-0.172327 -0.383264 0.178612 224 210 119
-0.12129 -0.261943 -0.22836 224 210 119
-0.188847 -0.308456 -0.0704868 224 210 119
-0.18668 -0.391815 0.0477306 224 210 119
0.0575235 -0.330788 -0.233355 224 210 119
0.097094 -0.218923 -0.248626 224 210 119
-0.0542408 -0.310798 -0.24155 224 210 119
-0.195594 -0.242054 -0.00294975 224 210 119
-0.00924299 -0.38216 -0.232372 224 210 119
-0.188466 -0.343285 -0.0470561 224 210 119
0.115196 -0.254337 -0.248695 224 210 119
-0.189979 -0.25034 0.160281 224 210 119
-0.187242 -0.461526 -0.0724863 224 210 119
-0.189903 -0.283683 0.0665973 224 210 119
-0.195119 -0.218604 0.097687 224 210 119
-0.0104186 -0.342938 -0.235359 224 210 119
-0.187124 -0.42013 -0.0702194 224 210 119
-0.210019 -0.251617 0.166243 224 210 119
-0.121534 -0.441799 -0.23355 224 210 119
-0.0040879 -0.440244 -0.231692 224 210 119
-0.185699 -0.381493 0.00860957 224 210 119
-0.191379 -0.333272 -0.130678 224 210 119
-0.0340799 -0.33214 -0.192852 224 210 119
-0.184694 -0.375294 0.147142 224 210 119
-0.188732 -0.379743 -0.0497248 224 210 119
0.042455 -0.453801 -0.229268 224 210 119
-0.171777 -0.392291 -0.183519 224 210 119
-0.188867 -0.378168 -0.0649063 224 210 119
0.0278257 -0.404395 -0.230418 224 210 119
0.106318 -0.37127 -0.230626 224 210 119
-0.197621 -0.221105 0.0208957 224 210 119
-0.193298 -0.237693 -0.125232 224 210 119
-0.0359875 -0.256233 -0.243313 224 210 119
-0.196608 -0.224479 -0.0424447 224 210 119
-0.187309 -0.339932 -0.0242066 224 210 119
0.051719 -0.24148 -0.240371 224 210 119
-0.189278 -0.389971 -0.118 224 210 119
0.0421816 -0.275773 -0.238181 224 210 119
-0.187881 -0.28452 0.111244 224 210 119
0.154015 -0.4267 -0.23009 224 210 119
-0.152283 -0.342243 -0.21171 224 210 119
-0.179761 -0.432768 -0.14531 224 210 119
-0.15746 -0.44434 -0.21903 224 210 119
0.0962071 -0.335094 -0.236297 224 210 119
-0.188353 -0.266604 0.0938095 224 210 119
-0.0325731 -0.275231 -0.241772 224 210 119
-0.100225 -0.467671 -0.23511 224 210 119
-0.191059 -0.342029 -0.132442 224 210 119
0.143278 -0.326173 -0.237189 224 210 119
-0.193457 -0.228299 0.026488 224 210 119
0.0159024 -0.345972 -0.232748 224 210 119
-0.190989 -0.235305 -0.0732541 224 210 119
-0.188863 -0.32807 -0.029859 224 210 119
0.0177753 -0.287254 -0.239394 224 210 119
-0.195632 -0.216431 0.168765 224 210 119
0.0815944 -0.385345 -0.227924 224 210 119
-0.187588 -0.404727 -0.115968 224 210 119
0.06366 -0.326683 -0.234526 224 210 119
-0.0176216 -0.347182 -0.235783 224 210 119
0.108006 -0.439658 -0.228447 224 210 119
-0.191134 -0.361797 -0.12601 224 210 119
0.0496791 -0.440998 -0.227432 224 210 119
-0.180791 -0.445359 -0.00368704 224 210 119
-0.187217 -0.301695 0.164975 224 210 119
-0.172271 -0.247912 -0.173282 224 210 119
-0.180122 -0.459634 0.114017 224 210 119
-0.190267 -0.238574 0.150231 224 210 119
-0.189606 -0.267171 -0.0242088 224 210 119
-0.191468 -0.355783 -0.122889 224 210 119
-0.192214 -0.222564 0.0585247 224 210 119
0.10216 -0.227997 -0.248255 224 210 119
-0.198934 -0.238156 -0.141491 224 210 119
0.14764 -0.217052 -0.250699 224 210 119
-0.182056 -0.436023 0.0927511 224 210 119
0.11132 -0.330198 -0.237413 224 210 119
0.135823 -0.220118 -0.250779 224 210 119
0.00911372 -0.307116 -0.237869 224 210 119
0.0888008 -0.300672 -0.24063 224 210 119
-0.188165 -0.316671 -0.146594 224 210 119
-0.219581 -0.266139 -0.0300634 224 210 119
-0.153265 -0.238007 -0.203033 224 210 119
0.0726851 -0.366598 -0.229327 224 210 119
-0.167823 -0.443019 -0.176768 224 210 119
0.178917 -0.376451 -0.23097 224 210 119
-0.193181 -0.327998 0.25737 224 210 119
0.162873 -0.370018 -0.23026 224 210 119
0.0625167 -0.223618 -0.244098 224 210 119
-0.188916 -0.311496 0.0768383 224 210 119
0.104992 -0.342806 -0.235595 224 210 119
0.141349 -0.439236 -0.230755 224 210 119
0.029037 -0.409474 -0.230246 224 210 119
-0.195373 -0.229386 0.0028918 224 210 119
-0.189442 -0.275298 -0.128292 224 210 119
-0.129143 -0.413499 -0.231886 224 210 119
0.14071 -0.330194 -0.236671 224 210 119
-0.185398 -0.388904 0.0689619 224 210 119
-0.020335 -0.400208 -0.232833 224 210 119
-0.189098 -0.392158 -0.130945 224 210 119
0.0593404 -0.257779 -0.240307 224 210 119
0.122489 -0.428682 -0.228143 224 210 119
-0.182871 -0.42931 0.114468 224 210 119
-0.171517 -0.414552 -0.180778 224 210 119
-0.166888 -0.356613 -0.195806 224 210 119
-0.181102 -0.450893 -0.0229726 224 210 119
-0.117724 -0.362848 -0.231971 224 210 119
-0.188874 -0.259971 0.156054 224 210 119
-0.182834 -0.402904 -0.0165925 224 210 119
-0.167735 -0.462561 -0.188345 224 210 119
-0.158737 -0.392028 -0.0224608 224 210 119
-0.149857 -0.467373 -0.227963 224 210 119
-0.166996 -0.421981 -0.199209 224 210 119
-0.191988 -0.220763 0.0721259 224 210 119
-0.190577 -0.369922 -0.113747 224 210 119
-0.186652 -0.441532 -0.0684105 224 210 119
-0.185497 -0.365475 0.126491 224 210 119
0.135186 -0.231361 -0.250304 224 210 119
-0.0314143 -0.441955 -0.232098 224 210 119
-0.195146 -0.21933 0.145127 224 210 119
0.0268597 -0.250183 -0.240436 224 210 119
-0.18591 -0.393952 -0.0392671 224 210 119
-0.187237 -0.294891 0.157632 224 210 119
-0.163856 -0.460092 -0.20784 224 210 119
0.0475315 -0.432902 -0.227539 224 210 119
-0.197114 -0.330696 0.0532288 224 210 119
-0.00434298 -0.463394 -0.233511 224 210 119
-0.155664 -0.293424 -0.20549 224 210 119
-0.182545 -0.442442 0.0621461 224 210 119
-0.028732 -0.445212 -0.232254 224 210 119
-0.18486 -0.428942 -0.122477 224 210 119
-0.205956 -0.253417 0.0354917 224 210 119
0.138699 -0.26051 -0.248524 224 210 119
0.0274469 -0.377055 -0.230413 224 210 119
-0.186943 -0.310031 0.162078 224 210 119
-0.186879 -0.32804 0.174984 224 210 119
0.0596197 -0.279879 -0.240929 224 210 119
-0.189608 -0.323995 0.0561233 224 210 119
-0.178509 -0.297975 -0.179385 224 210 119
-0.0957731 -0.340769 -0.23617 224 210 119
-0.183047 -0.346393 -0.170202 224 210 119
-0.18935 -0.32337 0.060362 224 210 119
0.00776954 -0.248159 -0.241686 224 210 119
-0.103201 -0.255491 -0.233841 224 210 119
0.0329951 -0.453525 -0.230142 224 210 119
-0.198282 -0.334685 -0.0042408 224 210 119
-0.161837 -0.411288 -0.206456 224 210 119
-0.0750876 -0.321036 -0.240112 224 210 119
0.0599823 -0.234936 -0.24199 224 210 119
-0.160953 -0.445956 0.178864 224 210 119
-0.167403 -0.274408 -0.194145 224 210 119
-0.190932 -0.364471 -0.11684 224 210 119
0.160631 -0.269488 -0.247603 224 210 119
-0.0832639 -0.298109 -0.239899 224 210 119
0.12094 -0.224311 -0.249444 224 210 119
-0.186631 -0.435124 -0.06431 224 210 119
0.0528906 -0.307553 -0.23638 224 210 119
0.0332817 -0.242372 -0.240362 224 210 119
0.023435 -0.373309 -0.230755 224 210 119
-0.187567 -0.335151 -0.0160852 224 210 119
-0.161976 -0.237976 -0.197871 224 210 119
0.123948 -0.347281 -0.234401 224 210 119
0.172465 -0.384752 -0.230431 224 210 119
-0.183674 -0.442454 0.209588 224 210 119
0.0554973 -0.242715 -0.239399 224 210 119
-0.197212 -0.220652 0.0874431 224 210 119
-0.20876 -0.239945 -0.0448284 224 210 119
-0.182107 -0.411844 -0.0025055 224 210 119
0.0402818 -0.277322 -0.238351 224 210 119
-0.183235 -0.444733 -0.117986 224 210 119
-0.205866 -0.238481 -0.0108482 224 210 119
0.170406 -0.308689 -0.238692 224 210 119
-0.215596 -0.266092 0.258325 224 210 119
-0.205335 -0.239019 -0.00381247 224 210 119
-0.189587 -0.295861 -0.136606 224 210 119
