ply
format ascii 1.0
comment Created by Open3D
element vertex 1178
property double x
property double y
property double z
property uchar red
property uchar green
property uchar blue
end_header
-0.0109007 -0.153 -0.202114 31 142 243
-0.13829 0.0741402 -0.323075 31 142 243
-0.099998 -0.162977 -0.204239 31 142 243
0.0948747 -0.0214112 -0.191898 31 142 243
-0.276842 0.0688859 -0.244113 31 142 243
-0.285673 -0.0079445 -0.310272 31 142 243
-0.207694 0.0749939 -0.272557 31 142 243
-0.20166 0.0749363 -0.301931 31 142 243
0.145994 0.0283161 -0.203313 31 142 243
-0.260646 0.06389 -0.201836 31 142 243
-0.225777 0.0747923 -0.33591 31 142 243
0.0220032 0.0732512 -0.22725 31 142 243
0.139678 -0.0321197 -0.195506 31 142 243
-0.276473 0.068528 -0.228945 31 142 243
-0.0454693 -0.0717372 -0.197607 31 142 243
-0.187792 0.0745644 -0.328257 31 142 243
-0.172697 0.0563258 -0.195325 31 142 243
-0.27084 0.0656652 -0.214273 31 142 243
0.031753 -0.0193577 -0.189179 31 142 243
0.133982 -0.0562302 -0.193193 31 142 243
-0.280773 0.0470513 -0.262016 31 142 243
-0.194833 0.0156567 -0.192196 31 142 243
-0.276836 -0.127099 -0.302235 31 142 243
-0.240051 0.0730822 -0.207543 31 142 243
0.0862397 0.0540397 -0.200351 31 142 243
0.0676285 0.0725159 -0.226929 31 142 243
-0.168555 0.074349 -0.329224 31 142 243
-0.051748 0.0619577 -0.196865 31 142 243
-0.121006 0.0740577 -0.306048 31 142 243
-0.0498438 0.0739344 -0.209835 31 142 243
-0.0845284 -0.0757024 -0.198709 31 142 243
-0.0906971 0.0743836 -0.201601 31 142 243
-0.152736 0.0748294 -0.217633 31 142 243
-0.280228 -0.086259 -0.308512 31 142 243
0.0559411 0.0730097 -0.232771 31 142 243
-0.0986727 0.0743543 -0.232931 31 142 243
-0.107226 0.07447 -0.223632 31 142 243
0.125718 -0.0380784 -0.1936 31 142 243
0.0434372 0.0727541 -0.281122 31 142 243
-0.223256 0.0749764 -0.234851 31 142 243
0.150189 -0.23845 -0.189532 31 142 243
0.111593 0.037769 -0.200995 31 142 243
-0.247984 0.0749119 -0.289068 31 142 243
0.128785 0.0117631 -0.198765 31 142 243
-0.15373 -0.0189758 -0.193048 31 142 243
-0.180043 0.0747044 -0.307986 31 142 243
-0.241441 0.0749798 -0.263955 31 142 243
0.0760698 0.0708995 -0.219188 31 142 243
-0.20233 0.0430155 -0.194006 31 142 243
-0.00254905 0.0734136 -0.222443 31 142 243
-0.28419 0.0451063 -0.280879 31 142 243
-0.16846 0.0477594 -0.194258 31 142 243
-0.0611526 0.056925 -0.194752 31 142 243
-0.00951946 0.0400127 -0.191701 31 142 243
-0.199255 0.0748818 -0.222164 31 142 243
-0.0484362 -0.078456 -0.198419 31 142 243
-0.216285 0.0749092 -0.22282 31 142 243
-0.22863 0.0741475 -0.207113 31 142 243
-0.185247 0.0748759 -0.222591 31 142 243
-0.277473 -0.0758219 -0.235883 31 142 243
-0.243768 0.0274584 -0.19465 31 142 243
0.10723 -0.156622 -0.192635 31 142 243
0.132774 -0.0187587 -0.196005 31 142 243
-0.0093636 0.0731442 -0.27036 31 142 243
-0.283411 -0.0743123 -0.335923 31 142 243
-0.0520818 0.0735385 -0.264813 31 142 243
-0.226487 0.0738036 -0.20567 31 142 243
0.0685768 -0.0512115 -0.189653 31 142 243
-0.200165 -0.0207103 -0.195034 31 142 243
-0.208654 0.0749795 -0.240414 31 142 243
0.0860943 0.0332308 -0.194799 31 142 243
0.123119 -0.139967 -0.190172 31 142 243
0.0813694 0.0706618 -0.220807 31 142 243
-0.279466 -0.0193689 -0.275944 31 142 243
-0.118471 0.0741286 -0.290373 31 142 243
-0.170409 0.074921 -0.247507 31 142 243
0.0571754 0.0728179 -0.254289 31 142 243
-0.204658 0.0749679 -0.289069 31 142 243
-0.186004 0.0747457 -0.311187 31 142 243
0.00865913 0.0729572 -0.28807 31 142 243
-0.182 -0.0943609 -0.200102 31 142 243
-0.109134 0.0739489 -0.309039 31 142 243
0.0376194 0.0729196 -0.256988 31 142 243
-0.278293 0.0430661 -0.23132 31 142 243
-0.180441 0.0749595 -0.258843 31 142 243
-0.277728 -0.0308229 -0.26938 31 142 243
-0.27718 0.0660091 -0.225924 31 142 243
-0.269472 0.0739501 -0.297397 31 142 243
-0.239491 -0.0680492 -0.199233 31 142 243
-0.153941 0.0748357 -0.234351 31 142 243
-0.00284497 0.00513855 -0.188199 31 142 243
-0.237676 0.0749762 -0.275604 31 142 243
-0.182631 0.0748946 -0.225732 31 142 243
-0.211486 0.0750109 -0.264244 31 142 243
-0.0455336 -0.0171825 -0.19133 31 142 243
-0.267192 0.0742874 -0.228207 31 142 243
-0.245248 0.073563 -0.340452 31 142 243
-0.0795359 0.0737733 -0.286137 31 142 243
-0.279287 0.0710879 -0.295645 31 142 243
-0.26849 0.0638265 -0.206875 31 142 243
-0.0263121 0.0734221 -0.250714 31 142 243
-0.122834 0.0745434 -0.246017 31 142 243
-0.0460326 0.073784 -0.236557 31 142 243
-0.245755 0.0741452 -0.335473 31 142 243
-0.278066 0.058787 -0.239612 31 142 243
-0.222789 0.0749399 -0.303184 31 142 243
-0.0251556 0.0735802 -0.218777 31 142 243
-0.075827 0.0699389 -0.19963 31 142 243
-0.156038 -0.101936 -0.200404 31 142 243
0.0521463 -0.132593 -0.19623 31 142 243
-0.0559473 0.0531838 -0.193889 31 142 243
-0.089239 0.074328 -0.21024 31 142 243
-0.273256 0.039913 -0.196523 31 142 243
0.0238204 0.0728599 -0.287282 31 142 243
-0.276603 -0.144183 -0.292071 31 142 243
-0.0984013 0.0739647 -0.283983 31 142 243
0.0208207 0.0728685 -0.290486 31 142 243
0.0461767 0.0508927 -0.195661 31 142 243
-0.285572 0.0666777 -0.324981 31 142 243
-0.0443185 0.0737293 -0.243766 31 142 243
-0.0224275 0.0731584 -0.288341 31 142 243
-0.230514 0.000919275 -0.194877 31 142 243
-0.198905 0.0696893 -0.199108 31 142 243
-0.0269797 -0.180967 -0.203905 31 142 243
-0.234865 0.0749903 -0.236614 31 142 243
-0.187257 0.0748285 -0.302028 31 142 243
-0.276948 -0.0365397 -0.242182 31 142 243
-0.277348 -0.077028 -0.236931 31 142 243
-0.271364 0.0732415 -0.304367 31 142 243
-0.239118 0.0748889 -0.309006 31 142 243
-0.150137 0.0743165 -0.308279 31 142 243
-0.276381 -0.135261 -0.281612 31 142 243
-0.272373 0.0557024 -0.198691 31 142 243
-0.0781626 0.0741042 -0.249359 31 142 243
-0.16672 0.037169 -0.193062 31 142 243
-0.278167 0.00895563 -0.225904 31 142 243
-0.170737 0.074905 -0.25342 31 142 243
0.0191963 0.0729729 -0.269478 31 142 243
0.0664623 0.0483508 -0.196336 31 142 243
-0.0247244 0.0735934 -0.237427 31 142 243
-0.0537185 0.0736655 -0.258045 31 142 243
-0.286701 0.0088227 -0.320621 31 142 243
-0.188965 0.0749817 -0.269026 31 142 243
-0.0388311 0.0737554 -0.221242 31 142 243
-0.170375 0.0748754 -0.223752 31 142 243
-0.076466 0.0360955 -0.191529 31 142 243
-0.156882 0.0743631 -0.310958 31 142 243
-0.183911 0.074889 -0.224737 31 142 243
-0.137187 0.074733 -0.225215 31 142 243
-0.129516 0.0747158 -0.211026 31 142 243
-0.124952 0.0746887 -0.202751 31 142 243
-0.254567 0.0746236 -0.225862 31 142 243
-0.275768 0.0725138 -0.293025 31 142 243
-0.0747188 0.0739009 -0.263308 31 142 243
-0.202008 0.0703062 -0.199436 31 142 243
0.0316605 0.0712432 -0.209651 31 142 243
-0.262068 0.0701153 -0.348781 31 142 243
-0.0329089 0.0736553 -0.239494 31 142 243
-0.12931 0.0746073 -0.243908 31 142 243
-0.261896 0.0671656 -0.206289 31 142 243
0.0269415 0.0403521 -0.19157 31 142 243
-0.131946 -0.0273482 -0.19362 31 142 243
0.0865176 -0.154194 -0.195861 31 142 243
-0.108627 0.0699582 -0.198936 31 142 243
-0.281932 -0.0227046 -0.291072 31 142 243
-0.275141 0.0380307 -0.196376 31 142 243
-0.258163 0.0746744 -0.242794 31 142 243
-0.26609 0.0578555 -0.198353 31 142 243
0.0498963 0.0728055 -0.262945 31 142 243
-0.105416 0.0743972 -0.241764 31 142 243
-0.154108 0.0748439 -0.232283 31 142 243
-0.0504591 0.0438224 -0.192452 31 142 243
-0.0110105 0.0734926 -0.229151 31 142 243
0.00202224 0.0715511 -0.204561 31 142 243
0.0242088 0.0728592 -0.286766 31 142 243
-0.253763 0.0747632 -0.241115 31 142 243
-0.0274212 -0.105508 -0.199183 31 142 243
-0.0112509 0.0732003 -0.26231 31 142 243
-0.0242174 0.0145891 -0.188296 31 142 243
-0.20498 0.0749841 -0.24199 31 142 243
0.019363 -0.0582754 -0.192627 31 142 243
-0.0132211 0.0732947 -0.252183 31 142 243
-0.278517 0.0288473 -0.253281 31 142 243
-0.186589 0.0749487 -0.272648 31 142 243
-0.0493852 0.0182233 -0.189535 31 142 243
-0.0544427 -0.151021 -0.203309 31 142 243
0.0549259 0.0363505 -0.191475 31 142 243
-0.248515 0.0748877 -0.247112 31 142 243
-0.0133412 0.073505 -0.227657 31 142 243
-0.0256914 0.0733199 -0.261923 31 142 243
-0.177771 0.0747745 -0.209194 31 142 243
-0.108735 -0.166542 -0.204231 31 142 243
-0.221707 0.0750025 -0.24861 31 142 243
0.0095776 -0.0899188 -0.196305 31 142 243
-0.276676 0.0694308 -0.247355 31 142 243
-0.2306 -0.0747652 -0.199237 31 142 243
0.0874176 0.063654 -0.205108 31 142 243
-0.188412 0.0428553 -0.193748 31 142 243
-0.183685 0.0746613 -0.315667 31 142 243
-0.17993 0.0749796 -0.246543 31 142 243
-0.0465727 -0.173416 -0.204177 31 142 243
-0.117969 0.0746485 -0.204272 31 142 243
-0.0828938 0.0742442 -0.213748 31 142 243
-0.0516233 0.0677079 -0.199356 31 142 243
-0.276958 -0.0854975 -0.241439 31 142 243
-0.277901 -0.0553107 -0.230135 31 142 243
-0.064619 0.0739495 -0.250104 31 142 243
-0.00837103 0.0317654 -0.190487 31 142 243
-0.172555 0.0749078 -0.228167 31 142 243
-0.013634 0.073189 -0.267502 31 142 243
-0.121467 0.0746305 -0.218968 31 142 243
-0.287043 0.022579 -0.319826 31 142 243
-0.00111629 0.0733197 -0.240535 31 142 243
-0.184698 0.0566566 -0.195844 31 142 243
-0.160682 0.0747626 -0.272667 31 142 243
-0.132735 0.0747332 -0.208361 31 142 243
-0.278375 0.0113807 -0.258402 31 142 243
-0.265511 0.0736705 -0.216075 31 142 243
0.061331 0.0704854 -0.20905 31 142 243
-0.278555 0.0708584 -0.269765 31 142 243
0.0216642 0.0729124 -0.279366 31 142 243
-0.251197 0.0659315 -0.202652 31 142 243
0.0989602 0.0346188 -0.198667 31 142 243
-0.153025 0.0747626 -0.256213 31 142 243
-0.282458 0.0697153 -0.306976 31 142 243
-0.270426 0.0728159 -0.224175 31 142 243
-0.0898505 0.0738227 -0.299207 31 142 243
-0.284248 -0.0529155 -0.322365 31 142 243
-0.273871 0.00868099 -0.19654 31 142 243
-0.00579922 -0.0261545 -0.190284 31 142 243
-0.272711 0.0737996 -0.273013 31 142 243
0.0213323 0.0122422 -0.201718 0 180 235
0.101313 -0.258847 -0.211886 0 180 235
0.260156 -0.246076 -0.218049 0 180 235
-0.202499 -0.20076 -0.205972 0 180 235
-0.105825 -0.301904 -0.204264 0 180 235
0.0639985 -0.0279784 -0.212101 0 180 235
-0.159277 -0.117724 -0.206934 0 180 235
0.224879 -0.0735761 -0.217187 0 180 235
0.196335 -0.377269 -0.22013 0 180 235
-0.242903 0.0441562 -0.204808 0 180 235
-0.152299 -0.311364 -0.202814 0 180 235
-0.221637 -0.0838611 -0.211347 0 180 235
0.00371619 -0.276042 -0.214492 0 180 235
-0.0705517 -0.237765 -0.210282 0 180 235
-0.222717 -0.0497333 -0.210837 0 180 235
0.213494 -0.0564698 -0.217629 0 180 235
0.107278 -0.0329825 -0.213548 0 180 235
-0.199831 0.0217267 -0.199754 0 180 235
-0.116598 0.0276808 -0.192381 0 180 235
-0.0364066 -0.110738 -0.212741 0 180 235
0.196813 -0.0168345 -0.216718 0 180 235
-0.0434019 -0.0982703 -0.211771 0 180 235
0.0367045 -0.19054 -0.212016 0 180 235
-0.207167 -0.164168 -0.207736 0 180 235
-0.202384 -0.367414 -0.218115 0 180 235
0.165956 -0.152896 -0.216541 0 180 235
-0.205177 -0.146119 -0.208984 0 180 235
-0.0695432 -0.181866 -0.210998 0 180 235
0.0489155 -0.0352964 -0.212439 0 180 235
-0.195669 0.0425278 -0.190517 0 180 235
0.12934 -0.28962 -0.212862 0 180 235
-0.255477 0.0172187 -0.243979 0 180 235
0.183856 -0.218411 -0.214531 0 180 235
0.253933 -0.237186 -0.218243 0 180 235
-0.0716888 -0.0349347 -0.204788 0 180 235
0.268848 -0.213008 -0.218995 0 180 235
-0.246779 0.00597269 -0.22967 0 180 235
0.00712834 -0.00348407 -0.204061 0 180 235
-0.170463 -0.218056 -0.204922 0 180 235
0.225633 -0.378557 -0.217823 0 180 235
-0.245504 -0.0264578 -0.230407 0 180 235
0.0461734 -0.206673 -0.211739 0 180 235
0.120151 -0.079165 -0.215153 0 180 235
0.0426426 -0.0793956 -0.213298 0 180 235
-0.215872 -0.27119 -0.2108 0 180 235
0.214243 -0.367969 -0.219251 0 180 235
-0.0738583 -0.359444 -0.201333 0 180 235
-0.0630171 0.00607203 -0.200097 0 180 235
-0.138226 0.0355708 -0.190222 0 180 235
0.161588 -0.0308753 -0.216162 0 180 235
-0.254114 -0.0155328 -0.245035 0 180 235
-0.152958 -0.128488 -0.206947 0 180 235
-0.246688 -0.235676 -0.223855 0 180 235
-0.109357 -0.292771 -0.204701 0 180 235
-0.0304677 -0.327775 -0.210754 0 180 235
0.0690164 -0.313028 -0.214142 0 180 235
-0.254676 -0.0633617 -0.242566 0 180 235
-0.116086 -0.349852 -0.199592 0 180 235
0.172762 -0.0704855 -0.217017 0 180 235
-0.0816378 -0.0075523 -0.201103 0 180 235
-0.042522 -0.151377 -0.212762 0 180 235
0.0445048 -0.105765 -0.213496 0 180 235
-0.112538 -0.0968648 -0.206517 0 180 235
-0.20503 0.0442049 -0.191554 0 180 235
0.268966 -0.180239 -0.219949 0 180 235
-0.0329316 -0.129365 -0.213463 0 180 235
-0.179641 0.0420482 -0.189722 0 180 235
-0.221053 0.00923791 -0.205619 0 180 235
-0.224938 -0.317959 -0.219656 0 180 235
-0.14252 -0.25415 -0.204836 0 180 235
-0.141573 -0.0645757 -0.204629 0 180 235
-0.182832 0.0368273 -0.192121 0 180 235
0.0308917 -0.196217 -0.212589 0 180 235
-0.0713911 -0.117035 -0.209341 0 180 235
-0.235194 -0.136272 -0.213203 0 180 235
0.0295972 -0.0289049 -0.210735 0 180 235
-0.044454 -0.275902 -0.212183 0 180 235
-0.102722 -0.142193 -0.208416 0 180 235
-0.240001 -0.096479 -0.217123 0 180 235
-0.164052 -0.029192 -0.203666 0 180 235
0.264893 -0.137543 -0.219549 0 180 235
-0.23684 0.030538 -0.206007 0 180 235
-0.246397 -0.0538405 -0.231318 0 180 235
-0.223748 0.037921 -0.198527 0 180 235
0.158988 -0.128952 -0.216588 0 180 235
-0.241591 0.0443563 -0.202695 0 180 235
0.0520696 -0.143096 -0.213249 0 180 235
0.125505 -0.176244 -0.214238 0 180 235
-0.0784414 -0.354834 -0.200626 0 180 235
-0.0366466 -0.316947 -0.210734 0 180 235
0.112026 -0.00263427 -0.212311 0 180 235
0.277338 -0.342413 -0.219106 0 180 235
-0.138918 -0.302483 -0.202763 0 180 235
0.0130411 0.0113219 -0.201505 0 180 235
0.0580097 -0.0138864 -0.208631 0 180 235
0.106438 -0.310404 -0.21337 0 180 235
0.201056 -0.201407 -0.216335 0 180 235
-0.103787 0.0265226 -0.19324 0 180 235
-0.255219 -0.00963654 -0.246466 0 180 235
-0.0354987 -0.226331 -0.213943 0 180 235
-0.221627 0.0390779 -0.197469 0 180 235
0.0490844 -0.0905574 -0.213717 0 180 235
-0.1041 0.0107403 -0.197471 0 180 235
-0.0312389 -0.0696947 -0.210835 0 180 235
-0.00620094 -0.177114 -0.215326 0 180 235
-0.0464307 -0.273548 -0.211988 0 180 235
-0.00476231 -0.311897 -0.213888 0 180 235
-0.175493 -0.0873973 -0.207481 0 180 235
-0.126544 0.0289787 -0.192158 0 180 235
-0.194449 -0.0837982 -0.208266 0 180 235
0.263492 -0.102855 -0.218667 0 180 235
0.0678291 -0.102914 -0.214204 0 180 235
0.150353 -0.251705 -0.212451 0 180 235
0.144386 -0.153357 -0.215419 0 180 235
-0.116934 0.0369579 -0.189896 0 180 235
-0.238558 -0.23713 -0.220777 0 180 235
0.217098 -0.064604 -0.217561 0 180 235
-0.251913 -0.203195 -0.22315 0 180 235
-0.120046 -0.277878 -0.205414 0 180 235
0.113799 -0.0380591 -0.21436 0 180 235
-0.211341 -0.18201 -0.206773 0 180 235
-0.217392 0.0283482 -0.20036 0 180 235
-0.00941259 -0.307255 -0.213735 0 180 235
-0.0266722 -0.198384 -0.214524 0 180 235
-0.172816 -0.109255 -0.20769 0 180 235
-0.0367276 -0.101192 -0.212497 0 180 235
0.0726133 0.00454971 -0.207695 0 180 235
-0.0221991 -0.0472369 -0.208675 0 180 235
-0.232762 -0.158044 -0.211124 0 180 235
-0.248195 -0.240793 -0.224662 0 180 235
-0.191967 -0.242631 -0.205351 0 180 235
0.0173128 -0.0736684 -0.212072 0 180 235
0.0272754 0.000693455 -0.204258 0 180 235
-0.0724786 -0.0703899 -0.207831 0 180 235
0.181806 -0.236889 -0.214494 0 180 235
-0.130044 -0.280917 -0.204323 0 180 235
-0.00293081 -0.276746 -0.214189 0 180 235
0.257595 -0.172719 -0.219878 0 180 235
0.167035 -0.129602 -0.216759 0 180 235
0.162075 -0.0343795 -0.216292 0 180 235
0.212855 -0.062365 -0.217589 0 180 235
0.0333493 0.0210823 -0.200944 0 180 235
-0.226894 -0.00811946 -0.209173 0 180 235
0.242704 -0.241626 -0.217849 0 180 235
-0.0957125 -0.0698705 -0.206696 0 180 235
-0.189673 0.0356612 -0.192621 0 180 235
0.220671 -0.134152 -0.21742 0 180 235
-0.202529 -0.196688 -0.206075 0 180 235
-0.121857 -0.185246 -0.208454 0 180 235
0.0649564 -0.256916 -0.212035 0 180 235
-0.0732179 0.0302965 -0.192304 0 180 235
-0.209951 -0.0935511 -0.209794 0 180 235
0.217144 -0.0617874 -0.217616 0 180 235
-0.242307 0.0351819 -0.210382 0 180 235
-0.0526464 -0.325058 -0.207521 0 180 235
-0.10813 -0.0253855 -0.201989 0 180 235
0.223158 -0.0281339 -0.216674 0 180 235
0.121442 -0.00507192 -0.213259 0 180 235
-0.227455 -0.0614409 -0.212533 0 180 235
0.106325 -0.192412 -0.213316 0 180 235
-0.040398 -0.0248589 -0.205399 0 180 235
-0.149889 0.0414834 -0.188308 0 180 235
-0.227129 -0.279988 -0.217039 0 180 235
-0.194447 -0.0689937 -0.207655 0 180 235
0.244832 -0.140095 -0.218727 0 180 235
-0.209712 -0.0786683 -0.209453 0 180 235
0.0225837 -0.168623 -0.213653 0 180 235
-0.195871 -0.0120775 -0.204047 0 180 235
0.163975 0.00127575 -0.21393 0 180 235
0.230547 -0.304502 -0.218394 0 180 235
-0.148071 -0.143873 -0.207069 0 180 235
-0.0483343 -0.0579271 -0.208957 0 180 235
0.130854 -0.215412 -0.213212 0 180 235
-0.149149 -0.320937 -0.202873 0 180 235
-0.143237 -0.0223911 -0.20172 0 180 235
-0.195767 -0.361545 -0.21552 0 180 235
-0.0133954 -0.154254 -0.214685 0 180 235
0.213852 -0.197638 -0.217437 0 180 235
-0.187773 0.0263131 -0.19678 0 180 235
-0.12571 -0.0762724 -0.205214 0 180 235
-0.245908 0.0261032 -0.222521 0 180 235
-0.18283 0.0262537 -0.196454 0 180 235
-0.061387 -0.131698 -0.210653 0 180 235
0.235196 -0.154781 -0.218819 0 180 235
-0.143105 -0.360607 -0.201941 0 180 235
0.192092 -0.0409843 -0.217117 0 180 235
0.196004 -0.249376 -0.21571 0 180 235
-0.056024 -0.34522 -0.205604 0 180 235
0.202719 -0.290329 -0.217114 0 180 235
0.203348 -0.0204932 -0.216915 0 180 235
0.107755 -0.255603 -0.211902 0 180 235
-0.201851 -0.332625 -0.212295 0 180 235
-0.174763 -0.0755439 -0.206797 0 180 235
-0.218951 0.0431372 -0.195229 0 180 235
-0.238008 -0.00789682 -0.218534 0 180 235
0.127639 -0.0667678 -0.215593 0 180 235
-0.0698666 -0.347207 -0.203289 0 180 235
-0.0821417 -0.0099683 -0.201329 0 180 235
-0.175931 -0.308278 -0.204436 0 180 235
0.0651909 -0.288004 -0.213025 0 180 235
0.0144309 0.0171866 -0.200236 0 180 235
0.0826073 -0.36819 -0.216598 0 180 235
0.073954 -0.309234 -0.213841 0 180 235
0.0912412 0.0124783 -0.208241 0 180 235
-0.0285647 -0.335546 -0.210457 0 180 235
-0.129675 -0.0141865 -0.201 0 180 235
0.0909244 -0.319991 -0.214039 0 180 235
-0.0194935 0.0261805 -0.195803 0 180 235
-0.170542 -0.119806 -0.207735 0 180 235
-0.0917834 -0.291865 -0.206231 0 180 235
-0.232443 -0.0683509 -0.213772 0 180 235
0.110003 -0.0745479 -0.215071 0 180 235
0.0511666 -0.142936 -0.213267 0 180 235
-0.0788162 0.0263471 -0.193585 0 180 235
-0.244646 -0.116028 -0.220555 0 180 235
-0.0899807 0.0270993 -0.19341 0 180 235
-0.22471 -0.0933414 -0.211866 0 180 235
-0.0976432 -0.200504 -0.209609 0 180 235
-0.0810364 0.0249809 -0.194089 0 180 235
-0.114372 0.00724142 -0.197577 0 180 235
-0.0286121 -0.0144631 -0.204588 0 180 235
-0.174293 -0.287095 -0.204025 0 180 235
-0.21386 0.0202344 -0.202471 0 180 235
-0.0469505 -0.0156279 -0.204115 0 180 235
-0.226214 0.0344553 -0.200282 0 180 235
-0.207367 0.0394734 -0.193628 0 180 235
0.0160657 -0.319506 -0.216035 0 180 235
0.0594493 0.0118193 -0.205184 0 180 235
-0.10136 -0.177068 -0.209449 0 180 235
-0.201837 -0.0243065 -0.205374 0 180 235
-0.146515 -0.288171 -0.203158 0 180 235
-0.183794 -0.069748 -0.207071 0 180 235
0.109069 -0.233915 -0.212156 0 180 235
-0.251395 -0.0968002 -0.230944 0 180 235
-0.236827 -0.0631534 -0.216788 0 180 235
-0.13899 0.0272664 -0.1927 0 180 235
-0.183222 -0.0664022 -0.206814 0 180 235
-0.2489 0.0202035 -0.230896 0 180 235
-0.0709526 -0.135973 -0.209817 0 180 235
0.157211 -0.156569 -0.216019 0 180 235
-0.231314 -0.022835 -0.211575 0 180 235
-0.0769161 -0.00807879 -0.201445 0 180 235
-0.158146 -0.0841814 -0.206557 0 180 235
0.192598 -0.271496 -0.215968 0 180 235
-0.217078 -0.0453963 -0.209312 0 180 235
0.0515511 -0.307633 -0.214391 0 180 235
-0.231305 0.0419131 -0.198587 0 180 235
-0.146693 0.0244201 -0.193532 0 180 235
0.167261 -0.084724 -0.216981 0 180 235
-0.20565 -0.320919 -0.212159 0 180 235
-0.199481 -0.201555 -0.205794 0 180 235
0.205533 -0.0296611 -0.217322 0 180 235
-0.11046 -0.252463 -0.207472 0 180 235
-0.200667 -0.0841272 -0.208812 0 180 235
-0.0257104 -0.245643 -0.214595 0 180 235
-0.0428493 -0.0160223 -0.204288 0 180 235
-0.229048 0.0130644 -0.206924 0 180 235
0.163624 -0.129667 -0.216682 0 180 235
-0.260726 -0.00848203 -0.254435 0 180 235
-0.21272 0.0322581 -0.197972 0 180 235
-0.0516683 -0.241733 -0.212183 0 180 235
0.255889 -0.0862425 -0.218089 0 180 235
-0.161506 0.0313906 -0.191894 0 180 235
-0.0194848 -0.196961 -0.215201 0 180 235
-0.17238 -0.365007 -0.208344 0 180 235
0.151265 -0.279962 -0.213956 0 180 235
0.00331487 -0.254812 -0.214441 0 180 235
-0.230879 -0.0816017 -0.213308 0 180 235
0.0365965 -0.183318 -0.212229 0 180 235
-0.0678238 -0.101803 -0.209528 0 180 235
-0.111046 -0.00389549 -0.199154 0 180 235
-0.188 -0.124968 -0.208092 0 180 235
-0.174941 -0.0258952 -0.203841 0 180 235
-0.00567234 0.0019084 -0.202285 0 180 235
-0.165903 0.00840641 -0.199409 0 180 235
-0.236045 0.0155215 -0.211746 0 180 235
-0.141142 -0.062758 -0.204475 0 180 235
0.152083 -0.11933 -0.216371 0 180 235
-0.256669 -0.0329379 -0.248373 0 180 235
0.0562843 -0.0947804 -0.213984 0 180 235
0.019707 -0.36127 -0.216591 0 180 235
0.252314 -0.0679646 -0.217768 0 180 235
-0.103127 -0.0938707 -0.207125 0 180 235
-0.241445 0.0156008 -0.218872 0 180 235
0.0244918 -0.00942205 -0.206474 0 180 235
-0.0447603 -0.27705 -0.21211 0 180 235
-0.0869274 0.0293469 -0.192587 0 180 235
-0.145735 -0.353838 -0.202927 0 180 235
0.0858871 -0.196761 -0.212456 0 180 235
-0.0804462 -0.0765441 -0.207789 0 180 235
0.276379 -0.226067 -0.218705 0 180 235
0.114505 -0.164798 -0.213886 0 180 235
-0.0142137 -0.204491 -0.215549 0 180 235
-0.218375 -0.240424 -0.209826 0 180 235
-0.193316 -0.0108721 -0.203785 0 180 235
-0.226804 -0.146146 -0.210089 0 180 235
0.134426 -0.025011 -0.214903 0 180 235
0.223633 -0.0894611 -0.217115 0 180 235
0.220338 -0.138374 -0.217582 0 180 235
0.0242565 -0.138619 -0.213687 0 180 235
-0.107911 0.0222514 -0.193902 0 180 235
0.0166492 -0.163188 -0.214024 0 180 235
-0.0153988 -0.0771923 -0.211913 0 180 235
-0.117015 0.0366277 -0.189995 0 180 235
-0.159545 -0.116147 -0.206949 0 180 235
-0.0528123 -0.0719297 -0.209732 0 180 235
0.198021 -0.206166 -0.216037 0 180 235
-0.0359804 -0.266614 -0.213645 0 180 235
0.18382 -0.34563 -0.217909 0 180 235
0.173656 -0.350153 -0.217964 0 180 235
-0.0793146 -0.1894 -0.210716 0 180 235
-0.11922 -0.124604 -0.206949 0 180 235
-0.161869 -0.117935 -0.207134 0 180 235
-0.00823927 -0.121136 -0.213625 0 180 235
0.10384 -0.056446 -0.215052 0 180 235
-0.154028 -0.0471268 -0.204461 0 180 235
-0.0900466 -0.252006 -0.209326 0 180 235
-0.138073 0.0203639 -0.194584 0 180 235
-0.0743329 0.00392217 -0.200607 0 180 235
-0.226825 -0.214008 -0.210356 0 180 235
-0.236877 -0.0932481 -0.214366 0 180 235
-0.16264 -0.00710785 -0.201318 0 180 235
0.114042 -0.0840422 -0.214983 0 180 235
-0.109307 0.0110749 -0.197198 0 180 235
-0.0785118 0.0293904 -0.192482 0 180 235
-0.106264 0.0197261 -0.194699 0 180 235
-0.183885 -0.171788 -0.207368 0 180 235
0.136157 -0.150621 -0.215079 0 180 235
-0.153508 -0.107986 -0.206687 0 180 235
-0.15624 -0.0930766 -0.206702 0 180 235
0.136703 -0.157771 -0.214962 0 180 235
0.134203 -0.10707 -0.215638 0 180 235
-0.0902295 -0.0928701 -0.207997 0 180 235
-0.13592 0.0272052 -0.192742 0 180 235
-0.000618647 -0.242421 -0.214586 0 180 235
-0.0665663 -0.290612 -0.20901 0 180 235
0.157297 -0.330253 -0.216358 0 180 235
0.0264397 -0.0697473 -0.21238 0 180 235
-0.0141311 -0.00138944 -0.202752 0 180 235
-0.01962 -0.322588 -0.212564 0 180 235
-0.21749 -0.305834 -0.215563 0 180 235
-0.108164 -0.347892 -0.19948 0 180 235
0.103489 -0.35603 -0.215928 0 180 235
0.0986701 -0.178835 -0.213162 0 180 235
-0.133595 -0.0882801 -0.205378 0 180 235
0.2844 -0.287925 -0.219251 0 180 235
-0.15072 -0.219794 -0.205975 0 180 235
0.227017 -0.138895 -0.218009 0 180 235
-0.248142 0.048521 -0.210233 0 180 235
-0.192907 0.0414762 -0.19065 0 180 235
0.0705028 -0.17699 -0.211561 0 180 235
-0.206626 0.0434236 -0.192136 0 180 235
-0.0458057 -0.14885 -0.212466 0 180 235
-0.110663 0.0340443 -0.19094 0 180 235
0.0403527 -0.00247022 -0.205528 0 180 235
0.137573 -0.233012 -0.212173 0 180 235
-0.039297 0.013833 -0.198412 0 180 235
-0.140049 -0.0830488 -0.205428 0 180 235
-0.0793306 -0.239974 -0.209983 0 180 235
0.292205 -0.364049 -0.216402 0 180 235
-0.241245 -0.187895 -0.218234 0 180 235
-0.197819 0.0443777 -0.190022 0 180 235
-0.143339 -0.0894444 -0.205989 0 180 235
-0.0642404 -0.319628 -0.206662 0 180 235
-0.0189699 -0.169247 -0.214771 0 180 235
-0.15855 -0.15558 -0.207462 0 180 235
-0.24385 -0.0142686 -0.226901 0 180 235
0.117136 -0.041794 -0.21478 0 180 235
-0.0451762 -0.192386 -0.212902 0 180 235
-0.109104 -0.0268562 -0.202087 0 180 235
0.245558 -0.216668 -0.218663 0 180 235
-0.249269 0.0302259 -0.226192 0 180 235
0.0390279 -0.159061 -0.21318 0 180 235
0.117467 -0.162659 -0.213991 0 180 235
-0.0375654 -0.275975 -0.213005 0 180 235
-0.0826332 0.0148782 -0.197742 0 180 235
-0.209081 0.017907 -0.201842 0 180 235
-0.197418 0.0195939 -0.200222 0 180 235
-0.256526 0.0467178 -0.22914 0 180 235
0.169665 -0.0405258 -0.216614 0 180 235
-0.0466513 0.0306524 -0.193016 0 180 235
-0.217226 -0.159144 -0.208249 0 180 235
-0.0178656 -0.0124385 -0.205007 0 180 235
-0.14006 -0.142455 -0.20736 0 180 235
-0.224533 -0.159367 -0.208666 0 180 235
0.138443 -0.00949799 -0.214601 0 180 235
-0.091559 -0.000941291 -0.199741 0 180 235
-0.112506 0.0170269 -0.195553 0 180 235
0.121361 -0.328969 -0.214723 0 180 235
0.122935 0.00750124 -0.211461 0 180 235
-0.23454 -0.119516 -0.213362 0 180 235
-0.139874 -0.0830285 -0.205414 0 180 235
-0.124265 -0.129671 -0.207361 0 180 235
-0.0520512 -0.103976 -0.211026 0 180 235
-0.047573 -0.0640944 -0.209562 0 180 235
0.1717 -0.215651 -0.213772 0 180 235
-0.0764719 -0.157646 -0.210184 0 180 235
-0.210214 -0.0371584 -0.207624 0 180 235
-0.210388 0.0310306 -0.197865 0 180 235
-0.177732 -0.284549 -0.204313 0 180 235
-0.221717 -0.194412 -0.208065 0 180 235
-0.187007 -0.143731 -0.207669 0 180 235
-0.0496343 -0.25878 -0.212057 0 180 235
0.221489 -0.195782 -0.21797 0 180 235
-0.124889 -0.254337 -0.206283 0 180 235
-0.259404 0.0405889 -0.240229 0 180 235
0.0749382 -0.0158046 -0.209749 0 180 235
0.0362251 -0.0267732 -0.211103 0 180 235
0.157497 -0.0484554 -0.216667 0 180 235
0.0598423 -0.179815 -0.211445 0 180 235
-0.176063 -0.204457 -0.205569 0 180 235
-0.143698 -0.0599636 -0.204497 0 180 235
0.123973 -0.146724 -0.214566 0 180 235
0.227366 -0.0430911 -0.217251 0 180 235
-0.225085 -0.0322472 -0.210569 0 180 235
-0.196184 -0.0583013 -0.207116 0 180 235
-0.154237 0.0141734 -0.19735 0 180 235
0.252913 -0.235467 -0.218288 0 180 235
0.0451507 -0.0124409 -0.207981 0 180 235
0.151811 -0.0266134 -0.215663 0 180 235
0.149303 -0.175433 -0.215314 0 180 235
0.0779142 0.00421288 -0.20826 0 180 235
-0.0742326 0.0117009 -0.19876 0 180 235
-0.170675 -0.0514474 -0.205368 0 180 235
-0.107308 0.0279082 -0.192598 0 180 235
-0.200492 -0.319742 -0.210569 0 180 235
-0.246449 -0.20418 -0.221308 0 180 235
0.101886 -0.173893 -0.213328 0 180 235
-0.245743 0.00538155 -0.227808 0 180 235
-0.186968 -0.122802 -0.208125 0 180 235
0.192406 -0.335508 -0.217567 0 180 235
0.0179849 -0.0148848 -0.207461 0 180 235
-0.0467655 -0.192074 -0.212783 0 180 235
0.000296266 -0.231255 -0.214728 0 180 235
0.019086 -0.15367 -0.213842 0 180 235
0.224312 -0.271384 -0.217255 0 180 235
-0.0540756 0.0166905 -0.196952 0 180 235
-0.079465 -0.199234 -0.210598 0 180 235
0.173181 -0.0505953 -0.216961 0 180 235
0.254098 -0.11544 -0.218561 0 180 235
-0.203916 -0.176041 -0.207039 0 180 235
0.278399 -0.349953 -0.215541 0 180 235
-0.101187 0.0205393 -0.194821 0 180 235
-0.243956 0.0455576 -0.205576 0 180 235
-0.0369528 -0.262587 -0.213593 0 180 235
0.183795 -0.220215 -0.214522 0 180 235
-0.224292 0.027632 -0.202245 0 180 235
-0.000461563 -0.0859299 -0.212655 0 180 235
-0.235289 -0.0631846 -0.215111 0 180 235
0.241415 -0.0719964 -0.21751 0 180 235
0.0224614 -0.358859 -0.216591 0 180 235
-0.107683 0.00637935 -0.197859 0 180 235
-0.254005 -0.0932383 -0.235196 0 180 235
-0.254951 -0.0828252 -0.238855 0 180 235
0.080036 -0.15805 -0.211828 0 180 235
-0.12533 0.0275904 -0.192556 0 180 235
0.180977 -0.104585 -0.216981 0 180 235
0.107435 -0.147098 -0.213653 0 180 235
0.259806 -0.3487 -0.219061 0 180 235
-0.14242 -0.299328 -0.202876 0 180 235
-0.00853875 -0.296023 -0.214021 0 180 235
-0.230543 -0.285547 -0.219666 0 180 235
0.212255 -0.216953 -0.217268 0 180 235
0.0985875 0.0119769 -0.208932 0 180 235
-0.206799 -0.110699 -0.209565 0 180 235
0.193589 -0.270378 -0.215977 0 180 235
-0.1236 -0.0286009 -0.202152 0 180 235
-0.180453 -0.127312 -0.207972 0 180 235
-0.253379 -0.0778637 -0.237537 0 180 235
-0.243274 -0.0293232 -0.226683 0 180 235
-0.225064 -0.123449 -0.211426 0 180 235
-0.167797 0.0179396 -0.197906 0 180 235
0.0697322 -0.251144 -0.211903 0 180 235
-0.191241 -0.210151 -0.205258 0 180 235
0.150013 -0.369791 -0.219234 0 180 235
-0.0645928 -0.205568 -0.211414 0 180 235
0.22001 -0.378892 -0.21837 0 180 235
0.15662 -0.0789482 -0.216666 0 180 235
0.167147 -0.240497 -0.213306 0 180 235
0.157188 -0.0193013 -0.215907 0 180 235
-0.230315 -0.051933 -0.21267 0 180 235
-0.131742 -0.116162 -0.206555 0 180 235
-0.119534 -0.11732 -0.206616 0 180 235
0.144651 -0.00424429 -0.214487 0 180 235
-0.0541077 -0.209094 -0.212337 0 180 235
0.127579 -0.283391 -0.21232 0 180 235
-0.129364 -0.0673319 -0.20473 0 180 235
-0.0729915 -0.124662 -0.20931 0 180 235
-0.143183 -0.0761821 -0.205351 0 180 235
0.130506 -0.0387928 -0.215252 0 180 235
-0.199987 -0.00409286 -0.203592 0 180 235
-0.116348 -0.0413362 -0.203399 0 180 235
-0.11853 -0.112096 -0.206445 0 180 235
-0.220967 -0.33061 -0.219668 0 180 235
0.293756 -0.357567 -0.217411 0 180 235
-0.111566 -0.252389 -0.207339 0 180 235
-0.246057 -0.114227 -0.22241 0 180 235
-0.254912 0.0348277 -0.234726 0 180 235
-0.142498 -0.172258 -0.207463 0 180 235
-0.103798 -0.310633 -0.203712 0 180 235
-0.215732 0.0394306 -0.195754 0 180 235
-0.201059 -0.148297 -0.20859 0 180 235
0.118456 -0.0197969 -0.213872 0 180 235
-0.027189 -0.275165 -0.213497 0 180 235
-0.0818677 -0.353417 -0.200024 0 180 235
-0.25474 -0.0672626 -0.241963 0 180 235
0.231345 -0.24062 -0.217542 0 180 235
-0.218669 -0.35439 -0.22043 0 180 235
0.090314 -0.327829 -0.21428 0 180 235
0.134493 -0.105931 -0.215658 0 180 235
-0.172975 -0.0628108 -0.206087 0 180 235
-0.173125 -0.336408 -0.205786 0 180 235
-0.182525 -0.147895 -0.198679 32 212 224
-0.200104 -0.390884 -0.193414 32 212 224
-0.146738 -0.0267501 -0.207465 32 212 224
-0.115192 -0.419588 -0.196422 32 212 224
-0.147049 -0.0376262 -0.206696 32 212 224
-0.146754 -0.408285 -0.194789 32 212 224
0.0339448 -0.280509 -0.201215 32 212 224
0.0941622 -0.341677 -0.201914 32 212 224
-0.208808 -0.39477 -0.193619 32 212 224
0.0580477 -0.406007 -0.205691 32 212 224
0.112767 -0.203491 -0.198298 32 212 224
-0.0948928 -0.394546 -0.199367 32 212 224
0.08643 -0.0261375 -0.197555 32 212 224
-0.148689 -0.403456 -0.194859 32 212 224
-0.0900292 -0.274916 -0.197575 32 212 224
-0.226577 -0.247599 -0.195155 32 212 224
-0.159309 -0.416873 -0.194269 32 212 224
-0.0889418 -0.102177 -0.203026 32 212 224
-0.189885 -0.418718 -0.194149 32 212 224
0.204144 -0.280733 -0.197874 32 212 224
0.173924 -0.292132 -0.198693 32 212 224
0.0857437 -0.314313 -0.200056 32 212 224
0.182332 -0.255474 -0.198152 32 212 224
0.0257657 -0.399898 -0.207493 32 212 224
-0.238413 -0.217081 -0.196279 32 212 224
-0.178 -0.141449 -0.199191 32 212 224
-0.160987 -0.0289943 -0.207102 32 212 224
-0.0107724 -0.185852 -0.198393 32 212 224
-0.273002 -0.0202482 -0.215247 32 212 224
-0.199653 -0.331609 -0.195131 32 212 224
0.219775 -0.196207 -0.194586 32 212 224
-0.145071 -0.416416 -0.194225 32 212 224
-0.238007 -0.153081 -0.200569 32 212 224
-0.0306307 -0.306962 -0.200661 32 212 224
0.0510178 -0.0106998 -0.198642 32 212 224
0.175952 -0.268058 -0.19788 32 212 224
-0.11118 -0.42981 -0.199162 32 212 224
-0.279909 -0.215214 -0.205299 32 212 224
-0.156983 -0.395873 -0.194802 32 212 224
-0.227498 -0.374222 -0.193397 32 212 224
0.120302 -0.201368 -0.198175 32 212 224
-0.261553 -0.365009 -0.197828 32 212 224
-0.183584 -0.345055 -0.195573 32 212 224
-0.133683 -0.413575 -0.195202 32 212 224
-0.0918247 -0.431313 -0.19584 32 212 224
0.0218899 -0.361115 -0.20602 32 212 224
-0.0693941 -0.434463 -0.195996 32 212 224
-0.00312802 -0.411371 -0.20468 32 212 224
0.106305 -0.291381 -0.198374 32 212 224
-0.18836 -0.373105 -0.194625 32 212 224
-0.0894842 -0.0455416 -0.207202 32 212 224
-0.06419 -0.202126 -0.197662 32 212 224
0.166461 -0.1678 -0.197057 32 212 224
-0.133595 -0.407113 -0.196118 32 212 224
-0.282322 -0.276476 -0.205942 32 212 224
-0.147482 -0.42507 -0.19422 32 212 224
-0.109956 -0.40079 -0.198736 32 212 224
-0.205308 -0.123307 -0.20178 32 212 224
-0.185253 -0.239706 -0.196707 32 212 224
-0.13572 -0.414714 -0.2138 32 212 224
-0.236332 -0.377771 -0.194113 32 212 224
-0.215154 -0.344781 -0.193847 32 212 224
-0.143547 -0.32727 -0.197616 32 212 224
-0.0464176 -0.274848 -0.197953 32 212 224
-0.0977905 -0.0314039 -0.208277 32 212 224
0.0899381 -0.31652 -0.19997 32 212 224
-0.0358325 -0.191528 -0.197768 32 212 224
-0.252361 -0.156701 -0.201479 32 212 224
-0.295744 -0.0281873 -0.220083 32 212 224
0.187177 -0.308265 -0.200204 32 212 224
-0.28865 -0.181204 -0.210316 32 212 224
-0.216663 -0.336537 -0.194033 32 212 224
-0.226765 -0.207673 -0.195932 32 212 224
-0.171038 -0.396916 -0.194382 32 212 224
-0.123829 -0.356011 -0.198296 32 212 224
-0.223943 -0.131624 -0.202364 32 212 224
0.0845828 -0.302436 -0.199629 32 212 224
-0.260218 -0.369639 -0.19733 32 212 224
0.0171171 -0.366723 -0.206519 32 212 224
-0.0555164 -0.121882 -0.201348 32 212 224
-0.0644427 -0.0872849 -0.20434 32 212 224
-0.147722 -0.412417 -0.19439 32 212 224
-0.247459 -0.0014675 -0.214006 32 212 224
-0.189641 -0.0252069 -0.20811 32 212 224
0.0660523 -0.404973 -0.205016 32 212 224
-0.225789 0.000570774 -0.212565 32 212 224
0.140579 -0.353606 -0.204601 32 212 224
0.216336 -0.265367 -0.197182 32 212 224
0.187172 -0.219538 -0.196049 32 212 224
0.214214 -0.164483 -0.193816 32 212 224
-0.0394939 -0.0391338 -0.206903 32 212 224
-0.202031 -0.345069 -0.194629 32 212 224
-0.291189 -0.107751 -0.207788 32 212 224
0.083386 -0.199147 -0.198216 32 212 224
-0.0995631 -0.0233141 -0.208882 32 212 224
-0.0859457 -0.408192 -0.199108 32 212 224
-0.248548 -0.381756 -0.1944 32 212 224
-0.11485 -0.413708 -0.197274 32 212 224
-0.210831 -0.0989096 -0.204028 32 212 224
-0.145015 -0.0800145 -0.203872 32 212 224
-0.129291 -0.419431 -0.1948 32 212 224
-0.160206 -0.332047 -0.197181 32 212 224
-0.0593286 -0.00162941 -0.209712 32 212 224
-0.103488 -0.384856 -0.199048 32 212 224
-0.148849 -0.42838 -0.194107 32 212 224
-0.0482859 -0.201825 -0.197261 32 212 224
0.165192 -0.344197 -0.204458 32 212 224
-0.255702 -0.389098 -0.195955 32 212 224
-0.228132 -0.410733 -0.19374 32 212 224
0.0283518 -0.418278 -0.20652 32 212 224
-0.24743 -0.167215 -0.199595 32 212 224
-0.25318 0.00488459 -0.21521 32 212 224
0.00469168 -0.336545 -0.205165 32 212 224
-0.228983 -0.111817 -0.204533 32 212 224
-0.0844614 -0.433629 -0.195665 32 212 224
0.0678383 -0.00681178 -0.197476 32 212 224
-0.274247 -0.0197652 -0.215449 32 212 224
0.0769182 -0.300946 -0.200035 32 212 224
-0.00773757 -0.140013 -0.198919 32 212 224
-0.045635 -0.162541 -0.198396 32 212 224
-0.0466869 -0.257479 -0.197266 32 212 224
-0.155139 -0.263009 -0.198218 32 212 224
-0.172391 -0.126162 -0.200344 32 212 224
-0.263376 -0.15878 -0.202819 32 212 224
-0.192254 -0.126152 -0.200897 32 212 224
-0.190564 -0.319204 -0.195604 32 212 224
-0.185399 -0.420219 -0.203119 32 212 224
-0.162904 -0.332198 -0.197087 32 212 224
-0.0698276 -0.18147 -0.198492 32 212 224
-0.182568 -0.162044 -0.198007 32 212 224
0.204636 -0.27315 -0.197436 32 212 224
-0.208047 -0.389781 -0.1935 32 212 224
-0.271139 -0.299238 -0.201167 32 212 224
0.141051 -0.253001 -0.197759 32 212 224
-0.290158 -0.199511 -0.211979 32 212 224
-0.0275162 -0.323872 -0.202022 32 212 224
-0.11058 -0.0406344 -0.207436 32 212 224
0.0720867 -0.352646 -0.20185 32 212 224
-0.287693 -0.0870967 -0.205106 32 212 224
-0.262193 -0.199115 -0.200211 32 212 224
-0.204023 -0.370375 -0.1938 32 212 224
0.0126105 -0.322711 -0.204121 32 212 224
-0.00247535 -0.0756529 -0.201299 32 212 224
-0.211946 -0.375803 -0.193391 32 212 224
-0.199764 -0.376632 -0.193858 32 212 224
-0.201057 -0.252235 -0.196071 32 212 224
-0.18824 -0.282697 -0.196104 32 212 224
-0.0528942 -0.187361 -0.197815 32 212 224
-0.210689 -0.153515 -0.199648 32 212 224
-0.236369 -0.179026 -0.197864 32 212 224
-0.136881 -0.091989 -0.203079 32 212 224
-0.14892 -0.0233313 -0.207751 32 212 224
-0.0435191 -0.350366 -0.200828 32 212 224
-0.272446 -0.14622 -0.204731 32 212 224
-0.189558 -0.0743226 -0.204605 32 212 224
-0.21093 -0.14048 -0.200818 32 212 224
-0.248544 -0.28866 -0.19569 32 212 224
-0.195859 -0.269888 -0.196046 32 212 224
-0.239903 -0.181316 -0.197694 32 212 224
-0.140865 -0.345198 -0.197458 32 212 224
-0.106786 -0.381278 -0.198927 32 212 224
-0.0642605 -0.432642 -0.196642 32 212 224
0.170797 -0.314039 -0.201149 32 212 224
-0.21945 -0.328989 -0.194166 32 212 224
0.263936 -0.313246 -0.202529 32 212 224
-0.203811 -0.0289151 -0.20873 32 212 224
-0.141455 0.00323184 -0.210459 32 212 224
-0.145411 -0.417809 -0.209747 32 212 224
-0.241102 -0.247697 -0.195898 32 212 224
-0.0415213 -0.270338 -0.198064 32 212 224
-0.243447 -0.404157 -0.193791 32 212 224
-0.0177397 -0.386566 -0.203743 32 212 224
-0.272854 -0.315804 -0.201323 32 212 224
-0.0474205 -0.127806 -0.200614 32 212 224
0.0284746 -0.391016 -0.207432 32 212 224
-0.218216 -0.088891 -0.205339 32 212 224
-0.130068 -0.395976 -0.197248 32 212 224
0.0291215 -0.0240983 -0.200488 32 212 224
-0.237547 -0.194876 -0.196562 32 212 224
-0.189425 -0.245966 -0.196418 32 212 224
-0.269465 -0.325611 -0.200469 32 212 224
-0.183802 -0.048606 -0.206192 32 212 224
-0.115538 -0.414549 -0.197108 32 212 224
-0.271363 0.0115817 -0.217772 32 212 224
0.0983038 -0.329707 -0.201594 32 212 224
-0.236233 -0.00627518 -0.21256 32 212 224
0.154197 -0.207867 -0.197513 32 212 224
-0.096741 -0.0107816 -0.209614 32 212 224
0.216358 -0.296923 -0.199503 32 212 224
0.211011 -0.148246 -0.194356 32 212 224
-0.216482 -0.41551 -0.193779 32 212 224
-0.0857097 -0.422734 -0.197746 32 212 224
-0.00140963 -0.193066 -0.198804 32 212 224
-0.174326 -0.419077 -0.194431 32 212 224
-0.0286031 -0.152135 -0.198086 32 212 224
0.125276 -0.0956381 -0.196805 32 212 224
-0.0664901 -0.38708 -0.199843 32 212 224
-0.241533 -0.146344 -0.201355 32 212 224
-0.112182 -0.397605 -0.198724 32 212 224
0.153809 -0.323323 -0.20214 32 212 224
0.00729817 -0.00237402 -0.203478 32 212 224
-0.266386 -0.0456432 -0.212302 32 212 224
-0.298481 -0.061875 -0.21623 32 212 224
0.138092 -0.0746562 -0.196991 32 212 224
-0.179061 -0.175407 -0.197836 32 212 224
-0.243482 -0.403251 -0.193843 32 212 224
0.0859835 -0.315482 -0.200101 32 212 224
-0.139144 -0.143597 -0.19976 32 212 224
-0.11172 -0.066805 -0.205533 32 212 224
0.0792802 -0.216969 -0.199434 32 212 224
-0.112957 -0.434147 -0.19352 32 212 224
-0.198399 -0.120465 -0.201693 32 212 224
-0.136699 -0.176359 -0.199315 32 212 224
0.0551447 -0.199043 -0.198842 32 212 224
-0.26569 -0.218069 -0.200714 32 212 224
-0.202913 -0.282963 -0.195591 32 212 224
0.119354 -0.202897 -0.198214 32 212 224
-0.0666546 -0.351956 -0.198837 32 212 224
-0.12803 -0.421127 -0.206138 32 212 224
-0.197192 -0.0214511 -0.208836 32 212 224
-0.144778 -0.421438 -0.204583 32 212 224
-0.265961 -0.133398 -0.205155 32 212 224
0.175292 -0.321862 -0.202213 32 212 224
-0.151064 -0.0389564 -0.206564 32 212 224
0.118752 -0.161894 -0.197199 32 212 224
-0.0807425 -0.294177 -0.197395 32 212 224
-0.101963 -0.151853 -0.199728 32 212 224
0.0663813 -0.280342 -0.199891 32 212 224
0.0874316 -0.366516 -0.203347 32 212 224
-0.218229 -0.293688 -0.194912 32 212 224
0.205648 -0.103681 -0.196102 32 212 224
-0.295002 -0.141022 -0.210499 32 212 224
-0.0941187 -0.289444 -0.19756 32 212 224
-0.108702 -0.183882 -0.199411 32 212 224
-0.236054 -0.109603 -0.204997 32 212 224
-0.215567 -0.211569 -0.195869 32 212 224
-0.112384 -0.232348 -0.198795 32 212 224
-0.276202 0.00204751 -0.21737 32 212 224
-0.0787859 -0.135652 -0.200496 32 212 224
-0.218505 -0.272653 -0.19521 32 212 224
-0.0573624 -0.422185 -0.199162 32 212 224
0.0664601 -0.404192 -0.204985 32 212 224
-0.213439 -0.308076 -0.194868 32 212 224
0.11783 -0.221324 -0.198437 32 212 224
-0.242239 0.00585844 -0.214127 32 212 224
-0.0999658 -0.341296 -0.198814 32 212 224
-0.105247 -0.287359 -0.19786 32 212 224
-0.28786 -0.177103 -0.210116 32 212 224
-0.0815673 -0.383395 -0.199594 32 212 224
-0.250899 -0.36072 -0.195031 32 212 224
-0.168817 -0.229375 -0.197724 32 212 224
-0.0599303 -0.434329 -0.196385 32 212 224
0.154083 -0.261126 -0.1971 32 212 224
-0.147163 -0.332016 -0.197449 32 212 224
-0.109488 -0.379068 -0.198858 32 212 224
-0.134528 -0.276725 -0.198452 32 212 224
-0.270979 -0.169312 -0.202935 32 212 224
-0.158168 -0.394273 -0.194829 32 212 224
-0.232596 -0.280341 -0.194914 32 212 224
0.00462643 -0.0694068 -0.200748 32 212 224
-0.287879 -0.194682 -0.209497 32 212 224
-0.247239 -0.197492 -0.197635 32 212 224
0.0753271 -0.283702 -0.199611 32 212 224
-0.192875 -0.428068 -0.195551 32 212 224
-0.244518 -0.0609771 -0.210038 32 212 224
-0.246952 -0.030743 -0.212118 32 212 224
-0.260666 -0.215423 -0.199682 32 212 224
-0.0376997 -0.263521 -0.198008 32 212 224
-0.0511529 -0.438065 -0.195852 32 212 224
0.0785978 -0.112677 -0.197034 32 212 224
-0.00248533 -0.242375 -0.19901 32 212 224
0.0528819 -0.393383 -0.205559 32 212 224
-0.300469 -0.126676 -0.215662 32 212 224
-0.242461 -0.190493 -0.197047 32 212 224
-0.255522 -0.12086 -0.20524 32 212 224
0.133282 -0.304589 -0.19936 32 212 224
-0.0770761 -0.34768 -0.198712 32 212 224
0.00460822 -0.198722 -0.199086 32 212 224
-0.265348 -0.150112 -0.203769 32 212 224
-0.0927242 -0.165524 -0.19944 32 212 224
-0.187151 -0.0908884 -0.203319 32 212 224
-0.305819 0.00898373 -0.223446 32 212 224
-0.0968843 -0.434679 -0.194307 32 212 224
-0.173839 -0.138385 -0.199423 32 212 224
-0.0361465 -0.164453 -0.197997 32 212 224
-0.193051 -0.426772 -0.196691 32 212 224
-0.024574 -0.0934463 -0.202278 32 212 224
-0.216767 -0.190877 -0.196189 32 212 224
-0.268151 -0.367906 -0.199586 32 212 224
-0.188145 -0.116148 -0.201446 32 212 224
0.049509 -0.213448 -0.199731 32 212 224
-0.0498202 -0.263953 -0.197365 32 212 224
-0.183517 -0.393732 -0.193958 32 212 224
0.00106221 -0.389235 -0.205228 32 212 224
0.0924466 -0.322558 -0.200628 32 212 224
-0.145793 -0.173425 -0.19924 32 212 224
0.00234993 -0.00135574 -0.204074 32 212 224
0.127275 -0.239215 -0.198478 32 212 224
-0.114131 -0.407961 -0.197888 32 212 224
0.0699216 -0.300493 -0.200353 32 212 224
0.196425 -0.185613 -0.195271 32 212 224
-0.295947 0.0134077 -0.22228 32 212 224
-0.139592 -0.421204 -0.194075 32 212 224
-0.120218 -0.282003 -0.198311 32 212 224
0.16945 -0.314731 -0.201252 32 212 224
-0.0474434 -0.213327 -0.197192 32 212 224
-0.224809 -0.366967 -0.193207 32 212 224
0.0741525 -0.272345 -0.199468 32 212 224
0.0277278 -0.394082 -0.207478 32 212 224
0.166322 -0.237958 -0.197233 32 212 224
-0.0412136 -0.0900473 -0.203174 32 212 224
-0.125329 -0.419722 -0.208301 32 212 224
-0.305584 0.0105017 -0.223442 32 212 224
-0.18731 -0.41912 -0.194177 32 212 224
-0.204645 -0.374688 -0.19361 32 212 224
-0.210437 -0.0607658 -0.206812 32 212 224
-0.0395881 -0.23928 -0.197088 32 212 224
0.125774 -0.0687113 -0.197058 32 212 224
0.141933 -0.294504 -0.198416 32 212 224
-0.246952 -0.150935 -0.201207 32 212 224
-0.134808 -0.419596 -0.208258 32 212 224
-0.291377 0.00641126 -0.220687 32 212 224
-0.303407 -0.0123377 -0.221696 32 212 224
-0.217085 -0.341693 -0.193858 32 212 224
-0.231986 -0.365685 -0.193677 32 212 224
-0.113864 -0.40016 -0.198427 32 212 224
-0.24963 -0.0071089 -0.213806 32 212 224
-0.255156 -0.110743 -0.206218 32 212 224
0.165003 -0.283508 -0.198144 32 212 224
-0.210255 -0.375975 -0.193424 32 212 224
-0.263642 -0.130803 -0.2052 32 212 224
-0.0923787 -0.436607 -0.194319 32 212 224
-0.247159 -0.235775 -0.1969 32 212 224
-0.0983138 -0.435053 -0.195859 32 212 224
-0.215702 -0.401191 -0.193534 32 212 224
-0.209316 -0.35903 -0.193799 32 212 224
0.160677 -0.292452 -0.198624 32 212 224
-0.220998 -0.0479465 -0.208561 32 212 224
-0.138275 -0.329506 -0.197761 32 212 224
0.0145414 -0.191071 -0.199242 32 212 224
-0.0696064 -0.294544 -0.197231 32 212 224
-0.251915 -0.356885 -0.19533 32 212 224
-0.158876 -0.0222737 -0.207643 32 212 224
0.0437786 -0.338037 -0.20338 32 212 224
0.0391373 -0.379677 -0.206181 32 212 224
-0.144054 -0.0669392 -0.204794 32 212 224
-0.0595599 -0.391477 -0.200088 32 212 224
-0.102001 -0.427255 -0.196124 32 212 224
-0.0584892 -0.222033 -0.19682 32 212 224
-0.253175 0.000928431 -0.214841 32 212 224
0.0483909 -0.168345 -0.197906 32 212 224
-0.024143 -0.28495 -0.199941 32 212 224
-0.185618 -0.363957 -0.194907 32 212 224
-0.217589 -0.421072 -0.19369 32 212 224
0.151501 -0.0881172 -0.19673 32 212 224
-0.222767 -0.341468 -0.193811 32 212 224
-0.200976 -0.271066 -0.195824 32 212 224
-0.192438 -0.0844218 -0.204058 32 212 224
0.179932 -0.321391 -0.20209 32 212 224
0.24208 -0.26435 -0.196587 32 212 224
-0.0834261 -0.376281 -0.199356 32 212 224
-0.0849834 -0.161282 -0.199571 32 212 224
-0.131475 -0.110214 -0.201737 32 212 224
-0.124483 -0.434507 -0.194225 32 212 224
-0.191858 -0.188121 -0.19692 32 212 224
-0.194918 -0.116343 -0.201846 32 212 224
-0.103793 -0.174531 -0.199412 32 212 224
-0.106957 -0.434321 -0.193602 32 212 224
0.0382381 -0.11402 -0.19777 32 212 224
-0.137574 -0.424329 -0.194019 32 212 224
0.00931262 -0.3468 -0.205804 32 212 224
-0.285104 -0.256897 -0.207749 32 212 224
-0.253102 -0.336537 -0.1961 32 212 224
-0.270565 -0.294806 -0.201092 32 212 224
-0.0979533 -0.321095 -0.198455 32 212 224
-0.00556625 -0.0673471 -0.202168 32 212 224
0.0269767 -0.0734182 -0.199097 32 212 224
-0.0981062 -0.160317 -0.199539 32 212 224
-0.0155416 -0.255175 -0.198967 32 212 224
-0.140959 -0.0146403 -0.208808 32 212 224
-0.255621 -0.213219 -0.198562 32 212 224
-0.270134 -0.296911 -0.200959 32 212 224
-0.153186 -0.425532 -0.194333 32 212 224
-0.113002 -0.436483 -0.193423 32 212 224
-0.0129841 -0.375783 -0.204207 32 212 224
-0.095984 -0.342865 -0.198824 32 212 224
-0.208466 -0.038873 -0.208325 32 212 224
-0.0344718 -0.393822 -0.202092 32 212 224
-0.294308 -0.119426 -0.215468 32 212 224
-0.241469 -0.0280239 -0.211738 32 212 224
-0.215741 -0.42502 -0.193786 32 212 224
0.229751 -0.128879 -0.193445 32 212 224
-0.120433 -0.40731 -0.197403 32 212 224
-0.0634458 -0.405047 -0.200202 32 212 224
-0.166547 -0.409498 -0.19408 32 212 224
-0.0936911 -0.130248 -0.200688 32 212 224
0.0223128 -0.300512 -0.202359 32 212 224
0.0616358 -0.297044 -0.200484 32 212 224
0.0551691 -0.206121 -0.199227 32 212 224
-0.137983 -0.0131464 -0.209028 32 212 224
-0.287149 -0.194978 -0.20916 32 212 224
-0.167161 -0.169414 -0.19863 32 212 224
-0.0848235 -0.184349 -0.199018 32 212 224
-0.0290501 -0.420945 -0.20148 32 212 224
-0.179296 -0.136268 -0.199581 32 212 224
0.027868 -0.216338 -0.200196 32 212 224
0.0965506 -0.175487 -0.197551 32 212 224
-0.151132 -0.0913644 -0.202904 32 212 224
0.224987 -0.176399 -0.193822 32 212 224
-0.285439 -0.0516377 -0.216123 32 212 224
-0.24424 -0.312941 -0.194593 32 212 224
-0.124154 -0.070833 -0.204983 32 212 224
-0.237415 -0.332706 -0.193985 32 212 224
-0.24258 -0.0144908 -0.212561 32 212 224
-0.038159 -0.307416 -0.200055 32 212 224
0.225023 -0.324895 -0.202284 32 212 224
-0.0429745 -0.310504 -0.199839 32 212 224
-0.217596 -0.280134 -0.195111 32 212 224
0.165508 -0.260835 -0.197659 32 212 224
0.0368149 -0.215097 -0.199979 32 212 224
-0.256038 -0.121716 -0.205206 32 212 224
-0.20208 -0.426738 -0.196311 32 212 224
-0.228373 -0.0121163 -0.211594 32 212 224
-0.285894 -0.233761 -0.207335 32 212 224
-0.223157 -0.411216 -0.193721 32 212 224
-0.255155 -0.382554 -0.195935 32 212 224
0.105072 -0.220671 -0.198546 32 212 224
-0.290092 -0.110992 -0.206636 32 212 224
0.233919 -0.234643 -0.194412 32 212 224
-0.039595 -0.314762 -0.200389 32 212 224
-0.121435 -0.426768 -0.194149 32 212 224
-0.0621949 -0.264634 -0.196794 32 212 224
-0.102854 -0.338417 -0.19878 32 212 224
-0.211206 -0.240597 -0.195922 32 212 224
0.0377847 -0.198114 -0.199167 32 212 224
