ply
format ascii 1.0
comment Created by Open3D
element vertex 1183
property double x
property double y
property double z
property uchar red
property uchar green
property uchar blue
end_header
-0.128097 0.0429969 -0.104487 0 180 235
-0.0603957 -0.401823 -0.176563 0 180 235
-0.127535 -0.0186347 -0.080137 0 180 235
-0.126464 -0.0435599 0.0549568 0 180 235
-0.119082 -0.0651819 -0.179383 0 180 235
-0.120792 -0.00980449 -0.18519 0 180 235
-0.0818477 -0.357609 -0.179752 0 180 235
-0.132876 0.0304155 0.0690936 0 180 235
-0.120994 -0.0227132 0.197078 0 180 235
-0.121931 -0.0724644 0.141273 0 180 235
-0.128253 -0.173006 0.14768 0 180 235
-0.12723 -0.325774 0.0151676 0 180 235
0.177363 -0.3582 -0.119474 0 180 235
-0.128941 -0.0127639 0.0217864 0 180 235
-0.0732247 -0.398157 -0.184954 0 180 235
-0.129675 0.035074 -0.0870025 0 180 235
-0.0865889 -0.419928 -0.209285 0 180 235
-0.127459 -0.0692355 0.0213015 0 180 235
0.247273 -0.366976 -0.0458037 0 180 235
0.297012 -0.363299 0.0324283 0 180 235
-0.120484 -0.013414 0.180097 0 180 235
0.187922 -0.35903 -0.129367 0 180 235
-0.11877 -0.0844151 -0.175475 0 180 235
-0.0979262 -0.349044 -0.173214 0 180 235
0.151153 -0.334903 -0.205441 0 180 235
-0.123834 -0.280118 0.147299 0 180 235
0.0337627 -0.344578 -0.225189 0 180 235
-0.0971255 -0.455875 -0.21535 0 180 235
-0.125375 -0.124422 0.129872 0 180 235
-0.128314 -0.222135 -0.220272 0 180 235
-0.130614 -0.1699 -0.0909494 0 180 235
-0.117883 -0.426249 -0.219589 0 180 235
-0.01166 -0.341448 -0.176183 0 180 235
-0.124674 -0.0873024 0.0885428 0 180 235
-0.11651 -0.333712 0.197052 0 180 235
-0.120242 -0.0572681 -0.174973 0 180 235
-0.122345 -0.0211653 -0.196476 0 180 235
-0.117556 -0.356262 0.24388 0 180 235
-0.117469 -0.110409 -0.189089 0 180 235
-0.129172 0.027506 -0.104246 0 180 235
-0.12723 -0.0132835 0.272728 0 180 235
-0.127882 0.0151818 0.0988774 0 180 235
-0.113277 -0.227517 0.308839 0 180 235
0.0670663 -0.404696 -0.153611 0 180 235
-0.125447 -0.223547 0.13988 0 180 235
-0.121224 -0.122677 -0.15996 0 180 235
-0.0739422 -0.403989 0.254637 0 180 235
-0.112624 -0.288089 -0.154113 0 180 235
-0.126685 0.0224592 -0.20231 0 180 235
-0.116179 -0.279965 -0.145581 0 180 235
-0.128358 -0.149851 -0.216841 0 180 235
-0.100007 -0.349878 -0.209768 0 180 235
-0.0543341 -0.411793 -0.182978 0 180 235
-0.12728 -0.047237 -0.0790114 0 180 235
-0.120427 -0.428816 -0.220769 0 180 235
-0.121054 -0.0533576 -0.191829 0 180 235
-0.0111906 -0.346329 -0.228112 0 180 235
-0.12018 -0.128314 0.271316 0 180 235
-0.123017 0.00338495 -0.195004 0 180 235
0.126917 -0.420466 -0.0131756 0 180 235
0.101247 -0.426102 0.137162 0 180 235
-0.127165 -0.0615855 -0.0938628 0 180 235
-0.128186 -0.019199 -0.0343024 0 180 235
-0.099164 -0.407041 0.0260542 0 180 235
-0.128911 -0.181995 0.138722 0 180 235
-0.127955 -0.16845 -0.109249 0 180 235
-0.124677 -0.106193 0.162591 0 180 235
-0.118715 -0.097777 -0.173659 0 180 235
-0.111886 -0.190672 0.282713 0 180 235
0.279029 -0.36958 0.135224 0 180 235
-0.116055 -0.158168 -0.192514 0 180 235
-0.0958848 -0.123264 0.355582 0 180 235
0.27379 -0.371125 0.114789 0 180 235
-0.123416 -0.0554321 0.21129 0 180 235
-0.126224 0.0225963 -0.191526 0 180 235
-0.119757 0.00647537 0.213432 0 180 235
-0.0835345 -0.390838 0.275782 0 180 235
0.275296 -0.362202 -0.0139507 0 180 235
-0.10998 -0.212589 0.319111 0 180 235
-0.117826 -0.182752 -0.174381 0 180 235
0.0271975 -0.323727 -0.194953 0 180 235
-0.129714 -0.156239 0.0906575 0 180 235
-0.131635 0.0240449 0.0633233 0 180 235
-0.0721244 -0.385113 -0.180618 0 180 235
-0.124966 0.017734 -0.170931 0 180 235
-0.128515 -0.0231254 0.00366887 0 180 235
-0.11384 -0.260988 0.323711 0 180 235
-0.12165 -0.150919 -0.154384 0 180 235
0.170247 -0.343882 -0.188924 0 180 235
-0.127457 0.0125952 -0.0984616 0 180 235
-0.0998236 -0.174763 0.34435 0 180 235
-0.125217 0.0176891 -0.187918 0 180 235
0.279497 -0.362158 -0.0127978 0 180 235
-0.126737 -0.062667 -0.207782 0 180 235
0.291617 -0.3626 0.0210883 0 180 235
-0.124618 -0.079153 0.203081 0 180 235
-0.123765 -0.231835 -0.21757 0 180 235
-0.0970112 -0.166287 0.350983 0 180 235
-0.125552 -0.0859278 -0.209403 0 180 235
-0.130947 0.0367399 -0.0411135 0 180 235
-0.126962 -0.351317 -0.218108 0 180 235
-0.100304 -0.395403 -0.213331 0 180 235
-0.125463 -0.005462 0.111143 0 180 235
-0.124911 0.0176113 -0.173204 0 180 235
-0.10894 -0.291628 -0.171011 0 180 235
-0.118421 -0.165034 -0.205446 0 180 235
-0.11367 -0.361661 -0.215366 0 180 235
0.297188 -0.363959 0.0369185 0 180 235
0.125934 -0.423992 0.113434 0 180 235
-0.119944 0.00820358 0.219493 0 180 235
-0.110181 -0.0716799 0.35527 0 180 235
-0.108289 -0.267634 -0.194302 0 180 235
-0.112351 -0.235566 0.322431 0 180 235
0.186013 -0.357761 -0.100023 0 180 235
-0.118999 -0.0797373 -0.187241 0 180 235
0.164461 -0.358117 -0.128073 0 180 235
-0.128246 0.0204362 0.101871 0 180 235
-0.127545 -0.0728339 -0.108382 0 180 235
-0.126384 -0.115904 0.190077 0 180 235
-0.115007 -0.204629 -0.189153 0 180 235
0.0404706 -0.428156 0.147415 0 180 235
-0.124852 -0.00467638 0.1201 0 180 235
-0.129306 -0.280839 -0.110049 0 180 235
-0.123431 -0.1465 -0.212028 0 180 235
-0.12676 -0.0426453 -0.112123 0 180 235
-0.121711 -0.194771 -0.149796 0 180 235
-0.0058078 -0.33473 -0.174731 0 180 235
0.187386 -0.358269 -0.139746 0 180 235
-0.12085 0.0102735 0.191819 0 180 235
-0.126392 0.0101857 0.113542 0 180 235
-0.114894 -0.22773 -0.20656 0 180 235
-0.120575 -0.0233371 0.180638 0 180 235
0.270072 -0.361054 -0.0220781 0 180 235
-0.127968 -0.0155527 0.043425 0 180 235
-0.121572 -0.0422878 0.185313 0 180 235
-0.128664 0.0371408 -0.105693 0 180 235
-0.129589 0.028069 -0.0925754 0 180 235
-0.122851 -0.43375 -0.222053 0 180 235
-0.0950077 -0.34927 -0.200313 0 180 235
0.245557 -0.359881 -0.0567708 0 180 235
-0.124297 -0.101615 0.162361 0 180 235
-0.12946 -0.000863179 0.030695 0 180 235
-0.125348 -0.00310001 0.116 0 180 235
-0.121545 -0.430147 -0.221316 0 180 235
-0.124717 0.0211745 0.140898 0 180 235
0.277802 -0.360495 -0.00162131 0 180 235
-0.114834 -0.209048 -0.190064 0 180 235
0.107656 -0.362846 -0.164921 0 180 235
-0.120775 -0.0214773 0.194489 0 180 235
0.07257 -0.42621 0.169823 0 180 235
-0.124684 -0.339411 -0.218287 0 180 235
-0.122708 -0.00815587 -0.196405 0 180 235
0.0255084 -0.360719 -0.179673 0 180 235
-0.104 -0.283039 -0.189429 0 180 235
-0.122954 -0.0320493 -0.156217 0 180 235
-0.133015 -0.259947 -0.0869809 0 180 235
-0.113844 -0.2906 0.223682 0 180 235
-0.069702 -0.457369 -0.199537 0 180 235
-0.123262 -0.00963454 0.239388 0 180 235
-0.0983228 -0.389955 -0.212217 0 180 235
-0.0921238 -0.338329 -0.174358 0 180 235
-0.129429 -0.000495031 0.297205 0 180 235
0.0370629 -0.335666 -0.183452 0 180 235
0.039465 -0.348441 -0.182128 0 180 235
-0.130967 -0.175162 -0.0883869 0 180 235
-0.127547 -0.0326596 -0.0724008 0 180 235
0.234285 -0.359234 -0.07359 0 180 235
-0.129826 0.033684 -0.0845485 0 180 235
0.223634 -0.359295 -0.108874 0 180 235
-0.11325 -0.27573 -0.210692 0 180 235
-0.116214 -0.333666 0.227646 0 180 235
-0.115197 -0.200115 -0.202583 0 180 235
-0.123814 -0.0933843 0.277707 0 180 235
-0.0810664 -0.44275 -0.207425 0 180 235
-0.122441 0.00897205 -0.179448 0 180 235
-0.116165 -0.331749 0.228458 0 180 235
-0.120718 -0.314946 -0.130249 0 180 235
-0.125317 -0.0072081 0.110536 0 180 235
-0.126194 -0.0370899 0.0587215 0 180 235
-0.105219 -0.140664 0.332174 0 180 235
-0.129881 0.0123208 0.0559171 0 180 235
-0.127084 0.0110015 -0.115158 0 180 235
-0.131379 -0.157009 0.0137249 0 180 235
-0.120139 -0.0661879 -0.191584 0 180 235
-0.116338 -0.227076 -0.158209 0 180 235
-0.132235 -0.160494 0.0401126 0 180 235
-0.119757 -0.0680344 -0.18804 0 180 235
-0.125737 -0.00225302 -0.13406 0 180 235
-0.112405 -0.368165 -0.215003 0 180 235
-0.129053 -0.152872 0.0656036 0 180 235
-0.115365 -0.280142 -0.212889 0 180 235
-0.125219 -0.0281671 0.24308 0 180 235
-0.131053 0.0197411 0.0457299 0 180 235
-0.125407 -0.126225 0.109975 0 180 235
-0.0257317 -0.342375 -0.19242 0 180 235
-0.131884 -0.303027 -0.0208119 0 180 235
-0.103472 -0.289201 -0.19136 0 180 235
-0.128645 -0.24918 0.114303 0 180 235
-0.117465 -0.164347 -0.175252 0 180 235
-0.127954 0.00820429 -0.0752081 0 180 235
-0.109533 -0.40399 -0.213922 0 180 235
-0.113396 -0.250324 0.325858 0 180 235
-0.114719 -0.207798 -0.198404 0 180 235
0.238635 -0.359202 -0.0824278 0 180 235
0.146735 -0.359362 -0.137839 0 180 235
-0.119342 -0.206873 0.207554 0 180 235
-0.0409281 -0.404583 -0.0813 0 180 235
-0.118197 -0.188963 0.225374 0 180 235
-0.129529 -0.130133 -0.0583527 0 180 235
-0.121246 -0.295562 0.165158 0 180 235
0.026725 -0.436663 -0.00484788 0 180 235
-0.0960768 -0.411196 0.084745 0 180 235
-0.0530142 -0.413687 0.171678 0 180 235
-0.122109 -0.0273281 0.140776 0 180 235
-0.125924 -0.0245976 0.252301 0 180 235
-0.123317 -0.085293 0.109909 0 180 235
0.0158103 -0.32965 -0.207771 0 180 235
-0.135357 -0.24243 -0.00889906 0 180 235
-0.130279 0.0374005 -0.0675324 0 180 235
-0.130987 0.0228899 0.0189034 0 180 235
-0.121749 -0.0600654 0.143413 0 180 235
-0.0958217 -0.372939 -0.172186 0 180 235
-0.0343104 -0.393149 0.289956 0 180 235
-0.128145 -0.0864497 -0.0089865 0 180 235
-0.12767 0.0165088 0.10304 0 180 235
-0.122167 -0.00486243 0.163486 0 180 235
-0.115074 -0.318715 0.21519 0 180 235
-0.117832 -0.185308 -0.174483 0 180 235
-0.125001 -0.211324 0.157442 0 180 235
-0.128167 -0.304995 0.130345 0 180 235
-0.122316 0.00721837 0.240505 0 180 235
-0.138558 -0.244849 0.0804629 0 180 235
-0.130368 0.0256172 -0.016562 0 180 235
-0.115429 -0.359117 -0.0507833 0 180 235
-0.124695 -0.0679276 -0.143612 0 180 235
-0.108776 -0.373467 -0.214424 0 180 235
-0.125372 -0.151515 -0.136066 0 180 235
-0.125532 -0.21914 -0.115736 0 180 235
-0.117773 -0.111179 -0.176368 0 180 235
-0.123729 0.0234768 0.153891 0 180 235
-0.115897 -0.102722 0.328839 0 180 235
-0.118137 -0.175359 -0.205579 0 180 235
-0.127626 -0.0851918 0.0151043 0 180 235
-0.114702 -0.306252 -0.214559 0 180 235
-0.116319 -0.18683 0.247949 0 180 235
0.225735 -0.363187 -0.0988285 0 180 235
-0.121963 -0.0916598 -0.160617 0 180 235
-0.00180283 -0.40285 0.254194 0 180 235
-0.13069 0.0297421 -0.0191171 0 180 235
-0.130639 -0.166138 0.12947 0 180 235
-0.107872 -0.268381 -0.193544 0 180 235
-0.127903 -0.00315317 -0.0703264 0 180 235
-0.130346 -0.209439 -0.0923542 0 180 235
-0.128654 0.0121402 -0.0329799 0 180 235
-0.123102 -0.0892462 0.153534 0 180 235
-0.117102 -0.403051 -0.216523 0 180 235
-0.121866 -0.211832 -0.128516 0 180 235
-0.0746771 -0.432211 -0.199761 0 180 235
-0.137568 -0.231075 0.0694095 0 180 235
-0.121919 -0.0684065 0.136569 0 180 235
-0.034291 -0.353757 -0.188634 0 180 235
-0.122202 -0.0197506 -0.163982 0 180 235
-0.114263 -0.227519 -0.184805 0 180 235
-0.134124 -0.268722 0.0873285 0 180 235
-0.112726 -0.269596 -0.161521 0 180 235
-0.120498 -0.143997 0.220778 0 180 235
0.00336211 -0.327424 -0.195615 0 180 235
0.214887 -0.392483 0.117595 0 180 235
-0.126759 -0.11855 0.0448218 0 180 235
-0.127663 -0.111362 0.0264724 0 180 235
-0.0839047 -0.454169 -0.208638 0 180 235
-0.127484 -0.0513891 -0.0626347 0 180 235
-0.12177 -0.0683133 0.139497 0 180 235
-0.125349 -0.0209929 0.249095 0 180 235
-0.134998 -0.257747 -0.00949608 0 180 235
-0.127896 -0.148576 -0.216379 0 180 235
-0.122592 0.00443889 0.240823 0 180 235
-0.129706 0.0258857 -0.0725613 0 180 235
-0.128309 -0.0825106 -0.104966 0 180 235
-0.116877 -0.256203 0.252061 0 180 235
-0.114042 -0.230488 -0.204366 0 180 235
0.00740373 -0.333749 -0.205939 0 180 235
-0.121362 -0.0517646 -0.168498 0 180 235
-0.12179 -0.0440375 -0.165872 0 180 235
-0.129434 -0.00138092 0.0244001 0 180 235
-0.0622826 -0.409159 -0.0348414 0 180 235
-0.0851909 -0.128176 0.364887 0 180 235
-0.122245 0.00576777 -0.185659 0 180 235
-0.128946 -0.102665 -0.0913498 0 180 235
-0.0749591 -0.380101 -0.181426 0 180 235
-0.0818979 -0.474817 -0.210453 0 180 235
-0.128894 0.0309599 -0.111931 0 180 235
-0.130301 0.0131288 0.0465182 0 180 235
0.0614686 -0.351568 -0.204642 0 180 235
-0.119652 -0.139672 -0.206007 0 180 235
-0.123902 -0.143917 0.186367 0 180 235
-0.132937 -0.249011 0.0997297 0 180 235
-0.127548 -0.286736 -0.115183 0 180 235
-0.0372468 -0.41506 0.163858 0 180 235
-0.117633 -0.390479 -0.215898 0 180 235
0.0124101 -0.344021 -0.231355 0 180 235
-0.10726 -0.421042 -0.215546 0 180 235
0.281793 -0.360434 0.00728061 0 180 235
-0.123543 -0.0691243 -0.203979 0 180 235
-0.12115 -0.0713225 -0.168207 0 180 235
-0.12913 -0.151163 -0.108849 0 180 235
-0.0800977 -0.403658 -0.195898 0 180 235
-0.121615 -0.211959 -0.214283 0 180 235
-0.128048 -0.0912263 -0.0210671 0 180 235
-0.119417 -0.350905 0.156215 0 180 235
-0.111069 -0.357522 0.271432 0 180 235
-0.0772024 -0.394375 0.276589 0 180 235
0.206328 -0.369897 -0.102029 0 180 235
-0.127047 -0.193166 -0.106957 0 180 235
-0.111595 -0.306028 0.311442 0 180 235
-0.0723207 -0.425698 -0.196398 0 180 235
-0.122843 -0.108586 -0.153484 0 180 235
-0.126269 -0.089769 0.228009 0 180 235
-0.120142 -0.146976 0.220841 0 180 235
-0.127774 0.0125549 -0.0855524 0 180 235
-0.128012 -0.00937057 0.0731237 0 180 235
-0.102417 -0.312423 -0.201234 0 180 235
-0.099713 -0.396583 0.235004 0 180 235
-0.121248 0.00113465 -0.173513 0 180 235
0.220443 -0.390979 0.134667 0 180 235
-0.108705 -0.26822 -0.195954 0 180 235
0.222631 -0.377904 -0.025545 0 180 235
-0.118756 -0.429459 -0.220322 0 180 235
-0.129688 -0.319333 -0.02903 0 180 235
-0.111464 -0.217204 0.314612 0 180 235
-0.112271 -0.18181 0.283717 0 180 235
-0.084999 -0.452101 -0.209052 0 180 235
0.212573 -0.359203 -0.1045 0 180 235
-0.128681 0.00213249 -0.0260695 0 180 235
-0.124084 0.0146388 -0.175591 0 180 235
-0.120535 -0.0307315 -0.186904 0 180 235
-0.128642 -0.00504019 0.0491171 0 180 235
-0.128583 -0.00653745 0.0540223 0 180 235
0.0553138 -0.34478 -0.217519 0 180 235
-0.0491592 -0.389175 0.293015 0 180 235
-0.124132 -0.428785 -0.221954 0 180 235
-0.106341 -0.335631 -0.211508 0 180 235
-0.109281 -0.274954 0.329733 0 180 235
-0.102588 -0.183631 0.334255 0 180 235
-0.0726346 -0.455668 -0.202316 0 180 235
-0.127568 -0.30984 -0.219801 0 180 235
-0.121836 -0.00577145 0.168561 0 180 235
-0.131934 -0.178424 -0.0632968 0 180 235
-0.127381 -0.0676041 -0.10202 0 180 235
-0.109205 -0.201961 0.308768 0 180 235
-0.115445 -0.207938 0.248217 0 180 235
-0.107869 -0.301543 -0.15867 0 180 235
0.131971 -0.34864 -0.196833 0 180 235
-0.104572 -0.307488 -0.167996 0 180 235
-0.129565 -0.130825 -0.0863776 0 180 235
0.145468 -0.403025 -0.109752 0 180 235
-0.12516 -0.00862187 -0.137534 0 180 235
-0.115761 -0.349191 0.20546 0 180 235
-0.117844 -0.145565 -0.202533 0 180 235
-0.119426 -0.0789898 -0.173692 0 180 235
-0.115325 -0.249961 -0.209362 0 180 235
0.210434 -0.392476 0.0958939 0 180 235
-0.126503 -0.0705561 0.0705123 0 180 235
0.120624 -0.393289 -0.153772 0 180 235
0.21001 -0.384514 -0.0204369 0 180 235
-0.114792 -0.2119 -0.186465 0 180 235
-0.125143 0.00394409 0.127094 0 180 235
-0.112906 -0.213537 0.276508 0 180 235
-0.12109 -0.210986 -0.136287 0 180 235
-0.118465 -0.0973538 -0.174495 0 180 235
0.0364146 -0.34298 -0.229084 0 180 235
-0.119788 0.0155563 0.205253 0 180 235
-0.128407 -0.0862579 -0.100158 0 180 235
0.0591574 -0.337664 -0.190069 0 180 235
0.0698337 -0.328574 -0.203813 0 180 235
-0.00090211 -0.478985 -0.173434 32 212 224
-0.129355 -0.155813 0.0279439 32 212 224
0.152161 -0.482165 0.0327887 32 212 224
-0.111067 -0.0182602 -0.190185 32 212 224
-0.133888 -0.0411174 0.275796 32 212 224
0.167659 -0.481645 0.178125 32 212 224
0.198334 -0.351792 -0.218101 32 212 224
-0.0407162 -0.484188 0.0657258 32 212 224
0.0782674 -0.482195 -0.154927 32 212 224
0.188378 -0.481768 -0.0739598 32 212 224
-0.124615 -0.182411 0.335274 32 212 224
0.19169 -0.481746 0.145141 32 212 224
-0.125755 -0.0755326 0.355614 32 212 224
-0.117823 -0.275195 0.325938 32 212 224
-0.129996 -0.0193562 0.153717 32 212 224
-0.126796 -0.128573 0.316831 32 212 224
-0.127599 -0.098815 0.25791 32 212 224
0.0525459 -0.428822 -0.214628 32 212 224
0.0104359 -0.483329 0.013569 32 212 224
-0.0614149 -0.165961 -0.2099 32 212 224
0.166051 -0.481644 -0.161347 32 212 224
-0.130437 0.00475519 0.0675928 32 212 224
-0.0151712 -0.458987 -0.193548 32 212 224
-0.128288 -0.051834 0.338718 32 212 224
-0.122193 -0.3268 0.154313 32 212 224
-0.113853 -0.146811 -0.197639 32 212 224
-0.0612456 -0.0141705 -0.200131 32 212 224
-0.0413148 -0.0480705 -0.205031 32 212 224
-0.136868 -0.313696 -0.126818 32 212 224
-0.0261222 -0.0288231 -0.203209 32 212 224
-0.0866883 -0.449099 -0.170729 32 212 224
-0.128874 -0.163861 0.0347474 32 212 224
0.0484278 -0.48261 0.299452 32 212 224
-0.0459044 -0.480333 0.337273 32 212 224
0.244279 -0.481613 -0.116052 32 212 224
0.000587577 -0.3696 -0.215558 32 212 224
0.0123015 -0.483194 -0.130246 32 212 224
-0.12791 -0.368406 -0.0574587 32 212 224
-0.120634 -0.362632 0.346833 32 212 224
-0.031261 -0.0172312 -0.201914 32 212 224
0.0241167 -0.294709 -0.218313 32 212 224
-0.132562 -0.0245039 0.226069 32 212 224
-0.125756 -0.219227 0.0946464 32 212 224
-0.1349 -0.0261356 -0.0848718 32 212 224
-0.120675 -0.235638 0.189094 32 212 224
-0.13776 -0.26862 -0.173365 32 212 224
-0.126926 -0.121041 0.324616 32 212 224
-0.0267935 -0.170708 -0.210365 32 212 224
-0.132572 -0.0330834 0.305329 32 212 224
-0.0489223 -0.140889 -0.209618 32 212 224
-0.123333 -0.439045 0.160975 32 212 224
0.198273 -0.433238 -0.216925 32 212 224
0.116462 -0.437864 -0.213038 32 212 224
-0.130444 -0.0497344 0.225548 32 212 224
-0.128497 -0.0643506 0.0148927 32 212 224
0.0608017 -0.482574 0.293084 32 212 224
-0.129381 0.00517048 -0.0139223 32 212 224
0.144698 -0.482098 -0.0179049 32 212 224
-0.123481 -0.463479 0.273994 32 212 224
-0.111807 -0.0179611 -0.189889 32 212 224
0.0319579 -0.429795 -0.21392 32 212 224
0.118519 -0.481516 0.21591 32 212 224
0.0304125 -0.425857 -0.214274 32 212 224
-0.119772 -0.32793 0.272124 32 212 224
-0.139477 -0.182111 -0.113705 32 212 224
-0.119726 -0.321916 0.338904 32 212 224
0.151245 -0.481883 0.0656396 32 212 224
-0.130239 -0.0692969 0.254029 32 212 224
0.209866 -0.438565 -0.216462 32 212 224
-0.135674 -0.068826 -0.141783 32 212 224
-0.130628 -0.0667929 -0.00880117 32 212 224
0.0915122 -0.48232 0.0309955 32 212 224
-0.125392 -0.45121 0.100861 32 212 224
-0.125996 -0.0309022 -0.185024 32 212 224
-0.0435601 -0.484128 -0.0156491 32 212 224
-0.125459 -0.285857 0.0980494 32 212 224
-0.133062 -0.175161 -0.0327734 32 212 224
-0.124778 -0.0985924 0.166047 32 212 224
-0.122806 -0.378363 -0.169144 32 212 224
-0.122597 -0.158408 0.246158 32 212 224
-0.132362 -0.0611413 0.290656 32 212 224
0.266013 -0.479816 -0.150583 32 212 224
-0.121869 -0.17077 0.244714 32 212 224
0.0507144 -0.482679 0.254379 32 212 224
-0.0428638 -0.3187 -0.210148 32 212 224
-0.118836 -0.439339 -0.0586905 32 212 224
0.120216 -0.482057 0.0504786 32 212 224
-0.129437 -0.0159967 -0.165607 32 212 224
0.165753 -0.481799 -0.0216879 32 212 224
0.174438 -0.481639 -0.0288972 32 212 224
-0.127483 -0.387534 -0.0635286 32 212 224
-0.137735 -0.0876288 -0.0966445 32 212 224
0.029515 -0.483149 0.284035 32 212 224
-0.0991127 -0.0722922 -0.198358 32 212 224
-0.0885384 -0.263605 -0.206343 32 212 224
0.108219 -0.401223 -0.217985 32 212 224
-0.110695 -0.144063 -0.198482 32 212 224
-0.119409 -0.233041 0.212401 32 212 224
-0.121669 -0.421557 0.225585 32 212 224
-0.123608 -0.463817 0.232849 32 212 224
-0.132386 -0.340128 -0.163356 32 212 224
-0.111693 -0.479964 0.0894481 32 212 224
-0.0529957 -0.480687 0.32868 32 212 224
-0.119342 -0.246073 0.300177 32 212 224
-0.117338 -0.2872 0.335756 32 212 224
-0.136361 -0.120671 -0.16445 32 212 224
0.0556399 -0.482575 0.0168579 32 212 224
-0.120621 -0.431032 -0.0561374 32 212 224
-0.122313 -0.12653 0.135177 32 212 224
-0.0261496 -0.415299 -0.207838 32 212 224
0.123619 -0.461461 -0.206088 32 212 224
-0.132187 -0.203741 -0.0298875 32 212 224
-0.125663 -0.104668 0.218036 32 212 224
0.0531868 -0.482725 0.268247 32 212 224
0.00194862 -0.483159 0.27775 32 212 224
0.102475 -0.480948 -0.177287 32 212 224
-0.137118 -0.128315 -0.161853 32 212 224
-0.12472 -0.130937 0.2551 32 212 224
-0.118547 -0.280603 0.299682 32 212 224
0.0126651 -0.44627 -0.207964 32 212 224
0.196172 -0.481523 0.0262937 32 212 224
-0.122746 -0.225212 0.33953 32 212 224
-0.119655 -0.253092 0.35059 32 212 224
-0.134647 -0.0229844 0.285969 32 212 224
0.116592 -0.440613 -0.212414 32 212 224
-0.129169 -0.0366636 0.337888 32 212 224
-0.139372 -0.259164 -0.119892 32 212 224
-0.125251 -0.287808 0.102055 32 212 224
0.248126 -0.481405 -0.0206532 32 212 224
-0.0814186 -0.0560649 -0.202098 32 212 224
0.127007 -0.31788 -0.217752 32 212 224
0.167954 -0.481694 0.142942 32 212 224
-0.136494 -0.104079 -0.151671 32 212 224
-0.12286 -0.173943 0.277282 32 212 224
-0.121829 -0.411077 0.329746 32 212 224
0.129652 -0.481901 0.0684696 32 212 224
0.113197 -0.481512 0.254486 32 212 224
-0.0594516 -0.483076 -0.076005 32 212 224
0.0394156 -0.470051 -0.196505 32 212 224
0.181803 -0.481721 0.142435 32 212 224
-0.137169 -0.114449 -0.0754614 32 212 224
-0.137233 -0.102981 -0.0826117 32 212 224
-0.0908711 -0.483508 0.161379 32 212 224
-0.107804 -0.293746 -0.199929 32 212 224
-0.0458391 -0.34274 -0.209076 32 212 224
-0.121821 -0.409594 0.277281 32 212 224
-0.100686 -0.441736 -0.164684 32 212 224
-0.0252944 -0.413368 -0.2085 32 212 224
-0.134916 -0.099533 -0.168496 32 212 224
-0.0846405 -0.0137484 -0.197267 32 212 224
0.193393 -0.444607 -0.214149 32 212 224
-0.120175 -0.29917 0.191377 32 212 224
0.1749 -0.457195 -0.2099 32 212 224
-0.134891 -0.018667 -0.0935897 32 212 224
-0.12528 -0.389645 -0.00753165 32 212 224
0.048106 -0.477515 -0.18733 32 212 224
-0.035417 -0.0153748 -0.201506 32 212 224
-0.129683 -0.011676 0.121 32 212 224
-0.0862181 -0.483893 0.0636466 32 212 224
-0.12491 -0.465935 0.208777 32 212 224
-0.136416 -0.21546 -0.172917 32 212 224
0.0309353 -0.482984 0.0774115 32 212 224
-0.0788764 -0.478671 -0.124862 32 212 224
0.161141 -0.383043 -0.218909 32 212 224
-0.11389 -0.480401 0.229068 32 212 224
-0.125264 -0.133901 -0.192112 32 212 224
-0.0597851 -0.480571 -0.123047 32 212 224
0.13707 -0.468363 -0.202381 32 212 224
0.234896 -0.481569 -0.108409 32 212 224
-0.0326362 -0.0610903 -0.205963 32 212 224
0.138017 -0.481764 -0.170546 32 212 224
-0.12319 -0.272604 0.137967 32 212 224
-0.121671 -0.219455 0.288462 32 212 224
-0.118714 -0.155915 -0.196323 32 212 224
-0.0783776 -0.466182 -0.158132 32 212 224
-0.124925 -0.166561 0.332074 32 212 224
-0.00587858 -0.192839 -0.210999 32 212 224
0.00356784 -0.483481 0.0876987 32 212 224
-0.123858 -0.28771 0.129566 32 212 224
-0.129938 -0.134089 0.0226737 32 212 224
-0.123754 -0.228847 0.121523 32 212 224
-0.0662726 -0.483319 0.242852 32 212 224
-0.128003 -0.00331579 -0.170891 32 212 224
0.0427926 -0.483328 -0.0703499 32 212 224
-0.126678 -0.0896924 0.347701 32 212 224
-0.123381 -0.215774 0.325068 32 212 224
-0.133053 -0.0856734 -0.174996 32 212 224
-0.129023 -0.011811 -0.165819 32 212 224
-0.129287 -0.00943692 0.0426733 32 212 224
0.115451 -0.395445 -0.217914 32 212 224
-0.025594 -0.483584 0.219272 32 212 224
-0.133074 -0.182569 -0.0341041 32 212 224
0.0996363 -0.313908 -0.218235 32 212 224
-0.124391 -0.134002 0.362537 32 212 224
-0.130265 -0.104121 0.0106349 32 212 224
-0.128407 -0.00325831 -0.165063 32 212 224
0.0988875 -0.410066 -0.217403 32 212 224
-0.13252 -0.0344451 0.305618 32 212 224
0.156545 -0.482005 0.0101652 32 212 224
-0.121729 -0.253684 0.16282 32 212 224
-0.128816 -0.329491 -0.0110113 32 212 224
-0.12726 -0.326273 -0.181878 32 212 224
-0.127169 -0.405367 -0.0628203 32 212 224
-0.0315543 -0.412933 -0.206517 32 212 224
-0.124505 -0.0908571 0.13168 32 212 224
-0.129146 -0.0112435 0.0374954 32 212 224
-0.0226626 -0.183671 -0.210676 32 212 224
-0.124013 -0.190808 0.346539 32 212 224
-0.119763 -0.465436 0.347934 32 212 224
-0.00328976 -0.483534 -0.0130261 32 212 224
-0.120273 -0.255703 -0.197526 32 212 224
0.239281 -0.481483 -0.135196 32 212 224
-0.0170098 -0.101867 -0.208066 32 212 224
-0.118794 -0.453554 -0.0470646 32 212 224
-0.133342 -0.3166 -0.0565339 32 212 224
0.230994 -0.421619 -0.219855 32 212 224
-0.118921 -0.213949 0.203536 32 212 224
0.0356859 -0.482656 0.184684 32 212 224
-0.02917 -0.165491 -0.210232 32 212 224
-0.126264 -0.058892 0.0572986 32 212 224
-0.138993 -0.197941 -0.102159 32 212 224
-0.0341389 -0.0379891 -0.204077 32 212 224
-0.119421 -0.191387 0.197156 32 212 224
-0.0478968 -0.419805 -0.198945 32 212 224
0.185529 -0.48182 0.0942404 32 212 224
-0.132866 -0.139032 -0.0233133 32 212 224
0.0876332 -0.41564 -0.216897 32 212 224
0.192237 -0.480579 -0.173919 32 212 224
0.10385 -0.423558 -0.215346 32 212 224
0.0880067 -0.480067 -0.184135 32 212 224
-0.0996516 -0.0950469 -0.199412 32 212 224
-0.113832 -0.480436 0.208787 32 212 224
-0.0654448 -0.482544 -0.0802021 32 212 224
-0.131217 -0.0695299 0.299517 32 212 224
-0.128517 -0.370666 -0.0703806 32 212 224
0.130768 -0.481708 0.105163 32 212 224
-0.113926 -0.480383 0.22976 32 212 224
0.175795 -0.302961 -0.216194 32 212 224
0.10112 -0.411431 -0.217141 32 212 224
-0.101378 -0.268874 -0.204221 32 212 224
-0.12811 -0.0385435 0.123875 32 212 224
0.03157 -0.331502 -0.217587 32 212 224
-0.124585 -0.115758 0.213463 32 212 224
-0.0578432 -0.14584 -0.209797 32 212 224
-0.123053 -0.272046 0.140284 32 212 224
0.0230778 -0.368757 -0.218016 32 212 224
-0.133481 -0.155996 -0.033782 32 212 224
-0.122041 -0.409556 0.182459 32 212 224
-0.134729 -0.184974 -0.0515745 32 212 224
-0.121878 -0.403766 0.246525 32 212 224
0.183088 -0.481794 0.0725442 32 212 224
-0.0244769 -0.483156 0.272277 32 212 224
0.172309 -0.481702 -0.0451207 32 212 224
0.222598 -0.481599 -0.104217 32 212 224
0.163083 -0.481896 -0.0736117 32 212 224
-0.136872 -0.0437442 -0.110074 32 212 224
0.153974 -0.481672 -0.172598 32 212 224
-0.127636 -0.0363883 0.017855 32 212 224
-0.137178 -0.261398 -0.083493 32 212 224
-0.121809 -0.13625 0.112889 32 212 224
-0.11985 -0.312178 0.194816 32 212 224
-0.0614359 -0.385556 -0.202329 32 212 224
-0.0528787 -0.4616 -0.178002 32 212 224
-0.122511 -0.229133 0.139862 32 212 224
-0.0498909 -0.128616 -0.209236 32 212 224
-0.0947395 -0.48342 0.143947 32 212 224
0.147269 -0.382469 -0.218047 32 212 224
0.0705869 -0.482282 0.229968 32 212 224
-0.128153 -0.0305825 0.0227657 32 212 224
0.245929 -0.481083 0.029747 32 212 224
0.14787 -0.481877 -0.0718649 32 212 224
-0.126584 -0.0736936 0.159809 32 212 224
-0.1258 -0.132566 0.339742 32 212 224
0.000586986 -0.449337 -0.203892 32 212 224
0.0276841 -0.483041 0.236086 32 212 224
-0.135871 -0.0715854 -0.0721554 32 212 224
-0.0595703 -0.475363 -0.156641 32 212 224
-0.0845923 -0.0336658 -0.199695 32 212 224
0.167915 -0.348603 -0.2163 32 212 224
0.0848357 -0.48137 0.31387 32 212 224
0.189677 -0.474925 -0.195583 32 212 224
-0.126231 -0.194301 0.0852863 32 212 224
-0.128322 -0.0347949 0.107875 32 212 224
-0.126219 -0.0648497 0.130471 32 212 224
-0.0604735 -0.273757 -0.210034 32 212 224
-0.135964 -0.145974 -0.060773 32 212 224
-0.00481017 -0.483097 -0.129149 32 212 224
-0.138238 -0.0851752 -0.104749 32 212 224
-0.0293016 -0.483904 0.117487 32 212 224
0.208149 -0.43911 -0.216242 32 212 224
-0.128392 -0.0875078 0.330991 32 212 224
-0.117555 -0.153134 -0.196724 32 212 224
-0.128651 -0.0711183 0.332891 32 212 224
-0.045412 -0.483774 -0.0568699 32 212 224
-0.119 -0.370236 -0.178675 32 212 224
-0.126387 -0.0681899 0.141955 32 212 224
-0.127529 -0.0595298 0.157869 32 212 224
-0.0944076 -0.478126 -0.108269 32 212 224
-0.136101 -0.0978189 -0.150758 32 212 224
0.253109 -0.481193 0.00683652 32 212 224
-0.128114 -0.0767447 0.216011 32 212 224
-0.120488 -0.182287 0.21662 32 212 224
0.0789703 -0.482008 0.302113 32 212 224
-0.0530238 -0.0134812 -0.200443 32 212 224
-0.0679892 -0.46434 -0.167528 32 212 224
-0.118472 -0.253868 0.253693 32 212 224
-0.0681097 -0.484135 -0.018192 32 212 224
-0.127851 -0.0961872 0.334341 32 212 224
-0.104738 -0.326953 -0.196872 32 212 224
0.207687 -0.481808 0.133684 32 212 224
0.2322 -0.461593 -0.207087 32 212 224
-0.122851 -0.347206 0.14107 32 212 224
-0.122959 -0.212402 0.303225 32 212 224
0.195482 -0.481691 -0.0680854 32 212 224
-0.127459 -0.0385531 0.0422995 32 212 224
0.031589 -0.482724 0.140121 32 212 224
0.124458 -0.48114 -0.17827 32 212 224
-0.129657 -0.00835139 0.0769539 32 212 224
-0.121032 -0.349952 0.186059 32 212 224
-0.127989 -0.296871 0.0280641 32 212 224
-0.113874 -0.480384 0.210146 32 212 224
-0.0417937 -0.483389 -0.0999193 32 212 224
0.124552 -0.215429 -0.211436 32 212 224
-0.0501998 -0.00329043 -0.199037 32 212 224
0.103588 -0.482092 -0.160516 32 212 224
0.236903 -0.481151 0.0342144 32 212 224
-0.125579 -0.0860238 0.159348 32 212 224
0.186888 -0.367899 -0.219228 32 212 224
-0.136002 -0.179819 -0.0641394 32 212 224
-0.12698 -0.0751242 0.345563 32 212 224
-0.052894 -0.0180181 -0.201178 32 212 224
-0.130499 -0.194396 -0.0101542 32 212 224
-0.0267749 -0.460346 -0.1889 32 212 224
-0.080916 -0.118154 -0.20553 32 212 224
0.0631734 -0.310231 -0.218447 32 212 224
-0.120994 -0.179111 0.230872 32 212 224
-0.0879535 -0.465119 -0.151337 32 212 224
0.223001 -0.481293 0.0339118 32 212 224
0.0184566 -0.483089 0.285406 32 212 224
0.103033 -0.370398 -0.218155 32 212 224
0.194744 -0.475304 -0.194979 32 212 224
-0.0266328 -0.48211 0.305982 32 212 224
0.0445072 -0.482626 0.209422 32 212 224
-0.130414 0.00541852 0.0341597 32 212 224
-0.131747 -0.291443 -0.185883 32 212 224
-0.125588 -0.0779111 0.356671 32 212 224
-0.121882 -0.40157 0.242276 32 212 224
-0.139059 -0.14721 -0.104703 32 212 224
-0.117958 -0.26812 0.295458 32 212 224
-0.130534 -0.0470231 0.321322 32 212 224
-0.127044 -0.0445691 0.0498767 32 212 224
0.093989 -0.482679 -0.0496513 32 212 224
-0.124893 -0.420157 0.0371381 32 212 224
-0.0229754 -0.479612 -0.16171 32 212 224
-0.129413 -0.140378 0.032296 32 212 224
-0.132071 -0.0257781 -0.148692 32 212 224
-0.132488 -0.345074 -0.0977215 32 212 224
-0.0965377 -0.0547855 -0.197956 32 212 224
-0.0928908 -0.483489 0.0695478 32 212 224
0.243898 -0.481432 -0.0177799 32 212 224
0.0598478 -0.389735 -0.219663 32 212 224
0.018772 -0.483154 -0.0118287 32 212 224
-0.131908 0.0133716 -0.0887483 32 212 224
-0.120617 -0.211367 0.173759 32 212 224
0.183104 -0.474531 -0.196329 32 212 224
-0.124335 -0.203634 0.110727 32 212 224
-0.0449966 -0.0111283 -0.200446 32 212 224
-0.137465 -0.272469 -0.0951561 32 212 224
-0.122172 -0.433332 0.214805 32 212 224
-0.124965 -0.260036 0.103658 32 212 224
-0.128568 -0.0578417 0.184279 32 212 224
-0.132749 -0.011431 0.207998 32 212 224
-0.0992625 -0.482347 0.0743023 32 212 224
0.155704 -0.366307 -0.216295 32 212 224
-0.127036 -0.121062 0.289115 32 212 224
-0.12507 -0.466247 0.183865 32 212 224
-0.12497 -0.0791136 0.0841014 32 212 224
-0.11914 -0.230007 0.218016 32 212 224
0.0332096 -0.483244 -0.0606567 32 212 224
-0.128588 -0.00613974 -0.165442 32 212 224
-0.124492 -0.389463 0.0937934 32 212 224
-0.0507952 -0.480984 0.323508 32 212 224
-0.129983 0.00441927 0.00489119 32 212 224
-0.134488 -0.0176332 -0.0890839 32 212 224
0.190473 -0.480983 -0.167772 32 212 224
-0.0643384 -0.0510315 -0.20386 32 212 224
-0.122921 -0.388557 0.156775 32 212 224
0.100371 -0.482299 -0.113899 32 212 224
-0.00527236 -0.41156 -0.212696 32 212 224
-0.126229 -0.29396 0.0672806 32 212 224
-0.121398 -0.156079 0.191113 32 212 224
-0.087602 -0.0262649 -0.198378 32 212 224
-0.138327 -0.139549 -0.0910045 32 212 224
-0.112116 -0.475836 0.332852 32 212 224
0.158502 -0.481151 0.230308 32 212 224
-0.127787 -0.19854 0.0498927 32 212 224
-0.125871 -0.19417 -0.191514 32 212 224
-0.120996 -0.382239 0.29158 32 212 224
-0.122235 -0.415011 -0.083303 32 212 224
-0.119343 -0.312458 0.22063 32 212 224
0.165814 -0.481633 -0.164839 32 212 224
0.0592946 -0.174786 -0.20996 32 212 224
0.143586 -0.404237 -0.21817 32 212 224
-0.124605 -0.0916984 0.138271 32 212 224
-0.122978 -0.440123 0.024533 32 212 224
0.0420658 -0.304447 -0.218571 32 212 224
-0.135841 -0.17985 -0.173564 32 212 224
-0.119215 -0.241284 0.2128 32 212 224
-0.139065 -0.14569 -0.104805 32 212 224
0.1731 -0.470449 -0.200619 32 212 224
0.149265 -0.388366 -0.218291 32 212 224
-0.124042 -0.141694 0.2579 32 212 224
0.215085 -0.481667 -0.106328 32 212 224
0.244147 -0.481256 0.0642325 32 212 224
-0.119173 -0.26707 0.226516 32 212 224
0.169861 -0.481592 -0.169212 32 212 224
-0.124915 -0.410137 0.0150518 32 212 224
0.02632 -0.483051 -0.0147892 32 212 224
-0.129729 -0.0340879 0.170264 32 212 224
-0.119933 -0.337093 0.272392 32 212 224
-0.127593 -0.0916764 0.0459862 32 212 224
0.109098 -0.211894 -0.211557 32 212 224
-0.119541 -0.219002 0.2039 32 212 224
0.104653 -0.466811 -0.203411 32 212 224
-0.121323 -0.474775 0.307133 32 212 224
0.0343128 -0.480463 -0.168011 32 212 224
0.0419655 -0.311371 -0.218487 32 212 224
0.0207909 -0.483057 0.205818 32 212 224
-0.00386792 -0.214088 -0.211749 32 212 224
-0.12138 -0.181692 0.25069 32 212 224
0.179291 -0.305295 -0.216175 32 212 224
-0.0532511 -0.483534 0.213847 32 212 224
0.0231348 -0.120611 -0.207534 32 212 224
-0.138647 -0.15805 -0.155894 32 212 224
-0.128516 -0.137075 0.0555615 32 212 224
-0.129691 -0.00275903 -0.0421608 32 212 224
-0.135209 -0.150878 -0.052747 32 212 224
-0.0930168 -0.118154 -0.202071 32 212 224
-0.119612 -0.219612 0.20406 32 212 224
-0.134707 -0.203532 -0.052939 32 212 224
-0.0409639 -0.483204 0.26085 32 212 224
0.0658084 -0.482117 0.113124 32 212 224
-0.113308 -0.479057 0.00849722 32 212 224
-0.119422 -0.291398 0.208573 32 212 224
-0.132267 -0.0558072 0.270727 32 212 224
-0.123638 -0.379187 0.126423 32 212 224
-0.124044 -0.276551 0.123581 32 212 224
0.11422 -0.482655 -0.00457089 32 212 224
-0.114464 -0.155095 -0.197835 32 212 224
-0.127408 -0.0785817 0.202342 32 212 224
-0.128905 -0.0984443 0.0290187 32 212 224
0.129221 -0.457963 -0.207771 32 212 224
0.179934 -0.481731 0.164188 32 212 224
-0.133256 -0.0420575 0.293887 32 212 224
-0.127187 -0.0624222 0.153956 32 212 224
-0.0197317 -0.483818 0.0245559 32 212 224
-0.0172963 -0.410017 -0.21101 32 212 224
-0.035491 -0.33624 -0.209705 32 212 224
0.119511 -0.470175 -0.201544 32 212 224
-0.122787 -0.150759 0.23485 32 212 224
0.0690644 -0.48197 0.166438 32 212 224
0.0368857 -0.451872 -0.208731 32 212 224
-0.0375884 -0.0595054 -0.206002 32 212 224
-0.12543 -0.386186 -0.0132312 32 212 224
-0.124777 -0.370741 0.0416055 32 212 224
-0.123929 -0.271624 0.124715 32 212 224
-0.108013 -0.16352 -0.200115 32 212 224
0.272612 -0.471912 -0.194988 32 212 224
0.125502 -0.427083 -0.215303 32 212 224
-0.125875 -0.0918712 0.187916 32 212 224
0.12424 -0.481914 0.0692516 32 212 224
0.12222 -0.481445 0.248495 32 212 224
-0.124977 -0.463704 0.14338 32 212 224
-0.0361593 -0.483856 0.170956 32 212 224
-0.13617 -0.0485563 -0.0852995 32 212 224
-0.129042 -0.0425607 0.333715 32 212 224
-0.118347 -0.277472 0.302893 32 212 224
-0.122454 -0.437628 0.234904 32 212 224
-0.114651 -0.469887 -0.104005 32 212 224
-0.133182 -0.0298662 -0.144758 32 212 224
0.260215 -0.474857 -0.192251 32 212 224
-0.137863 -0.0737091 -0.113664 32 212 224
0.160418 -0.481684 0.139364 32 212 224
-0.084387 -0.481737 -0.0596098 32 212 224
-0.120489 -0.335785 0.300714 32 212 224
-0.111119 -0.480939 0.18743 32 212 224
-0.12354 -0.314071 0.129102 32 212 224
-0.123842 -0.384188 0.120411 32 212 224
0.0878803 -0.481154 -0.171869 32 212 224
-0.0524948 -0.483712 0.175568 32 212 224
-0.12735 -0.0828612 0.212649 32 212 224
-0.134683 -0.0203365 0.25744 32 212 224
0.237644 -0.48171 0.0872736 32 212 224
0.0376019 -0.330019 -0.217826 32 212 224
-0.134749 -0.110682 -0.172147 32 212 224
-0.124757 -0.148388 0.287874 32 212 224
-0.137667 -0.310701 -0.142405 32 212 224
-0.125346 -0.121586 0.252134 32 212 224
-0.130737 -0.0782716 0.285866 32 212 224
0.0497298 -0.483277 -0.0885962 32 212 224
0.0144706 -0.483013 0.16602 32 212 224
0.213892 -0.409904 -0.220684 32 212 224
-0.10302 -0.481036 0.00801871 32 212 224
-0.0838665 -0.133722 -0.205203 32 212 224
0.000251831 -0.483373 0.187239 32 212 224
-0.122714 -0.458708 0.275111 32 212 224
0.0757915 -0.481871 0.109774 32 212 224
-0.132346 -0.0482825 0.258159 32 212 224
0.136985 -0.481695 0.108833 32 212 224
-0.116509 -0.467539 -0.100932 32 212 224
0.239134 -0.481349 -0.00627827 32 212 224
-0.0645326 -0.00680338 -0.198641 32 212 224
-0.137377 -0.124551 0.265145 64 236 211
0.0610669 -0.487229 0.197879 64 236 211
0.0449872 -0.479036 -0.203267 64 236 211
-0.133448 -0.452065 0.160097 64 236 211
-0.144962 -0.129528 -0.120294 64 236 211
-0.136639 -0.477283 0.0154551 64 236 211
-0.126865 -0.487485 -0.0617862 64 236 211
-0.137194 -0.109289 0.26615 64 236 211
-0.129916 -0.430064 0.266267 64 236 211
-0.0346866 -0.487637 0.0616576 64 236 211
-0.100853 -0.485597 0.312465 64 236 211
0.0561024 -0.487322 0.0936631 64 236 211
-0.139807 -0.148891 0.208245 64 236 211
-0.135149 -0.213696 0.317898 64 236 211
-0.14102 -0.257857 -0.00543489 64 236 211
-0.140296 -0.36455 -0.136825 64 236 211
-0.132684 -0.486628 -0.115049 64 236 211
-0.144651 -0.237939 -0.101225 64 236 211
-0.0349665 -0.0904523 -0.196942 64 236 211
0.20731 -0.392291 -0.196564 64 236 211
0.125254 -0.218985 -0.195805 64 236 211
-0.0863577 -0.487847 -0.049545 64 236 211
-0.134953 -0.302769 0.28848 64 236 211
-0.139113 -0.394998 -0.108636 64 236 211
-0.0573571 -0.486195 0.279735 64 236 211
-0.0184353 -0.276099 -0.194292 64 236 211
-0.0650937 -0.48551 0.330312 64 236 211
-0.0688538 -0.486536 0.210098 64 236 211
-0.0869688 -0.128959 -0.194566 64 236 211
-0.137758 -0.243808 0.257666 64 236 211
-0.0858734 -0.487014 0.112195 64 236 211
-0.0740985 -0.461127 -0.204739 64 236 211
-0.0183364 -0.487978 -0.0658503 64 236 211
-0.133993 -0.190235 0.335396 64 236 211
0.217995 -0.462126 -0.198551 64 236 211
-0.104271 -0.485975 0.264659 64 236 211
-0.124044 -0.487536 -0.156002 64 236 211
-0.0787778 -0.211983 -0.194501 64 236 211
-0.146383 -0.173066 -0.162476 64 236 211
-0.137508 -0.453188 -0.178967 64 236 211
0.0218472 -0.487913 -0.032089 64 236 211
-0.0484196 -0.25439 -0.194693 64 236 211
-0.0442144 -0.233574 -0.194902 64 236 211
-0.140854 -0.175284 -0.0474044 64 236 211
-0.141187 -0.168751 0.0315367 64 236 211
-0.142617 -0.127521 0.112717 64 236 211
-0.138104 -0.353258 -0.0635368 64 236 211
-0.0201648 -0.256148 -0.194244 64 236 211
-0.13398 -0.475959 0.102861 64 236 211
-0.145322 -0.278611 -0.149946 64 236 211
-0.0552085 -0.486485 0.223187 64 236 211
-0.083745 -0.298436 -0.194742 64 236 211
-0.134887 -0.166987 0.319681 64 236 211
-0.130809 -0.324226 0.335496 64 236 211
0.0469765 -0.139328 -0.196555 64 236 211
-0.138678 -0.341856 0.0545731 64 236 211
-0.13027 -0.487462 -0.134811 64 236 211
-0.138415 -0.303188 0.0891711 64 236 211
-0.137439 -0.228481 0.267992 64 236 211
-0.139138 -0.178085 0.225788 64 236 211
-0.140831 -0.185021 -0.0132606 64 236 211
-0.140626 -0.295066 -0.0111175 64 236 211
0.0312028 -0.236502 -0.194385 64 236 211
-0.141299 -0.23254 0.0317937 64 236 211
-0.133505 -0.25294 0.335855 64 236 211
-0.0868597 -0.355958 -0.195943 64 236 211
-0.0307459 -0.306017 -0.194831 64 236 211
-0.121182 -0.485062 0.338041 64 236 211
0.0502052 -0.21767 -0.194913 64 236 211
0.044952 -0.486593 0.276207 64 236 211
-0.049911 -0.0586391 -0.19654 64 236 211
0.17102 -0.392927 -0.196778 64 236 211
-0.124171 -0.154116 -0.186976 64 236 211
-0.134692 -0.483464 -0.0264874 64 236 211
-0.140868 -0.411794 -0.163106 64 236 211
-0.137862 -0.406537 -0.0853597 64 236 211
0.0302829 -0.15082 -0.195965 64 236 211
0.168171 -0.360226 -0.196198 64 236 211
-0.128365 -0.461058 0.319664 64 236 211
-0.102854 -0.48582 0.287043 64 236 211
-0.0311676 -0.488019 -0.172529 64 236 211
-0.138934 -0.339158 -0.0439068 64 236 211
-0.127977 -0.474006 0.331733 64 236 211
0.00531547 -0.102137 -0.196608 64 236 211
-0.07135 -0.487806 -0.189891 64 236 211
-0.0235752 -0.322879 -0.195362 64 236 211
-0.136243 -0.361008 0.0810513 64 236 211
0.0977496 -0.48796 -0.128036 64 236 211
-0.138916 -0.271461 0.203355 64 236 211
0.0512856 -0.382006 -0.197787 64 236 211
-0.127127 -0.412561 0.334387 64 236 211
-0.119014 -0.101325 -0.188406 64 236 211
-0.139672 -0.267052 0.0835575 64 236 211
-0.0796622 -0.0968471 -0.195071 64 236 211
-0.136401 -0.463495 0.021219 64 236 211
-0.135502 -0.45947 0.0319836 64 236 211
-0.0990872 -0.481189 -0.205831 64 236 211
-0.132674 -0.4829 0.161945 64 236 211
0.018362 -0.486942 0.192667 64 236 211
0.0902386 -0.398568 -0.198125 64 236 211
-0.0581302 -0.487932 -0.057527 64 236 211
-0.140779 -0.295558 0.0128732 64 236 211
-0.139246 -0.414293 -0.108919 64 236 211
-0.133421 -0.374694 -0.178227 64 236 211
-0.033304 -0.245071 -0.194633 64 236 211
-0.134745 -0.393373 0.11567 64 236 211
-0.134516 -0.479978 -0.0523466 64 236 211
-0.132897 -0.121176 0.340755 64 236 211
0.0183932 -0.488126 -0.138868 64 236 211
-0.135307 -0.203057 0.314353 64 236 211
-0.13673 -0.433479 0.0327386 64 236 211
-0.139833 -0.322087 -0.00493016 64 236 211
0.13739 -0.375028 -0.196774 64 236 211
-0.140613 -0.209325 -0.013485 64 236 211
-0.138953 -0.285337 0.0908595 64 236 211
-0.136415 -0.472456 -0.120432 64 236 211
0.0657866 -0.487267 0.178579 64 236 211
-0.128838 -0.335971 -0.188449 64 236 211
-0.1363 -0.433887 -0.0308794 64 236 211
0.0155596 -0.273896 -0.19463 64 236 211
-0.14117 -0.145239 -0.030329 64 236 211
-0.136883 -0.207217 0.279761 64 236 211
-0.139547 -0.426264 -0.115267 64 236 211
-0.136652 -0.251222 0.278411 64 236 211
-0.132376 -0.439218 0.180521 64 236 211
-0.0811743 -0.195006 -0.194633 64 236 211
-0.138409 -0.119555 0.247506 64 236 211
-0.135995 -0.427229 0.0710436 64 236 211
-0.129717 -0.454289 0.235952 64 236 211
-0.141532 -0.247578 0.0482244 64 236 211
-0.0480904 -0.487289 0.091741 64 236 211
-0.140807 -0.133046 0.181966 64 236 211
-0.134023 -0.477663 -0.187247 64 236 211
-0.143263 -0.0761572 -0.0662156 64 236 211
-0.122804 -0.249689 -0.190543 64 236 211
-0.14548 -0.125131 -0.132642 64 236 211
-0.0741984 -0.0664731 -0.195482 64 236 211
-0.142562 -0.132904 0.120346 64 236 211
0.122693 -0.477402 -0.202232 64 236 211
-0.142438 -0.135212 0.132502 64 236 211
-0.133956 -0.482383 -0.0648399 64 236 211
-0.139945 -0.44316 -0.16516 64 236 211
-0.0784754 -0.488179 -0.111902 64 236 211
0.0477842 -0.487238 0.12102 64 236 211
0.117015 -0.485836 0.269278 64 236 211
-0.0228702 -0.278578 -0.194292 64 236 211
0.0465723 -0.402928 -0.198801 64 236 211
-0.126535 -0.382722 0.351535 64 236 211
-0.138269 -0.362967 0.0105335 64 236 211
-0.136734 -0.402038 -0.0455003 64 236 211
-0.141133 -0.204412 0.134848 64 236 211
-0.146142 -0.149768 -0.1702 64 236 211
-0.138569 -0.364475 -0.0980175 64 236 211
0.124834 -0.423431 -0.19796 64 236 211
-0.00789054 -0.344983 -0.195886 64 236 211
-0.129482 -0.373764 0.317915 64 236 211
0.226848 -0.47735 -0.199109 64 236 211
-0.127423 -0.470661 0.270033 64 236 211
-0.0242572 -0.137084 -0.196207 64 236 211
0.180525 -0.314742 -0.19531 64 236 211
0.0302081 -0.4881 -0.118502 64 236 211
-0.141292 -0.198343 0.131941 64 236 211
-0.128912 -0.351957 0.335044 64 236 211
-0.135657 -0.343366 0.161862 64 236 211
0.0712305 -0.243963 -0.195 64 236 211
-0.130158 -0.487387 0.0487616 64 236 211
0.238111 -0.436359 -0.197764 64 236 211
-0.00872041 -0.147903 -0.195893 64 236 211
-0.138448 -0.284082 0.214874 64 236 211
0.231225 -0.480922 -0.197216 64 236 211
0.0541026 -0.48379 -0.199505 64 236 211
-0.141158 -0.273998 -0.00320413 64 236 211
-0.0805388 -0.141673 -0.195118 64 236 211
-0.0977568 -0.336542 -0.195592 64 236 211
0.0447555 -0.488043 -0.15478 64 236 211
-0.0372186 -0.485119 -0.202568 64 236 211
-0.136779 -0.436424 -0.0746989 64 236 211
-0.113056 -0.45142 -0.202942 64 236 211
-0.145539 -0.246402 -0.126076 64 236 211
-0.127356 -0.477085 0.249122 64 236 211
-0.129555 -0.487514 0.0609841 64 236 211
-0.0478634 -0.48819 -0.134883 64 236 211
0.159233 -0.401325 -0.196948 64 236 211
-0.14263 -0.120522 0.126827 64 236 211
-0.133798 -0.280628 0.321904 64 236 211
-0.144314 -0.305875 -0.162933 64 236 211
0.105356 -0.484879 -0.196908 64 236 211
-0.135749 -0.330366 0.236233 64 236 211
0.131655 -0.337351 -0.195829 64 236 211
-0.120732 -0.440301 -0.199116 64 236 211
0.161786 -0.478952 -0.200535 64 236 211
-0.146406 -0.252081 -0.163178 64 236 211
-0.141993 -0.0910744 0.0371505 64 236 211
-0.110989 -0.409958 -0.199764 64 236 211
-0.132148 -0.321288 0.321795 64 236 211
-0.134595 -0.352906 0.207351 64 236 211
-0.13401 -0.389947 0.150605 64 236 211
-0.0696162 -0.0921141 -0.195767 64 236 211
-0.135013 -0.142682 -0.182342 64 236 211
0.0125063 -0.487085 0.128632 64 236 211
-0.0846686 -0.487753 -0.195708 64 236 211
-0.132355 -0.341299 0.302678 64 236 211
-0.140884 -0.223092 0.0949581 64 236 211
-0.129813 -0.355468 0.322172 64 236 211
-0.0275682 -0.205679 -0.195187 64 236 211
0.0809863 -0.487306 0.223243 64 236 211
-0.140506 -0.244145 0.0798982 64 236 211
-0.132505 -0.475676 0.146283 64 236 211
-0.133036 -0.487311 0.108471 64 236 211
-0.0817428 -0.487666 0.0176166 64 236 211
0.113644 -0.334103 -0.195609 64 236 211
0.101626 -0.487446 0.112331 64 236 211
0.00230274 -0.129122 -0.196008 64 236 211
-0.0764018 -0.3976 -0.200424 64 236 211
-0.138521 -0.332301 0.0643966 64 236 211
-0.140682 -0.187761 -0.0300451 64 236 211
0.254479 -0.429397 -0.197243 64 236 211
-0.10963 -0.485302 0.342639 64 236 211
-0.145007 -0.0846816 -0.106008 64 236 211
-0.13511 -0.471236 -0.0493937 64 236 211
-0.137593 -0.0947171 0.257833 64 236 211
-0.106381 -0.155524 -0.192862 64 236 211
-0.135073 -0.294709 0.290876 64 236 211
-0.141271 -0.270456 -0.019617 64 236 211
-0.0211302 -0.283147 -0.194428 64 236 211
0.0563116 -0.283491 -0.195335 64 236 211
-0.136151 -0.325578 0.232333 64 236 211
-0.138263 -0.293493 0.18948 64 236 211
-0.138894 -0.354121 0.024107 64 236 211
-0.135553 -0.392261 0.0908467 64 236 211
0.183859 -0.353946 -0.196026 64 236 211
-0.142201 -0.0711686 -0.0129067 64 236 211
-0.145443 -0.0997671 -0.132613 64 236 211
0.214748 -0.482612 -0.195567 64 236 211
-0.136861 -0.127312 0.273009 64 236 211
-0.141475 -0.118356 -0.0258408 64 236 211
-0.136243 -0.0711507 -0.179643 64 236 211
-0.0259744 -0.110993 -0.196546 64 236 211
0.0780841 -0.488054 -0.143943 64 236 211
-0.133338 -0.144802 0.338317 64 236 211
-0.137905 -0.383807 -0.0866557 64 236 211
-0.0310055 -0.488103 -0.152415 64 236 211
-0.142756 -0.234268 -0.0679589 64 236 211
-0.026615 -0.48798 -0.181326 64 236 211
-0.141051 -0.313809 -0.0966222 64 236 211
-0.136673 -0.358693 0.0752934 64 236 211
-0.133141 -0.486151 -0.119303 64 236 211
0.159157 -0.487735 0.0310863 64 236 211
-0.139836 -0.261713 0.0840097 64 236 211
0.124875 -0.487673 -0.178518 64 236 211
-0.140858 -0.256894 0.00206341 64 236 211
-0.13402 -0.481616 -0.0937578 64 236 211
-0.140808 -0.210898 0.00524491 64 236 211
-0.135881 -0.479956 -2.05413e-05 64 236 211
-0.134871 -0.383132 0.110189 64 236 211
-0.136052 -0.385384 0.0821295 64 236 211
-0.0735193 -0.48799 -0.167821 64 236 211
-0.0190523 -0.485457 0.316977 64 236 211
-0.128205 -0.227813 -0.187547 64 236 211
-0.140909 -0.15142 -0.00112054 64 236 211
-0.0188482 -0.48663 0.251965 64 236 211
-0.0385242 -0.486475 0.263097 64 236 211
0.0155715 -0.487918 -0.190666 64 236 211
-0.141997 -0.0587086 0.0241155 64 236 211
0.0656577 -0.488068 -0.12005 64 236 211
-0.0644317 -0.224908 -0.194947 64 236 211
-0.14065 -0.222731 0.147488 64 236 211
-0.140086 -0.242209 0.166128 64 236 211
-0.145185 -0.278704 -0.145331 64 236 211
-0.0455654 -0.158594 -0.196706 64 236 211
0.00330488 -0.486235 0.292072 64 236 211
-0.137074 -0.123043 0.269425 64 236 211
-0.134622 -0.419527 0.139123 64 236 211
-0.11119 -0.101894 -0.190928 64 236 211
-0.132205 -0.419988 0.185292 64 236 211
-0.13897 -0.14405 0.234902 64 236 211
-0.132874 -0.111065 0.338075 64 236 211
-0.141755 -0.212589 0.049456 64 236 211
-0.141789 -0.200803 0.0526013 64 236 211
-0.137075 -0.284245 0.258459 64 236 211
-0.0945497 -0.340652 -0.195536 64 236 211
-0.0733806 -0.486745 0.169387 64 236 211
-0.136037 -0.25329 0.290953 64 236 211
-0.140919 -0.244782 0.0182552 64 236 211
0.154785 -0.284584 -0.195916 64 236 211
0.0602498 -0.437057 -0.200266 64 236 211
0.0353377 -0.479063 -0.203562 64 236 211
-0.134369 -0.123744 0.318543 64 236 211
0.198599 -0.487315 -0.186247 64 236 211
-0.0913304 -0.0832422 -0.193765 64 236 211
0.174208 -0.427809 -0.19763 64 236 211
0.0576307 -0.487185 0.210835 64 236 211
-0.0550638 -0.486387 0.250453 64 236 211
-0.130876 -0.486711 -0.0253026 64 236 211
-0.0541318 -0.488173 -0.112502 64 236 211
-0.0791033 -0.487445 0.0723458 64 236 211
