ply
format ascii 1.0
comment Created by Open3D
element vertex 1158
property double x
property double y
property double z
property uchar red
property uchar green
property uchar blue
end_header
-0.0571991 -0.48562 0.251361 128 254 179
0.0660705 -0.486912 0.0555971 128 254 179
0.0302405 -0.485788 0.220143 128 254 179
-0.000137147 -0.485815 0.25544 128 254 179
0.324298 -0.485794 0.0925211 128 254 179
-0.114248 -0.48548 0.244237 128 254 179
-0.0646482 -0.486416 0.0140669 128 254 179
0.324096 -0.48633 0.0723465 128 254 179
0.21554 -0.485292 0.214223 128 254 179
-0.131563 -0.485557 0.217749 128 254 179
-0.141144 -0.486317 0.048542 128 254 179
0.149631 -0.486649 0.242287 128 254 179
0.182877 -0.485916 0.164251 128 254 179
0.345282 -0.487399 0.0598914 128 254 179
-0.0490148 -0.48564 0.222563 128 254 179
0.20694 -0.486061 0.104694 128 254 179
0.0746314 -0.485686 0.251904 128 254 179
-0.0493551 -0.486191 0.120149 128 254 179
0.329441 -0.486082 0.107688 128 254 179
-0.0290642 -0.487426 -0.0530762 128 254 179
0.111452 -0.486474 0.103112 128 254 179
0.0395999 -0.485753 0.33058 128 254 179
0.333072 -0.486695 0.00923149 128 254 179
0.0270567 -0.486726 0.0616464 128 254 179
0.14009 -0.490663 0.315645 128 254 179
0.348304 -0.487464 0.0797774 128 254 179
-0.0624141 -0.48573 -0.0773251 128 254 179
0.170865 -0.486338 0.0949553 128 254 179
0.242119 -0.488402 0.193632 128 254 179
0.0521936 -0.486916 -0.0232505 128 254 179
0.378752 -0.45629 0.151061 128 254 179
0.291172 -0.486088 0.117119 128 254 179
0.0541177 -0.486047 0.326486 128 254 179
0.376038 -0.480292 0.111838 128 254 179
0.258769 -0.475864 0.224815 128 254 179
-0.114251 -0.485339 0.287349 128 254 179
-0.0578349 -0.487361 -0.0468445 128 254 179
0.230064 -0.489438 0.224714 128 254 179
0.326258 -0.454304 0.196687 128 254 179
0.205696 -0.486349 0.231032 128 254 179
-0.113646 -0.485744 0.186192 128 254 179
0.202765 -0.48639 0.200644 128 254 179
0.026299 -0.485712 0.25824 128 254 179
-0.110831 -0.485691 0.201692 128 254 179
0.0219563 -0.486687 0.0552058 128 254 179
-0.0751395 -0.486311 0.03839 128 254 179
0.374905 -0.489912 0.0398267 128 254 179
0.327929 -0.48645 -0.0345657 128 254 179
0.362645 -0.470973 0.139418 128 254 179
0.163757 -0.492249 0.292197 128 254 179
-0.0696326 -0.485576 0.274205 128 254 179
-0.0395052 -0.48283 -0.132981 128 254 179
0.21115 -0.485441 0.215115 128 254 179
0.0651764 -0.486283 0.319937 128 254 179
-0.0877823 -0.486297 0.0366766 128 254 179
-0.0837095 -0.485565 0.333865 128 254 179
0.253797 -0.486594 -0.0706262 128 254 179
0.31392 -0.438688 0.228788 128 254 179
0.151408 -0.486582 0.238194 128 254 179
0.323676 -0.487452 0.143557 128 254 179
0.224167 -0.485424 0.20889 128 254 179
-0.0294792 -0.485714 0.232434 128 254 179
0.309186 -0.486652 0.132788 128 254 179
-0.0182643 -0.485731 0.344527 128 254 179
0.00462048 -0.485692 0.282645 128 254 179
-0.0409175 -0.486447 -0.0663405 128 254 179
-0.00825396 -0.4861 0.379141 128 254 179
0.18933 -0.486491 0.210547 128 254 179
0.231076 -0.486826 0.0387149 128 254 179
0.26334 -0.485967 0.129213 128 254 179
0.353461 -0.470793 0.149448 128 254 179
0.343296 -0.487626 0.125191 128 254 179
-0.0165533 -0.48577 0.290058 128 254 179
0.0748832 -0.485946 0.162729 128 254 179
0.184832 -0.488834 0.259949 128 254 179
0.187573 -0.48671 0.0676203 128 254 179
0.06483 -0.485721 0.23739 128 254 179
0.0772001 -0.488061 0.350885 128 254 179
0.241791 -0.485913 0.135686 128 254 179
0.297332 -0.442561 0.2369 128 254 179
0.265167 -0.485976 0.125476 128 254 179
0.217268 -0.485976 0.15523 128 254 179
0.0565567 -0.485724 0.2966 128 254 179
0.384169 -0.490564 0.0250191 128 254 179
0.174532 -0.486233 0.196063 128 254 179
0.164152 -0.46634 0.284881 128 254 179
0.273131 -0.485977 0.137457 128 254 179
0.0499455 -0.486702 0.101255 128 254 179
0.284579 -0.486732 0.148005 128 254 179
0.374649 -0.489811 0.0534639 128 254 179
0.0376918 -0.486009 0.34197 128 254 179
-0.14793 -0.486559 -0.0163295 128 254 179
0.112926 -0.485628 0.307603 128 254 179
0.0158684 -0.486401 0.368905 128 254 179
0.0979738 -0.486394 0.295271 128 254 179
0.128952 -0.483109 0.312469 128 254 179
0.0700457 -0.485904 0.299543 128 254 179
0.293377 -0.487548 0.147186 128 254 179
0.253928 -0.477591 0.227058 128 254 179
0.00780513 -0.486292 -0.0468786 128 254 179
0.0237246 -0.485595 0.329658 128 254 179
0.328557 -0.486611 -0.00934904 128 254 179
-0.0493124 -0.485686 0.260884 128 254 179
-0.112489 -0.485708 0.198038 128 254 179
-3.39784e-05 -0.486747 0.389877 128 254 179
0.283624 -0.48614 0.0953857 128 254 179
-0.127461 -0.485735 0.181966 128 254 179
-0.10574 -0.485971 -0.0582937 128 254 179
0.232876 -0.486924 0.0161657 128 254 179
-0.100302 -0.486334 0.0155603 128 254 179
-0.0210345 -0.485738 0.32862 128 254 179
0.0730455 -0.486214 0.307687 128 254 179
0.193648 -0.486378 0.191111 128 254 179
0.0409644 -0.486864 -0.0165893 128 254 179
-0.0342606 -0.485682 0.208717 128 254 179
0.21678 -0.48105 0.261481 128 254 179
0.150671 -0.487113 0.298891 128 254 179
-0.17386 -0.487123 0.0320847 128 254 179
0.208034 -0.486346 0.182747 128 254 179
0.142681 -0.486677 0.249956 128 254 179
0.279929 -0.485956 0.130563 128 254 179
-0.0480877 -0.486176 0.122978 128 254 179
0.0937878 -0.485792 0.200432 128 254 179
-0.0869346 -0.485622 0.18148 128 254 179
-0.0111343 -0.486511 0.076815 128 254 179
0.0525804 -0.485994 0.170995 128 254 179
0.305732 -0.487362 0.140938 128 254 179
-0.0134606 -0.485845 0.262376 128 254 179
0.1508 -0.486451 0.252231 128 254 179
-0.126462 -0.486868 -0.0351833 128 254 179
-0.0454727 -0.485744 0.276036 128 254 179
0.385504 -0.472107 0.114537 128 254 179
0.191353 -0.48587 0.225952 128 254 179
0.17225 -0.492116 0.290224 128 254 179
0.0578347 -0.485824 0.201718 128 254 179
0.185593 -0.486024 0.180592 128 254 179
0.0603741 -0.48632 0.33462 128 254 179
0.157092 -0.485845 0.176624 128 254 179
0.20558 -0.491631 0.24715 128 254 179
-0.0696736 -0.485566 0.280826 128 254 179
0.390512 -0.433787 0.165487 128 254 179
0.229456 -0.485947 0.138944 128 254 179
0.317915 -0.485543 0.113686 128 254 179
-0.114602 -0.485274 0.307709 128 254 179
-0.105305 -0.486024 -0.0570353 128 254 179
0.0952861 -0.485946 0.261498 128 254 179
0.245271 -0.486728 -0.0548026 128 254 179
0.280556 -0.487151 0.152548 128 254 179
0.299805 -0.48628 0.0897009 128 254 179
-0.0177918 -0.485852 0.263983 128 254 179
0.0131443 -0.485787 0.253076 128 254 179
0.253804 -0.488113 0.205268 128 254 179
0.0132724 -0.486489 0.372806 128 254 179
0.170904 -0.489207 0.276603 128 254 179
-0.0287693 -0.485913 0.36447 128 254 179
0.192349 -0.486336 0.212201 128 254 179
0.0850136 -0.48526 0.338423 128 254 179
0.214825 -0.485991 0.161585 128 254 179
0.0921661 -0.48545 0.32791 128 254 179
0.0539936 -0.485664 0.289007 128 254 179
0.29277 -0.48673 0.0287939 128 254 179
-0.0710415 -0.485596 0.230106 128 254 179
0.331256 -0.449028 0.199743 128 254 179
0.0743224 -0.48543 0.342927 128 254 179
0.0550855 -0.491396 0.369568 128 254 179
0.386594 -0.466303 0.0892696 128 254 179
0.0989948 -0.486358 0.334 128 254 179
0.202899 -0.486789 -0.066703 128 254 179
-0.00433085 -0.485807 0.2413 128 254 179
0.184883 -0.486202 0.187534 128 254 179
0.357661 -0.469238 0.147636 128 254 179
0.0917208 -0.485758 0.237971 128 254 179
0.196414 -0.485917 0.142959 128 254 179
0.0648091 -0.485964 0.167543 128 254 179
-0.178957 -0.486503 -0.0262129 128 254 179
-0.0472822 -0.485906 0.353769 128 254 179
0.00275345 -0.485875 0.172566 128 254 179
0.145931 -0.487014 0.304429 128 254 179
0.162512 -0.486623 0.0843711 128 254 179
0.00184162 -0.486448 -0.080911 128 254 179
0.0451763 -0.485735 0.223413 128 254 179
-0.000560407 -0.486632 0.385965 128 254 179
0.0697039 -0.48574 0.338258 128 254 179
0.343802 -0.4866 0.028465 128 254 179
-0.0833293 -0.485481 0.310385 128 254 179
-0.026283 -0.487268 -0.0378925 128 254 179
0.0212138 -0.485756 0.252713 128 254 179
0.389089 -0.433245 0.154015 128 254 179
0.230544 -0.486717 0.0501515 128 254 179
0.03584 -0.486681 0.0950324 128 254 179
0.363284 -0.487714 0.106948 128 254 179
0.10049 -0.487594 0.344867 128 254 179
0.221958 -0.485555 0.201315 128 254 179
0.19291 -0.486623 0.07171 128 254 179
-0.112536 -0.485278 0.314251 128 254 179
0.349768 -0.486751 -0.00493502 128 254 179
0.375316 -0.489485 0.0660122 128 254 179
-0.0536324 -0.485773 -0.0786804 128 254 179
0.170972 -0.469369 0.283465 128 254 179
-0.192687 -0.486669 0.0224641 128 254 179
0.0962872 -0.485794 0.245602 128 254 179
0.338619 -0.487314 0.124053 128 254 179
0.0652416 -0.486387 0.325829 128 254 179
0.36545 -0.487367 0.110532 128 254 179
0.082712 -0.486985 -0.0560139 128 254 179
0.317611 -0.486705 0.0233553 128 254 179
0.301775 -0.486718 0.0365366 128 254 179
0.183568 -0.491072 0.266741 128 254 179
0.210647 -0.482021 0.266975 128 254 179
-0.134368 -0.485604 0.206702 128 254 179
0.257589 -0.486033 0.155152 128 254 179
0.243913 -0.485468 0.184544 128 254 179
0.101693 -0.486868 -0.00384737 128 254 179
-0.106557 -0.486119 0.108713 128 254 179
0.0638345 -0.485733 0.217538 128 254 179
0.348979 -0.469104 0.157787 128 254 179
-0.0378961 -0.485797 0.271357 128 254 179
0.282799 -0.488055 0.172185 128 254 179
0.0608695 -0.485825 0.356492 128 254 179
0.198382 -0.486245 0.181897 128 254 179
0.351629 -0.424791 0.212758 128 254 179
0.0535871 -0.486282 0.344189 128 254 179
-0.143886 -0.48563 0.187849 128 254 179
0.119375 -0.485556 0.32647 128 254 179
0.334617 -0.453794 0.190684 128 254 179
-0.0602676 -0.485628 0.223039 128 254 179
0.0848602 -0.486825 0.0872153 128 254 179
0.316373 -0.486478 0.0594972 128 254 179
0.300674 -0.463384 0.204517 128 254 179
0.180215 -0.486066 0.261139 128 254 179
0.263221 -0.48577 0.167231 128 254 179
0.149944 -0.48607 0.209319 128 254 179
0.189914 -0.486569 0.0772497 128 254 179
0.0405745 -0.485687 0.2515 128 254 179
-0.0733593 -0.485583 0.321827 128 254 179
0.210695 -0.485965 0.1411 128 254 179
0.0632957 -0.48688 -0.0206332 128 254 179
0.129844 -0.48697 -0.083403 128 254 179
0.387306 -0.470963 0.0821396 128 254 179
-0.0402586 -0.485716 0.31886 128 254 179
0.267986 -0.48665 0.0565836 128 254 179
0.22347 -0.471455 0.264293 128 254 179
-0.0466278 -0.486534 -0.00345811 128 254 179
0.0461279 -0.486685 0.102803 128 254 179
0.389629 -0.474992 0.0986807 128 254 179
0.286137 -0.472377 0.203545 128 254 179
0.196585 -0.487916 0.243107 128 254 179
-0.118842 -0.48691 -0.036521 128 254 179
-0.0720927 -0.4856 0.32824 128 254 179
-0.0395065 -0.485791 0.272007 128 254 179
0.336699 -0.472973 0.162956 128 254 179
0.176096 -0.486429 0.0891486 128 254 179
0.364573 -0.436513 0.187103 128 254 179
0.21712 -0.486249 0.0858121 128 254 179
-0.137923 -0.484727 -0.0753811 128 254 179
0.225806 -0.48642 0.0755111 128 254 179
-0.12064 -0.486244 0.0881943 128 254 179
0.167587 -0.472146 0.286408 128 254 179
-0.0847244 -0.485544 0.240978 128 254 179
0.115018 -0.485968 0.137489 128 254 179
0.170906 -0.486205 0.197453 128 254 179
-0.128638 -0.485479 0.23087 128 254 179
-0.0979479 -0.485459 0.249243 128 254 179
0.223637 -0.486603 0.0612415 128 254 179
0.099613 -0.487011 0.0416648 128 254 179
0.0895345 -0.489428 0.34287 128 254 179
0.0070739 -0.484953 -0.127278 128 254 179
-0.0390948 -0.485718 0.31796 128 254 179
0.010963 -0.48671 -0.07868 128 254 179
0.316761 -0.486345 -0.0484113 128 254 179
-0.108993 -0.485738 0.174339 128 254 179
-0.0590878 -0.48566 0.168604 128 254 179
0.0107634 -0.485787 0.244654 128 254 179
0.0649103 -0.485828 0.299383 128 254 179
0.020896 -0.485581 0.315485 128 254 179
0.158226 -0.486291 0.214077 128 254 179
0.0162049 -0.486648 0.0662241 128 254 179
-0.00207878 -0.485804 0.250105 128 254 179
0.0225509 -0.485525 0.387654 128 254 179
0.374596 -0.432346 0.184445 128 254 179
0.163898 -0.48584 0.156659 128 254 179
0.117287 -0.4865 0.100751 128 254 179
0.341563 -0.486645 -0.0061859 128 254 179
0.0429072 -0.485684 0.31697 128 254 179
0.26225 -0.484667 0.205946 128 254 179
0.344145 -0.487055 0.115491 128 254 179
0.146679 -0.491215 0.307925 128 254 179
-0.0676769 -0.485582 0.246947 128 254 179
0.36988 -0.484185 0.111375 128 254 179
-0.0806905 -0.486254 0.0777352 128 254 179
0.375574 -0.444974 0.169266 128 254 179
0.35306 -0.454029 0.174925 128 254 179
0.190777 -0.48702 0.0305908 128 254 179
0.242862 -0.486158 0.167128 128 254 179
0.116506 -0.486252 0.285894 128 254 179
0.160426 -0.492648 0.298732 128 254 179
0.0293428 -0.48563 0.297115 128 254 179
0.0957897 -0.49286 0.342616 128 254 179
-0.106833 -0.48565 0.207513 128 254 179
0.142472 -0.486048 0.121591 128 254 179
0.297238 -0.486291 0.0996628 128 254 179
-0.0346997 -0.482626 -0.142585 128 254 179
-0.0266948 -0.487266 -0.0377313 128 254 179
0.211382 -0.486082 0.107292 128 254 179
0.241313 -0.48685 -0.00584571 128 254 179
0.32657 -0.48658 0.0473698 128 254 179
0.297468 -0.486741 0.0204461 128 254 179
0.252357 -0.485922 0.164665 128 254 179
0.300429 -0.48629 0.0908051 128 254 179
0.065998 -0.485566 0.346901 128 254 179
0.0193855 -0.486568 0.101975 128 254 179
0.343387 -0.48717 0.0699187 128 254 179
0.379209 -0.430497 0.183694 128 254 179
-0.0373009 -0.485745 0.2572 128 254 179
0.149343 -0.487017 0.0225355 128 254 179
0.00151253 -0.485632 0.293781 128 254 179
0.312643 -0.486699 0.00746481 128 254 179
0.249961 -0.489049 0.188399 128 254 179
-0.0948112 -0.485528 -0.0722778 128 254 179
-0.0906648 -0.486256 0.0708612 128 254 179
0.113347 -0.486196 0.257977 128 254 179
0.169383 -0.493917 0.290059 128 254 179
0.294415 -0.486721 0.0438514 128 254 179
0.170995 -0.486033 0.243444 128 254 179
0.314902 -0.467536 0.18894 128 254 179
-0.134719 -0.485367 0.25043 128 254 179
-0.0658102 -0.484502 -0.099458 128 254 179
0.277762 -0.448191 0.245408 128 254 179
0.0258218 -0.486559 0.363765 128 254 179
0.32865 -0.486596 0.12246 128 254 179
-0.0638408 -0.485628 0.210242 128 254 179
0.233774 -0.486282 0.233551 128 254 179
-0.0749935 -0.485553 0.246828 128 254 179
-0.0213202 -0.485743 0.210357 128 254 179
0.202785 -0.487012 -0.0158321 128 254 179
0.227635 -0.485625 0.194212 128 254 179
-0.0267254 -0.485873 0.360868 128 254 179
0.291139 -0.486708 0.0173773 128 254 179
0.0242649 -0.485764 0.247754 128 254 179
-0.0731121 -0.481834 -0.15317 128 254 179
0.0125787 -0.485547 0.336209 128 254 179
0.283604 -0.486137 0.113756 128 254 179
-0.0792128 -0.485536 0.320697 128 254 179
0.364912 -0.483525 0.117608 128 254 179
0.12172 -0.485928 0.148689 128 254 179
0.166697 -0.486789 -0.0966287 128 254 179
-0.0645604 -0.4856 0.234149 128 254 179
0.00688511 -0.485043 -0.125653 128 254 179
0.0798162 -0.486403 0.308619 128 254 179
0.0950244 -0.489869 0.349103 128 254 179
0.211181 -0.46637 0.271029 128 254 179
0.0124445 -0.485783 0.237014 128 254 179
0.210441 -0.485997 0.161632 128 254 179
0.000455599 -0.485563 0.335703 128 254 179
0.188811 -0.485869 0.134389 128 254 179
0.252679 -0.485942 0.141864 128 254 179
0.340694 -0.486482 -0.033238 128 254 179
0.357366 -0.445771 0.181653 128 254 179
0.0725383 -0.486006 0.145263 128 254 179
0.2565 -0.485526 0.171879 128 254 179
-0.110884 -0.486053 0.12074 128 254 179
0.393259 -0.444769 0.148101 128 254 179
0.140641 -0.485834 0.176897 128 254 179
0.0569888 -0.486878 0.039489 128 254 179
-0.00969495 -0.486733 -0.0265177 128 254 179
-0.0304039 -0.485724 0.235468 128 254 179
-0.0598807 -0.485606 0.235988 128 254 179
0.0769776 -0.485725 0.266777 128 254 179
0.116629 -0.488452 0.336856 128 254 179
-0.121595 -0.485249 0.30181 128 254 179
0.122524 -0.485609 0.323869 128 254 179
-0.019099 -0.485757 0.212135 128 254 179
0.194082 -0.48716 0.277344 128 254 179
0.00190104 -0.486588 0.0487758 128 254 179
0.242301 -0.489894 0.200092 128 254 179
-0.000671912 -0.486517 0.024216 128 254 179
0.0714885 -0.485876 0.292651 128 254 179
0.100859 -0.485799 0.217528 128 254 179
-0.0150844 -0.485781 0.246337 128 254 179
-0.121016 -0.485756 0.171658 128 254 179
0.135616 -0.48637 0.102704 128 254 179
0.022109 -0.48598 -0.106882 128 254 179
-0.12522 -0.48641 -0.0425074 128 254 179
0.043208 -0.485904 0.333433 128 254 179
0.170708 -0.494811 0.291271 128 254 179
0.0067278 -0.485886 0.184892 128 254 179
0.156189 -0.48686 -0.0957798 128 254 179
0.276209 -0.486697 0.0363474 128 254 179
-0.0666354 -0.486252 0.0949571 128 254 179
0.169739 -0.486654 0.223505 128 254 179
0.107005 -0.486388 0.289236 128 254 179
0.172217 -0.486746 -0.07541 128 254 179
-0.0895047 -0.485441 0.285796 128 254 179
0.168922 -0.485866 0.168953 128 254 179
-0.139276 -0.486315 0.046921 128 254 179
-0.0742682 -0.485609 0.207434 128 254 179
-0.0478303 -0.485648 0.200068 128 254 179
0.0487833 -0.485691 0.305567 128 254 179
0.0965203 -0.485917 0.162391 128 254 179
0.267066 -0.486558 -0.0616824 128 254 179
0.0295386 -0.486176 0.375114 128 254 179
-0.124716 -0.48673 0.139039 160 249 161
-0.138724 -0.48778 -0.151426 160 249 161
-0.256704 -0.485985 0.172692 160 249 161
-0.427663 -0.441716 0.0605346 160 249 161
-0.234406 -0.486379 -0.00722377 160 249 161
-0.438936 -0.303207 -0.15192 160 249 161
-0.43115 -0.462347 0.0826492 160 249 161
-0.385119 -0.459565 -0.174842 160 249 161
-0.317149 -0.312662 -0.201563 160 249 161
-0.342082 -0.181906 -0.197286 160 249 161
0.10439 -0.494657 -0.0188766 160 249 161
-0.148755 -0.484928 0.21245 160 249 161
-0.297733 -0.487225 -0.125288 160 249 161
-0.457785 -0.384628 -0.183936 160 249 161
-0.40091 -0.445353 0.163282 160 249 161
-0.209501 -0.485859 -0.168008 160 249 161
-0.428743 -0.454126 0.0769842 160 249 161
-0.47752 -0.252564 -0.182769 160 249 161
-0.481641 -0.248021 -0.159248 160 249 161
-0.401753 -0.481221 0.118276 160 249 161
-0.156833 -0.485199 0.162048 160 249 161
-0.350343 -0.384776 -0.197535 160 249 161
-0.477119 -0.218826 -0.158089 160 249 161
-0.477249 -0.223521 -0.157429 160 249 161
-0.180996 -0.48581 0.0895514 160 249 161
-0.204841 -0.486661 -0.0260559 160 249 161
-0.454556 -0.442368 -0.092483 160 249 161
-0.430691 -0.48219 0.0556181 160 249 161
-0.422797 -0.467752 0.13368 160 249 161
-0.422173 -0.482032 0.0852032 160 249 161
-0.293613 -0.48566 -0.148642 160 249 161
-0.435582 -0.306401 -0.149002 160 249 161
-0.0740163 -0.490807 0.0355568 160 249 161
-0.198648 -0.485041 0.139875 160 249 161
-0.438278 -0.403667 -0.0307142 160 249 161
-0.481796 -0.287029 -0.164153 160 249 161
-0.453254 -0.407046 -0.18058 160 249 161
-0.303162 -0.382775 -0.193235 160 249 161
-0.430804 -0.443422 0.0505139 160 249 161
-0.207656 -0.484883 0.172853 160 249 161
-0.269886 -0.462956 -0.183807 160 249 161
-0.38551 -0.480611 0.14448 160 249 161
-0.114216 -0.485657 0.208483 160 249 161
-0.459881 -0.313569 -0.190523 160 249 161
-0.308207 -0.4865 0.0649514 160 249 161
-0.337576 -0.480022 -0.161109 160 249 161
-0.343351 -0.433409 -0.194341 160 249 161
-0.372095 -0.405628 0.147461 160 249 161
-0.447713 -0.401752 -0.0582983 160 249 161
-0.477947 -0.314369 -0.174525 160 249 161
-0.168878 -0.486558 0.0843581 160 249 161
-0.220917 -0.396002 -0.188907 160 249 161
-0.225534 -0.466257 -0.185648 160 249 161
-0.478233 -0.305145 -0.162426 160 249 161
-0.317631 -0.47025 -0.174862 160 249 161
-0.407912 -0.273089 -0.196312 160 249 161
-0.410888 -0.236254 -0.195525 160 249 161
-0.0147885 -0.491797 -0.0587687 160 249 161
-0.167849 -0.485775 0.11535 160 249 161
-0.0769572 -0.485298 -0.153459 160 249 161
-0.350674 -0.338563 -0.199955 160 249 161
-0.191909 -0.487132 0.00986566 160 249 161
-0.315913 -0.345867 -0.0454956 160 249 161
-0.43794 -0.407148 -0.0249601 160 249 161
-0.188715 -0.487902 -0.0383375 160 249 161
-0.453666 -0.444558 -0.0576553 160 249 161
-0.346048 -0.486835 0.0585361 160 249 161
-0.0853497 -0.478764 -0.174229 160 249 161
-0.0771583 -0.48834 0.142569 160 249 161
-0.0852871 -0.491047 -5.05317e-05 160 249 161
-0.317094 -0.358514 -0.0286507 160 249 161
-0.451025 -0.455002 -0.0699082 160 249 161
-0.382556 -0.384946 -0.00493187 160 249 161
-0.402389 -0.482276 -0.0663966 160 249 161
-0.423643 -0.479787 0.115978 160 249 161
-0.454511 -0.312509 -0.190873 160 249 161
-0.436218 -0.476739 0.0500468 160 249 161
-0.446897 -0.465023 -0.0132655 160 249 161
-0.307525 -0.484443 0.195667 160 249 161
-0.156721 -0.489336 -0.057282 160 249 161
-0.337638 -0.167471 -0.196958 160 249 161
-0.369173 -0.403308 0.137803 160 249 161
-0.403818 -0.43121 0.107921 160 249 161
-0.473588 -0.309175 -0.184336 160 249 161
-0.476297 -0.27895 -0.186067 160 249 161
-0.374761 -0.48457 0.0765378 160 249 161
-0.192815 -0.487702 -0.0695912 160 249 161
-0.457217 -0.30487 -0.190706 160 249 161
-0.394515 -0.354094 -0.197533 160 249 161
-0.178454 -0.484731 0.255824 160 249 161
-0.348311 -0.486534 -0.0476829 160 249 161
-0.170082 -0.487923 0.0277117 160 249 161
-0.42549 -0.464749 -0.137019 160 249 161
-0.384753 -0.460326 -0.174009 160 249 161
-0.097609 -0.485989 -0.157893 160 249 161
0.00854586 -0.491251 0.121222 160 249 161
-0.182052 -0.485047 0.172134 160 249 161
-0.319937 -0.482928 0.204558 160 249 161
-0.441562 -0.452545 -0.145604 160 249 161
-0.0432677 -0.483763 -0.144395 160 249 161
-0.362789 -0.439199 -0.192882 160 249 161
0.0433779 -0.489422 -0.0943318 160 249 161
-0.405987 -0.480847 -0.0929219 160 249 161
-0.467954 -0.349505 -0.144689 160 249 161
-0.117445 -0.488129 0.106976 160 249 161
-0.453387 -0.211062 -0.189262 160 249 161
-0.343001 -0.351659 -0.0775601 160 249 161
-0.179795 -0.4672 -0.186302 160 249 161
-0.234207 -0.486374 -0.0153816 160 249 161
-0.483829 -0.278805 -0.169935 160 249 161
-0.376578 -0.461287 -0.175088 160 249 161
-0.477354 -0.271742 -0.184779 160 249 161
-0.477352 -0.251685 -0.182865 160 249 161
-0.45942 -0.409331 -0.13255 160 249 161
-0.383235 -0.395158 -0.196062 160 249 161
0.0849351 -0.49402 0.0113202 160 249 161
-0.460814 -0.189343 -0.184144 160 249 161
0.119304 -0.474433 -0.0529147 160 249 161
-0.394135 -0.407598 0.0263067 160 249 161
-0.200206 -0.486616 0.014329 160 249 161
-0.380011 -0.483291 0.0825276 160 249 161
-0.478623 -0.311405 -0.168236 160 249 161
-0.387885 -0.43987 -0.189144 160 249 161
-0.244685 -0.184543 -0.203175 160 249 161
-0.210989 -0.458316 -0.188653 160 249 161
-0.430063 -0.248021 -0.192992 160 249 161
-0.102341 -0.485678 0.221457 160 249 161
-0.190134 -0.486896 0.0316768 160 249 161
-0.314558 -0.486581 -0.0311584 160 249 161
-0.43079 -0.482179 0.00752562 160 249 161
-0.389817 -0.480983 0.161944 160 249 161
-0.444556 -0.456057 -0.126388 160 249 161
0.0488554 -0.490379 -0.0900225 160 249 161
-0.132136 -0.490293 -0.0440571 160 249 161
-0.437017 -0.477544 -0.0283672 160 249 161
-0.370493 -0.459831 -0.177578 160 249 161
-0.239153 -0.48542 0.104016 160 249 161
-0.441379 -0.413661 -0.0262344 160 249 161
-0.415727 -0.482992 0.0180529 160 249 161
-0.459922 -0.308211 -0.190643 160 249 161
-0.451695 -0.297245 -0.190755 160 249 161
-0.441014 -0.31647 -0.191966 160 249 161
-0.29377 -0.285929 -0.202261 160 249 161
-0.151203 -0.488947 -0.011332 160 249 161
-0.388491 -0.412525 0.0534996 160 249 161
0.0856194 -0.493874 0.0630805 160 249 161
-0.420062 -0.470327 0.155971 160 249 161
-0.43007 -0.481423 0.0724848 160 249 161
-0.402359 -0.478886 -0.11653 160 249 161
-0.461851 -0.390936 -0.128812 160 249 161
-0.370623 -0.381291 0.00538877 160 249 161
-0.384097 -0.368066 -0.0369487 160 249 161
-0.167493 -0.487318 -0.138103 160 249 161
-0.416113 -0.474631 0.159827 160 249 161
-0.44895 -0.446841 -0.0314564 160 249 161
-0.448657 -0.281419 -0.162838 160 249 161
-0.448462 -0.453533 -0.11996 160 249 161
-0.318836 -0.483401 0.184313 160 249 161
0.0830068 -0.493957 0.0313639 160 249 161
-0.427862 -0.481304 0.088064 160 249 161
-0.27556 -0.178623 -0.20206 160 249 161
-0.451955 -0.448833 -0.0987537 160 249 161
-0.435507 -0.464752 0.0658212 160 249 161
0.0343073 -0.492982 -0.0388521 160 249 161
-0.0263032 -0.491484 0.074811 160 249 161
-0.408292 -0.215585 -0.194864 160 249 161
-0.311436 -0.486741 0.0976722 160 249 161
-0.474529 -0.333062 -0.175731 160 249 161
-0.160467 -0.484514 0.251094 160 249 161
-0.47137 -0.34828 -0.176636 160 249 161
-0.339404 -0.365497 -0.0299394 160 249 161
-0.396743 -0.471474 -0.149966 160 249 161
-0.449759 -0.412482 -0.18227 160 249 161
-0.316622 -0.486153 0.00829729 160 249 161
-0.483122 -0.289208 -0.167442 160 249 161
-0.234484 -0.189028 -0.203554 160 249 161
-0.256259 -0.473003 -0.177759 160 249 161
-0.210467 -0.487467 -0.0954495 160 249 161
-0.205465 -0.485216 0.2441 160 249 161
-0.124106 -0.485767 0.179953 160 249 161
-0.266663 -0.486379 0.0339044 160 249 161
-0.125593 -0.489846 -0.0876289 160 249 161
-0.44198 -0.198266 -0.189925 160 249 161
-0.443933 -0.468265 0.00164761 160 249 161
-0.46973 -0.336238 -0.146784 160 249 161
-0.449473 -0.460042 -0.0613478 160 249 161
0.0228418 -0.492688 -0.0332933 160 249 161
-0.463105 -0.294437 -0.156472 160 249 161
-0.196014 -0.484745 0.185785 160 249 161
-0.418467 -0.438144 0.0862568 160 249 161
-0.335147 -0.374801 0.0107136 160 249 161
-0.0679082 -0.486332 -0.139509 160 249 161
-0.090897 -0.488848 0.0872866 160 249 161
-0.407591 -0.483025 0.0451463 160 249 161
-0.414293 -0.387375 -0.032322 160 249 161
-0.449771 -0.235868 -0.18985 160 249 161
-0.186139 -0.48566 0.0852154 160 249 161
-0.00205968 -0.49195 0.0619478 160 249 161
-0.4438 -0.211881 -0.189869 160 249 161
-0.140851 -0.484337 0.255859 160 249 161
-0.405402 -0.483101 -0.0470267 160 249 161
-0.446546 -0.442211 -0.0271446 160 249 161
-0.235732 -0.485504 0.0903444 160 249 161
-0.179795 -0.487389 0.0339501 160 249 161
-0.471216 -0.340703 -0.156307 160 249 161
-0.368021 -0.338854 -0.199372 160 249 161
-0.322769 -0.34986 -0.199396 160 249 161
-0.18526 -0.484836 0.24715 160 249 161
-0.160081 -0.48538 0.147422 160 249 161
-0.329603 -0.48428 0.147472 160 249 161
-0.381169 -0.319363 -0.199017 160 249 161
-0.473354 -0.260776 -0.186754 160 249 161
-0.302089 -0.438544 -0.186087 160 249 161
-0.372731 -0.469343 -0.165816 160 249 161
-0.47582 -0.215458 -0.156136 160 249 161
-0.193943 -0.433193 -0.189605 160 249 161
-0.470163 -0.236802 -0.162487 160 249 161
-0.31315 -0.486219 0.0200038 160 249 161
-0.280274 -0.48631 -0.00144557 160 249 161
-0.436711 -0.287689 -0.19219 160 249 161
-0.280567 -0.486142 0.0642908 160 249 161
-0.426687 -0.329647 -0.193642 160 249 161
-0.270551 -0.429847 -0.186186 160 249 161
-0.420571 -0.450232 0.106512 160 249 161
-0.385643 -0.167001 -0.194549 160 249 161
-0.141565 -0.489292 -0.00809789 160 249 161
-0.0258449 -0.492335 0.00210816 160 249 161
-0.476389 -0.316329 -0.163216 160 249 161
-0.406522 -0.483296 -0.0417037 160 249 161
-0.181715 -0.48649 0.0638038 160 249 161
-0.386558 -0.480395 0.13359 160 249 161
-0.322129 -0.368661 0.00871329 160 249 161
-0.428238 -0.476146 0.104373 160 249 161
-0.36454 -0.375195 -0.00456289 160 249 161
-0.410782 -0.40322 -0.00484726 160 249 161
-0.452236 -0.44561 -0.118008 160 249 161
-0.45836 -0.413102 -0.100354 160 249 161
-0.31936 -0.466861 -0.177842 160 249 161
-0.0870741 -0.491134 -0.00849969 160 249 161
-0.343065 -0.486406 -0.0160777 160 249 161
-0.302817 -0.284095 -0.20233 160 249 161
-0.41993 -0.41757 0.0216099 160 249 161
-0.260237 -0.485999 0.164731 160 249 161
-0.0607003 -0.488535 0.134859 160 249 161
-0.483112 -0.261553 -0.160754 160 249 161
-0.378011 -0.406089 -0.195698 160 249 161
-0.416475 -0.441396 0.0982106 160 249 161
-0.445108 -0.340849 -0.115817 160 249 161
-0.414013 -0.482206 0.0515788 160 249 161
-0.349465 -0.486536 0.0387719 160 249 161
-0.439881 -0.326705 -0.132421 160 249 161
-0.17935 -0.484973 0.185231 160 249 161
-0.406868 -0.466155 0.20147 160 249 161
-0.249096 -0.486398 0.00506929 160 249 161
-0.448174 -0.304325 -0.151168 160 249 161
0.124548 -0.494642 0.00782971 160 249 161
-0.322736 -0.365934 -0.00393633 160 249 161
0.114322 -0.494578 0.0583701 160 249 161
-0.415992 -0.481538 0.0607863 160 249 161
-0.462758 -0.235716 -0.189139 160 249 161
-0.46218 -0.393598 -0.166621 160 249 161
-0.404565 -0.449142 0.159832 160 249 161
0.0239779 -0.492717 -0.0328067 160 249 161
-0.0604428 -0.491013 0.0509323 160 249 161
0.00750181 -0.492173 0.0540471 160 249 161
-0.351147 -0.486735 0.0549818 160 249 161
-0.46204 -0.304422 -0.152081 160 249 161
-0.152805 -0.489168 -0.086179 160 249 161
-0.479536 -0.232235 -0.164922 160 249 161
-0.282659 -0.486227 0.0486607 160 249 161
-0.47505 -0.265547 -0.161957 160 249 161
-0.0737052 -0.484067 -0.158553 160 249 161
-0.437093 -0.477793 0.035095 160 249 161
-0.403266 -0.481418 0.149102 160 249 161
-0.474266 -0.310414 -0.157929 160 249 161
-0.377849 -0.323288 -0.117011 160 249 161
-0.471945 -0.289589 -0.159049 160 249 161
-0.433472 -0.482089 -0.00196735 160 249 161
-0.047561 -0.490196 0.109464 160 249 161
-0.45609 -0.282503 -0.160419 160 249 161
-0.440691 -0.466327 -0.0986414 160 249 161
-0.298712 -0.48537 0.210155 160 249 161
-0.168506 -0.488092 0.0216256 160 249 161
-0.42393 -0.442022 -0.179613 160 249 161
-0.154099 -0.485218 0.168431 160 249 161
-0.345886 -0.486402 0.000432648 160 249 161
-0.169647 -0.488517 -0.0360286 160 249 161
-0.474293 -0.274512 -0.186971 160 249 161
-0.433527 -0.429785 0.0217448 160 249 161
-0.422774 -0.464173 0.123929 160 249 161
-0.429214 -0.325421 -0.193314 160 249 161
-0.315196 -0.356106 -0.0305613 160 249 161
-0.122241 -0.488068 -0.147008 160 249 161
0.0566768 -0.492841 0.0827928 160 249 161
-0.464202 -0.229613 -0.188113 160 249 161
-0.446095 -0.466135 -0.0450177 160 249 161
-0.389173 -0.315414 -0.126964 160 249 161
-0.458195 -0.396905 -0.178981 160 249 161
-0.30956 -0.244418 -0.201478 160 249 161
-0.377895 -0.48479 0.0651169 160 249 161
-0.3731 -0.408991 0.0769124 160 249 161
-0.413928 -0.464149 0.167266 160 249 161
-0.429015 -0.469447 0.0959272 160 249 161
-0.481252 -0.246022 -0.159168 160 249 161
-0.439639 -0.305589 -0.191981 160 249 161
-0.444357 -0.223541 -0.189816 160 249 161
-0.362024 -0.480887 0.204805 160 249 161
-0.339618 -0.48649 0.0277799 160 249 161
-0.445382 -0.467467 -0.0201354 160 249 161
-0.300472 -0.485588 -0.147064 160 249 161
-0.464335 -0.211765 -0.186022 160 249 161
-0.0992584 -0.489113 0.0740103 160 249 161
-0.481425 -0.244214 -0.167712 160 249 161
-0.358732 -0.442461 -0.191804 160 249 161
0.0809801 -0.493214 0.0981747 160 249 161
-0.289725 -0.486458 0.152734 160 249 161
-0.427967 -0.254414 -0.193472 160 249 161
-0.431889 -0.290168 -0.158206 160 249 161
0.0864636 -0.49383 0.0676647 160 249 161
-0.389074 -0.48441 0.042705 160 249 161
-0.427395 -0.443882 0.0694031 160 249 161
-0.361873 -0.486035 0.0433551 160 249 161
-0.164039 -0.488799 -0.0762541 160 249 161
-0.391294 -0.481045 0.176548 160 249 161
-0.232889 -0.48623 -0.154887 160 249 161
-0.146585 -0.486173 -0.170112 160 249 161
-0.426381 -0.445772 0.0801204 160 249 161
-0.398638 -0.30817 -0.136145 160 249 161
-0.402496 -0.353211 -0.196684 160 249 161
-0.397193 -0.482162 -0.0733483 160 249 161
-0.0693305 -0.49147 -0.0537657 160 249 161
-0.427615 -0.387208 -0.0430421 160 249 161
-0.164678 -0.454697 -0.1885 160 249 161
-0.43905 -0.469236 -0.0912406 160 249 161
-0.387995 -0.420413 0.0979056 160 249 161
-0.426539 -0.468363 0.108134 160 249 161
-0.357432 -0.485581 -0.0811593 160 249 161
-0.365659 -0.445249 -0.189109 160 249 161
-0.303912 -0.486572 0.0766051 160 249 161
-0.0384136 -0.491223 0.0794301 160 249 161
-0.413337 -0.482523 -0.0531574 160 249 161
-0.427156 -0.471019 0.110607 160 249 161
-0.44829 -0.364972 -0.190386 160 249 161
-0.455803 -0.434574 -0.0794804 160 249 161
-0.398952 -0.479341 -0.116845 160 249 161
-0.452243 -0.452456 -0.066407 160 249 161
-0.324109 -0.483164 0.177785 160 249 161
-0.405527 -0.240351 -0.196551 160 249 161
-0.423572 -0.471648 0.136313 160 249 161
-0.384848 -0.451473 -0.182959 160 249 161
0.149445 -0.456711 0.0280868 160 249 161
-0.478272 -0.256706 -0.182279 160 249 161
-0.471797 -0.324318 -0.151458 160 249 161
-0.409506 -0.426444 0.0774332 160 249 161
-0.461642 -0.183715 -0.182261 160 249 161
-0.186278 -0.486747 0.0486055 160 249 161
-0.243428 -0.324056 -0.193432 160 249 161
-0.434854 -0.474561 0.0674733 160 249 161
-0.311331 -0.154196 -0.198765 160 249 161
-0.380894 -0.411796 0.164717 160 249 161
-0.476645 -0.310294 -0.160616 160 249 161
-0.36366 -0.485896 0.032831 160 249 161
-0.401075 -0.441434 0.145316 160 249 161
-0.282872 -0.486417 0.159777 160 249 161
-0.348305 -0.486745 0.0534302 160 249 161
-0.40486 -0.417875 0.0423673 160 249 161
-0.433918 -0.481216 -0.0147195 160 249 161
-0.211837 -0.485406 0.241428 160 249 161
-0.424538 -0.463754 0.110796 160 249 161
-0.235115 -0.485683 0.193517 160 249 161
-0.23029 -0.485645 0.0737086 160 249 161
-0.363571 -0.200315 -0.197023 160 249 161
-0.406205 -0.478928 -0.110829 160 249 161
-0.386428 -0.41972 0.163098 160 249 161
-0.381918 -0.48096 0.120216 160 249 161
-0.443089 -0.457104 -0.127256 160 249 161
-0.376552 -0.3893 -0.196652 160 249 161
-0.227047 -0.464991 -0.186004 160 249 161
-0.423364 -0.321386 -0.131901 160 249 161
-0.275079 -0.485749 -0.152 160 249 161
-0.376982 -0.354533 -0.0657343 160 249 161
-0.241823 -0.485592 0.163433 160 249 161
0.04396 -0.493166 -0.00696715 160 249 161
-0.480688 -0.29913 -0.166903 160 249 161
-0.165704 -0.486765 0.0837533 160 249 161
-0.428579 -0.459436 -0.145969 160 249 161
0.145229 -0.479337 0.042827 160 249 161
-0.457866 -0.280279 -0.160731 160 249 161
-0.106828 -0.490231 -0.0825964 160 249 161
-0.214737 -0.486917 -0.144157 160 249 161
-0.440199 -0.474457 -0.0157952 160 249 161
-0.419697 -0.277704 -0.161367 160 249 161
-0.1455 -0.484344 0.242623 160 249 161
-0.182253 -0.449799 -0.188492 160 249 161
-0.474396 -0.329197 -0.165781 160 249 161
-0.411294 -0.465608 0.188903 160 249 161
-0.463396 -0.202243 -0.185065 160 249 161
-0.0176567 -0.491597 -0.062147 160 249 161
-0.349097 -0.283446 -0.200269 160 249 161
-0.194983 -0.484929 0.234227 160 249 161
-0.402303 -0.481704 0.0781264 160 249 161
-0.129958 -0.484437 -0.172564 160 249 161
-0.307759 -0.353026 -0.0184627 160 249 161
-0.450855 -0.24811 -0.168454 160 249 161
-0.383655 -0.480065 0.201846 160 249 161
-0.441225 -0.465428 0.0305055 160 249 161
-0.443492 -0.301279 -0.153765 160 249 161
-0.339538 -0.484917 -0.133548 160 249 161
-0.420481 -0.226865 -0.193634 160 249 161
-0.450642 -0.309074 -0.147987 160 249 161
0.0842381 -0.493652 -0.0712132 160 249 161
-0.0302698 -0.491061 0.101949 160 249 161
0.143641 -0.495172 0.0639003 160 249 161
-0.449805 -0.459695 -0.0405172 160 249 161
-0.449034 -0.448989 -0.0291614 160 249 161
-0.205828 -0.450377 -0.188938 160 249 161
-0.336551 -0.181458 -0.198055 160 249 161
0.102766 -0.493626 0.106949 160 249 161
-0.195625 -0.48698 0.00367356 160 249 161
-0.291182 -0.19832 -0.20179 160 249 161
-0.374736 -0.202875 -0.196824 160 249 161
-0.4429 -0.384018 -0.190976 160 249 161
-0.459565 -0.299324 -0.19056 160 249 161
-0.340572 -0.46968 -0.172946 160 249 161
-0.299587 -0.487628 -0.0970586 160 249 161
-0.47843 -0.226208 -0.169216 160 249 161
-0.469319 -0.359584 -0.167485 160 249 161
-0.280073 -0.48598 0.0910239 160 249 161
-0.33564 -0.35706 -0.0584301 160 249 161
-0.458339 -0.416818 -0.163358 160 249 161
-0.34817 -0.43131 -0.1949 160 249 161
-0.434889 -0.193485 -0.19046 160 249 161
-0.431571 -0.36972 -0.192509 160 249 161
-0.358831 -0.481612 0.141302 160 249 161
-0.355262 -0.480136 0.173499 160 249 161
-0.192106 -0.487367 -0.0131254 160 249 161
-0.242861 -0.485497 0.148629 160 249 161
-0.105451 -0.485368 0.23138 160 249 161
-0.396345 -0.473667 -0.145561 160 249 161
-0.470037 -0.273659 -0.189007 160 249 161
-0.391801 -0.392238 -0.00448673 160 249 161
-0.391751 -0.205842 -0.195802 160 249 161
-0.463032 -0.384892 -0.150453 160 249 161
-0.426645 -0.477827 0.109318 160 249 161
-0.464472 -0.20864 -0.185407 160 249 161
-0.477006 -0.270828 -0.18499 160 249 161
-0.19189 -0.487964 -0.114068 160 249 161
-0.451013 -0.449138 -0.119193 160 249 161
-0.222147 -0.48704 -0.0930836 160 249 161
-0.310142 -0.486688 0.0723147 160 249 161
-0.209297 -0.425991 -0.188452 160 249 161
-0.3941 -0.481524 -0.091395 160 249 161
-0.242005 -0.485509 0.0982734 160 249 161
0.0300839 -0.49286 -0.00522911 160 249 161
-0.442702 -0.426915 -0.0256238 160 249 161
-0.396101 -0.271569 -0.197751 160 249 161
-0.451843 -0.391394 -0.0782812 160 249 161
-0.333752 -0.484597 -0.140201 160 249 161
-0.318986 -0.486273 -0.129975 160 249 161
-0.46059 -0.222178 -0.188638 160 249 161
-0.447101 -0.297542 -0.155999 160 249 161
-0.458117 -0.349292 -0.188429 160 249 161
-0.374263 -0.484363 -0.0678944 160 249 161
-0.0470466 -0.491666 0.0258923 160 249 161
-0.421068 -0.477611 -0.0936281 160 249 161
-0.278025 -0.487205 0.220435 160 249 161
-0.444447 -0.467866 -0.00267526 160 249 161
-0.461372 -0.196116 -0.185324 160 249 161
-0.466135 -0.366364 -0.14392 160 249 161
-0.417533 -0.432071 0.0725332 160 249 161
-0.423791 -0.461054 0.112887 160 249 161
-0.412848 -0.327377 -0.195598 160 249 161
-0.379774 -0.47008 -0.162559 160 249 161
-0.401762 -0.448688 -0.180878 160 249 161
-0.140511 -0.486179 0.143338 160 249 161
-0.311235 -0.31401 -0.201127 160 249 161
-0.419084 -0.464488 0.140518 160 249 161
-0.424017 -0.371116 -0.0633036 160 249 161
-0.444732 -0.395171 -0.0543254 160 249 161
-0.440809 -0.373022 -0.191668 160 249 161
-0.433324 -0.463465 0.0760445 160 249 161
-0.334232 -0.486897 0.0687653 160 249 161
-0.142108 -0.489939 -0.0553047 160 249 161
-0.226055 -0.367874 -0.188569 160 249 161
-0.417084 -0.483372 -0.00489168 160 249 161
-0.17144 -0.488269 -0.00281431 160 249 161
-0.261557 -0.483053 -0.165291 160 249 161
-0.212695 -0.486518 -0.0574684 160 249 161
-0.482344 -0.280464 -0.177441 160 249 161
-0.44459 -0.341887 -0.114138 160 249 161
-0.393751 -0.482602 -0.0664446 160 249 161
-0.422392 -0.4817 0.112545 160 249 161
-0.307204 -0.486193 -0.00783655 160 249 161
-0.469046 -0.340095 -0.145699 160 249 161
-0.38575 -0.483147 0.0762265 160 249 161
-0.373592 -0.175543 -0.195628 160 249 161
-0.45125 -0.4491 -0.115422 160 249 161
-0.412764 -0.48163 0.107718 160 249 161
-0.140419 -0.484845 0.221306 160 249 161
-0.340378 -0.484479 -0.137828 160 249 161
-0.440714 -0.458654 -0.128243 160 249 161
-0.449017 -0.459761 -0.0163985 160 249 161
-0.375381 -0.40968 0.0744374 160 249 161
-0.130566 -0.488521 0.0714813 160 249 161
0.0413204 -0.493095 0.0256059 160 249 161
-0.424809 -0.481811 0.102885 160 249 161
-0.170806 -0.486562 0.0805514 160 249 161
-0.318824 -0.486861 0.113737 160 249 161
-0.127108 -0.486938 0.128612 160 249 161
-0.0612277 -0.490923 0.0557978 160 249 161
-0.0856936 -0.488727 0.101995 160 249 161
-0.227112 -0.485206 0.113641 160 249 161
-0.0988716 -0.272479 -0.138191 192 234 140
0.0867209 -0.28227 -0.139748 192 234 140
0.283056 -0.26326 -0.140324 192 234 140
0.318087 -0.270208 -0.139691 192 234 140
0.181029 -0.40968 -0.137033 192 234 140
0.250334 -0.424689 -0.13887 192 234 140
0.178034 -0.363975 -0.136545 192 234 140
0.144204 -0.428507 -0.142436 192 234 140
0.260148 -0.17991 -0.138082 192 234 140
0.329794 -0.341906 -0.133889 192 234 140
0.229994 -0.428317 -0.138138 192 234 140
-0.0230385 -0.302603 -0.137879 192 234 140
0.318155 -0.364741 -0.139456 192 234 140
0.259734 -0.366752 -0.136903 192 234 140
0.254845 -0.290985 -0.137429 192 234 140
-0.0783406 -0.471964 -0.14179 192 234 140
0.15716 -0.157032 -0.136631 192 234 140
-0.0217997 -0.445207 -0.142142 192 234 140
0.301149 -0.392276 -0.142121 192 234 140
-0.100564 -0.415738 -0.140384 192 234 140
-0.0970423 -0.357221 -0.136128 192 234 140
0.239352 -0.368116 -0.134876 192 234 140
0.233218 -0.310045 -0.136362 192 234 140
0.126789 -0.236304 -0.137009 192 234 140
0.0451291 -0.26729 -0.139605 192 234 140
0.16088 -0.190082 -0.135694 192 234 140
0.093796 -0.401266 -0.138607 192 234 140
0.320639 -0.381916 -0.141007 192 234 140
0.173492 -0.18785 -0.135308 192 234 140
0.196548 -0.387913 -0.13525 192 234 140
0.174857 -0.288558 -0.13683 192 234 140
0.283708 -0.345599 -0.140292 192 234 140
0.224791 -0.364818 -0.134219 192 234 140
0.28542 -0.443106 -0.146949 192 234 140
0.198074 -0.464501 -0.143942 192 234 140
0.186188 -0.185114 -0.135379 192 234 140
0.140489 -0.428337 -0.142533 192 234 140
0.308294 -0.363809 -0.141135 192 234 140
-0.217434 -0.351449 -0.136649 192 234 140
-0.137233 -0.443438 -0.141911 192 234 140
0.0644479 -0.460498 -0.147185 192 234 140
-0.156492 -0.380519 -0.137309 192 234 140
0.127542 -0.420492 -0.141496 192 234 140
0.256155 -0.207902 -0.137234 192 234 140
0.15853 -0.42897 -0.141856 192 234 140
0.261053 -0.32673 -0.139291 192 234 140
0.00594934 -0.383523 -0.135484 192 234 140
0.286453 -0.475808 -0.148787 192 234 140
0.0598315 -0.346662 -0.139053 192 234 140
0.110148 -0.360813 -0.139356 192 234 140
-0.131983 -0.387012 -0.137436 192 234 140
0.195356 -0.438057 -0.140882 192 234 140
0.113313 -0.363498 -0.139226 192 234 140
0.30955 -0.409514 -0.145686 192 234 140
0.307635 -0.232843 -0.141038 192 234 140
0.319459 -0.227297 -0.137882 192 234 140
-0.105637 -0.473452 -0.139865 192 234 140
0.16739 -0.22685 -0.13519 192 234 140
0.315307 -0.192228 -0.137855 192 234 140
-0.114223 -0.191364 -0.140083 192 234 140
0.32153 -0.228111 -0.137395 192 234 140
0.223825 -0.426577 -0.137614 192 234 140
-0.0346121 -0.216901 -0.139348 192 234 140
0.0366998 -0.277892 -0.139544 192 234 140
-0.21847 -0.47724 -0.121738 192 234 140
-0.152285 -0.479211 -0.105469 192 234 140
-0.111109 -0.396058 -0.13784 192 234 140
0.336036 -0.426035 -0.142608 192 234 140
0.205813 -0.380455 -0.134571 192 234 140
0.269482 -0.467483 -0.145311 192 234 140
0.252285 -0.210787 -0.136776 192 234 140
-0.0459975 -0.255133 -0.13829 192 234 140
0.30142 -0.242229 -0.142245 192 234 140
0.16942 -0.26271 -0.135812 192 234 140
0.242676 -0.438952 -0.14033 192 234 140
0.317777 -0.334116 -0.139811 192 234 140
0.249921 -0.241595 -0.135852 192 234 140
0.236164 -0.277428 -0.134986 192 234 140
0.0640317 -0.446648 -0.145952 192 234 140
0.340963 -0.392943 -0.132001 192 234 140
-0.051498 -0.38941 -0.135192 192 234 140
0.126037 -0.203116 -0.13725 192 234 140
-0.111418 -0.163682 -0.140065 192 234 140
0.0519598 -0.200089 -0.140838 192 234 140
0.239263 -0.250924 -0.13494 192 234 140
0.0361725 -0.339394 -0.138652 192 234 140
0.13063 -0.281363 -0.138216 192 234 140
0.291676 -0.452504 -0.149598 192 234 140
0.259269 -0.289872 -0.137923 192 234 140
-0.039812 -0.413398 -0.138707 192 234 140
0.290709 -0.419408 -0.144622 192 234 140
0.297489 -0.168173 -0.141114 192 234 140
0.262781 -0.367978 -0.137171 192 234 140
0.174082 -0.176193 -0.135558 192 234 140
0.23123 -0.229553 -0.135143 192 234 140
0.252834 -0.355151 -0.137267 192 234 140
0.311054 -0.318017 -0.142206 192 234 140
0.301598 -0.368594 -0.140616 192 234 140
0.00999124 -0.353963 -0.137511 192 234 140
0.212617 -0.208513 -0.13524 192 234 140
0.0853175 -0.214116 -0.140258 192 234 140
0.159552 -0.428707 -0.141752 192 234 140
0.205008 -0.192657 -0.135336 192 234 140
0.118744 -0.268854 -0.137692 192 234 140
0.338873 -0.424213 -0.140458 192 234 140
0.271045 -0.184223 -0.139053 192 234 140
0.132058 -0.357037 -0.138707 192 234 140
0.29771 -0.466281 -0.150919 192 234 140
0.20668 -0.166133 -0.135907 192 234 140
0.277474 -0.313035 -0.14114 192 234 140
0.314561 -0.450895 -0.152826 192 234 140
0.31091 -0.306822 -0.142129 192 234 140
0.276153 -0.258281 -0.139165 192 234 140
-0.162023 -0.476647 -0.130546 192 234 140
0.19121 -0.409909 -0.13641 192 234 140
0.293511 -0.432284 -0.146769 192 234 140
0.346625 -0.426074 -0.13019 192 234 140
0.213815 -0.393933 -0.134027 192 234 140
0.303314 -0.179716 -0.140672 192 234 140
0.327161 -0.280241 -0.137226 192 234 140
-0.105128 -0.268965 -0.138175 192 234 140
-0.213661 -0.317494 -0.137087 192 234 140
-0.182889 -0.405186 -0.140133 192 234 140
-0.0490159 -0.330891 -0.1364 192 234 140
0.197013 -0.376909 -0.135065 192 234 140
0.076533 -0.345668 -0.139195 192 234 140
0.289407 -0.433923 -0.146242 192 234 140
0.299738 -0.342464 -0.141655 192 234 140
0.21099 -0.346143 -0.135517 192 234 140
0.159956 -0.241277 -0.135738 192 234 140
0.286047 -0.46197 -0.148805 192 234 140
0.262886 -0.172092 -0.138434 192 234 140
0.312649 -0.285912 -0.141127 192 234 140
0.205259 -0.170147 -0.135783 192 234 140
0.0847256 -0.356021 -0.138962 192 234 140
0.304632 -0.184711 -0.140657 192 234 140
0.0102981 -0.373895 -0.136187 192 234 140
0.342329 -0.440179 -0.140161 192 234 140
0.186381 -0.204708 -0.135013 192 234 140
-0.121399 -0.231858 -0.139444 192 234 140
0.152882 -0.32078 -0.138189 192 234 140
0.0232197 -0.291914 -0.139392 192 234 140
-0.037494 -0.34465 -0.136037 192 234 140
-0.0475784 -0.453862 -0.142172 192 234 140
0.0434969 -0.398376 -0.135967 192 234 140
0.243042 -0.159553 -0.137042 192 234 140
0.272164 -0.356827 -0.138601 192 234 140
-0.0512042 -0.337697 -0.136199 192 234 140
0.0694841 -0.415351 -0.140179 192 234 140
-0.0816911 -0.233549 -0.139174 192 234 140
-0.0924829 -0.32281 -0.13637 192 234 140
0.00645067 -0.469052 -0.143441 192 234 140
0.329885 -0.37953 -0.137453 192 234 140
0.111121 -0.29498 -0.138883 192 234 140
0.219565 -0.274964 -0.135055 192 234 140
0.244397 -0.352124 -0.136606 192 234 140
-0.0915019 -0.375052 -0.136178 192 234 140
-0.197168 -0.447269 -0.143047 192 234 140
0.135241 -0.356847 -0.138635 192 234 140
0.271581 -0.241316 -0.13825 192 234 140
0.210677 -0.295993 -0.135795 192 234 140
0.310638 -0.398729 -0.144156 192 234 140
0.197824 -0.409457 -0.135925 192 234 140
-0.163171 -0.287764 -0.137406 192 234 140
0.172232 -0.465806 -0.146016 192 234 140
0.142221 -0.207214 -0.136527 192 234 140
0.202673 -0.478743 -0.142728 192 234 140
0.203478 -0.421456 -0.137485 192 234 140
0.338675 -0.415856 -0.139308 192 234 140
0.162041 -0.217156 -0.135392 192 234 140
0.275101 -0.279846 -0.139524 192 234 140
0.203407 -0.219902 -0.134979 192 234 140
0.150993 -0.425122 -0.14151 192 234 140
-0.199065 -0.400611 -0.13994 192 234 140
0.153846 -0.262987 -0.136566 192 234 140
-0.0452854 -0.415058 -0.139261 192 234 140
0.252505 -0.300644 -0.137622 192 234 140
-0.166826 -0.400715 -0.139822 192 234 140
0.334625 -0.437408 -0.145229 192 234 140
0.326532 -0.471918 -0.15283 192 234 140
0.159847 -0.400924 -0.137686 192 234 140
0.291068 -0.256918 -0.141551 192 234 140
0.197941 -0.190902 -0.135325 192 234 140
0.253612 -0.47524 -0.143476 192 234 140
-0.102485 -0.262175 -0.138513 192 234 140
0.321226 -0.360788 -0.138388 192 234 140
0.262879 -0.208244 -0.137869 192 234 140
0.241678 -0.303174 -0.136767 192 234 140
0.320625 -0.269301 -0.139209 192 234 140
0.319607 -0.22659 -0.137808 192 234 140
0.161038 -0.319876 -0.137837 192 234 140
-0.130988 -0.215229 -0.139879 192 234 140
0.180637 -0.191111 -0.135251 192 234 140
0.319384 -0.334793 -0.139286 192 234 140
-0.0309142 -0.359065 -0.135274 192 234 140
0.303363 -0.364415 -0.140872 192 234 140
0.172823 -0.1999 -0.135078 192 234 140
0.0730929 -0.208649 -0.14072 192 234 140
0.340642 -0.387898 -0.131099 192 234 140
0.276507 -0.192625 -0.139336 192 234 140
0.317577 -0.190832 -0.137172 192 234 140
0.167031 -0.286422 -0.137132 192 234 140
-0.144349 -0.239642 -0.138874 192 234 140
0.0767416 -0.324672 -0.139661 192 234 140
0.276882 -0.361974 -0.13871 192 234 140
0.22635 -0.339796 -0.135673 192 234 140
0.21025 -0.189269 -0.135432 192 234 140
0.168837 -0.411055 -0.138056 192 234 140
0.214797 -0.38802 -0.134084 192 234 140
0.161177 -0.406607 -0.137817 192 234 140
-0.0771928 -0.186044 -0.139909 192 234 140
0.223605 -0.310475 -0.136066 192 234 140
0.177588 -0.401879 -0.136604 192 234 140
0.188312 -0.16646 -0.13581 192 234 140
0.231242 -0.358905 -0.135023 192 234 140
0.219544 -0.238387 -0.135029 192 234 140
0.314113 -0.402849 -0.145026 192 234 140
0.291776 -0.377745 -0.139699 192 234 140
-0.00923671 -0.356038 -0.136366 192 234 140
0.124431 -0.265788 -0.137522 192 234 140
0.202572 -0.366296 -0.135043 192 234 140
0.219044 -0.439772 -0.139627 192 234 140
0.207422 -0.218436 -0.135038 192 234 140
0.142174 -0.294704 -0.138593 192 234 140
0.0992734 -0.20184 -0.139924 192 234 140
0.306598 -0.371849 -0.140745 192 234 140
0.207009 -0.163718 -0.135983 192 234 140
0.081092 -0.220377 -0.140228 192 234 140
0.12805 -0.328652 -0.138716 192 234 140
0.195436 -0.421004 -0.137936 192 234 140
0.195605 -0.290609 -0.135793 192 234 140
0.249633 -0.306089 -0.137584 192 234 140
0.186757 -0.429175 -0.139926 192 234 140
-0.177364 -0.365709 -0.13651 192 234 140
0.320417 -0.315332 -0.139258 192 234 140
0.0623216 -0.477316 -0.146111 192 234 140
0.321932 -0.350179 -0.138086 192 234 140
0.0479059 -0.21352 -0.141013 192 234 140
0.215239 -0.433501 -0.138699 192 234 140
-0.0995358 -0.435573 -0.141548 192 234 140
0.292661 -0.352075 -0.140823 192 234 140
-0.00264805 -0.18045 -0.140158 192 234 140
-0.17889 -0.364045 -0.136419 192 234 140
0.168942 -0.232162 -0.135157 192 234 140
0.293567 -0.234442 -0.141621 192 234 140
