ply
format ascii 1.0
comment Created by Open3D
element vertex 1207
property double x
property double y
property double z
property uchar red
property uchar green
property uchar blue
end_header
0.00216613 -0.326217 0.407142 255 178 96
-0.00572403 -0.193885 0.398744 255 178 96
-0.323249 -0.450881 0.396775 255 178 96
-0.491383 -0.418682 0.281269 255 178 96
-0.218684 -0.372581 0.380351 255 178 96
-0.263445 -0.334236 0.35911 255 178 96
-0.117854 -0.47844 0.268107 255 178 96
-0.424835 -0.486814 0.216861 255 178 96
-0.417157 -0.162556 0.260215 255 178 96
-0.409411 -0.419171 0.366267 255 178 96
-0.236176 -0.230381 0.319566 255 178 96
-0.264061 -0.252598 0.321937 255 178 96
-0.0911164 -0.32258 0.384967 255 178 96
-0.453551 -0.116633 0.244603 255 178 96
-0.220481 -0.466595 0.417988 255 178 96
0.0300275 -0.398059 0.406057 255 178 96
-0.473977 -0.209127 0.268295 255 178 96
-0.431522 -0.262344 0.296898 255 178 96
-0.0512189 -0.263927 0.384279 255 178 96
-0.465832 -0.208469 0.272592 255 178 96
-0.383931 -0.473209 0.41131 255 178 96
-0.396149 -0.480033 0.365839 255 178 96
-0.487721 -0.441164 0.221903 255 178 96
0.00788815 -0.144153 0.399202 255 178 96
-0.402026 -0.478392 0.381405 255 178 96
-0.0326434 -0.311066 0.400346 255 178 96
-0.14016 -0.464376 0.418832 255 178 96
-0.465005 -0.36699 0.321946 255 178 96
-0.0277723 -0.211057 0.391372 255 178 96
-0.391361 -0.48656 0.29225 255 178 96
-0.475867 -0.157301 0.251204 255 178 96
-0.0298722 -0.455603 0.410396 255 178 96
-0.244393 -0.386579 0.382098 255 178 96
-0.409476 -0.0346887 0.219446 255 178 96
-0.354633 -0.487448 0.135431 255 178 96
-0.393073 -0.479621 0.369775 255 178 96
-0.464432 -0.391746 0.33476 255 178 96
-0.0400374 -0.19302 0.382045 255 178 96
-0.488379 -0.461542 0.326443 255 178 96
-0.331259 -0.253527 0.310906 255 178 96
-0.484864 -0.423795 0.327655 255 178 96
-0.479259 -0.484459 0.323229 255 178 96
-0.358408 -0.271901 0.316735 255 178 96
-0.408218 -0.368413 0.345993 255 178 96
-0.181916 -0.470288 0.411506 255 178 96
-0.487556 -0.430082 0.213555 255 178 96
-0.201633 -0.486367 0.356695 255 178 96
-0.210738 -0.203067 0.31493 255 178 96
-0.418223 -0.185381 0.268358 255 178 96
-0.487778 -0.480681 0.311249 255 178 96
-0.0438664 -0.135582 0.372126 255 178 96
-0.486239 -0.340979 0.266956 255 178 96
0.0515668 -0.451406 -0.0240205 255 178 96
0.0460452 -0.454079 -0.0680796 255 178 96
-0.48579 -0.483558 0.298953 255 178 96
-0.0390827 -0.139659 0.377537 255 178 96
-0.380304 -0.214003 0.285119 255 178 96
-0.483376 -0.46298 0.337138 255 178 96
-0.430813 -0.481505 0.357083 255 178 96
-0.310367 -0.480784 0.356122 255 178 96
-0.163854 -0.199529 0.327858 255 178 96
-0.488764 -0.36697 0.274114 255 178 96
-0.309782 -0.487607 0.177732 255 178 96
-0.464744 -0.265522 0.28895 255 178 96
-0.334402 -0.487527 0.128562 255 178 96
-0.367153 -0.447937 0.388914 255 178 96
-0.0247072 -0.328436 0.404255 255 178 96
-0.13461 -0.464255 0.418383 255 178 96
-0.467687 -0.485612 0.330159 255 178 96
0.00904591 -0.0780385 0.397 255 178 96
-0.293324 -0.467749 0.423257 255 178 96
-0.293709 -0.162656 0.275794 255 178 96
-0.433749 -0.155466 0.257893 255 178 96
0.0345572 -0.169172 0.400986 255 178 96
-0.37587 -0.469965 0.410833 255 178 96
-0.0133015 -0.231756 0.398295 255 178 96
-0.325808 -0.215886 0.294578 255 178 96
-0.0838064 -0.258284 0.370633 255 178 96
-0.129199 -0.463487 0.418913 255 178 96
-0.448771 -0.45145 0.370112 255 178 96
-0.288399 -0.46932 0.422187 255 178 96
-0.139914 -0.339496 0.379378 255 178 96
-0.444394 -0.486594 0.245113 255 178 96
-0.381885 -0.112931 0.245254 255 178 96
-0.126106 -0.228255 0.347954 255 178 96
-0.344319 -0.163529 0.265417 255 178 96
-0.448666 -0.486405 0.294055 255 178 96
-0.490832 -0.463553 0.298825 255 178 96
-0.0070495 -0.307181 0.405086 255 178 96
-0.374388 -0.388264 0.3626 255 178 96
-0.126316 -0.285567 0.364953 255 178 96
-0.473239 -0.372598 0.316299 255 178 96
-0.348815 -0.171292 0.268403 255 178 96
-0.432166 -0.48004 0.370583 255 178 96
-0.476117 -0.43164 0.342172 255 178 96
-0.0230168 -0.437956 0.412903 255 178 96
-0.440153 -0.358336 0.331486 255 178 96
-0.41184 -0.487054 0.157622 255 178 96
-0.325693 -0.487569 0.174072 255 178 96
-0.0171769 -0.26747 0.40004 255 178 96
-0.439155 -0.177886 0.264583 255 178 96
-0.177874 -0.165812 0.311476 255 178 96
-0.246005 -0.203673 0.305607 255 178 96
-0.446235 -0.405166 0.350083 255 178 96
-0.0342227 -0.184138 0.385646 255 178 96
-0.436002 -0.479409 0.37467 255 178 96
-0.297281 -0.47132 0.417502 255 178 96
-0.246303 -0.485342 0.340429 255 178 96
-0.229719 -0.467397 0.421763 255 178 96
-0.0370162 -0.474079 0.0676347 255 178 96
-0.043419 -0.410915 0.412177 255 178 96
-0.270546 -0.474604 0.40302 255 178 96
-0.358259 -0.178063 0.270052 255 178 96
-0.431707 -0.486505 0.295382 255 178 96
-0.0482605 -0.471113 0.363576 255 178 96
-0.0439135 -0.164866 0.374248 255 178 96
-0.384716 -0.402316 0.365813 255 178 96
-0.182986 -0.198224 0.321137 255 178 96
-0.485297 -0.483371 0.27194 255 178 96
-0.219311 -0.466152 0.422111 255 178 96
0.0694 -0.459416 0.00745734 255 178 96
-0.456769 -0.404518 0.345746 255 178 96
-0.475338 -0.192048 0.261448 255 178 96
-0.415972 -0.32723 0.32747 255 178 96
-0.405206 -0.47628 0.397758 255 178 96
-0.00870096 -0.391203 0.411627 255 178 96
-0.37891 -0.487222 0.166097 255 178 96
-0.49082 -0.445693 0.31782 255 178 96
-0.288718 -0.158942 0.275462 255 178 96
-0.0345174 -0.125279 0.380984 255 178 96
-0.23437 -0.486987 0.186863 255 178 96
-0.367541 -0.311182 0.333521 255 178 96
-0.138929 -0.361871 0.385078 255 178 96
-0.0739197 -0.382194 0.402397 255 178 96
-0.0329934 -0.361191 0.406499 255 178 96
-0.479881 -0.484916 0.262705 255 178 96
-0.272005 -0.403568 0.385626 255 178 96
-0.118597 -0.196432 0.342371 255 178 96
-0.446169 -0.335505 0.319781 255 178 96
-0.0150272 -0.0673643 0.39301 255 178 96
0.0131798 -0.465069 0.407645 255 178 96
-0.102037 -0.455896 0.419032 255 178 96
-0.425335 -0.100517 0.240648 255 178 96
-0.33403 -0.46975 0.421541 255 178 96
-0.368775 -0.449876 0.389675 255 178 96
-0.358228 -0.486677 0.296374 255 178 96
-0.391822 -0.474622 0.40788 255 178 96
-0.434822 -0.475251 0.389782 255 178 96
-0.0277124 -0.207777 0.391081 255 178 96
-0.00963539 -0.180733 0.396872 255 178 96
-0.441606 -0.390314 0.344009 255 178 96
-0.0910617 -0.481221 0.224152 255 178 96
-0.129296 -0.324123 0.377609 255 178 96
-0.419147 -0.486824 0.219914 255 178 96
-0.345868 -0.332335 0.34576 255 178 96
-0.119747 -0.46075 0.420857 255 178 96
-0.418247 -0.475328 0.396941 255 178 96
-0.0794925 -0.286642 0.379233 255 178 96
-0.0590893 -0.206929 0.369148 255 178 96
-0.143148 -0.456016 0.416127 255 178 96
-0.308099 -0.357394 0.362566 255 178 96
-0.329353 -0.477666 0.385747 255 178 96
-0.314396 -0.271939 0.321426 255 178 96
-0.382779 -0.0841732 0.235808 255 178 96
-0.283207 -0.471886 0.413779 255 178 96
-0.39446 -0.473236 0.409043 255 178 96
-0.130768 -0.485769 0.374898 255 178 96
-0.435991 -0.0692457 0.231219 255 178 96
-0.39311 -0.471911 0.409931 255 178 96
-0.482311 -0.474971 0.169134 255 178 96
-0.401915 -0.382786 0.35342 255 178 96
0.0285124 -0.404133 0.406039 255 178 96
0.000122257 -0.0813035 0.39634 255 178 96
-0.256862 -0.435396 0.398685 255 178 96
-0.059112 -0.386219 0.406395 255 178 96
-0.0191205 -0.235327 0.396456 255 178 96
-0.42711 -0.479896 0.371045 255 178 96
-0.490097 -0.43632 0.320023 255 178 96
-0.00870172 -0.313855 0.405479 255 178 96
-0.277691 -0.470545 0.41888 255 178 96
-0.104875 -0.462544 0.416483 255 178 96
0.0147984 -0.215571 0.402455 255 178 96
-0.353708 -0.157205 0.261071 255 178 96
-0.485043 -0.384221 0.303814 255 178 96
-0.108295 -0.467134 0.413565 255 178 96
-0.171144 -0.458905 0.416171 255 178 96
-0.440453 -0.339188 0.323659 255 178 96
-0.167485 -0.377452 0.386325 255 178 96
0.00756541 -0.391905 0.410454 255 178 96
-0.48735 -0.478035 0.321133 255 178 96
-0.467775 -0.485748 0.319961 255 178 96
-0.477551 -0.463835 0.34779 255 178 96
-0.390549 -0.471521 0.410504 255 178 96
0.0137468 -0.0367825 0.396893 255 178 96
-0.475468 -0.152925 0.250611 255 178 96
0.00774774 -0.198046 0.401764 255 178 96
-0.380908 -0.171658 0.265937 255 178 96
-0.478812 -0.234714 0.263836 255 178 96
-0.171694 -0.476143 0.40181 255 178 96
-0.471134 -0.21973 0.274034 255 178 96
-0.491618 -0.416536 0.288579 255 178 96
-0.463793 -0.481631 0.356904 255 178 96
-0.00545449 -0.410599 0.411938 255 178 96
-0.00527229 -0.386745 0.411156 255 178 96
-0.483129 -0.46681 0.176787 255 178 96
-0.488661 -0.476638 0.305115 255 178 96
-0.368173 -0.440051 0.385489 255 178 96
-0.470485 -0.485731 0.296989 255 178 96
-0.013901 -0.188456 0.395516 255 178 96
-0.451517 -0.482088 0.357569 255 178 96
-0.330075 -0.29888 0.333316 255 178 96
-0.401977 -0.316593 0.32863 255 178 96
0.0539169 -0.4579 -0.048655 255 178 96
-0.0414458 -0.309779 0.396587 255 178 96
-0.0470958 -0.110769 0.366901 255 178 96
-0.484068 -0.420705 0.327589 255 178 96
-0.021428 -0.13957 0.391348 255 178 96
-0.403282 -0.217267 0.282258 255 178 96
-0.472374 -0.233629 0.276033 255 178 96
-0.357469 -0.487125 0.227567 255 178 96
-0.0478228 -0.391796 0.408709 255 178 96
-0.473609 -0.247126 0.277087 255 178 96
-0.478444 -0.282266 0.272432 255 178 96
-0.419187 -0.0523316 0.225698 255 178 96
-0.245972 -0.48691 0.316354 255 178 96
-0.452354 -0.218252 0.278384 255 178 96
-0.045246 -0.102138 0.368918 255 178 96
-0.0222862 -0.469008 -0.0613805 255 178 96
-0.414251 -0.168407 0.262434 255 178 96
-0.017741 -0.337308 0.406526 255 178 96
-0.350837 -0.107397 0.244548 255 178 96
0.00337124 -0.281244 0.295167 255 139 72
0.158149 -0.0885927 0.304878 255 139 72
0.0970369 -0.166826 0.325403 255 139 72
-0.283649 -0.367411 0.226794 255 139 72
0.225203 -0.395164 -0.0110299 255 139 72
0.13465 -0.168573 0.314412 255 139 72
0.0100339 -0.148946 0.290037 255 139 72
0.164881 -0.270117 0.303303 255 139 72
0.0771976 -0.39672 0.305978 255 139 72
0.0600403 -0.428764 0.261949 255 139 72
-0.00273698 -0.245716 0.326117 255 139 72
-0.0638607 -0.415958 0.234096 255 139 72
0.0307911 -0.00355637 0.32311 255 139 72
-0.133552 -0.000363931 0.324487 255 139 72
-0.0919349 -0.380184 0.319733 255 139 72
-0.272366 -0.385151 0.218888 255 139 72
-0.194362 -0.0283185 0.321761 255 139 72
-0.0582394 -0.220342 0.290037 255 139 72
0.331473 -0.417288 0.0161253 255 139 72
3.80501e-05 -0.17884 0.290089 255 139 72
-0.0271613 -0.277155 0.291326 255 139 72
0.160269 -0.37104 -0.113827 255 139 72
0.142897 -0.220446 0.310324 255 139 72
0.110316 -0.405644 -0.00389287 255 139 72
0.0671404 -0.0684173 0.283981 255 139 72
-0.0845138 -0.392333 0.203898 255 139 72
0.0748006 -0.436391 0.256402 255 139 72
0.15908 -0.120448 0.306036 255 139 72
0.061298 -0.199743 0.331978 255 139 72
-0.0181583 -0.332138 0.297024 255 139 72
-0.0647201 -0.429804 0.141856 255 139 72
-0.223279 -0.397086 0.206403 255 139 72
0.132389 -0.00927495 0.299561 255 139 72
0.107134 -0.277409 0.318284 255 139 72
-0.220566 -0.358482 0.219589 255 139 72
0.149299 -0.19935 0.289521 255 139 72
0.185318 -0.425176 0.0860982 255 139 72
0.0138225 -0.200153 0.289497 255 139 72
0.154221 -0.263217 0.291066 255 139 72
-0.184119 -0.250001 0.318991 255 139 72
-0.0678445 -0.310267 0.241014 255 139 72
0.102672 -0.434832 0.068501 255 139 72
0.01993 -0.372333 0.309131 255 139 72
-0.0310228 -0.284465 0.290873 255 139 72
0.0663755 -0.442219 0.0896972 255 139 72
0.164333 -0.120997 0.292038 255 139 72
-0.0164344 -0.309835 0.24633 255 139 72
-0.0580242 -0.40814 0.205736 255 139 72
0.0902755 -0.00200702 0.323973 255 139 72
-0.143664 -0.310474 0.264936 255 139 72
0.0523111 -0.438796 0.090046 255 139 72
0.0134018 -0.451295 0.185567 255 139 72
-0.04879 -0.429891 0.226066 255 139 72
-0.0454661 -0.391203 0.214921 255 139 72
0.23427 -0.387318 -0.0346013 255 139 72
-0.0163551 -0.399232 0.287704 255 139 72
0.0596839 -0.0205352 0.277913 255 139 72
0.0556611 -0.355815 -0.170479 255 139 72
0.00367215 -0.397883 0.292709 255 139 72
0.12175 -0.351383 0.292031 255 139 72
-0.0980739 -0.368269 0.223566 255 139 72
0.0541057 -0.0347033 0.262701 255 139 72
0.107136 -0.373088 0.314465 255 139 72
0.135066 -0.265904 0.310258 255 139 72
0.154898 -0.168078 0.307222 255 139 72
-0.0823617 -0.362125 0.234085 255 139 72
-0.233982 -0.371326 0.216526 255 139 72
0.0151907 -0.0691866 0.26247 255 139 72
-0.0633331 -0.341309 0.278686 255 139 72
0.0182139 0.0149989 0.327 255 139 72
0.0553521 -0.0343215 0.270946 255 139 72
0.0962777 0.00801637 0.295723 255 139 72
0.0285113 -0.00619636 0.322562 255 139 72
-0.214258 -0.0273779 0.32763 255 139 72
0.0668736 -0.379039 0.308072 255 139 72
-0.131407 -0.38744 0.201261 255 139 72
0.0154813 -0.174984 0.24542 255 139 72
0.0325999 -0.0583758 0.332774 255 139 72
0.144048 -0.42778 0.0818478 255 139 72
-0.188426 -0.178874 0.288031 255 139 72
0.120989 -0.255367 0.314289 255 139 72
0.117194 -0.447634 0.270312 255 139 72
0.140923 -0.335572 0.28924 255 139 72
-0.16295 -0.0672101 0.322787 255 139 72
0.0376866 -0.39373 0.324631 255 139 72
0.175775 -0.227114 0.301097 255 139 72
0.103945 -0.206903 0.289357 255 139 72
-0.0159305 -0.309756 0.296012 255 139 72
-0.266432 -0.329779 0.221615 255 139 72
-0.146654 -0.175504 0.288841 255 139 72
0.111216 -0.168829 0.321204 255 139 72
-0.195153 -0.389824 0.155121 255 139 72
0.154336 -0.07001 0.304079 255 139 72
0.0904106 -0.370644 0.321119 255 139 72
0.152236 -0.0443634 0.297022 255 139 72
0.167244 -0.21824 0.305466 255 139 72
0.148121 -0.188407 0.30968 255 139 72
0.103151 0.000444114 0.315198 255 139 72
-0.130523 -0.13846 0.324867 255 139 72
-0.107885 -0.210896 0.292889 255 139 72
-0.018358 -0.360677 0.237736 255 139 72
-0.133536 -0.286967 0.319077 255 139 72
0.115174 -0.0256947 0.316362 255 139 72
0.022062 -0.0696207 0.281991 255 139 72
0.0248644 -0.44148 0.223891 255 139 72
0.0853593 -0.154405 0.329727 255 139 72
0.147611 -0.0415968 0.302272 255 139 72
0.10529 -0.401243 0.306492 255 139 72
-0.0249931 -0.315682 0.294438 255 139 72
-0.0847024 -0.169681 0.324883 255 139 72
0.155775 -0.251782 0.305497 255 139 72
-0.191613 -0.12231 0.302658 255 139 72
0.0731579 -0.42086 0.28603 255 139 72
0.0119293 -0.429227 0.24885 255 139 72
0.103817 -0.166648 0.32322 255 139 72
0.131739 -0.0888108 0.313755 255 139 72
0.0836505 -0.296913 0.324355 255 139 72
0.102791 -0.36421 -0.149382 255 139 72
0.0787016 -0.272888 0.296391 255 139 72
0.0563475 -0.156077 0.333441 255 139 72
0.169348 -0.120408 0.300055 255 139 72
0.175185 -0.215292 0.301196 255 139 72
0.0717959 -0.0525963 0.283308 255 139 72
0.0209204 -0.0873464 0.272116 255 139 72
-0.105723 -0.303456 0.270474 255 139 72
-0.0597991 -0.339798 0.237086 255 139 72
0.100038 -0.415274 0.30835 255 139 72
-0.258656 -0.384644 0.205319 255 139 72
-0.0244199 -0.269694 0.256137 255 139 72
-0.0463872 -0.37972 -0.128269 255 139 72
0.0104218 -0.243299 0.24909 255 139 72
-0.073619 -0.348518 0.271999 255 139 72
-0.0693796 -0.40037 0.214199 255 139 72
-0.184122 -0.409683 0.184732 255 139 72
0.17448 -0.196411 0.301286 255 139 72
0.016362 -0.0722921 0.256485 255 139 72
-0.115853 -0.416941 0.318648 255 139 72
0.116635 -0.365248 0.297449 255 139 72
-0.0304755 -0.280207 0.290867 255 139 72
0.176994 -0.194659 0.302633 255 139 72
-0.0731574 -0.428175 0.17551 255 139 72
-0.205343 -0.355907 0.217712 255 139 72
0.150211 -0.140754 0.308138 255 139 72
-0.0766081 -0.228701 0.273515 255 139 72
0.000881992 -0.303152 0.249836 255 139 72
0.0567182 -0.00946079 0.332015 255 139 72
-0.13623 -0.298621 0.318777 255 139 72
0.0871689 0.00334104 0.287832 255 139 72
0.166115 -0.29463 0.29789 255 139 72
-0.0492205 -0.434144 0.155309 255 139 72
0.138297 -0.191902 0.288232 255 139 72
-0.0889373 -0.380384 0.218496 255 139 72
0.122175 -0.0270971 0.312349 255 139 72
0.0668114 -0.397943 0.326226 255 139 72
0.0856158 -0.395419 0.323664 255 139 72
-0.0820851 -0.42408 0.176883 255 139 72
0.132925 -0.245638 0.311856 255 139 72
0.0178904 -0.0924923 0.27279 255 139 72
0.0646742 -0.02366 0.269469 255 139 72
0.117001 -0.301845 0.313367 255 139 72
0.039456 0.0123047 0.326743 255 139 72
-0.0220663 -0.358959 0.239601 255 139 72
0.15674 -0.377327 0.29998 255 139 72
0.173957 -0.140971 0.297652 255 139 72
0.0849576 -0.396979 0.30577 255 139 72
0.137301 -0.0133739 0.298379 255 139 72
-0.0616829 -0.146527 0.326818 255 139 72
-0.144384 -0.203467 0.321346 255 139 72
0.0439906 -0.226409 0.291795 255 139 72
0.122544 -0.342164 0.289674 255 139 72
0.0950956 -0.373773 0.320057 255 139 72
-0.0877592 -0.0846687 0.327929 255 139 72
0.0537744 -0.301154 0.300457 255 139 72
-0.300478 -0.343746 0.236239 255 139 72
-0.0650538 -0.173702 0.294373 255 139 72
-0.0215093 -0.411256 0.00539438 255 139 72
-0.176785 -0.412524 0.317356 255 139 72
-0.0368042 -0.348278 0.290037 255 139 72
0.101281 -0.206052 0.323139 255 139 72
-0.020719 -0.392006 0.322873 255 139 72
-0.144706 -0.340512 0.226017 255 139 72
0.158103 -0.361176 0.301283 255 139 72
-0.033359 -0.418707 0.322218 255 139 72
-0.0448197 -0.366172 0.220449 255 139 72
-0.0648569 -0.364134 -0.187279 255 139 72
0.07306 -0.252031 0.328337 255 139 72
0.0849063 -0.445575 0.218401 255 139 72
0.0440078 -0.383774 0.309648 255 139 72
0.104175 -0.313517 0.295483 255 139 72
-0.318169 -0.374472 0.229318 255 139 72
0.00680766 -0.357384 0.307822 255 139 72
-0.130838 -0.232943 0.275756 255 139 72
-0.00380431 0.00587071 0.324497 255 139 72
0.0778385 -0.00796462 0.275358 255 139 72
-0.178694 -0.397136 0.199477 255 139 72
0.1328 -0.00503132 0.295909 255 139 72
-0.0916648 -0.419346 0.173248 255 139 72
0.097582 -0.0264077 0.32305 255 139 72
-0.126987 -0.405584 0.318624 255 139 72
0.083611 -0.0608523 0.330616 255 139 72
-0.020651 -0.210585 0.326346 255 139 72
-0.164219 -0.2858 0.259797 255 139 72
0.102433 -0.403769 -0.00737693 255 139 72
-0.0329817 -0.353357 0.237001 255 139 72
0.114376 -0.455305 0.219587 255 139 72
-0.111331 -0.40382 0.319289 255 139 72
0.162876 -0.334961 0.301423 255 139 72
0.0697751 -0.106636 0.283895 255 139 72
0.0273775 -0.115382 0.254941 255 139 72
0.163302 -0.185141 0.306662 255 139 72
-0.260776 -0.325122 0.239694 255 139 72
0.151535 -0.314299 0.305085 255 139 72
-0.264469 -0.386593 0.215971 255 139 72
-0.0960062 -0.403094 0.18858 255 139 72
0.0735641 0.00222207 0.327264 255 139 72
-0.0873968 -0.430321 0.319833 255 139 72
0.153252 -0.436183 0.125261 255 139 72
0.108146 -0.240688 0.288577 255 139 72
-0.0527739 -0.311124 0.242245 255 139 72
-0.0459807 -0.427224 0.0868029 255 139 72
-0.13784 -0.399902 0.318391 255 139 72
-0.049162 -0.293194 0.285994 255 139 72
-0.172778 -0.159459 0.321547 255 139 72
-0.0825873 -0.399404 0.197228 255 139 72
0.0829299 -0.408839 0.325029 255 139 72
0.153793 -0.384066 0.301634 255 139 72
-0.0666426 -0.344177 0.276903 255 139 72
0.0209846 -0.178134 0.24821 255 139 72
0.000733495 -0.30838 0.24989 255 139 72
0.134247 -0.379281 0.306582 255 139 72
-0.260875 -0.383462 0.205634 255 139 72
0.0714699 -0.113439 0.334389 255 139 72
-0.163607 -0.342825 0.223443 255 139 72
0.0131382 -0.183872 0.244651 255 139 72
-0.0465863 -0.369619 0.220191 255 139 72
-0.0702683 -0.00652495 0.325094 255 139 72
0.0411225 -0.412667 -0.0012542 255 139 72
-0.297395 -0.376734 0.227381 255 139 72
0.118464 -0.399679 0.310786 255 139 72
0.0450481 -0.277213 0.295338 255 139 72
0.0435107 -0.0479283 0.275801 255 139 72
0.0632908 -0.143128 0.33428 255 139 72
0.151293 -0.037208 0.299493 255 139 72
0.0845036 -0.00477257 0.326254 255 139 72
0.152069 -0.0953109 0.306069 255 139 72
-0.0824836 -0.410809 0.190273 255 139 72
-0.0489613 -0.263604 0.323353 255 139 72
0.0994323 -0.379107 0.318596 255 139 72
0.0582413 -0.415313 0.284986 255 139 72
0.0683914 -0.428605 0.268182 255 139 72
-0.239992 -0.273577 0.265102 255 139 72
0.00967823 -0.236245 0.253187 255 139 72
0.0879914 -0.360389 0.321318 255 139 72
-0.250435 -0.381938 0.216037 255 139 72
-0.0737716 -0.0146796 0.325941 255 139 72
0.121269 -0.428682 0.0531614 255 139 72
0.151419 -0.0578182 0.295585 255 139 72
-0.0514156 -0.335137 0.284164 255 139 72
-0.0120414 -0.322889 0.246511 255 139 72
0.0843654 -0.36829 0.322581 255 139 72
-0.129782 -0.221842 0.320975 255 139 72
-0.0486004 -0.424261 0.251725 255 139 72
0.166851 -0.113693 0.298469 255 139 72
-0.0957766 -0.403164 -0.0167839 255 139 72
-0.00262414 -0.312508 0.297623 255 139 72
-0.115446 -0.334359 0.231225 255 139 72
-0.0639944 -0.377711 0.225905 255 139 72
0.0190159 -0.184005 0.249423 255 139 72
-0.109703 -0.0836164 0.326564 255 139 72
-0.0677538 -0.333917 0.276461 255 139 72
-0.146492 -0.302203 0.318503 255 139 72
-0.173041 0.00862491 0.324008 255 139 72
-0.169786 -0.349642 0.317093 255 139 72
-0.260687 -0.387726 0.216021 255 139 72
-0.0312749 -0.379656 0.222062 255 139 72
-0.178099 -0.380653 0.317245 255 139 72
-0.0686144 -0.406562 0.197658 255 139 72
0.100013 -0.0553471 0.285818 255 139 72
-0.13145 -0.214883 0.280253 255 139 72
0.153185 -0.114054 0.306079 255 139 72
-0.00315768 -0.365807 0.305762 255 139 72
0.010441 -0.0896663 0.280807 255 139 72
0.074249 -0.355569 0.324503 255 139 72
0.0511333 -0.439494 0.233086 255 139 72
0.0683917 -0.0560063 0.283275 255 139 72
0.130368 -0.163417 0.31576 255 139 72
-0.0801569 -0.300068 0.276248 255 139 72
0.0629683 -0.446718 0.112412 255 139 72
0.152937 -0.36954 0.304343 255 139 72
-0.00929739 -0.315938 0.247484 255 139 72
0.116844 -0.265561 0.28906 255 139 72
0.17347 -0.135469 0.300705 255 139 72
-0.0321609 -0.416536 0.0311177 255 139 72
0.0627517 -0.305903 0.326217 255 139 72
-0.199827 -0.0995029 0.31108 255 139 72
0.218142 -0.406019 0.0282758 255 139 72
-0.0423583 -0.432908 0.241267 255 139 72
-0.13477 -0.424204 0.317925 255 139 72
-0.128922 -0.0090831 0.32443 255 139 72
-0.209812 -0.00875697 0.324808 255 139 72
0.00340292 -0.107561 0.280992 255 139 72
0.101013 -0.443235 0.264133 255 139 72
0.0119852 -0.306423 0.324337 255 139 72
-0.0722386 -0.418404 0.194989 255 139 72
-0.0279413 -0.392155 0.322596 255 139 72
-0.143098 -0.271014 0.26582 255 139 72
0.142358 -0.173408 0.287786 255 139 72
0.115366 -0.254811 0.288808 255 139 72
0.359775 -0.422535 0.00846271 255 139 72
-0.0335222 -0.377768 -0.126638 255 139 72
0.168633 -0.467838 0.18365 255 139 72
0.00638149 -0.278002 0.252598 255 139 72
-0.225968 -0.355735 0.222497 255 139 72
0.0269707 -0.0909606 0.263582 255 139 72
0.0948814 -0.3724 0.320055 255 139 72
-0.0967498 -0.0486104 0.318264 255 139 72
0.14012 -0.344602 0.289889 255 139 72
-0.0369314 -0.22437 0.325171 255 139 72
0.118816 -0.336576 0.290072 255 139 72
0.0911296 -0.102887 0.328346 255 139 72
-0.0117709 -0.0212693 0.329813 255 139 72
-0.0458486 -0.3646 0.232528 255 139 72
-0.232627 -0.379276 0.213033 255 139 72
-0.155247 -0.344249 0.242545 255 139 72
0.0994588 -0.324546 0.298248 255 139 72
0.131079 -0.0147522 0.290727 255 139 72
-0.216805 -0.399428 0.204053 255 139 72
0.097199 -0.376174 0.319393 255 139 72
-0.124036 -0.0705706 0.325496 255 139 72
0.0603219 -0.29861 0.300496 255 139 72
0.0243875 -0.30666 0.298714 255 139 72
0.00729118 -0.415018 0.271775 255 139 72
-0.0175233 -0.399501 -0.0393211 255 139 72
0.119037 -0.346309 0.3116 255 139 72
0.072802 0.000442654 0.289421 255 139 72
0.0175053 -0.377542 -0.120211 255 139 72
0.0889682 -0.362156 0.304729 255 139 72
-0.20246 -0.258142 0.286397 255 139 72
-0.0758098 -0.1286 0.327386 255 139 72
-0.228162 -0.326427 0.253907 255 139 72
-0.0945752 -0.386136 0.210319 255 139 72
-0.214911 -0.406066 0.0696031 255 139 72
0.127885 -0.363866 0.308237 255 139 72
0.144905 -0.408001 0.305089 255 139 72
0.128958 -0.176404 0.288806 255 139 72
-0.0491499 -0.413909 0.26839 255 139 72
-0.165316 -0.395849 0.192581 255 139 72
0.13617 -0.0115635 0.293224 255 139 72
0.0138718 -0.176545 0.258458 255 139 72
0.160069 -0.35851 0.300218 255 139 72
0.0685698 -0.313574 0.325934 255 139 72
0.0838043 -0.03441 0.282905 255 139 72
0.173719 -0.243594 0.29967 255 139 72
0.134782 -0.142305 0.288716 255 139 72
-0.0293077 -0.432178 0.106234 255 139 72
-0.0424532 -0.176332 0.293173 255 139 72
-0.0973801 -0.416745 0.12908 255 139 72
-0.12647 -0.384153 0.209179 255 139 72
0.173344 -0.254894 0.303084 255 139 72
0.180334 -0.43061 0.10022 255 139 72
-0.0673174 -0.226209 0.273496 255 139 72
0.158021 -0.376037 0.299446 255 139 72
0.159679 -0.301902 0.303963 255 139 72
-0.160886 -0.399062 -0.06019 255 139 72
-0.266583 -0.382433 0.219154 255 139 72
-0.0647794 -0.429755 0.140377 255 139 72
-0.0945389 -0.168405 0.324627 255 139 72
0.140049 -0.0332733 0.29271 255 139 72
0.0666744 -0.372315 0.32528 255 139 72
0.097876 -0.039045 0.324045 255 139 72
0.21808 -0.408975 0.0404853 255 139 72
0.128939 -0.0287696 0.291044 255 139 72
-0.16921 -0.0678586 0.316296 255 139 72
-0.124398 -0.394929 0.186368 255 139 72
0.118416 -0.177746 0.318859 255 139 72
0.0975593 -0.351242 0.319438 255 139 72
0.114943 -0.430636 0.0557261 255 139 72
0.110843 -0.33488 0.314422 255 139 72
-0.188096 -0.285659 0.318532 255 139 72
0.0785928 -0.156417 0.331471 255 139 72
0.0805062 -0.1422 0.288384 255 139 72
0.0816655 -0.176997 0.329972 255 139 72
0.077632 -0.218432 0.28981 255 139 72
0.156218 -0.131098 0.306531 255 139 72
0.103614 -0.117127 0.288486 255 139 72
-0.00700865 -0.229229 0.265233 255 139 72
-0.0440136 -0.436232 0.180802 255 139 72
0.0506707 -0.0932813 0.282801 255 139 72
-0.0366427 -0.381795 0.223962 255 139 72
0.0547809 -0.343825 -0.188285 255 139 72
0.0290683 -0.0698057 0.278461 255 139 72
0.0632779 -0.0718751 0.283713 255 139 72
0.110065 -0.321345 0.31522 255 139 72
0.0849807 -0.165449 0.329536 255 139 72
0.155492 -0.0858659 0.294606 255 139 72
-0.31386 -0.372722 0.219003 255 139 72
0.0763611 0.0146492 0.317645 255 139 72
-0.117478 -0.0194612 0.328832 255 139 72
-0.180827 -0.405948 0.187719 255 139 72
-0.251344 -0.258342 0.268969 255 139 72
-0.199611 -0.393151 -0.0704245 255 139 72
-0.149161 -0.30796 0.267014 255 139 72
-0.00989371 0.00414611 0.324325 255 139 72
0.0171692 -0.251459 0.326723 255 139 72
0.0854173 -0.271398 0.32539 255 139 72
0.279622 -0.384671 -0.0168722 255 139 72
0.0823787 -0.171773 0.329987 255 139 72
0.266896 -0.390079 -0.00418742 255 139 72
0.151256 -0.389742 -0.0484669 255 139 72
-0.090695 -0.237238 0.321918 255 139 72
0.0129121 -0.107499 0.287248 255 139 72
0.0944229 -0.0911005 0.327302 255 139 72
0.117373 -0.276223 0.288869 255 139 72
-0.0363765 -0.397974 0.284452 255 139 72
0.124819 -0.0641999 0.315285 255 139 72
-0.0921073 -0.215637 0.269057 255 139 72
0.0772597 -0.279099 0.326329 255 139 72
0.0281792 -0.314985 0.300687 255 139 72
-0.0943314 -0.201108 0.323123 255 139 72
0.272295 -0.409658 0.0301652 255 139 72
-0.229183 -0.290741 0.273616 255 139 72
0.120485 -0.360345 0.310361 255 139 72
0.0941715 -0.0636396 0.327161 255 139 72
-0.0716551 -0.371337 0.320407 255 139 72
-0.296337 -0.378585 0.22146 255 139 72
-0.0186509 -0.084545 0.330274 255 139 72
-0.0436132 -0.433228 0.235961 255 139 72
-0.139254 -0.402839 -0.0359085 255 139 72
-0.179983 -0.238442 0.2908 255 139 72
0.0902969 -0.377705 0.304477 255 139 72
-0.03685 -0.29347 0.289829 255 139 72
0.155648 -0.204824 0.306653 255 139 72
0.131066 -0.0576896 0.31222 255 139 72
-0.110281 -0.33715 0.23078 255 139 72
-0.32223 -0.367258 0.219538 255 139 72
-0.221824 -0.281514 0.278494 255 139 72
0.0937214 -0.325884 0.320852 255 139 72
0.297659 -0.373061 -0.0436653 255 139 72
-0.194778 -0.103447 0.309718 255 139 72
-0.279675 -0.383633 0.220958 255 139 72
-0.119379 -0.388895 0.201074 255 139 72
-0.0354854 -0.204252 0.249661 255 139 72
0.147453 -0.177209 0.310193 255 139 72
0.024362 -0.152286 0.24698 255 139 72
0.120951 -0.171322 0.28969 255 139 72
0.170748 -0.128042 0.295644 255 139 72
-0.0512803 -0.135226 0.267857 255 139 72
0.00417981 -0.43527 0.324185 255 139 72
-0.000473462 -0.40277 0.323607 255 139 72
0.161223 -0.329557 0.303149 255 139 72
0.0622409 -0.136965 0.284832 255 139 72
0.188585 -0.394627 -0.0366567 255 139 72
0.156724 -0.379401 0.299753 255 139 72
0.00505515 -0.185757 0.243855 255 139 72
-0.236107 -0.362763 0.206765 255 139 72
0.0892077 0.00725762 0.318213 255 139 72
-0.0765183 -0.148016 0.3263 255 139 72
-0.12852 -0.00670763 0.326899 255 139 72
-0.0462721 -0.331212 0.321845 255 139 72
0.0743486 -0.0463381 0.332185 255 139 72
0.119355 -0.138169 0.290106 255 139 72
0.00765505 -0.451581 0.188415 255 139 72
0.0673393 -0.105498 0.334403 255 139 72
-0.277873 -0.383495 0.2189 255 139 72
0.0216709 -0.166948 0.288419 255 139 72
0.0393138 -0.0522139 0.258164 255 139 72
-0.0761823 -0.427171 0.166148 255 139 72
-0.114151 -0.342032 0.228695 255 139 72
-0.225203 -0.336114 0.239382 255 139 72
-0.0501397 -0.425597 0.240662 255 139 72
-0.284148 -0.380245 0.212544 255 139 72
-0.0466498 -0.0793912 0.32985 255 139 72
-0.251137 -0.3401 0.231248 255 139 72
0.137463 -0.172538 0.313527 255 139 72
0.135428 -0.355474 0.289759 255 139 72
0.0676994 0.0137496 0.319735 255 139 72
-0.156378 -0.286082 0.278289 255 139 72
0.172829 -0.27672 0.300295 255 139 72
0.13947 -0.386115 0.293143 255 139 72
-0.0360603 -0.385062 0.219096 255 139 72
0.237204 -0.402688 0.0266213 255 139 72
-0.108154 -0.21672 0.321903 255 139 72
0.0968572 -0.419509 0.301633 255 139 72
0.146323 -0.0908748 0.290927 255 139 72
0.0677066 -0.256472 0.328852 255 139 72
-0.106468 -0.277735 0.278007 255 139 72
-0.126012 -0.374634 0.225314 255 139 72
0.107166 -0.397081 0.306289 255 139 72
0.131949 -0.0053921 0.292841 255 139 72
0.00940097 -0.0440068 0.331897 255 139 72
0.04585 -0.0674428 0.282225 255 139 72
0.0983736 -0.431404 0.28672 255 139 72
-0.0330669 -0.079569 0.330171 255 139 72
0.152743 -0.0941232 0.306008 255 139 72
-0.201821 -0.0519706 0.322382 255 139 72
-0.113366 -0.327788 0.233569 255 139 72
0.158715 -0.214513 0.292429 255 139 72
0.102341 -0.432085 0.288724 255 139 72
0.101458 -0.129501 0.32445 255 139 72
-0.173424 -0.0490814 0.322002 255 139 72
-0.0181989 -0.439559 0.231391 255 139 72
0.142243 -0.115015 0.309842 255 139 72
0.143616 -0.150162 0.311197 255 139 72
0.0693138 -0.0233581 0.271217 255 139 72
0.107234 0.00730953 0.301215 255 139 72
0.0456396 -0.0991628 0.283511 255 139 72
0.102078 -0.165938 0.323738 255 139 72
0.062992 -0.403117 0.303541 255 139 72
0.000651494 -0.238891 0.238528 255 139 72
-0.238158 -0.257561 0.269242 255 139 72
0.0945832 -0.0373322 0.325233 255 139 72
0.143972 -0.0956893 0.289694 255 139 72
-0.0152833 0.030816 0.424271 255 95 48
0.151542 0.0666519 0.294474 255 95 48
-0.254758 0.0756454 0.0885393 255 95 48
-0.291681 0.0184873 0.345187 255 95 48
0.0496887 0.0049404 0.427669 255 95 48
0.157781 0.0621253 0.350946 255 95 48
-0.224827 0.0769802 0.37519 255 95 48
-0.0230567 -0.0576719 0.429439 255 95 48
0.121371 0.0704355 0.347356 255 95 48
-0.269781 0.075521 0.292466 255 95 48
-0.334565 0.000707075 0.321609 255 95 48
-0.131828 0.0755016 0.30747 255 95 48
-0.0202861 -0.0565413 0.427078 255 95 48
0.085066 -0.0675539 0.407739 255 95 48
-0.325789 0.0751278 0.200759 255 95 48
0.0402909 0.0714496 0.405305 255 95 48
0.101165 0.0747464 0.242263 255 95 48
-0.0193764 -0.0442614 0.428921 255 95 48
-0.0380184 0.0368782 0.420104 255 95 48
-0.180732 0.0762603 0.393479 255 95 48
0.0265269 0.075882 0.210159 255 95 48
-0.0737795 0.0753629 0.303332 255 95 48
-0.355032 0.0655277 0.348527 255 95 48
-0.249228 0.077466 0.381674 255 95 48
-0.0200873 -0.0880556 0.430881 255 95 48
0.136581 0.0704175 0.311218 255 95 48
-0.263819 0.0774872 0.370184 255 95 48
-0.288831 0.0764405 0.319222 255 95 48
0.100129 0.0184888 0.408839 255 95 48
-0.182918 0.0753321 0.402106 255 95 48
-0.242856 0.0742644 0.234453 255 95 48
-0.301423 0.0773199 0.377015 255 95 48
-0.0464807 0.0746894 0.41304 255 95 48
-0.0122608 -0.02073 0.432517 255 95 48
-0.0410254 0.042368 0.418094 255 95 48
0.107385 0.0267718 0.405968 255 95 48
-0.0595738 0.0755952 0.276971 255 95 48
0.00457182 -0.0894113 0.431867 255 95 48
-0.150159 -0.00405688 0.377608 255 95 48
-0.304975 -0.0860072 0.280335 255 95 48
-0.132486 0.0752024 0.286896 255 95 48
-0.180902 0.0748774 0.272822 255 95 48
-0.0859906 0.0752226 0.410457 255 95 48
0.0140886 -0.0444697 0.432251 255 95 48
-0.336744 0.0752777 0.183277 255 95 48
-0.0760115 0.0762183 0.335403 255 95 48
0.00278719 0.0648121 0.41985 255 95 48
-0.180982 0.0764519 0.358648 255 95 48
-0.0811677 0.0755152 0.397912 255 95 48
0.0376352 -0.143836 0.427052 255 95 48
0.104989 0.070831 0.35243 255 95 48
-0.00726681 -0.105114 0.431176 255 95 48
-0.00818945 0.075845 0.371605 255 95 48
0.0342696 0.0759376 0.187043 255 95 48
0.146212 0.0613983 0.371417 255 95 48
-0.118652 0.0752207 0.402297 255 95 48
-0.248879 0.0752057 0.290191 255 95 48
-0.0475476 0.0762275 0.136877 255 95 48
-0.401884 0.0780139 0.31339 255 95 48
-0.209252 0.0742737 0.199626 255 95 48
-0.108229 -0.0304715 0.38543 255 95 48
-0.0547883 0.0762142 0.143905 255 95 48
-0.0145478 -0.0183174 0.4302 255 95 48
0.0587674 0.0702152 0.397645 255 95 48
0.0562904 0.0699004 0.40816 255 95 48
-0.0180596 0.00800999 0.424179 255 95 48
0.0712304 0.0689167 0.403519 255 95 48
0.0702808 -0.119138 0.408511 255 95 48
-0.406035 0.0773922 0.327815 255 95 48
-0.198551 0.0741136 0.2095 255 95 48
0.137949 0.0653626 0.369521 255 95 48
0.122918 0.0633348 0.405029 255 95 48
-0.387424 0.0780744 0.322766 255 95 48
0.145858 0.0687256 0.292202 255 95 48
-0.132342 0.0748744 0.25539 255 95 48
-0.107311 0.0463859 0.406511 255 95 48
0.0802992 0.0718157 0.36051 255 95 48
-0.159991 0.0750908 0.174367 255 95 48
-0.0988394 0.0754836 0.306734 255 95 48
0.133266 0.0715207 0.228046 255 95 48
0.0317906 0.0481263 0.427527 255 95 48
-0.170703 0.0763371 0.392042 255 95 48
0.102952 -0.0569301 0.394636 255 95 48
0.0740858 0.0746172 0.258591 255 95 48
-0.0285163 0.0762727 0.364862 255 95 48
-0.15177 0.0747756 0.213443 255 95 48
0.0570548 0.0718283 0.382749 255 95 48
-0.374526 0.0766909 0.0591949 255 95 48
-0.312691 0.0782195 0.37145 255 95 48
0.0813074 0.0211308 0.418691 255 95 48
0.0954334 0.0669252 0.409813 255 95 48
-0.0452648 0.0762508 0.125343 255 95 48
-0.171055 0.0750575 0.403209 255 95 48
-0.150287 -0.0287627 0.370683 255 95 48
0.153758 0.0646437 0.29297 255 95 48
-0.37846 0.0756016 0.230009 255 95 48
-0.235135 0.0751298 0.130432 255 95 48
-0.0185253 -0.0714087 0.431498 255 95 48
-0.0680543 0.0761604 0.159321 255 95 48
-0.124367 0.0765488 0.374273 255 95 48
-0.240664 0.0744812 0.197512 255 95 48
-0.408152 0.0782197 0.315888 255 95 48
-0.238853 0.0750827 0.289923 255 95 48
-0.362087 0.0754956 0.183464 255 95 48
-0.0430695 0.0755069 0.41011 255 95 48
0.0348708 0.0429946 0.428016 255 95 48
-0.311366 -0.0499507 0.295908 255 95 48
-0.0404322 0.0756359 0.237739 255 95 48
0.0469355 -0.203744 0.416885 255 95 48
-0.206033 0.0740115 0.232889 255 95 48
-0.116855 0.0462998 0.405327 255 95 48
-0.0726336 0.0477659 0.41182 255 95 48
0.0566383 -0.0123554 0.425687 255 95 48
-0.0978994 0.0759775 0.167093 255 95 48
-0.173139 0.0752332 0.291524 255 95 48
0.0745495 0.0755263 0.195554 255 95 48
0.0914453 0.0723999 0.33314 255 95 48
-0.168694 0.0758372 0.324263 255 95 48
-0.173418 0.0742703 0.228479 255 95 48
0.0356877 -0.106908 0.429117 255 95 48
0.0845797 0.0739268 0.281975 255 95 48
-0.0194553 -0.126353 0.429346 255 95 48
0.0453258 -0.20859 0.41777 255 95 48
-0.289335 0.0767593 0.33009 255 95 48
0.0895154 0.0679435 0.398574 255 95 48
-0.168048 0.0761252 0.339289 255 95 48
0.127183 0.0649891 0.390929 255 95 48
0.0508858 0.0758392 0.199583 255 95 48
-0.401009 0.0778144 0.33153 255 95 48
-0.374723 0.0763203 0.0961306 255 95 48
-0.39038 0.0757313 0.192792 255 95 48
-0.354268 0.0753107 0.232129 255 95 48
-0.345569 0.0784552 0.349896 255 95 48
-0.0435722 0.0760569 0.178173 255 95 48
-0.0158036 0.0752543 0.324461 255 95 48
-0.238034 0.0747731 0.273322 255 95 48
-0.340024 0.0768177 0.303774 255 95 48
-0.254939 0.0204304 0.357745 255 95 48
-0.176715 0.0160067 0.377487 255 95 48
-0.0175214 -0.0940695 0.431122 255 95 48
0.0513431 -0.153168 0.417648 255 95 48
-0.372311 0.0778818 0.325087 255 95 48
0.0642662 0.0752006 0.24725 255 95 48
0.112998 0.0709982 0.341009 255 95 48
-0.119239 0.0476419 0.404974 255 95 48
0.0660918 0.0387317 0.424837 255 95 48
-0.000814628 0.0179934 0.430587 255 95 48
-0.294004 0.0783428 0.372463 255 95 48
-0.0212244 -0.0496012 0.431279 255 95 48
-0.122697 0.07585 0.395316 255 95 48
-0.00605181 0.0753165 0.320165 255 95 48
-0.309863 0.0777271 0.350462 255 95 48
-0.212152 0.075688 0.39644 255 95 48
-0.00474201 0.0488224 0.422648 255 95 48
-0.368592 0.0787156 0.342333 255 95 48
0.0632527 0.0694177 0.407524 255 95 48
0.0338589 0.0542135 0.426494 255 95 48
0.012037 0.0751053 0.338965 255 95 48
-0.175996 0.0764781 0.360407 255 95 48
0.0555395 0.0742311 0.314225 255 95 48
-0.321569 0.075413 0.159245 255 95 48
-0.0903359 0.0750817 0.402113 255 95 48
0.136054 0.0709793 0.248777 255 95 48
0.0185253 0.0756402 0.243268 255 95 48
-0.0719341 0.0760262 0.191763 255 95 48
0.0384004 0.0750024 0.300325 255 95 48
-0.000748064 0.0106072 0.431407 255 95 48
-0.0252789 -0.0755744 0.428008 255 95 48
-0.199784 0.074064 0.229866 255 95 48
0.0672565 0.0715235 0.377425 255 95 48
0.0997994 0.0428352 0.414142 255 95 48
0.0337662 -0.209586 0.425342 255 95 48
-0.00896758 -0.15111 0.429562 255 95 48
0.0645098 -0.204894 0.400425 255 95 48
-0.0591943 0.00900891 0.413673 255 95 48
0.0604054 0.0756371 0.239503 255 95 48
0.0427563 0.0713431 0.411492 255 95 48
0.0318674 -0.0942505 0.430174 255 95 48
-0.0603225 0.0753909 0.410758 255 95 48
-0.360993 0.0753828 0.215941 255 95 48
0.121775 0.0653359 0.398192 255 95 48
-0.098783 0.0754921 0.229187 255 95 48
-0.167157 0.0765407 0.365044 255 95 48
0.0103937 0.075916 0.196415 255 95 48
0.103943 0.0646592 0.415645 255 95 48
-0.268403 -0.0357868 0.322791 255 95 48
0.091448 0.00172844 0.411987 255 95 48
-0.211749 0.0759591 0.395351 255 95 48
-0.238482 0.0750325 0.287397 255 95 48
-0.0123826 0.075577 0.242373 255 95 48
0.0388565 -0.198219 0.422971 255 95 48
-0.00696087 0.0758485 0.210878 255 95 48
0.0285414 0.0750768 0.307519 255 95 48
-0.0821981 0.0437625 0.410242 255 95 48
0.0789953 0.0698481 0.386636 255 95 48
0.0861257 0.0492103 0.420854 255 95 48
0.0875614 -0.0775557 0.403275 255 95 48
-0.36878 0.0517254 0.336891 255 95 48
-0.336168 0.0759337 0.273837 255 95 48
-0.037633 0.0759864 0.19069 255 95 48
-0.182573 0.0742546 0.214437 255 95 48
-0.2337 0.0743466 0.252933 255 95 48
0.117921 0.064525 0.408608 255 95 48
-0.397562 0.076382 0.257898 255 95 48
-0.345225 0.0752691 0.20533 255 95 48
-0.189506 -0.0401554 0.353938 255 95 48
-0.0483718 0.0760903 0.173315 255 95 48
-0.269101 0.0755856 0.105556 255 95 48
0.107705 0.071933 0.333518 255 95 48
0.00292943 0.0753788 0.311977 255 95 48
0.101116 0.0754097 0.217812 255 95 48
0.048417 0.0483475 0.426916 255 95 48
0.0460004 0.0709091 0.409108 255 95 48
0.16278 0.0617213 0.344091 255 95 48
-0.310788 -0.047054 0.298046 255 95 48
-0.0694037 -0.0228253 0.405109 255 95 48
-0.0801463 0.0370324 0.411103 255 95 48
0.113634 0.0711602 0.338974 255 95 48
0.0383967 0.0746509 0.317618 255 95 48
-0.393156 0.0765257 0.0840529 255 95 48
0.111042 0.0711057 0.340532 255 95 48
-0.194413 0.0592866 0.396252 255 95 48
0.0474303 0.074808 0.281568 255 95 48
-0.228597 0.0513924 0.385575 255 95 48
0.114198 -0.0278496 0.388478 255 95 48
-0.271248 0.0778347 0.377123 255 95 48
-0.00510806 0.0392583 0.42585 255 95 48
-0.301519 0.0773032 0.339906 255 95 48
-0.151992 0.0462124 0.398347 255 95 48
-0.371863 0.0782406 0.335965 255 95 48
-0.248347 0.0749048 0.16835 255 95 48
-0.0100388 0.000794895 0.430945 255 95 48
-0.29028 0.0747396 0.22185 255 95 48
0.141476 0.0700766 0.333233 255 95 48
-0.213741 0.0749627 0.135243 255 95 48
0.059215 0.0741384 0.314917 255 95 48
-0.0773886 0.0745949 0.411348 255 95 48
0.0959432 0.0471504 0.416844 255 95 48
-0.0665786 0.076555 0.352113 255 95 48
0.0997977 0.0667882 0.408126 255 95 48
0.125443 0.0265544 0.391627 255 95 48
0.0242565 -0.0846024 0.431389 255 95 48
0.0443902 0.0345813 0.427889 255 95 48
-0.0234338 -0.0639765 0.430527 255 95 48
-0.401082 0.0758228 0.222164 255 95 48
0.0648065 -0.0834446 0.42012 255 95 48
-0.0860587 0.0764904 0.381825 255 95 48
-0.115687 0.0747863 0.409204 255 95 48
-0.345748 0.0777459 0.334611 255 95 48
0.0184773 0.0759557 0.189233 255 95 48
0.0952821 0.0735256 0.294074 255 95 48
-0.277471 0.0772473 0.38184 255 95 48
0.134689 0.0711442 0.281225 255 95 48
-0.229941 0.0766417 0.389847 255 95 48
0.140823 0.0694965 0.269087 255 95 48
-0.354094 -0.0366726 0.287346 255 95 48
-0.102835 0.0344026 0.405646 255 95 48
-0.0464895 -0.0287075 0.411288 255 95 48
-0.236657 0.0749274 0.161222 255 95 48
-0.014982 -0.0263544 0.428287 255 95 48
-0.0712365 0.0764955 0.37544 255 95 48
0.0920711 0.040545 0.417179 255 95 48
-0.0639897 0.0755323 0.244243 255 95 48
0.0781407 0.0742715 0.273684 255 95 48
0.0371046 -0.133701 0.427619 255 95 48
-0.0805687 0.0649713 0.411929 255 95 48
-0.13842 0.0761285 0.338842 255 95 48
-0.145044 0.074929 0.21515 255 95 48
-0.134037 0.0449695 0.402005 255 95 48
-0.166292 0.0750825 0.282123 255 95 48
0.0729342 0.0739866 0.294949 255 95 48
-0.24454 0.0773623 0.378175 255 95 48
0.103602 0.0731359 0.297897 255 95 48
0.135402 0.0713524 0.252838 255 95 48
-0.0663133 0.0442943 0.413231 255 95 48
-0.246242 0.0774198 0.381086 255 95 48
0.0370575 0.0758508 0.219849 255 95 48
-0.124507 0.0717309 0.407601 255 95 48
0.016561 0.0717022 0.417449 255 95 48
-0.270984 0.0749747 0.267701 255 95 48
-0.014276 -0.0228446 0.428233 255 95 48
0.0346888 0.0602104 0.42439 255 95 48
-0.00652786 0.0749144 0.396822 255 95 48
0.0338115 0.0758918 0.210423 255 95 48
0.136298 0.0493851 0.390295 255 95 48
-0.213378 0.0764757 0.35588 255 95 48
-0.0470054 -0.0220922 0.412246 255 95 48
-0.0119918 -0.00626427 0.431109 255 95 48
-0.13444 0.0751937 0.215551 255 95 48
0.144214 0.0613212 0.379572 255 95 48
-0.0641391 0.0756306 0.236938 255 95 48
-0.378803 0.075659 0.180437 255 95 48
0.0854412 0.0754901 0.225665 255 95 48
0.0267809 -0.035073 0.430787 255 95 48
-0.0203012 0.0759952 0.343183 255 95 48
-0.326965 0.0692996 0.362214 255 95 48
-0.418026 0.0753101 0.224589 255 95 48
0.0480958 0.0743256 0.317964 255 95 48
0.0912967 -0.00760961 0.411979 255 95 48
-0.0452048 0.0756467 0.39406 255 95 48
-0.198213 0.0754751 0.399209 255 95 48
-0.19668 0.0740862 0.216525 255 95 48
-0.0121619 0.0746089 0.401783 255 95 48
-0.332738 0.0788208 0.361682 255 95 48
0.0730565 -0.193623 0.391708 255 95 48
-0.0908616 0.0758999 0.196204 255 95 48
-0.245913 0.077318 0.383833 255 95 48
-0.113627 0.0764923 0.35917 255 95 48
-0.141212 0.0365764 0.39821 255 95 48
0.0691328 -0.127305 0.407726 255 95 48
0.0929991 -0.0410538 0.407051 255 95 48
-0.404382 0.0759695 0.226467 255 95 48
-0.0488051 0.0754844 0.266288 255 95 48
-0.11335 0.0104542 0.398369 255 95 48
-0.0516189 0.0752153 0.411191 255 95 48
0.0827069 0.0735282 0.312324 255 95 48
-0.0704012 -0.0271992 0.403885 255 95 48
-0.388259 0.0769216 0.0466404 255 95 48
-0.287762 0.0773565 0.349153 255 95 48
0.0924355 -0.0884795 0.39625 255 95 48
0.0346106 0.0759449 0.180694 255 95 48
0.0121678 0.0496574 0.426644 255 95 48
0.0358785 0.0751052 0.292484 255 95 48
0.106202 0.0743028 0.261 255 95 48
0.0703017 0.0739113 0.304571 255 95 48
-0.284031 0.0339449 0.356904 255 95 48
-0.122458 -0.019265 0.382718 255 95 48
0.0705745 0.0698436 0.394609 255 95 48
0.147422 0.0515858 0.375197 255 95 48
-0.141207 0.075255 0.29408 255 95 48
-0.0797805 0.0752908 0.410114 255 95 48
-0.062796 0.0755767 0.274236 255 95 48
-0.276766 0.0773974 0.356712 255 95 48
-0.0191181 0.070613 0.416272 255 95 48
0.125316 0.0718598 0.32729 255 95 48
-0.3253 0.0750185 0.235562 255 95 48
-0.0572011 0.0763924 0.38197 255 95 48
-0.317693 0.0763901 0.30077 255 95 48
-0.36608 0.077286 0.307786 255 95 48
-0.0406142 0.0756114 0.393236 255 95 48
0.0328367 0.0759117 0.204502 255 95 48
-0.0355573 0.075723 0.389717 255 95 48
-0.0462029 0.0752646 0.40793 255 95 48
0.0339168 0.0751695 0.29415 255 95 48
0.012721 0.0740202 0.396271 255 95 48
-0.388189 0.041901 0.323938 255 95 48
0.101528 0.0689298 0.386428 255 95 48
0.109405 0.0743262 0.259777 255 95 48
0.0394943 0.0752904 0.269154 255 95 48
0.0870271 0.0480031 0.420491 255 95 48
0.0704268 0.068676 0.409216 255 95 48
-0.0181168 -0.0350904 0.429589 255 95 48
-0.0405268 0.0754612 0.252111 255 95 48
-0.236353 -0.0277379 0.341864 255 95 48
0.00633483 0.0754471 0.268562 255 95 48
0.14266 0.0647973 0.223876 255 95 48
-0.0187777 0.0761187 0.144328 255 95 48
-0.166086 0.0751186 0.148185 255 95 48
0.0157473 0.0722578 0.416745 255 95 48
-0.19387 0.0743292 0.194317 255 95 48
-0.185957 0.0744697 0.191131 255 95 48
0.138263 0.0700812 0.251149 255 95 48
-0.358888 0.0769498 0.35153 255 95 48
-0.379509 0.075654 0.18348 255 95 48
0.0973387 -0.0256526 0.405548 255 95 48
0.0596152 -0.184078 0.407098 255 95 48
-0.141983 0.0753233 0.403647 255 95 48
-0.388438 0.0792073 0.33728 255 95 48
0.0325367 -0.0501318 0.430176 255 95 48
-0.0624122 0.0749764 0.403282 255 95 48
0.0784863 -0.0610138 0.414592 255 95 48
-0.0057779 0.0754427 0.335883 255 95 48
0.0604659 0.0662533 0.420745 255 95 48
0.110599 0.0710643 0.341762 255 95 48
0.084447 0.0647464 0.420138 255 95 48
0.00361457 0.0753837 0.311078 255 95 48
0.0389798 -0.0606231 0.429384 255 95 48
0.10214 0.026469 0.408765 255 95 48
-0.290477 0.0272117 0.350548 255 95 48
-0.114681 0.0756087 0.312245 255 95 48
-0.0506223 0.0755047 0.410183 255 95 48
-0.196408 0.0752949 0.0804547 255 95 48
-0.269467 0.0772774 0.356434 255 95 48
0.10454 0.0705616 0.368335 255 95 48
0.0540542 0.0757906 0.171901 255 95 48
0.106749 -0.0445241 0.394073 255 95 48
-0.116132 0.0765402 0.368723 255 95 48
-0.135736 0.0564001 0.403453 255 95 48
0.00418115 0.0519525 0.425141 255 95 48
0.0340581 0.0718107 0.414903 255 95 48
0.120566 0.0663433 0.391394 255 95 48
0.055745 0.00404069 0.426465 255 95 48
-0.069125 -0.0245056 0.40484 255 95 48
0.125507 0.0354683 0.395774 255 95 48
0.141053 0.0688945 0.257414 255 95 48
0.0468088 0.0708341 0.41233 255 95 48
0.0195975 -0.111058 0.430854 255 95 48
0.116474 0.0732473 0.287704 255 95 48
-0.0258847 -0.02813 0.417836 255 95 48
0.0364741 -0.141775 0.427413 255 95 48
-0.00535559 0.052173 0.421456 255 95 48
0.0265783 -0.0708918 0.431114 255 95 48
-0.0829018 0.0765519 0.35875 255 95 48
-0.337675 0.0753889 0.169038 255 95 48
-0.205228 0.0763563 0.393173 255 95 48
-0.294606 0.077515 0.378161 255 95 48
0.147172 0.0591156 0.248358 255 95 48
-0.0868946 0.00496389 0.405089 255 95 48
-0.00501757 0.0240357 0.429704 255 95 48
0.0546534 0.070101 0.403267 255 95 48
-0.334114 0.0771826 0.321136 255 95 48
-0.124404 0.0752906 0.21888 255 95 48
0.0539905 -0.122821 0.420413 255 95 48
0.128858 0.0720012 0.303682 255 95 48
-0.168831 0.0765657 0.367263 255 95 48
-0.0216638 0.0352046 0.422803 255 95 48
-0.0084854 -0.151587 0.429593 255 95 48
-0.324863 0.0642248 0.3601 255 95 48
0.0439959 0.0758134 0.226649 255 95 48
-0.261469 0.074611 0.19858 255 95 48
0.0774899 0.0749814 0.249619 255 95 48
-0.173695 0.074951 0.140532 255 95 48
-0.399422 0.0777335 0.306142 255 95 48
-0.0205052 0.07576 0.384878 255 95 48
-0.128452 0.0764921 0.359534 255 95 48
-0.0314645 0.0749751 0.411932 255 95 48
0.0314871 -0.0126773 0.430352 255 95 48
0.0781597 -0.0951867 0.406918 255 95 48
0.0683728 -0.0569009 0.420698 255 95 48
-0.25018 0.0319495 0.36665 255 95 48
-0.0251492 -0.085844 0.429393 255 95 48
0.0664396 0.0526912 0.425308 255 95 48
0.0518615 0.0743987 0.308575 255 95 48
0.0792329 0.0678066 0.409983 255 95 48
-0.353491 -0.0202777 0.302942 255 95 48
0.0340344 -0.0599316 0.430109 255 95 48
-0.377154 0.0792337 0.344347 255 95 48
0.0709546 0.0699246 0.393669 255 95 48
0.0252535 0.0750203 0.313754 255 95 48
-0.295142 0.0750368 0.176109 255 95 48
0.0497769 0.0758398 0.20639 255 95 48
-0.21882 0.0752859 0.0993649 255 95 48
-0.135721 0.0757794 0.146665 255 95 48
-0.0011801 0.075318 0.388091 255 95 48
-0.147248 0.076155 0.394371 255 95 48
0.0634554 0.0626396 0.424437 255 95 48
-0.108075 -0.0335284 0.384447 255 95 48
0.0673286 0.0649581 0.423016 255 95 48
0.0521542 0.0172869 0.426975 255 95 48
0.0425228 0.0756749 0.245385 255 95 48
-0.339837 0.0786689 0.354744 255 95 48
0.0157733 0.0755175 0.255257 255 95 48
-0.218168 0.0769469 0.387665 255 95 48
0.0134522 -0.0545285 0.432494 255 95 48
0.101775 0.0700602 0.377915 255 95 48
0.0585623 0.0757343 0.18279 255 95 48
-0.123271 0.074427 0.408477 255 95 48
0.0877561 0.0717497 0.343339 255 95 48
0.083832 0.0664998 0.415571 255 95 48
-0.00508894 0.075347 0.317866 255 95 48
0.101805 0.0752826 0.229222 255 95 48
-0.143663 0.0753565 0.187088 255 95 48
0.117503 0.0534092 0.407138 255 95 48
0.0194401 0.00256495 0.431193 255 95 48
