ply
format ascii 1.0
comment Created by Open3D
element vertex 1152
property double x
property double y
property double z
property uchar red
property uchar green
property uchar blue
end_header
0.194012 -0.483497 0.238888 128 254 179
0.467953 -0.349848 0.138853 128 254 179
0.345055 -0.406533 0.183081 128 254 179
0.477074 -0.349021 0.106371 128 254 179
0.443129 -0.362342 0.123735 128 254 179
-0.038223 -0.48667 0.134614 128 254 179
0.197397 -0.483333 0.184162 128 254 179
0.17219 -0.485131 -0.135728 128 254 179
-0.138527 -0.125909 0.0908918 160 249 161
-0.141436 -0.108617 -0.119982 160 249 161
-0.142146 -0.360284 -0.148284 160 249 161
-0.12684 -0.37271 0.317617 160 249 161
-0.132384 -0.411217 0.235806 160 249 161
-0.125822 -0.143619 0.338314 160 249 161
-0.13155 -0.346807 0.220681 160 249 161
-0.140033 -0.374096 -0.0689914 160 249 161
-0.140823 -0.0414513 0.0056934 160 249 161
-0.128676 -0.302079 0.28885 160 249 161
-0.133823 -0.429828 0.176074 160 249 161
-0.13089 -0.460694 0.232895 160 249 161
-0.12538 -0.0901916 0.32749 160 249 161
-0.130287 -0.292995 0.220085 160 249 161
-0.13098 -0.294292 0.187364 160 249 161
-0.130689 -0.124462 0.193792 160 249 161
-0.126465 -0.480463 0.100641 160 249 161
-0.140289 -0.327781 -0.0272137 160 249 161
-0.139612 -0.229798 -0.110245 160 249 161
-0.129537 -0.318685 0.253496 160 249 161
-0.136747 -0.0897816 0.123393 160 249 161
-0.138925 -0.132079 0.076395 160 249 161
-0.141227 -0.0868023 -0.122975 160 249 161
-0.127864 -0.0957218 0.252346 160 249 161
-0.13881 -0.0223297 -0.157305 160 249 161
-0.141265 -0.123938 -0.0808306 160 249 161
-0.131732 -0.175598 0.182662 160 249 161
-0.131715 -0.104322 0.171295 160 249 161
-0.130627 -0.336482 0.226937 160 249 161
-0.126653 -0.374319 0.319331 160 249 161
-0.143522 -0.0248326 -0.0125816 160 249 161
-0.128104 -0.324423 0.303589 160 249 161
-0.125511 -0.0471407 0.30117 160 249 161
-0.139362 -0.305783 -0.0958907 160 249 161
-0.141952 -0.136651 -0.108938 160 249 161
-0.127049 -0.0588633 0.254079 160 249 161
-0.127413 -0.394568 0.311948 160 249 161
-0.138274 -0.0158147 0.0693052 160 249 161
-0.13956 -0.334322 -0.00707304 160 249 161
-0.14532 -0.00616891 -0.0211503 160 249 161
-0.136637 -0.474937 0.0960704 160 249 161
-0.127863 -0.107593 0.258185 160 249 161
-0.130437 -0.224932 0.226692 160 249 161
-0.131648 -0.207337 0.177161 160 249 161
-0.139621 -0.230838 -0.110793 160 249 161
-0.138544 -0.064391 0.068947 160 249 161
-0.129794 -0.472052 0.272335 160 249 161
-0.128662 -0.454885 0.293926 160 249 161
-0.134037 -0.366592 0.0944099 160 249 161
-0.136289 -0.421152 0.114698 160 249 161
-0.128814 -0.455154 0.289838 160 249 161
-0.139905 -0.283746 -0.00538694 160 249 161
-0.142007 -0.00549102 -0.119133 160 249 161
-0.142301 -0.181956 0.0550505 160 249 161
-0.141792 -0.455902 -0.185036 160 249 161
-0.141324 -0.0702332 -0.0070642 160 249 161
-0.130061 -0.303167 0.231934 160 249 161
-0.136709 -0.416211 -0.0364086 160 249 161
-0.141175 -0.147869 -0.0150631 160 249 161
-0.12763 -0.337168 0.314644 160 249 161
-0.127449 -0.44812 0.321391 160 249 161
-0.140713 -0.206637 0.00142728 160 249 161
-0.130411 -0.072581 0.17416 160 249 161
-0.13814 -0.472524 0.051095 160 249 161
-0.139667 -0.100913 -0.145795 160 249 161
-0.13962 -0.32671 0.0240779 160 249 161
-0.133344 -0.350885 0.120556 160 249 161
-0.138171 -0.416785 0.0373102 160 249 161
-0.142139 -0.165494 -0.0234245 160 249 161
-0.137986 -0.333076 0.0572937 160 249 161
-0.143719 -0.066097 -0.0805112 160 249 161
-0.137573 -0.402619 0.0221489 160 249 161
-0.13774 -0.469084 0.0896848 160 249 161
-0.127587 -0.463571 0.324299 160 249 161
-0.137398 -0.255114 0.0716806 160 249 161
-0.139873 -0.13066 0.0628646 160 249 161
-0.125543 -0.369109 0.338372 160 249 161
-0.135831 -0.17997 0.137908 160 249 161
-0.129996 -0.340043 0.272732 160 249 161
-0.141183 -0.195992 -0.159805 160 249 161
-0.131113 -0.263578 0.191503 160 249 161
-0.134361 -0.473768 0.184033 160 249 161
-0.132356 -0.375086 0.219044 160 249 161
-0.139874 -0.316321 -0.0027876 160 249 161
-0.141434 -0.170978 -0.132331 160 249 161
-0.130754 -0.339626 0.255026 160 249 161
-0.130896 -0.270738 0.199007 160 249 161
-0.125962 -0.101876 0.319265 160 249 161
-0.139797 -0.238941 -0.115081 160 249 161
-0.140418 -0.147072 0.0628107 160 249 161
-0.133798 -0.21679 0.150965 160 249 161
-0.136917 -0.262939 0.076041 160 249 161
-0.132099 -0.396311 0.254125 160 249 161
-0.136234 -0.348593 0.068477 160 249 161
-0.129835 -0.470232 0.267036 160 249 161
-0.133612 -0.30864 0.134239 160 249 161
-0.139341 -0.263551 0.0528665 160 249 161
-0.138074 -0.0316759 0.0737569 160 249 161
-0.139559 -0.0779839 0.0456645 160 249 161
-0.139425 -0.346936 0.0131401 160 249 161
-0.134019 -0.0627567 0.137741 160 249 161
-0.139566 -0.330389 -0.0184642 160 249 161
-0.137727 -0.369492 0.0513653 160 249 161
-0.142914 -0.059097 -0.107248 160 249 161
-0.140563 -0.319848 -0.0844679 160 249 161
-0.132682 -0.367584 0.129723 160 249 161
-0.141845 -0.329181 -0.0589977 160 249 161
-0.132275 -0.197296 0.170535 160 249 161
-0.145523 -0.0220722 -0.0768349 160 249 161
-0.128671 -0.33902 0.296187 160 249 161
-0.137968 -0.0206559 0.0767805 160 249 161
-0.142352 -0.301953 -0.132214 160 249 161
-0.140932 -0.155238 -0.0906965 160 249 161
-0.141122 -0.237174 -0.0227122 160 249 161
-0.137007 -0.473448 0.078376 160 249 161
-0.137399 -0.109928 0.119668 160 249 161
-0.139742 -0.245575 0.0121115 160 249 161
-0.140388 -0.243055 0.041825 160 249 161
-0.146707 -0.00547487 -0.0329898 160 249 161
-0.131511 -0.477351 -0.114058 160 249 161
-0.0947441 -0.482818 0.00349914 160 249 161
-0.140912 -0.167664 -0.0511899 160 249 161
-0.129564 -0.27572 0.249225 160 249 161
-0.137675 -0.0742998 0.110513 160 249 161
-0.131386 -0.276064 0.161331 160 249 161
-0.14298 -0.0587771 -0.106533 160 249 161
-0.14181 -0.212486 -0.143148 160 249 161
-0.139393 -0.0279633 0.04023 160 249 161
-0.123755 -0.437241 0.364549 160 249 161
-0.141383 -0.123727 -0.0603065 160 249 161
-0.132815 -0.461075 0.175894 160 249 161
-0.13911 -0.422172 -0.0777001 160 249 161
-0.133703 -0.257686 0.134846 160 249 161
-0.130114 -0.3356 0.236059 160 249 161
-0.138468 -0.252078 -0.0826814 160 249 161
-0.145643 -0.0187413 -0.0780817 160 249 161
-0.138571 -0.0433905 -0.157952 160 249 161
-0.1438 -0.0703496 -0.0558773 160 249 161
-0.134073 -0.379675 0.107135 160 249 161
-0.137884 -0.333283 0.0597509 160 249 161
-0.128399 -0.341797 0.305441 160 249 161
-0.132199 -0.371407 0.204165 160 249 161
-0.126659 -0.126972 0.308761 160 249 161
-0.131415 -0.35719 0.179405 160 249 161
-0.143702 -0.462432 -0.121854 160 249 161
-0.128022 -0.225161 0.291527 160 249 161
-0.13252 -0.0830741 0.159154 160 249 161
-0.139244 -0.374582 -0.0570612 160 249 161
-0.14061 -0.151988 -0.0641132 160 249 161
-0.131341 -0.273468 0.166374 160 249 161
-0.130425 -0.465331 0.250095 160 249 161
-0.134406 -0.211803 0.146283 160 249 161
-0.13243 -0.440655 0.215574 160 249 161
-0.134898 -0.133718 0.148059 160 249 161
-0.137479 -0.0211855 0.086249 160 249 161
-0.13569 -0.378578 0.0687352 160 249 161
-0.125078 -0.0760311 0.327054 160 249 161
-0.130968 -0.336312 0.208529 160 249 161
-0.136677 -0.278479 0.0766788 160 249 161
-0.129772 -0.470797 0.271548 160 249 161
-0.128263 -0.24975 0.285146 160 249 161
-0.136848 -0.402663 0.0654201 160 249 161
-0.134867 -0.459901 0.142473 160 249 161
-0.131577 -0.0344537 0.149215 160 249 161
-0.134723 -0.227586 0.131781 160 249 161
-0.140355 -0.262754 -0.0157091 160 249 161
-0.128996 -0.307563 0.2743 160 249 161
-0.130313 -0.143649 0.209982 160 249 161
-0.131549 -0.425961 0.24452 160 249 161
-0.144057 -0.0151415 -0.0143943 160 249 161
-0.125098 -0.0291053 0.297014 160 249 161
-0.132624 -0.478141 0.176025 160 249 161
-0.133162 -0.284105 0.139392 160 249 161
-0.141837 -0.360039 -0.107105 160 249 161
-0.141083 -0.202992 0.012619 160 249 161
-0.122497 -0.451156 0.388372 160 249 161
-0.129463 -0.397214 0.290749 160 249 161
-0.143079 -0.0567254 -0.105553 160 249 161
-0.129613 -0.195756 0.247767 160 249 161
-0.127301 -0.432144 0.33126 160 249 161
-0.137969 -0.408762 0.0456156 160 249 161
-0.127409 -0.245879 0.316693 160 249 161
-0.139681 -0.378248 -0.0665992 160 249 161
-0.139205 -0.210203 -0.0860828 160 249 161
-0.129741 -0.218033 0.247653 160 249 161
-0.136387 -0.405403 0.0795481 160 249 161
-0.127192 -0.143865 0.300618 160 249 161
-0.139374 -0.367132 -0.0560503 160 249 161
-0.141069 -0.278842 -0.124058 160 249 161
-0.137029 -0.329028 0.0652416 160 249 161
-0.136113 -0.425444 0.125913 160 249 161
-0.138362 -0.364076 0.00637136 160 249 161
-0.12267 -0.447455 0.384867 160 249 161
-0.134007 -0.346088 0.111368 160 249 161
-0.142242 -0.416268 -0.127851 160 249 161
-0.139129 -0.339218 -0.0143104 160 249 161
-0.131094 -0.275652 0.189361 160 249 161
-0.137531 -0.431005 0.0706098 160 249 161
-0.142611 -0.0457853 -0.109812 160 249 161
-0.128487 -0.225535 0.277521 160 249 161
-0.130362 -0.469158 0.248945 160 249 161
-0.133909 -0.138297 0.157004 160 249 161
-0.135313 -0.281918 0.114028 160 249 161
-0.135899 -0.431021 0.137132 160 249 161
-0.13851 -0.467209 0.0629365 160 249 161
-0.129989 -0.430506 0.284572 160 249 161
-0.140869 -0.134217 0.00969847 160 249 161
-0.127375 -0.261588 0.316764 160 249 161
-0.134607 -0.388688 0.109682 160 249 161
-0.128245 -0.208509 0.286961 160 249 161
-0.141201 -0.278962 -0.0452281 160 249 161
-0.134519 -0.479383 0.0581625 160 249 161
-0.14153 -0.197518 -0.12906 160 249 161
-0.143321 -0.0782169 -0.0815659 160 249 161
-0.131561 -0.349855 0.237074 160 249 161
-0.139555 -0.329756 0.0116078 160 249 161
-0.140738 -0.0872769 0.00479994 160 249 161
-0.130273 -0.197513 0.22621 160 249 161
-0.131239 -0.286014 0.168983 160 249 161
-0.141696 -0.358852 -0.100977 160 249 161
-0.140529 -0.163913 -0.0577367 160 249 161
-0.145249 -0.0444366 -0.0397652 160 249 161
-0.136284 -0.394396 0.0709134 160 249 161
-0.127284 -0.0745172 0.257944 160 249 161
-0.131689 -0.356795 0.199846 160 249 161
-0.13005 -0.341393 0.277909 160 249 161
-0.128957 -0.202662 0.267889 160 249 161
-0.125327 -0.0409185 0.300733 160 249 161
-0.131199 -0.335775 0.189964 160 249 161
-0.136885 -0.371178 0.0587381 160 249 161
-0.141683 -0.203254 -0.147836 160 249 161
-0.131397 -0.346978 0.19296 160 249 161
-0.129496 -0.166949 0.243003 160 249 161
-0.141422 -0.404252 -0.133724 160 249 161
-0.145304 -0.0193811 -0.0248589 160 249 161
-0.131036 -0.213803 0.201211 160 249 161
-0.14127 -0.160868 -0.00985262 160 249 161
-0.131522 -0.344898 0.220184 160 249 161
-0.136027 -0.291384 0.0837401 160 249 161
-0.13241 -0.377081 0.21872 160 249 161
-0.130446 -0.238095 0.223866 160 249 161
0.091003 -0.487274 -0.0492472 160 249 161
-0.142943 -0.339835 -0.146917 160 249 161
-0.140217 -0.00251281 -0.141676 160 249 161
-0.130264 -0.300199 0.222453 160 249 161
-0.13915 -0.126169 0.0699142 160 249 161
0.0254014 -0.486583 -0.0376341 160 249 161
-0.138485 -0.0595481 -0.153247 160 249 161
-0.135983 -0.430217 0.134478 160 249 161
-0.135756 -0.335436 0.0925622 160 249 161
-0.132341 -0.335783 0.148448 160 249 161
-0.127094 -0.02495 0.206669 160 249 161
-0.13893 -0.229977 -0.0857692 160 249 161
-0.139407 -0.392751 -0.0757991 160 249 161
-0.138526 -0.126368 0.0916165 160 249 161
-0.139439 -0.221675 -0.104467 160 249 161
-0.138707 -0.3676 -0.0471299 160 249 161
-0.139675 -0.260907 -0.110003 160 249 161
-0.145205 -0.0416345 -0.0498065 160 249 161
-0.129057 -0.364728 0.289184 160 249 161
-0.131125 -0.146068 0.190727 160 249 161
-0.134017 -0.0305581 0.123826 160 249 161
-0.141033 -0.379609 -0.122308 160 249 161
-0.126535 -0.35374 0.33421 160 249 161
-0.137049 -0.291143 0.0659654 160 249 161
-0.125024 -0.0866024 0.332795 160 249 161
-0.126412 -0.0384469 0.260405 160 249 161
-0.131887 -0.224284 0.169962 160 249 161
-0.135272 -0.320161 0.0960434 160 249 161
-0.138312 -0.0494935 0.0712607 160 249 161
-0.135972 -0.141763 0.137936 160 249 161
-0.131204 -0.336328 0.204963 160 249 161
-0.140416 -0.13865 -0.142108 160 249 161
-0.131426 -0.340627 0.214123 160 249 161
-0.144132 -0.446989 -0.185214 160 249 161
-0.138307 -0.0625495 0.0798711 160 249 161
-0.141844 -0.173486 0.0581301 160 249 161
-0.1353 -0.476303 0.158566 160 249 161
-0.120769 -0.481308 -0.0126715 160 249 161
-0.135206 -0.32729 0.0982595 160 249 161
-0.133408 -0.408149 0.187732 160 249 161
-0.146239 -0.00474667 -0.0659745 160 249 161
-0.138108 -0.158804 0.0967116 160 249 161
-0.129118 -0.152629 0.247769 160 249 161
-0.133142 -0.27238 0.139173 160 249 161
-0.126578 -0.296546 0.324715 160 249 161
-0.137782 -0.203741 0.0945608 160 249 161
-0.135135 -0.321207 0.0988238 160 249 161
-0.126412 -0.106952 0.307889 160 249 161
-0.127064 -0.402995 0.318928 160 249 161
-0.137289 -0.440393 0.0969967 160 249 161
-0.140808 -0.154914 -0.1417 160 249 161
-0.142634 -0.278534 -0.146455 160 249 161
-0.127705 -0.160336 0.293346 160 249 161
-0.126535 -0.346069 0.33825 160 249 161
-0.142318 -0.0428412 -0.112294 160 249 161
-0.139069 -0.359891 0.0281892 160 249 161
-0.138865 -0.137328 0.0806215 160 249 161
-0.137727 -0.137934 0.115221 160 249 161
-0.139772 -0.331015 0.00136426 160 249 161
-0.141662 -0.176077 -0.123463 160 249 161
-0.126261 -0.172588 0.340459 160 249 161
-0.136633 -0.401005 -0.0331366 160 249 161
-0.13808 -0.443746 0.0160047 160 249 161
-0.139743 -0.330956 -0.020729 160 249 161
-0.135637 -0.363787 0.072094 160 249 161
-0.138041 -0.0465654 0.086007 160 249 161
-0.140143 -0.00608121 -0.14176 160 249 161
-0.141129 -0.17472 -0.144305 160 249 161
-0.143616 -0.0866994 -0.0356047 160 249 161
-0.140522 -0.448898 -0.0548024 160 249 161
-0.128153 -0.245473 0.28868 160 249 161
-0.139611 -0.070499 -0.142233 160 249 161
-0.133204 -0.393464 0.147461 160 249 161
-0.129834 -0.380353 0.279801 160 249 161
-0.134892 -0.43421 0.154863 160 249 161
-0.125441 -0.330604 0.346702 160 249 161
-0.140113 -0.237347 -0.118819 160 249 161
-0.138681 -0.356274 0.00128503 160 249 161
-0.13667 -0.414947 0.0881307 160 249 161
-0.142033 -0.330572 -0.130389 160 249 161
-0.14152 -0.132566 -0.119884 160 249 161
-0.139265 -0.336373 -0.0141258 160 249 161
-0.141563 -0.339703 -0.0684691 160 249 161
-0.139585 -0.241913 -0.0613652 160 249 161
-0.140225 -0.293074 -0.114532 160 249 161
-0.140852 -0.221745 0.0247972 160 249 161
-0.139767 -0.285446 0.0429586 160 249 161
-0.13417 -0.263705 0.128127 160 249 161
-0.131448 -0.35691 0.182903 160 249 161
-0.144591 -0.0468924 -0.0820447 160 249 161
-0.13905 -0.21801 -0.0965283 160 249 161
-0.138435 -0.185389 0.0896521 160 249 161
-0.136743 -0.474806 -0.112618 160 249 161
-0.128165 -0.262219 0.292512 160 249 161
-0.131735 -0.0821169 0.165645 160 249 161
-0.138884 -0.29786 -0.0873724 160 249 161
-0.10623 -0.48252 -0.00814543 160 249 161
-0.131516 -0.357999 0.186793 160 249 161
-0.141254 -0.30016 -0.0493378 160 249 161
-0.14228 -0.104109 -0.111036 160 249 161
-0.12574 -0.0292991 0.277027 160 249 161
-0.127341 -0.0427998 0.227114 160 249 161
-0.134826 -0.379075 0.0862882 160 249 161
-0.138035 -0.0639695 0.0981563 160 249 161
-0.140385 -0.301935 -0.0664037 160 249 161
-0.14079 -0.273983 -0.0246772 160 249 161
-0.144819 -0.0547301 -0.0375625 160 249 161
-0.129373 -0.425318 0.301663 160 249 161
-0.139111 -0.346776 -0.00318748 160 249 161
-0.139994 -0.250902 -0.0566359 160 249 161
-0.131282 -0.33718 0.219296 160 249 161
-0.139663 -0.259718 0.0173519 160 249 161
-0.14142 -0.20986 0.0538382 160 249 161
-0.141102 -0.179204 -0.0529318 160 249 161
-0.144259 -0.456829 -0.165913 160 249 161
-0.1285 -0.177346 0.275501 160 249 161
-0.126493 -0.0397474 0.258496 160 249 161
-0.139719 -0.0792746 -0.142367 160 249 161
-0.13152 -0.324228 0.168802 160 249 161
-0.139606 -0.262104 -0.108402 160 249 161
-0.0706696 -0.485342 -0.140819 160 249 161
-0.0548318 -0.484135 -0.048386 160 249 161
-0.140359 -0.318241 -0.0861631 160 249 161
-0.134907 -0.424237 0.149913 160 249 161
-0.141994 -0.209394 -0.0295741 160 249 161
-0.143454 -0.255861 -0.163249 160 249 161
-0.141069 -0.115568 -0.125183 160 249 161
-0.129647 -0.450586 0.2736 160 249 161
-0.134373 -0.25963 0.126208 160 249 161
-0.142275 -0.128872 -0.0429551 160 249 161
-0.135974 -0.454243 0.129404 160 249 161
-0.131974 -0.437772 0.227147 160 249 161
-0.130614 -0.464041 0.243828 160 249 161
-0.141026 -0.133561 0.013581 160 249 161
-0.143594 -0.446879 -0.090371 160 249 161
-0.011277 -0.485341 -0.118669 160 249 161
-0.130045 -0.214864 0.237537 160 249 161
-0.118873 -0.481663 0.0400549 160 249 161
-0.122606 -0.40712 0.367007 160 249 161
-0.121633 -0.474295 -0.176195 160 249 161
-0.109152 -0.482892 -0.0549982 160 249 161
-0.14517 -0.0308929 -0.0289458 160 249 161
-0.130374 -0.42161 0.281582 160 249 161
-0.127353 -0.344787 0.327323 160 249 161
-0.140578 -0.294879 -0.0590514 160 249 161
-0.141535 -0.194323 -0.137406 160 249 161
-0.125939 -0.439162 0.345915 160 249 161
-0.140564 -0.235232 0.0339989 160 249 161
-0.140857 -0.371069 -0.0906499 160 249 161
-0.133928 -0.475568 0.197953 160 249 161
-0.129729 -0.238962 0.245685 160 249 161
-0.141103 -0.213329 -0.119165 160 249 161
-0.142007 -0.0635342 -0.116366 160 249 161
-0.132835 -0.392956 0.212021 160 249 161
-0.136963 -0.194657 0.109887 160 249 161
-0.136591 -0.0366948 0.103197 160 249 161
-0.137251 -0.469926 0.125244 160 249 161
-0.14182 -0.151062 -0.110895 160 249 161
-0.137958 -0.356784 0.0529769 160 249 161
-0.129971 -0.411264 0.290713 160 249 161
-0.139909 -0.356017 -0.0555874 160 249 161
-0.139755 -0.299253 0.0319013 160 249 161
-0.129969 -0.463431 0.262827 160 249 161
-0.139544 -0.369877 -0.0592468 160 249 161
-0.136558 -0.293443 0.0698753 160 249 161
-0.140562 -0.0735833 0.007799 160 249 161
-0.133796 -0.400848 0.146821 160 249 161
-0.141609 -0.163085 0.01697 160 249 161
-0.138472 -0.358358 -0.0345302 160 249 161
-0.129498 -0.301981 0.253096 160 249 161
-0.124479 -0.351663 0.36428 160 249 161
-0.138004 -0.0606403 -0.16265 160 249 161
-0.127089 -0.104726 0.281259 160 249 161
-0.131112 -0.18786 0.201843 160 249 161
-0.137585 -0.445951 0.0721438 160 249 161
-0.138739 -0.363958 -0.0454074 160 249 161
-0.131361 -0.286172 0.163012 160 249 161
-0.14151 -0.169723 -0.128734 160 249 161
-0.142013 -0.221816 -0.161116 160 249 161
-0.141029 -0.134532 -0.0833393 160 249 161
-0.140727 -0.390573 -0.10926 160 249 161
-0.127958 -0.43064 0.323158 160 249 161
-0.138118 -0.459433 0.101359 160 249 161
-0.138695 -0.101907 0.0755617 160 249 161
-0.139487 -0.349439 0.0241917 160 249 161
-0.138534 -0.250203 -0.0799309 160 249 161
-0.142002 -0.207908 -0.0236556 160 249 161
-0.124213 -0.0305315 0.323487 160 249 161
-0.136204 -0.476177 0.116512 160 249 161
-0.140437 -0.224339 -0.11764 160 249 161
-0.129945 -0.336566 0.255087 160 249 161
-0.138104 -0.291014 0.0586647 160 249 161
-0.131418 -0.133796 0.17941 160 249 161
-0.142612 -0.00568235 -0.112125 160 249 161
-0.141291 -0.341416 -0.0604356 160 249 161
-0.127821 -0.341435 0.312114 160 249 161
-0.139298 -0.220497 -0.101658 160 249 161
-0.141031 -0.0881925 -0.00879789 160 249 161
-0.139656 -0.207637 -0.0732067 160 249 161
-0.138919 -0.448484 0.0328431 160 249 161
-0.141136 -0.184615 -0.0545608 160 249 161
-0.141215 -0.345466 -0.0640754 160 249 161
-0.142433 -0.182935 0.0529837 160 249 161
-0.13969 -0.334396 0.00613112 160 249 161
-0.144692 -0.0393418 -0.087087 160 249 161
-0.126688 -0.416194 0.328445 160 249 161
-0.138546 -0.435037 0.0425203 160 249 161
-0.107362 -0.480281 -0.166132 160 249 161
-0.138164 -0.399507 0.0366422 160 249 161
-0.128856 -0.452915 0.291489 160 249 161
-0.13265 -0.472806 0.211907 160 249 161
-0.138846 -0.461308 -0.0146488 160 249 161
-0.130648 -0.202498 0.215576 160 249 161
-0.14325 -0.0778022 -0.101481 160 249 161
0.0236333 -0.486105 -0.0594349 160 249 161
-0.128998 -0.206223 0.267157 160 249 161
-0.130074 -0.347054 0.276441 160 249 161
-0.129121 -0.17343 0.257854 160 249 161
-0.127103 -0.123609 0.292057 160 249 161
-0.140118 -0.180707 -0.0711352 160 249 161
-0.13201 -0.248638 0.165224 160 249 161
-0.142897 -0.115584 -0.041866 160 249 161
-0.138521 -0.261041 -0.0934731 160 249 161
-0.125741 -0.0424313 0.287161 160 249 161
-0.125375 -0.0907625 0.327833 160 249 161
-0.138023 -0.413489 0.0411258 160 249 161
-0.123848 -0.362196 0.368174 160 249 161
-0.128593 -0.370854 0.295109 160 249 161
-0.142176 -0.134285 -0.0381652 160 249 161
-0.122763 -0.429881 0.371781 160 249 161
-0.138484 -0.0769727 0.0758703 160 249 161
-0.141581 -0.196855 -0.144921 160 249 161
-0.135467 -0.25296 0.112761 160 249 161
-0.124571 -0.030836 0.313906 160 249 161
-0.128135 -0.0942764 0.243755 160 249 161
-0.127056 -0.144319 0.305695 160 249 161
-0.137619 -0.361489 -0.01867 160 249 161
-0.128274 -0.314033 0.298423 160 249 161
-0.142179 -0.101149 -0.112636 160 249 161
-0.136258 -0.434482 -0.0255067 160 249 161
-0.140696 -0.104677 0.00611978 160 249 161
-0.138308 -0.431648 0.0177951 160 249 161
-0.138654 -0.465115 0.00441605 160 249 161
-0.126794 -0.388874 0.317406 160 249 161
-0.141885 -0.221462 -0.145752 160 249 161
-0.136608 -0.243526 0.100007 160 249 161
-0.140544 -0.329995 -0.0307141 160 249 161
-0.0360975 -0.484941 -0.143468 160 249 161
-0.143037 -0.352411 -0.175756 160 249 161
-0.14214 -0.117657 -0.0524829 160 249 161
-0.140732 -0.465887 -0.0583163 160 249 161
-0.139644 -0.302747 -0.0771622 160 249 161
-0.138909 -0.363995 -0.0476601 160 249 161
-0.14191 -0.135784 -0.0993235 160 249 161
-0.12618 -0.0292997 0.260967 160 249 161
-0.144679 -0.0514015 -0.0526736 160 249 161
-0.131101 -0.356476 0.160584 160 249 161
-0.124808 -0.291754 0.349884 160 249 161
-0.128709 -0.325476 0.290012 160 249 161
-0.14229 -0.0863194 -0.112206 160 249 161
-0.129242 -0.115181 0.223559 160 249 161
-0.1414 -0.393193 -0.14171 160 249 161
-0.1425 -0.196361 -0.0292505 160 249 161
-0.127598 -0.262491 0.312718 160 249 161
-0.139861 -0.0439167 -0.138071 160 249 161
-0.132565 -0.399808 0.235891 160 249 161
-0.135913 -0.41395 0.110196 160 249 161
-0.139061 -0.0426454 0.0515786 160 249 161
-0.137557 -0.415672 0.0110927 160 249 161
-0.141431 -0.179757 -0.135365 160 249 161
-0.128868 -0.0384874 0.175252 160 249 161
0.160341 -0.184487 -0.202428 192 234 140
0.206084 -0.481997 -0.20805 192 234 140
0.301092 -0.339265 -0.199981 192 234 140
0.204314 -0.0415728 -0.205758 192 234 140
0.0293234 -0.30067 -0.198702 192 234 140
0.0219495 -0.058603 -0.19933 192 234 140
0.018238 -0.150002 -0.201698 192 234 140
-0.0356044 -0.333606 -0.200463 192 234 140
0.0735934 -0.0148896 -0.19965 192 234 140
0.226583 -0.100377 -0.210528 192 234 140
0.120337 -0.311589 -0.195877 192 234 140
0.193888 -0.350925 -0.201718 192 234 140
0.143227 -0.0401197 -0.201577 192 234 140
0.318047 -0.429155 -0.189616 192 234 140
0.0626847 -0.462168 -0.20298 192 234 140
0.0948842 -0.211141 -0.200861 192 234 140
0.290106 -0.376929 -0.204024 192 234 140
0.182865 -0.398813 -0.200196 192 234 140
-0.00856545 -0.313268 -0.199558 192 234 140
0.0626723 -0.37244 -0.198426 192 234 140
0.0509771 -0.463839 -0.204282 192 234 140
0.103108 -0.35121 -0.196381 192 234 140
0.0929906 -0.200735 -0.200852 192 234 140
0.0495173 -0.467402 -0.205322 192 234 140
0.0979483 -0.234879 -0.199881 192 234 140
0.108514 -0.00907816 -0.201154 192 234 140
0.0886883 -0.109205 -0.199602 192 234 140
0.167536 -0.217916 -0.201288 192 234 140
0.139725 -0.0579693 -0.20131 192 234 140
0.0355915 -0.411447 -0.200798 192 234 140
0.244114 -0.427724 -0.204042 192 234 140
0.176701 -0.326795 -0.198466 192 234 140
0.0684898 -0.249472 -0.199895 192 234 140
0.0459904 -0.278191 -0.199282 192 234 140
0.282366 -0.470472 -0.210403 192 234 140
0.290578 -0.219194 -0.209901 192 234 140
0.290136 -0.232402 -0.208301 192 234 140
0.248198 -0.231745 -0.214141 192 234 140
-0.0257234 -0.274663 -0.20126 192 234 140
-0.0295185 -0.376774 -0.201821 192 234 140
0.0415097 -0.345749 -0.199008 192 234 140
0.283156 -0.345163 -0.206911 192 234 140
0.261563 -0.149082 -0.220542 192 234 140
0.0489004 -0.357393 -0.198926 192 234 140
0.206877 -0.475828 -0.214422 192 234 140
0.136161 -0.0273809 -0.201731 192 234 140
0.238018 -0.270339 -0.209162 192 234 140
0.0902914 -0.377328 -0.197021 192 234 140
0.138207 -0.456204 -0.198452 192 234 140
0.2091 -0.458968 -0.204428 192 234 140
0.160868 -0.424394 -0.198003 192 234 140
0.283396 -0.391142 -0.205624 192 234 140
0.225545 -0.25385 -0.207972 192 234 140
0.225985 -0.423712 -0.203003 192 234 140
0.0975748 -0.171276 -0.200792 192 234 140
0.189401 -0.180999 -0.203685 192 234 140
0.237747 -0.474567 -0.215227 192 234 140
0.300424 -0.392348 -0.200156 192 234 140
0.0590816 -0.443592 -0.19971 192 234 140
0.204188 -0.128432 -0.206414 192 234 140
0.335369 -0.466269 -0.173414 192 234 140
0.189864 -0.10403 -0.20363 192 234 140
0.136878 -0.341966 -0.195806 192 234 140
0.190834 -0.447493 -0.200017 192 234 140
0.135743 -0.482267 -0.121548 192 234 140
0.0233905 -0.248855 -0.201833 192 234 140
0.00116682 -0.36987 -0.201809 192 234 140
0.064038 -0.162859 -0.20015 192 234 140
0.117016 -0.14267 -0.201458 192 234 140
0.286126 -0.191784 -0.214969 192 234 140
-0.0390345 -0.251907 -0.202036 192 234 140
0.345843 -0.460568 -0.157981 192 234 140
0.238794 -0.176051 -0.215358 192 234 140
0.219156 -0.393689 -0.204229 192 234 140
0.301886 -0.36875 -0.200053 192 234 140
0.0850443 -0.213753 -0.200932 192 234 140
-0.0114608 -0.225936 -0.204035 192 234 140
0.2316 -0.0472055 -0.212132 192 234 140
-0.0472092 -0.379826 -0.201504 192 234 140
0.294434 -0.164006 -0.210102 192 234 140
0.194069 -0.0582366 -0.203948 192 234 140
0.142864 -0.11883 -0.20159 192 234 140
-0.00629031 -0.426837 -0.202142 192 234 140
0.178648 -0.303263 -0.198654 192 234 140
0.155672 -0.479125 -0.143267 192 234 140
0.247337 -0.129644 -0.218479 192 234 140
0.275665 -0.172264 -0.217858 192 234 140
0.241875 -0.204043 -0.215353 192 234 140
-0.059526 -0.480068 -0.0687594 192 234 140
0.295225 -0.454613 -0.206134 192 234 140
0.173382 -0.405791 -0.198847 192 234 140
0.0341084 -0.364719 -0.200119 192 234 140
0.261072 -0.176479 -0.21934 192 234 140
0.304205 -0.343115 -0.197934 192 234 140
0.286934 -0.181957 -0.214647 192 234 140
0.290275 -0.23985 -0.207257 192 234 140
0.0118487 -0.347784 -0.200897 192 234 140
0.0293727 -0.144083 -0.201061 192 234 140
0.319322 -0.398291 -0.186717 192 234 140
0.0425467 -0.0608066 -0.198531 192 234 140
0.339114 -0.393136 -0.137243 192 234 140
0.191344 -0.2725 -0.201369 192 234 140
0.161489 -0.295128 -0.197157 192 234 140
0.344753 -0.459014 -0.159643 192 234 140
0.227548 -0.221317 -0.211148 192 234 140
0.261279 -0.220974 -0.215214 192 234 140
0.0396041 -0.171253 -0.201379 192 234 140
0.261509 -0.467425 -0.211879 192 234 140
0.200666 -0.453523 -0.202457 192 234 140
0.175998 -0.433121 -0.197904 192 234 140
0.24914 -0.117862 -0.218932 192 234 140
0.258754 -0.33577 -0.208684 192 234 140
0.00962275 -0.19508 -0.202905 192 234 140
-0.00295853 -0.387122 -0.202075 192 234 140
0.0926334 -0.12071 -0.199904 192 234 140
-0.0289482 -0.481803 -0.119749 192 234 140
-0.0121898 -0.420112 -0.202814 192 234 140
0.227479 -0.090264 -0.210645 192 234 140
0.301708 -0.416475 -0.199369 192 234 140
0.0232029 -0.434737 -0.201558 192 234 140
0.222279 -0.152817 -0.210173 192 234 140
0.336846 -0.455699 -0.169541 192 234 140
0.234108 -0.466607 -0.209484 192 234 140
0.11415 -0.108529 -0.200664 192 234 140
0.208738 -0.25966 -0.204474 192 234 140
0.0386759 -0.478317 -0.21235 192 234 140
0.215875 -0.224566 -0.207974 192 234 140
0.091982 -0.425623 -0.200209 192 234 140
0.144321 -0.441997 -0.196112 192 234 140
0.122634 -0.0991203 -0.200706 192 234 140
0.262147 -0.290761 -0.210822 192 234 140
0.248509 -0.138374 -0.218764 192 234 140
0.299453 -0.391594 -0.200593 192 234 140
0.299908 -0.334214 -0.200472 192 234 140
0.113752 -0.465805 -0.201658 192 234 140
0.268811 -0.333881 -0.208442 192 234 140
0.109337 -0.483859 -0.0886682 192 234 140
0.0207381 -0.308736 -0.198567 192 234 140
0.0286378 -0.107078 -0.20002 192 234 140
0.126097 -0.46199 -0.20069 192 234 140
0.268815 -0.449187 -0.209643 192 234 140
0.163181 -0.273666 -0.198456 192 234 140
0.240571 -0.202497 -0.215188 192 234 140
-0.0199809 -0.0310367 -0.199566 192 234 140
0.236264 -0.0810247 -0.213796 192 234 140
0.329821 -0.3895 -0.170767 192 234 140
0.213276 -0.19709 -0.208229 192 234 140
0.286503 -0.151232 -0.21531 192 234 140
0.312853 -0.39659 -0.193965 192 234 140
0.214564 -0.322446 -0.204406 192 234 140
0.200669 -0.219678 -0.204541 192 234 140
-0.00449335 -0.300937 -0.19989 192 234 140
0.271048 -0.0888052 -0.22097 192 234 140
0.131969 -0.183775 -0.20195 192 234 140
0.114671 -0.459676 -0.200081 192 234 140
0.241521 -0.20363 -0.215306 192 234 140
0.154742 -0.188603 -0.202263 192 234 140
0.0780933 -0.405799 -0.199011 192 234 140
-0.00675782 -0.338279 -0.201183 192 234 140
0.206532 -0.135736 -0.206863 192 234 140
0.225805 -0.417862 -0.203444 192 234 140
0.0527714 -0.182007 -0.20101 192 234 140
0.0801207 -0.132666 -0.19941 192 234 140
0.314673 -0.430873 -0.193807 192 234 140
0.0764589 -0.109305 -0.199046 192 234 140
0.179962 -0.356331 -0.199508 192 234 140
0.163409 -0.469897 -0.204466 192 234 140
0.108513 -0.227217 -0.200633 192 234 140
0.113244 -0.380828 -0.196689 192 234 140
0.292364 -0.416872 -0.202683 192 234 140
0.282986 -0.2776 -0.208031 192 234 140
0.19066 -0.471529 -0.209194 192 234 140
0.302505 -0.278914 -0.194565 192 234 140
-0.0119496 -0.480287 -0.0489319 192 234 140
0.14147 -0.403129 -0.197109 192 234 140
0.196313 -0.272096 -0.202019 192 234 140
0.163748 -0.099446 -0.202042 192 234 140
0.139071 -0.166604 -0.202094 192 234 140
0.3407 -0.407886 -0.14219 192 234 140
0.0121301 -0.190109 -0.202709 192 234 140
0.237787 -0.423953 -0.203844 192 234 140
0.21848 -0.109014 -0.208846 192 234 140
0.255735 -0.430851 -0.205407 192 234 140
0.24383 -0.20435 -0.215717 192 234 140
-0.00550521 -0.344446 -0.201471 192 234 140
0.172664 -0.0379833 -0.202978 192 234 140
0.0264849 -0.468924 -0.207536 192 234 140
0.153652 -0.094585 -0.201659 192 234 140
0.220096 -0.289323 -0.20564 192 234 140
0.301409 -0.479618 -0.208447 192 234 140
-0.0470428 -0.401382 -0.201809 192 234 140
0.314562 -0.339538 -0.189087 192 234 140
0.14929 -0.153422 -0.202244 192 234 140
0.252373 -0.296166 -0.210396 192 234 140
0.23788 -0.110048 -0.214102 192 234 140
0.234315 -0.208502 -0.213404 192 234 140
0.188984 -0.218605 -0.20235 192 234 140
0.142267 -0.360589 -0.195867 192 234 140
0.144931 -0.207864 -0.201829 192 234 140
0.28228 -0.444218 -0.209402 192 234 140
0.0733164 -0.183092 -0.200615 192 234 140
0.0120332 -0.193921 -0.202758 192 234 140
0.339734 -0.463149 -0.166475 192 234 140
0.106096 -0.0739853 -0.20021 192 234 140
-0.0278144 -0.340105 -0.201025 192 234 140
0.0852925 -0.445683 -0.198829 192 234 140
0.146002 -0.480586 -0.210825 192 234 140
0.285376 -0.305623 -0.207503 192 234 140
0.261201 -0.189151 -0.218627 192 234 140
0.168192 -0.40377 -0.1982 192 234 140
0.284086 -0.164898 -0.216341 192 234 140
0.0975327 -0.157869 -0.200713 192 234 140
0.215527 -0.282447 -0.204883 192 234 140
0.191979 -0.230071 -0.202818 192 234 140
0.281727 -0.104751 -0.21841 192 234 140
0.30871 -0.425283 -0.197419 192 234 140
0.250213 -0.245992 -0.213136 192 234 140
0.202603 -0.40362 -0.201909 192 234 140
0.140702 -0.434557 -0.196877 192 234 140
0.106151 -0.370963 -0.196416 192 234 140
0.0810468 -0.478521 -0.21316 192 234 140
0.090125 -0.0954756 -0.199537 192 234 140
0.244188 -0.0987485 -0.216596 192 234 140
0.298981 -0.277601 -0.197812 192 234 140
0.0888892 -0.200059 -0.200888 192 234 140
0.100535 -0.157009 -0.200881 192 234 140
0.279838 -0.320764 -0.208534 192 234 140
0.27603 -0.413834 -0.206554 192 234 140
0.319185 -0.426493 -0.187626 192 234 140
0.143139 -0.173606 -0.202171 192 234 140
0.262927 -0.0661737 -0.22121 192 234 140
0.0728798 -0.354835 -0.197176 192 234 140
0.233515 -0.130071 -0.212364 192 234 140
0.0906123 -0.401906 -0.198272 192 234 140
0.236458 -0.418425 -0.204147 192 234 140
0.332685 -0.475828 -0.175373 192 234 140
0.314125 -0.361856 -0.191439 192 234 140
0.28811 -0.438895 -0.20829 192 234 140
0.334408 -0.411934 -0.163069 192 234 140
0.193625 -0.262202 -0.202173 192 234 140
0.197132 -0.4803 -0.217723 192 234 140
0.23687 -0.0810756 -0.214026 192 234 140
0.211164 -0.109669 -0.20754 192 234 140
0.280407 -0.383351 -0.206116 192 234 140
0.248291 -0.464884 -0.209993 192 234 140
0.0665594 -0.461283 -0.202459 192 234 140
0.213441 -0.380233 -0.204048 192 234 140
0.178816 -0.166333 -0.203174 192 234 140
0.298545 -0.349126 -0.201734 192 234 140
0.172224 -0.209615 -0.201852 192 234 140
0.180287 -0.332565 -0.199156 192 234 140
0.314478 -0.438306 -0.195309 192 234 140
0.245662 -0.466164 -0.210169 192 234 140
0.0658683 -0.115392 -0.198683 192 234 140
0.159776 -0.43084 -0.19713 192 234 140
0.147326 -0.260114 -0.198881 192 234 140
0.258858 -0.387557 -0.207447 192 234 140
0.0523944 -0.190247 -0.201181 192 234 140
0.0234806 -0.444597 -0.202322 192 234 140
0.198614 -0.237865 -0.203773 192 234 140
0.000542305 -0.064333 -0.200367 192 234 140
0.0479031 -0.398051 -0.200032 192 234 140
0.203467 -0.300096 -0.20262 192 234 140
0.0833402 -0.215586 -0.200898 192 234 140
0.288111 -0.277329 -0.205931 192 234 140
-0.0199367 -0.481563 -0.103069 192 234 140
0.255091 -0.131845 -0.220026 192 234 140
0.224043 -0.421016 -0.203078 192 234 140
0.148719 -0.124214 -0.201864 192 234 140
0.215784 -0.133945 -0.208565 192 234 140
0.279472 -0.480255 -0.215398 192 234 140
0.0566475 -0.169696 -0.200558 192 234 140
0.244384 -0.257546 -0.21127 192 234 140
0.24647 -0.236568 -0.213615 192 234 140
-0.029686 -0.441296 -0.203127 192 234 140
0.301299 -0.340003 -0.199885 192 234 140
0.0760127 -0.0643199 -0.198987 192 234 140
0.274871 -0.336001 -0.208153 192 234 140
0.316643 -0.318569 -0.173755 192 234 140
0.227443 -0.395182 -0.204932 192 234 140
0.118014 -0.185924 -0.20182 192 234 140
0.0816497 -0.125314 -0.199445 192 234 140
0.104549 -0.217576 -0.200916 192 234 140
0.00371015 -0.432461 -0.201801 192 234 140
0.237902 -0.405759 -0.205398 192 234 140
0.232497 -0.160544 -0.213597 192 234 140
0.0107569 -0.484115 -0.203917 192 234 140
0.0862829 -0.0299522 -0.199944 192 234 140
0.343429 -0.425647 -0.14745 192 234 140
0.222138 -0.0741148 -0.209292 192 234 140
0.239498 -0.377881 -0.206427 192 234 140
0.129076 -0.132584 -0.201406 192 234 140
0.0553595 -0.406855 -0.199739 192 234 140
0.321867 -0.428095 -0.183954 192 234 140
0.23722 -0.0498347 -0.214179 192 234 140
0.0724749 -0.470492 -0.204855 192 234 140
0.284978 -0.11246 -0.216792 192 234 140
0.220955 -0.413657 -0.203246 192 234 140
0.0849038 -0.417303 -0.199826 192 234 140
0.224724 -0.213276 -0.210974 192 234 140
0.257734 -0.361361 -0.208094 192 234 140
0.22823 -0.326573 -0.206132 192 234 140
0.129405 -0.230683 -0.200624 192 234 140
0.228392 -0.224898 -0.211072 192 234 140
0.263497 -0.113344 -0.221398 192 234 140
0.171521 -0.257549 -0.199129 192 234 140
0.133292 -0.464604 -0.201334 192 234 140
0.177579 -0.0415086 -0.203247 192 234 140
0.329231 -0.445994 -0.177206 192 234 140
0.109292 -0.0153341 -0.201029 192 234 140
0.209375 -0.232643 -0.206244 192 234 140
0.0465692 -0.436076 -0.200457 192 234 140
-0.00999423 -0.181755 -0.203666 192 234 140
0.159893 -0.415601 -0.197936 192 234 140
0.282003 -0.152382 -0.217318 192 234 140
0.231707 -0.187391 -0.213697 192 234 140
0.134371 -0.309103 -0.195724 192 234 140
0.142369 -0.164469 -0.202162 192 234 140
0.142372 -0.477305 -0.209339 192 234 140
0.294618 -0.318774 -0.203474 192 234 140
0.111351 -0.108924 -0.200555 192 234 140
0.15938 -0.117559 -0.2021 192 234 140
0.304553 -0.47721 -0.208069 192 234 140
0.288174 -0.141183 -0.214601 192 234 140
0.229757 -0.285796 -0.207614 192 234 140
0.305365 -0.292365 -0.192176 192 234 140
0.125971 -0.164806 -0.201874 192 234 140
0.270038 -0.259095 -0.210931 192 234 140
0.240092 -0.14251 -0.215619 192 234 140
0.172062 -0.424598 -0.198624 192 234 140
0.262767 -0.161921 -0.21996 192 234 140
0.244697 -0.417965 -0.204828 192 234 140
0.321733 -0.380764 -0.182634 192 234 140
0.0742484 -0.444914 -0.199148 192 234 140
0.0479881 -0.378381 -0.199609 192 234 140
0.214221 -0.107929 -0.208049 192 234 140
0.235402 -0.404934 -0.205212 192 234 140
0.249857 -0.442285 -0.206639 192 234 140
0.142559 -0.0313047 -0.201757 192 234 140
0.101176 -0.396372 -0.197532 192 234 140
0.23973 -0.223969 -0.213383 192 234 140
0.192495 -0.481004 -0.169533 192 234 140
0.0920241 -0.0707604 -0.199676 192 234 140
0.34263 -0.396826 -0.128752 192 234 140
0.164493 -0.0838175 -0.202089 192 234 140
0.074008 -0.0431368 -0.199061 192 234 140
0.264256 -0.224247 -0.214831 192 234 140
0.179657 -0.068723 -0.203056 192 234 140
0.167539 -0.46738 -0.204173 192 234 140
0.255 -0.195592 -0.21785 192 234 140
0.286279 -0.216714 -0.21217 192 234 140
0.00506607 -0.207424 -0.203289 192 234 140
0.303676 -0.231598 -0.197945 192 234 140
-0.0402932 -0.251819 -0.201991 192 234 140
0.0862709 -0.0738382 -0.199355 192 234 140
0.187522 -0.38786 -0.201257 192 234 140
0.118393 -0.419888 -0.19912 192 234 140
0.0258951 -0.110118 -0.200192 192 234 140
-0.0055125 -0.14014 -0.202497 192 234 140
0.000972371 -0.420598 -0.202399 192 234 140
0.164384 -0.120144 -0.202358 192 234 140
0.113403 -0.11476 -0.200698 192 234 140
0.155321 -0.189467 -0.202265 192 234 140
0.342817 -0.441572 -0.160543 192 234 140
0.311577 -0.43134 -0.196956 192 234 140
0.213001 -0.433398 -0.200716 192 234 140
0.202569 -0.48105 -0.170666 192 234 140
0.305356 -0.482634 -0.198443 192 234 140
0.19249 -0.0605167 -0.203834 192 234 140
0.303506 -0.259145 -0.194269 192 234 140
0.213012 -0.0511387 -0.207507 192 234 140
0.246438 -0.202281 -0.216198 192 234 140
0.371272 -0.425314 -0.0907032 192 234 140
0.18035 -0.370656 -0.199899 192 234 140
0.158205 -0.371565 -0.19676 192 234 140
0.038458 -0.457327 -0.202571 192 234 140
0.142186 -0.252639 -0.199433 192 234 140
0.203105 -0.267425 -0.203157 192 234 140
0.261327 -0.128332 -0.221094 192 234 140
0.160532 -0.461109 -0.20087 192 234 140
0.214641 -0.44561 -0.202619 192 234 140
0.0769297 -0.212448 -0.201151 192 234 140
0.00320712 -0.113752 -0.20143 192 234 140
0.102255 -0.111896 -0.200295 192 234 140
0.0332614 -0.0585058 -0.198816 192 234 140
0.28941 -0.278432 -0.205293 192 234 140
0.304869 -0.392731 -0.19819 192 234 140
0.0127154 -0.0664347 -0.199964 192 234 140
0.0408201 -0.482618 -0.100438 192 234 140
0.182487 -0.143674 -0.203672 192 234 140
0.312126 -0.364147 -0.193135 192 234 140
0.287123 -0.294771 -0.207055 192 234 140
0.185669 -0.206841 -0.202407 192 234 140
0.167027 -0.327684 -0.196915 192 234 140
0.00799414 -0.0976117 -0.200826 192 234 140
0.191624 -0.151829 -0.204606 192 234 140
0.188052 -0.182157 -0.203468 192 234 140
0.162043 -0.422706 -0.198102 192 234 140
0.214575 -0.217405 -0.207964 192 234 140
0.212152 -0.207154 -0.207729 192 234 140
-0.0219856 -0.482419 -0.139262 192 234 140
0.0533131 -0.339352 -0.197855 192 234 140
0.0462436 -0.249067 -0.200591 192 234 140
0.221294 -0.261111 -0.20642 192 234 140
0.0924796 -0.159373 -0.200448 192 234 140
0.315037 -0.480967 -0.194952 192 234 140
0.0830964 -0.00977866 -0.200273 192 234 140
0.327094 -0.409721 -0.175275 192 234 140
0.24839 -0.173 -0.218089 192 234 140
0.054995 -0.23757 -0.200723 192 234 140
0.197964 -0.0383648 -0.204562 192 234 140
0.225725 -0.201596 -0.2118 192 234 140
0.30255 -0.465062 -0.202142 192 234 140
0.254441 -0.443776 -0.207599 192 234 140
0.133046 -0.218323 -0.201216 192 234 140
0.274601 -0.217704 -0.214376 192 234 140
0.116585 -0.0551914 -0.200748 192 234 140
0.043357 -0.215103 -0.201899 192 234 140
0.0904885 -0.44254 -0.198977 192 234 140
0.289054 -0.468189 -0.207781 192 234 140
0.0622794 -0.249209 -0.200056 192 234 140
0.10923 -0.287372 -0.197841 192 234 140
0.337812 -0.380745 -0.134014 192 234 140
0.0238776 -0.0155099 -0.198208 192 234 140
0.0497545 -0.144502 -0.200162 192 234 140
0.11191 -0.221945 -0.200907 192 234 140
0.075796 -0.319967 -0.196699 192 234 140
0.26047 -0.126526 -0.221062 192 234 140
0.217836 -0.411686 -0.202996 192 234 140
0.0723336 -0.0789132 -0.198757 192 234 140
0.369347 -0.45403 -0.113853 192 234 140
0.274858 -0.243705 -0.211292 192 234 140
0.16805 -0.231703 -0.200383 192 234 140
0.10673 -0.0332679 -0.200541 192 234 140
0.273299 -0.186512 -0.217756 192 234 140
0.0724398 -0.13588 -0.199118 192 234 140
0.280861 -0.263002 -0.208222 192 234 140
0.262909 -0.482156 -0.217755 192 234 140
0.277843 -0.250095 -0.210045 192 234 140
0.196546 -0.227067 -0.203627 192 234 140
0.113303 -0.355649 -0.196491 192 234 140
0.274242 -0.104099 -0.220224 192 234 140
0.190912 -0.134344 -0.204479 192 234 140
0.190706 -0.476081 -0.213524 192 234 140
0.0985011 -0.431398 -0.199711 192 234 140
0.323603 -0.467212 -0.187939 192 234 140
0.150199 -0.0694214 -0.201525 192 234 140
0.190691 -0.361686 -0.201422 192 234 140
0.134237 -0.368166 -0.195967 192 234 140
0.205519 -0.0974299 -0.206238 192 234 140
0.0322862 -0.246465 -0.201398 192 234 140
0.292623 -0.134431 -0.211409 192 234 140
0.228808 -0.364978 -0.205935 192 234 140
0.0945722 -0.138529 -0.200329 192 234 140
0.217535 -0.120779 -0.208729 192 234 140
0.273466 -0.268243 -0.210024 192 234 140
0.0409608 -0.0669841 -0.198716 192 234 140
0.0306742 -0.136546 -0.200742 192 234 140
0.274326 -0.364614 -0.206996 192 234 140
0.245174 -0.142283 -0.217756 192 234 140
0.281954 -0.456506 -0.208536 192 234 140
0.278397 -0.366519 -0.206648 192 234 140
0.169428 -0.0420357 -0.202701 192 234 140
0.229567 -0.248897 -0.209316 192 234 140
0.196552 -0.424457 -0.200213 192 234 140
0.276937 -0.0823501 -0.219771 192 234 140
0.0505281 -0.483465 -0.128034 192 234 140
0.25521 -0.140197 -0.220048 192 234 140
0.151992 -0.254124 -0.199163 192 234 140
0.337042 -0.383449 -0.140086 192 234 140
0.269002 -0.39197 -0.207208 192 234 140
0.308458 -0.474719 -0.205965 192 234 140
-0.0452349 -0.411823 -0.20209 192 234 140
0.184852 -0.346769 -0.200218 192 234 140
0.0444645 -0.478483 -0.210818 192 234 140
0.322188 -0.403584 -0.182661 192 234 140
0.214856 -0.392926 -0.203861 192 234 140
0.110245 -0.0282368 -0.200805 192 234 140
0.190798 -0.416743 -0.200209 192 234 140
0.233165 -0.443834 -0.204241 192 234 140
0.252367 -0.370402 -0.207647 192 234 140
-0.0194623 -0.0495369 -0.200136 192 234 140
0.310411 -0.469951 -0.201078 192 234 140
0.342305 -0.468361 -0.163092 192 234 140
0.136281 -0.236775 -0.200362 192 234 140
0.136847 -0.423209 -0.1985 192 234 140
0.0689079 -0.0735885 -0.198677 192 234 140
0.222341 -0.413117 -0.203407 192 234 140
0.240272 -0.131654 -0.215404 192 234 140
0.213444 -0.0566097 -0.207635 192 234 140
0.28141 -0.220141 -0.212905 192 234 140
0.0791403 -0.454498 -0.19985 192 234 140
0.0178635 -0.134577 -0.201163 192 234 140
0.0682655 -0.381453 -0.198434 192 234 140
-0.044686 -0.389956 -0.201606 192 234 140
0.258761 -0.315528 -0.209646 192 234 140
-0.0284293 -0.481964 -0.125943 192 234 140
0.261732 -0.378469 -0.207768 192 234 140
-0.00611038 -0.477477 -0.217867 192 234 140
0.280972 -0.106844 -0.218627 192 234 140
0.169018 -0.416335 -0.198464 192 234 140
0.0988695 -0.0424458 -0.200151 192 234 140
0.226323 -0.46721 -0.209499 192 234 140
0.215582 -0.428883 -0.201673 192 234 140
0.112416 -0.22403 -0.200806 192 234 140
0.220603 -0.412845 -0.203247 192 234 140
0.283508 -0.465716 -0.208736 192 234 140
0.095 -0.0944083 -0.199804 192 234 140
0.266241 -0.15356 -0.220024 192 234 140
0.238964 -0.192912 -0.215348 192 234 140
-0.00955765 -0.253023 -0.202916 192 234 140
0.191721 -0.253281 -0.202315 192 234 140
-0.0840477 -0.0305499 -0.196727 224 210 119
-0.0794939 -0.00399686 -0.199555 224 210 119
-0.12709 -0.366669 -0.000887245 224 210 119
0.105715 -0.100431 -0.20162 224 210 119
-0.10459 -0.451626 -0.137768 224 210 119
0.0630565 -0.102325 -0.196613 224 210 119
-0.125911 -0.333993 0.051122 224 210 119
0.0635584 -0.146384 -0.19769 224 210 119
-0.00537712 -0.0350599 -0.195644 224 210 119
-0.0642283 -0.174553 -0.197057 224 210 119
0.118631 -0.411927 -0.180291 224 210 119
0.0381446 -0.101272 -0.194189 224 210 119
-0.125859 -0.268515 0.128592 224 210 119
0.0618066 -0.372407 -0.182265 224 210 119
-0.128549 -0.0745432 0.186801 224 210 119
0.132581 -0.406895 -0.180842 224 210 119
-0.123125 -0.355228 0.205269 224 210 119
-0.136486 0.00591213 0.00468372 224 210 119
-0.0496635 -0.351714 -0.196547 224 210 119
-0.120057 -0.27821 -0.0936762 224 210 119
-0.0778101 -0.345988 -0.191995 224 210 119
-0.126978 -0.132234 0.258779 224 210 119
0.0297169 -0.221343 -0.197276 224 210 119
-0.0993486 -0.415124 -0.147349 224 210 119
-0.0341181 -0.264011 -0.197059 224 210 119
-0.117567 0.0214493 -0.136327 224 210 119
-0.0965259 -0.362458 -0.155917 224 210 119
-0.128813 -0.0834776 0.238035 224 210 119
-0.0532752 -0.251381 -0.197698 224 210 119
0.0251757 -0.312803 -0.190036 224 210 119
-0.109334 -0.286854 -0.119281 224 210 119
-0.0873483 -0.446632 -0.187254 224 210 119
-0.123845 -0.149763 0.209834 224 210 119
-0.0467568 -0.226248 -0.197864 224 210 119
-0.086583 -0.268447 -0.187661 224 210 119
0.0393737 -0.109971 -0.194628 224 210 119
-0.0608259 -0.463845 -0.196771 224 210 119
-0.0304669 -0.365136 -0.193973 224 210 119
-0.124694 -0.281807 0.209699 224 210 119
0.109084 -0.14654 -0.201579 224 210 119
0.0127182 -0.126922 -0.195128 224 210 119
-0.124135 -0.165268 0.0576422 224 210 119
0.152849 -0.125214 -0.201296 224 210 119
-0.124262 -0.195125 0.122281 224 210 119
-0.0314669 -0.346944 -0.194597 224 210 119
-0.104124 -0.034254 -0.170496 224 210 119
-0.129781 -0.412317 0.0212488 224 210 119
-0.128182 -0.378381 0.00243712 224 210 119
-0.049643 -0.162997 -0.195981 224 210 119
-0.124893 -0.301677 0.0928886 224 210 119
0.0410707 -0.286388 -0.192944 224 210 119
-0.130213 -0.0150197 0.196958 224 210 119
-0.104632 0.00920612 -0.170286 224 210 119
-0.124092 -0.192477 0.0569853 224 210 119
0.0181162 -0.378944 -0.187409 224 210 119
-0.0954725 -0.353922 -0.159246 224 210 119
0.0898125 -0.291344 -0.192319 224 210 119
-0.124912 -0.339535 -0.0337947 224 210 119
-0.0438159 -0.136174 -0.195747 224 210 119
0.132072 -0.0515807 -0.201124 224 210 119
-0.132418 -0.0651419 0.262747 224 210 119
-0.0172437 -0.0891048 -0.193026 224 210 119
0.09675 -0.423085 -0.178274 224 210 119
-0.122554 -0.194158 0.206847 224 210 119
-0.122972 -0.203055 0.0203215 224 210 119
0.0624826 -0.0944981 -0.196344 224 210 119
-0.106469 -0.188094 -0.143151 224 210 119
-0.0552162 -0.288573 -0.197188 224 210 119
-0.115144 -0.18666 -0.0371605 224 210 119
-0.126473 -0.427643 0.129613 224 210 119
-0.129819 -0.0382977 0.0122951 224 210 119
-0.0563969 -0.309791 -0.197298 224 210 119
-0.100523 -0.150141 -0.17916 224 210 119
-0.136828 -0.0172727 0.262511 224 210 119
0.0148289 -0.344943 -0.189722 224 210 119
-0.10783 -0.113868 -0.127367 224 210 119
-0.128093 -0.119962 0.323437 224 210 119
-0.0228618 -0.422178 -0.191698 224 210 119
-0.119723 -0.000623062 -0.114091 224 210 119
-0.130014 -0.436473 -0.0101821 224 210 119
-0.0514111 -0.273716 -0.197668 224 210 119
-0.042334 -0.164909 -0.195716 224 210 119
0.027233 -0.15929 -0.196764 224 210 119
0.105526 -0.254941 -0.194696 224 210 119
-0.0731352 -0.234543 -0.197342 224 210 119
-0.12809 -0.0814994 0.200883 224 210 119
0.0911 -0.0454115 -0.199804 224 210 119
-0.123394 -0.37663 -0.0841122 224 210 119
0.00700566 -0.454448 -0.18553 224 210 119
-0.101923 -0.344169 -0.136613 224 210 119
-0.126207 -0.368686 -0.0583906 224 210 119
-0.129627 -0.045219 0.0375397 224 210 119
-0.0563382 -0.169243 -0.196691 224 210 119
0.0598444 -0.356702 -0.18486 224 210 119
-0.108666 -0.0965018 -0.115411 224 210 119
0.0267012 -0.262921 -0.194744 224 210 119
0.0814132 -0.167363 -0.198418 224 210 119
0.0265344 -0.312355 -0.189954 224 210 119
-0.115746 -0.422457 -0.106218 224 210 119
-0.011227 -0.16274 -0.196428 224 210 119
0.100978 -0.381607 -0.182642 224 210 119
-0.134469 -0.0130445 0.0323564 224 210 119
-0.0466001 -0.326046 -0.196926 224 210 119
-0.124942 -0.325475 0.075286 224 210 119
-0.130728 -0.0207365 0.165442 224 210 119
-0.123737 -0.162103 0.187755 224 210 119
0.0690641 -0.269116 -0.192659 224 210 119
-0.0725051 -0.178958 -0.197584 224 210 119
-0.103775 -0.321205 -0.131075 224 210 119
-0.089904 -0.229427 -0.18815 224 210 119
-0.125488 -0.115074 0.0318398 224 210 119
0.117552 -0.264276 -0.194307 224 210 119
-0.125795 -0.256935 0.054975 224 210 119
-0.105147 -0.357861 -0.126313 224 210 119
-0.124396 -0.312276 0.0952967 224 210 119
-0.0273664 -0.217374 -0.197789 224 210 119
-0.125063 -0.138621 0.0832577 224 210 119
-0.12562 -0.26249 0.0287529 224 210 119
0.0575139 -0.210405 -0.196493 224 210 119
0.0988054 -0.404497 -0.180276 224 210 119
