ply
format ascii 1.0
comment Created by Open3D
element vertex 1178
property double x
property double y
property double z
property uchar red
property uchar green
property uchar blue
end_header
0.00342683 -0.483934 0.393614 128 254 179
-0.0601779 -0.473067 0.409141 128 254 179
0.0409346 -0.42991 0.449525 128 254 179
0.105233 -0.482368 0.39774 128 254 179
0.191939 -0.362227 0.176151 128 254 179
0.197814 -0.484191 0.240676 128 254 179
0.207479 -0.479525 0.235902 128 254 179
0.159229 -0.375115 0.193005 128 254 179
0.0520891 -0.484818 0.289879 128 254 179
0.28501 -0.448471 0.174294 128 254 179
0.0159919 -0.433445 0.455039 128 254 179
-0.0561882 -0.48478 0.26512 128 254 179
0.111446 -0.410505 0.319097 128 254 179
0.222315 -0.484033 0.236013 128 254 179
-0.0133757 -0.484507 0.374559 128 254 179
-0.0686552 -0.48425 0.361196 128 254 179
0.100038 -0.430727 0.398378 128 254 179
-0.0985767 -0.428412 0.424692 128 254 179
0.152461 -0.484508 0.226851 128 254 179
0.260932 -0.483514 0.236451 128 254 179
-0.0905833 -0.484732 0.288204 128 254 179
0.315171 -0.484447 0.165194 128 254 179
0.0976661 -0.484771 0.234339 128 254 179
0.136029 -0.410338 0.245828 128 254 179
0.0400691 -0.365655 0.38285 128 254 179
0.247208 -0.48413 0.23907 128 254 179
0.0866613 -0.3745 0.311696 128 254 179
0.062722 -0.36452 0.335595 128 254 179
0.12323 -0.370361 0.234851 128 254 179
0.116672 -0.48416 0.305156 128 254 179
0.213622 -0.48467 0.177476 128 254 179
0.023633 -0.345097 0.326991 128 254 179
0.129724 -0.482188 0.389081 128 254 179
0.0742481 -0.484839 0.253645 128 254 179
0.104453 -0.387102 0.296001 128 254 179
0.154481 -0.482421 0.362626 128 254 179
0.178646 -0.484013 0.301747 128 254 179
0.0251069 -0.336537 0.310106 128 254 179
0.018666 -0.484918 0.259802 128 254 179
-0.047955 -0.485818 0.17091 128 254 179
0.175776 -0.483614 0.297371 128 254 179
0.116505 -0.40138 0.280964 128 254 179
0.0543263 -0.485052 0.185005 128 254 179
-0.086641 -0.36261 0.454062 128 254 179
-0.000769321 -0.419954 0.461413 128 254 179
0.131841 -0.363339 0.214606 128 254 179
0.0946906 -0.484104 0.358381 128 254 179
0.150441 -0.484422 0.235594 128 254 179
0.265212 -0.4828 0.219971 128 254 179
-0.0958966 -0.470984 0.401558 128 254 179
-0.104631 -0.345181 0.439736 128 254 179
-0.125629 -0.477193 0.362903 128 254 179
0.130324 -0.484919 0.172608 128 254 179
0.0968988 -0.484455 0.291571 128 254 179
0.0998648 -0.372823 0.272743 128 254 179
0.20915 -0.481381 0.237874 128 254 179
0.25945 -0.445848 0.188234 128 254 179
0.0937795 -0.370057 0.279802 128 254 179
0.21676 -0.47245 0.225119 128 254 179
0.0859248 -0.391241 0.356722 128 254 179
-0.0683773 -0.484531 0.298496 128 254 179
0.21501 -0.453908 0.213029 128 254 179
0.0049604 -0.48486 0.282997 128 254 179
-0.0142842 -0.456698 0.439837 128 254 179
0.0780031 -0.484826 0.234062 128 254 179
0.00221689 -0.485295 0.225781 128 254 179
0.0714226 -0.484465 0.34266 128 254 179
0.0107869 -0.484873 0.271179 128 254 179
-0.0501472 -0.447291 0.443894 128 254 179
-0.068391 -0.469598 0.413009 128 254 179
0.205768 -0.48469 0.156304 128 254 179
0.182779 -0.483963 0.303304 128 254 179
0.0103393 -0.483743 0.395209 128 254 179
0.186369 -0.484798 0.15515 128 254 179
0.0442152 -0.485204 0.206892 128 254 179
0.072709 -0.484833 0.255985 128 254 179
0.183521 -0.484262 0.225241 128 254 179
-0.0128199 -0.484595 0.361765 128 254 179
0.131825 -0.466419 0.389392 128 254 179
0.306797 -0.480773 0.171678 128 254 179
0.266583 -0.48417 0.205623 128 254 179
0.19668 -0.328999 0.153559 128 254 179
0.0200036 -0.484917 0.320846 128 254 179
-0.0173967 -0.484441 0.378171 128 254 179
0.288919 -0.484463 0.151815 128 254 179
-0.0148333 -0.469535 0.422779 128 254 179
0.240383 -0.418543 0.18102 128 254 179
0.0668885 -0.484847 0.256787 128 254 179
0.0150278 -0.484874 0.333576 128 254 179
0.0941109 -0.382001 0.316002 128 254 179
0.0377188 -0.470305 0.426844 128 254 179
0.0850163 -0.397535 0.374976 128 254 179
0.128079 -0.484358 0.266435 128 254 179
0.0862105 -0.382591 0.337291 128 254 179
0.24863 -0.484147 0.238931 128 254 179
0.124932 -0.483672 0.374157 128 254 179
0.185728 -0.483963 0.302349 128 254 179
0.0782591 -0.410528 0.41396 128 254 179
0.214529 -0.371188 0.167817 128 254 179
-0.0834237 -0.374307 0.469656 128 254 179
0.171085 -0.483916 0.330425 128 254 179
0.23566 -0.346601 0.146631 128 254 179
0.17026 -0.483646 0.33818 128 254 179
0.250824 -0.415413 0.173444 128 254 179
-0.0833039 -0.484844 0.264497 128 254 179
0.242618 -0.475414 0.216201 128 254 179
0.259481 -0.484196 0.205801 128 254 179
0.0912876 -0.484609 0.281369 128 254 179
0.0305509 -0.484118 0.389735 128 254 179
0.00872933 -0.48481 0.335453 128 254 179
0.12624 -0.393216 0.249435 128 254 179
0.0675652 -0.401192 0.420015 128 254 179
0.0597509 -0.476387 0.416367 128 254 179
0.118606 -0.483956 0.369866 128 254 179
0.16874 -0.484647 0.212941 128 254 179
-0.0105581 -0.485196 0.234815 128 254 179
0.109865 -0.377093 0.262157 128 254 179
0.0684104 -0.484528 0.33999 128 254 179
-0.079512 -0.484142 0.36546 128 254 179
-0.0299389 -0.4844 0.369393 128 254 179
0.1965 -0.484753 0.154532 128 254 179
0.150018 -0.470548 0.329744 128 254 179
-0.0588133 -0.471497 0.412528 128 254 179
0.225068 -0.432438 0.196818 128 254 179
0.0112216 -0.484904 0.292447 128 254 179
0.195042 -0.481445 0.249701 128 254 179
-0.0280645 -0.414788 0.4646 128 254 179
0.0261845 -0.484892 0.290072 128 254 179
0.0791249 -0.484823 0.233201 128 254 179
0.0537208 -0.415818 0.445106 128 254 179
-0.0158485 -0.389019 0.469554 128 254 179
-0.0592539 -0.484294 0.346847 128 254 179
0.0550483 -0.484305 0.378107 128 254 179
0.0251993 -0.427216 0.455142 128 254 179
0.112485 -0.484257 0.326218 128 254 179
0.161518 -0.483923 0.348551 128 254 179
-0.0186097 -0.483917 0.39215 128 254 179
0.316529 -0.484601 0.176115 128 254 179
-0.114218 -0.484219 0.345798 128 254 179
0.18612 -0.378536 0.184392 128 254 179
0.0406355 -0.407886 0.450398 128 254 179
0.110778 -0.484843 0.218398 128 254 179
0.0103682 -0.48522 0.184638 128 254 179
0.0931128 -0.379509 0.31452 128 254 179
0.00661171 -0.339673 0.328986 128 254 179
0.25096 -0.484433 0.16392 128 254 179
-0.0514939 -0.373607 0.475387 128 254 179
-0.0243947 -0.441087 0.450837 128 254 179
0.139159 -0.484428 0.342726 128 254 179
0.175406 -0.477779 0.271783 128 254 179
0.00901854 -0.41797 0.461255 128 254 179
0.257092 -0.484012 0.221057 128 254 179
0.201807 -0.400101 0.187938 128 254 179
0.0919408 -0.357968 0.258937 128 254 179
-0.0131283 -0.48458 0.364579 128 254 179
0.125246 -0.484924 0.180792 128 254 179
-0.0365959 -0.385116 0.472159 128 254 179
0.200123 -0.395178 0.186302 128 254 179
0.0388911 -0.397646 0.449385 128 254 179
0.0906429 -0.484242 0.343261 128 254 179
0.00916628 -0.484446 0.381102 128 254 179
-0.0246258 -0.372929 0.470327 128 254 179
0.0591193 -0.484848 0.262736 128 254 179
0.0848053 -0.430896 0.42955 128 254 179
0.220054 -0.484038 0.26066 128 254 179
-0.0760782 -0.484619 0.292398 128 254 179
0.0622798 -0.353 0.301837 128 254 179
0.0308939 -0.485111 0.182271 128 254 179
-0.058708 -0.484998 0.255695 128 254 179
0.114908 -0.415828 0.318998 128 254 179
-0.00955028 -0.484638 0.336823 128 254 179
-0.130237 -0.485898 0.215673 128 254 179
0.149446 -0.484251 0.303819 128 254 179
0.00863605 -0.484246 0.387467 128 254 179
0.19543 -0.345315 0.163535 128 254 179
0.00532459 -0.484468 0.379765 128 254 179
-0.103764 -0.483683 0.36945 128 254 179
-0.0893529 -0.405112 0.444572 128 254 179
0.159252 -0.42838 0.233038 128 254 179
-0.122468 -0.485053 0.270929 128 254 179
-0.127335 -0.485335 0.251875 128 254 179
-0.0286731 -0.463069 0.429744 128 254 179
-0.040786 -0.48436 0.332262 128 254 179
0.0127728 -0.408889 0.463039 128 254 179
0.0854304 -0.484795 0.256545 128 254 179
0.291341 -0.483015 0.204214 128 254 179
0.0381501 -0.423978 0.451701 128 254 179
0.184419 -0.455762 0.23312 128 254 179
0.122353 -0.484231 0.286532 128 254 179
-0.0867484 -0.484556 0.310083 128 254 179
-0.000427954 -0.42182 0.460759 128 254 179
0.191401 -0.484862 0.170507 128 254 179
-0.021759 -0.474884 0.414195 128 254 179
0.228905 -0.484167 0.223458 128 254 179
0.0110068 -0.485127 0.235829 128 254 179
0.146604 -0.43766 0.259553 128 254 179
0.227911 -0.484529 0.154538 128 254 179
-0.0727173 -0.458622 0.427073 128 254 179
0.112676 -0.349725 0.219748 128 254 179
0.276276 -0.482878 0.216691 128 254 179
0.213114 -0.345081 0.154624 128 254 179
0.0121321 -0.48527 0.223875 128 254 179
-0.0173799 -0.483563 0.39825 128 254 179
-0.0263084 -0.485492 0.209836 128 254 179
0.131051 -0.484294 0.329037 128 254 179
0.252383 -0.484383 0.198094 128 254 179
0.233081 -0.358082 0.152943 128 254 179
-0.0680516 -0.484356 0.336206 128 254 179
0.109463 -0.48419 0.314765 128 254 179
-0.0798029 -0.419573 0.457644 128 254 179
0.159935 -0.484346 0.296368 128 254 179
0.13909 -0.484408 0.334893 128 254 179
-0.0873097 -0.484735 0.279818 128 254 179
0.109515 -0.484182 0.309686 128 254 179
-0.0463607 -0.484671 0.270144 128 254 179
-0.0113145 -0.48535 0.188862 128 254 179
0.0661289 -0.484815 0.276762 128 254 179
-0.00287261 -0.484874 0.26356 128 254 179
0.167861 -0.376697 0.189106 128 254 179
0.0103703 -0.360953 0.394744 128 254 179
0.114475 -0.465749 0.410278 128 254 179
-0.0796417 -0.391994 0.464856 128 254 179
0.223878 -0.483359 0.24345 128 254 179
0.10452 -0.484777 0.228742 128 254 179
0.280381 -0.484606 0.16844 128 254 179
0.164856 -0.440615 0.238829 128 254 179
0.00307647 -0.451128 0.444657 128 254 179
0.183898 -0.342743 0.17037 128 254 179
0.156268 -0.484957 0.187108 128 254 179
0.269906 -0.484062 0.212591 128 254 179
-0.0513126 -0.427511 0.458839 128 254 179
0.292166 -0.484242 0.209823 128 254 179
0.231041 -0.483981 0.236425 128 254 179
0.132922 -0.355738 0.206202 128 254 179
0.200515 -0.484056 0.286268 128 254 179
-0.115906 -0.485969 0.192724 128 254 179
0.182135 -0.48407 0.280533 128 254 179
0.227887 -0.48365 0.248033 128 254 179
-0.125565 -0.484059 0.349686 128 254 179
0.202178 -0.429709 0.204237 128 254 179
0.153624 -0.341182 0.17608 128 254 179
-0.0262702 -0.420127 0.462557 128 254 179
-0.104748 -0.372187 0.432686 128 254 179
0.144415 -0.432387 0.256749 128 254 179
0.231842 -0.446296 0.201664 128 254 179
0.0293166 -0.465909 0.43161 128 254 179
0.137266 -0.346936 0.195363 128 254 179
0.2009 -0.484115 0.255782 128 254 179
0.046894 -0.485037 0.181119 128 254 179
0.10742 -0.426173 0.370101 128 254 179
0.0893503 -0.4687 0.418487 128 254 179
-0.0871313 -0.460124 0.421345 128 254 179
0.121098 -0.483613 0.376066 128 254 179
0.109441 -0.484736 0.240507 128 254 179
0.0801056 -0.350667 0.265601 128 254 179
0.0226883 -0.377203 0.44586 128 254 179
0.177164 -0.483882 0.321749 128 254 179
0.224198 -0.388721 0.172438 128 254 179
0.282377 -0.484096 0.209309 128 254 179
-0.0592506 -0.484262 0.356205 128 254 179
0.192564 -0.350676 0.171188 128 254 179
-0.00322059 -0.332033 0.319727 128 254 179
-0.107311 -0.365776 0.429906 128 254 179
0.198316 -0.484205 0.24096 128 254 179
0.305503 -0.483321 0.185368 128 254 179
-0.0884935 -0.485181 0.251529 128 254 179
0.119259 -0.484953 0.170952 128 254 179
0.176696 -0.484207 0.274316 128 254 179
-0.104614 -0.365068 0.43474 128 254 179
-0.0270938 -0.352327 0.395502 128 254 179
-0.037329 -0.47219 0.417423 128 254 179
0.0130214 -0.40274 0.463279 128 254 179
-0.0671547 -0.48427 0.35366 128 254 179
0.083951 -0.48513 0.199141 128 254 179
0.00925235 -0.394844 0.463392 128 254 179
0.312317 -0.484234 0.18372 128 254 179
-0.000267927 -0.396145 0.466565 128 254 179
0.00975112 -0.484533 0.374048 128 254 179
0.217229 -0.483075 0.239762 128 254 179
0.114621 -0.482151 0.396357 128 254 179
0.13804 -0.420656 0.254921 128 254 179
-0.0799558 -0.471018 0.407496 128 254 179
-0.0883005 -0.48497 0.259829 128 254 179
0.0213178 -0.485153 0.196234 128 254 179
-0.0837102 -0.431476 0.446386 128 254 179
0.14152 -0.484467 0.347119 128 254 179
0.156813 -0.469524 0.301426 128 254 179
0.00444798 -0.406256 0.464869 128 254 179
0.128523 -0.475221 0.398369 128 254 179
-0.124304 -0.484914 0.28879 128 254 179
0.149982 -0.483095 0.371724 128 254 179
0.0494774 -0.484687 0.345746 128 254 179
0.134222 -0.478252 0.393322 128 254 179
0.105279 -0.484244 0.320092 128 254 179
-0.0848261 -0.484566 0.306832 128 254 179
-0.0498317 -0.347784 0.406682 128 254 179
0.00872965 -0.484791 0.352483 128 254 179
0.0374622 -0.357811 0.350522 128 254 179
0.280138 -0.471724 0.193242 128 254 179
0.0557376 -0.484645 0.342933 128 254 179
0.235022 -0.484269 0.19538 128 254 179
0.0655955 -0.363028 0.323505 128 254 179
-0.0861489 -0.421802 0.443611 128 254 179
0.066736 -0.480834 0.408279 128 254 179
0.154409 -0.344698 0.178535 128 254 179
0.0587081 -0.427423 0.444244 128 254 179
0.0285829 -0.485026 0.246122 128 254 179
0.158267 -0.450861 0.259126 128 254 179
-0.0124995 -0.42972 0.457815 128 254 179
0.0257997 -0.485114 0.191336 128 254 179
0.22568 -0.484147 0.264702 128 254 179
0.0488468 -0.387818 0.431016 128 254 179
-0.0952035 -0.484855 0.271868 128 254 179
0.0957773 -0.48502 0.16935 128 254 179
0.0542476 -0.484839 0.2736 128 254 179
-0.0379924 -0.410065 0.466291 128 254 179
0.0911435 -0.385562 0.329571 128 254 179
0.0616263 -0.379704 0.389276 128 254 179
0.112195 -0.484592 0.261742 128 254 179
0.210445 -0.484689 0.178366 128 254 179
0.229735 -0.484069 0.249086 128 254 179
-0.108374 -0.388805 0.421674 128 254 179
0.0348954 -0.426832 0.452187 128 254 179
0.0912919 -0.484101 0.356048 128 254 179
0.132693 -0.484416 0.255701 128 254 179
0.0520233 -0.469037 0.427033 128 254 179
0.179137 -0.405165 0.198859 128 254 179
-0.091246 -0.485762 0.187273 128 254 179
0.285937 -0.484614 0.161115 128 254 179
-0.0363922 -0.43342 0.455393 128 254 179
0.234877 -0.484306 0.193187 128 254 179
0.294244 -0.47873 0.185902 128 254 179
-0.107843 -0.458001 0.393392 128 254 179
0.125448 -0.484974 0.197835 128 254 179
0.0820086 -0.373651 0.321765 128 254 179
-0.048049 -0.359349 0.473855 128 254 179
0.175582 -0.483403 0.29079 128 254 179
0.0157286 -0.4849 0.313022 128 254 179
0.289857 -0.483096 0.206585 128 254 179
-0.042253 -0.36535 0.473778 128 254 179
0.179203 -0.483445 0.285408 128 254 179
0.177155 -0.480986 0.27708 128 254 179
0.0396456 -0.485098 0.232753 128 254 179
0.0714316 -0.478577 0.412449 128 254 179
0.0469387 -0.484872 0.281395 128 254 179
0.169141 -0.483932 0.333976 128 254 179
-0.149844 -0.361512 0.270231 160 249 161
-0.142113 -0.406635 0.323851 160 249 161
-0.139786 -0.246311 0.235567 160 249 161
-0.137379 -0.261548 0.314312 160 249 161
0.0444833 -0.482596 0.265646 160 249 161
-0.156224 -0.36404 0.145213 160 249 161
-0.137381 -0.425137 0.366317 160 249 161
-0.155238 -0.291319 0.144719 160 249 161
-0.144239 -0.35149 0.11891 160 249 161
-0.137463 -0.31022 0.408409 160 249 161
-0.142195 -0.23735 0.195526 160 249 161
-0.1295 -0.42195 0.468211 160 249 161
-0.104106 -0.481847 0.150617 160 249 161
-0.137115 -0.270473 0.339355 160 249 161
0.0395914 -0.482263 0.247111 160 249 161
-0.140112 -0.262981 0.266012 160 249 161
-0.137262 -0.387388 0.381791 160 249 161
-0.14923 -0.34663 0.263353 160 249 161
-0.147929 -0.340691 0.118586 160 249 161
-0.134437 -0.457835 0.417161 160 249 161
-0.120926 -0.482703 0.238955 160 249 161
-0.15161 -0.387853 0.133487 160 249 161
-0.149273 -0.461211 0.264776 160 249 161
-0.139435 -0.350453 0.394784 160 249 161
-0.154481 -0.283296 0.136279 160 249 161
-0.153239 -0.327252 0.122158 160 249 161
-0.153031 -0.445622 0.185171 160 249 161
-0.018601 -0.479006 0.146799 160 249 161
-0.153043 -0.449508 0.213743 160 249 161
-0.135782 -0.480658 0.149227 160 249 161
-0.151209 -0.475148 0.309555 160 249 161
-0.136401 -0.424442 0.376677 160 249 161
-0.0583789 -0.483683 0.285749 160 249 161
-0.156106 -0.317444 0.140725 160 249 161
-0.145771 -0.427989 0.297951 160 249 161
-0.138545 -0.362618 0.391993 160 249 161
-0.132889 -0.480618 0.338508 160 249 161
-0.150521 -0.336695 0.211461 160 249 161
-0.142547 -0.416407 0.319412 160 249 161
-0.140822 -0.398602 0.120036 160 249 161
-0.156194 -0.311469 0.141614 160 249 161
-0.155558 -0.330609 0.137764 160 249 161
-0.143564 -0.481032 0.212317 160 249 161
-0.15091 -0.24854 0.141615 160 249 161
-0.148187 -0.346438 0.297162 160 249 161
-0.150308 -0.272685 0.164214 160 249 161
-0.141586 -0.480588 0.260215 160 249 161
-0.152743 -0.439843 0.159634 160 249 161
-0.136902 -0.374139 0.395285 160 249 161
-0.153953 -0.478619 0.191803 160 249 161
-0.154742 -0.379077 0.154918 160 249 161
-0.152906 -0.393233 0.206367 160 249 161
-0.118881 -0.449799 0.126862 160 249 161
-0.131818 -0.431525 0.426714 160 249 161
-0.131033 -0.433488 0.4379 160 249 161
-0.149062 -0.315529 0.206974 160 249 161
-0.00551495 -0.483861 0.253171 160 249 161
-0.145271 -0.248675 0.119221 160 249 161
-0.152266 -0.456821 0.1497 160 249 161
-0.151697 -0.298044 0.171065 160 249 161
-0.136204 -0.237699 0.269535 160 249 161
-0.132425 -0.240603 0.371136 160 249 161
-0.132012 -0.239859 0.384559 160 249 161
-0.139573 -0.248403 0.245404 160 249 161
-0.0846256 -0.482862 0.308921 160 249 161
-0.129993 -0.43613 0.45635 160 249 161
-0.130091 -0.401414 0.454191 160 249 161
-0.146287 -0.470362 0.13838 160 249 161
-0.129061 -0.346522 0.119248 160 249 161
-0.153982 -0.418621 0.148379 160 249 161
-0.130552 -0.457104 0.464595 160 249 161
-0.153178 -0.444321 0.205179 160 249 161
-0.129506 -0.422877 0.468339 160 249 161
-0.153212 -0.40576 0.19019 160 249 161
-0.118742 -0.482157 0.174678 160 249 161
0.0117017 -0.478834 0.148618 160 249 161
-0.147916 -0.248927 0.162811 160 249 161
-0.142723 -0.261564 0.21703 160 249 161
-0.143408 -0.235025 0.183876 160 249 161
-0.155065 -0.40902 0.160879 160 249 161
-0.129774 -0.408219 0.459221 160 249 161
-0.139341 -0.467612 0.384723 160 249 161
-0.145418 -0.347503 0.327877 160 249 161
-0.15355 -0.292178 0.126884 160 249 161
-0.151852 -0.334377 0.194263 160 249 161
-0.135947 -0.325279 0.430188 160 249 161
-0.139318 -0.365994 0.119212 160 249 161
-0.106158 -0.478291 0.13684 160 249 161
-0.119597 -0.431994 0.123489 160 249 161
-0.148135 -0.248994 0.12322 160 249 161
-0.140693 -0.414896 0.122374 160 249 161
0.0374204 -0.477978 0.14966 160 249 161
-0.0755677 -0.479696 0.144256 160 249 161
-0.135321 -0.376629 0.119466 160 249 161
-0.153201 -0.466755 0.213461 160 249 161
-0.151277 -0.465176 0.142084 160 249 161
-0.138343 -0.363602 0.392776 160 249 161
-0.152445 -0.353615 0.196208 160 249 161
-0.15639 -0.344467 0.152021 160 249 161
-0.145288 -0.318073 0.116296 160 249 161
-0.146641 -0.455429 0.306749 160 249 161
-0.0401256 -0.483866 0.275566 160 249 161
-0.14206 -0.360713 0.362828 160 249 161
-0.153331 -0.385093 0.193264 160 249 161
-0.133811 -0.351626 0.442405 160 249 161
-0.15447 -0.327205 0.128959 160 249 161
-0.144943 -0.273422 0.116141 160 249 161
-0.149117 -0.345119 0.263172 160 249 161
-0.155028 -0.358647 0.159756 160 249 161
-0.137329 -0.358938 0.407175 160 249 161
-0.14453 -0.329466 0.328205 160 249 161
-0.151517 -0.398828 0.227618 160 249 161
-0.153071 -0.376078 0.191737 160 249 161
-0.0947353 -0.483459 0.256319 160 249 161
-0.137803 -0.420394 0.361332 160 249 161
-0.149035 -0.346405 0.275259 160 249 161
-0.150013 -0.342452 0.22247 160 249 161
-0.119461 -0.341818 0.119946 160 249 161
-0.140832 -0.357806 0.375828 160 249 161
-0.146229 -0.382515 0.304208 160 249 161
-0.150384 -0.479908 0.214791 160 249 161
-0.156308 -0.346203 0.153839 160 249 161
-0.149051 -0.279989 0.176545 160 249 161
-0.132723 -0.379108 0.432136 160 249 161
-0.109232 -0.379328 0.120876 160 249 161
-0.153001 -0.306006 0.11857 160 249 161
-0.143407 -0.313149 0.307751 160 249 161
-0.150298 -0.357241 0.235641 160 249 161
-0.154817 -0.406727 0.156859 160 249 161
-0.13105 -0.384729 0.446006 160 249 161
-0.140549 -0.311028 0.365536 160 249 161
-0.141739 -0.298451 0.309334 160 249 161
-0.135351 -0.243181 0.297765 160 249 161
-0.143066 -0.421251 0.3182 160 249 161
0.106811 -0.477752 0.212431 160 249 161
0.0389919 -0.478438 0.150762 160 249 161
-0.147829 -0.336133 0.251824 160 249 161
0.109982 -0.474288 0.188104 160 249 161
-0.153114 -0.433977 0.156139 160 249 161
-0.139728 -0.409167 0.346278 160 249 161
-0.154849 -0.294548 0.13404 160 249 161
-0.111215 -0.466825 0.131227 160 249 161
-0.143338 -0.441188 0.330666 160 249 161
-0.140932 -0.382744 0.347763 160 249 161
-0.152544 -0.396416 0.137434 160 249 161
-0.112018 -0.400791 0.120071 160 249 161
-0.145993 -0.382379 0.306739 160 249 161
-0.152713 -0.360133 0.194877 160 249 161
-0.15126 -0.468447 0.142455 160 249 161
-0.142349 -0.265167 0.230807 160 249 161
0.0975451 -0.481194 0.24262 160 249 161
-0.149809 -0.413622 0.252724 160 249 161
-0.150145 -0.369757 0.252977 160 249 161
-0.129682 -0.420113 0.462197 160 249 161
-0.138921 -0.289266 0.344971 160 249 161
-0.154673 -0.282787 0.145685 160 249 161
-0.156218 -0.311489 0.14183 160 249 161
-0.138219 -0.36392 0.393602 160 249 161
-0.15225 -0.321595 0.181186 160 249 161
-0.1514 -0.475608 0.299613 160 249 161
-0.154478 -0.385563 0.150207 160 249 161
-0.146972 -0.325442 0.250048 160 249 161
-0.116845 -0.326078 0.118348 160 249 161
-0.152493 -0.393961 0.215979 160 249 161
-0.153132 -0.311682 0.11986 160 249 161
-0.00920467 -0.483556 0.288704 160 249 161
-0.0659476 -0.482787 0.180798 160 249 161
-0.13232 -0.392061 0.470307 160 249 161
-0.149182 -0.351301 0.283339 160 249 161
-0.139878 -0.285666 0.316705 160 249 161
-0.139687 -0.326455 0.39531 160 249 161
-0.13288 -0.291416 0.430052 160 249 161
-0.153971 -0.336586 0.172851 160 249 161
-0.142343 -0.25018 0.117641 160 249 161
-0.018487 -0.479764 0.149187 160 249 161
-0.149368 -0.3505 0.273176 160 249 161
-0.153552 -0.326447 0.123594 160 249 161
-0.116422 -0.375551 0.120434 160 249 161
-0.134775 -0.433763 0.399275 160 249 161
-0.137133 -0.382421 0.386775 160 249 161
-0.140409 -0.321885 0.385198 160 249 161
-0.15586 -0.311236 0.138097 160 249 161
-0.146606 -0.373646 0.309195 160 249 161
-0.152472 -0.41881 0.140653 160 249 161
-0.0954908 -0.405512 0.121224 160 249 161
-0.149699 -0.355857 0.269252 160 249 161
-0.134964 -0.348967 0.434695 160 249 161
-0.148427 -0.42243 0.129919 160 249 161
-0.141847 -0.406824 0.326092 160 249 161
-0.145005 -0.308359 0.269589 160 249 161
-0.153606 -0.395648 0.141418 160 249 161
-0.1549 -0.407231 0.158032 160 249 161
-0.154064 -0.436539 0.18405 160 249 161
-0.138501 -0.388487 0.119336 160 249 161
-0.140032 -0.448298 0.363249 160 249 161
-0.133368 -0.244686 0.353072 160 249 161
-0.147338 -0.411643 0.278975 160 249 161
-0.14818 -0.44989 0.282811 160 249 161
-0.131908 -0.401177 0.47324 160 249 161
-0.0327191 -0.483906 0.265812 160 249 161
-0.0168677 -0.483717 0.274692 160 249 161
-0.137368 -0.285617 0.364552 160 249 161
-0.151709 -0.372836 0.129673 160 249 161
-0.1527 -0.436957 0.204461 160 249 161
0.136595 -0.477149 0.228535 160 249 161
-0.137389 -0.460728 0.132555 160 249 161
-0.136471 -0.285988 0.380714 160 249 161
-0.137393 -0.319901 0.413737 160 249 161
-0.131437 -0.403219 0.4342 160 249 161
-0.148782 -0.266748 0.169978 160 249 161
-0.152558 -0.425011 0.143815 160 249 161
0.000780903 -0.483717 0.269643 160 249 161
-0.122274 -0.422684 0.121822 160 249 161
-0.139331 -0.381734 0.365213 160 249 161
-0.15033 -0.417594 0.245272 160 249 161
-0.139814 -0.327123 0.394268 160 249 161
-0.12615 -0.481896 0.179839 160 249 161
-0.149284 -0.348274 0.268839 160 249 161
-0.136969 -0.355184 0.413017 160 249 161
-0.153596 -0.402747 0.17334 160 249 161
-0.135242 -0.282368 0.395297 160 249 161
-0.152945 -0.29673 0.120436 160 249 161
-0.148579 -0.382027 0.282008 160 249 161
-0.137399 -0.481041 0.310628 160 249 161
-0.136797 -0.320798 0.116644 160 249 161
-0.134277 -0.446773 0.411414 160 249 161
-0.153938 -0.475434 0.217923 160 249 161
-0.136451 -0.43183 0.38089 160 249 161
-0.149298 -0.299759 0.192154 160 249 161
-0.141519 -0.454105 0.353545 160 249 161
-0.139642 -0.480292 0.331459 160 249 161
-0.141311 -0.330171 0.377376 160 249 161
-0.152688 -0.349835 0.125944 160 249 161
0.0860896 -0.480865 0.267701 160 249 161
-0.138544 -0.342203 0.118382 160 249 161
-0.129652 -0.420431 0.463129 160 249 161
-0.153226 -0.336791 0.182688 160 249 161
-0.147529 -0.339109 0.287303 160 249 161
-0.132745 -0.365032 0.441924 160 249 161
-0.137575 -0.29346 0.372465 160 249 161
-0.133465 -0.384891 0.420675 160 249 161
-0.147183 -0.328815 0.250906 160 249 161
-0.143575 -0.317616 0.324387 160 249 161
-0.135597 -0.389401 0.119213 160 249 161
-0.147087 -0.343083 0.118826 160 249 161
-0.147416 -0.478001 0.29543 160 249 161
-0.135832 -0.339251 0.457026 160 249 161
-0.156355 -0.337299 0.148845 160 249 161
-0.151367 -0.278755 0.121055 160 249 161
-0.138487 -0.242752 0.247068 160 249 161
-0.141908 -0.27089 0.249517 160 249 161
-0.152654 -0.370547 0.201959 160 249 161
-0.146352 -0.452692 0.30846 160 249 161
-0.148191 -0.447637 0.280723 160 249 161
-0.135287 -0.262429 0.373637 160 249 161
-0.135437 -0.271149 0.383667 160 249 161
-0.147742 -0.332986 0.245796 160 249 161
-0.120126 -0.338774 0.119133 160 249 161
-0.152498 -0.337759 0.190711 160 249 161
-0.150574 -0.431367 0.240423 160 249 161
-0.135042 -0.300603 0.419365 160 249 161
-0.151473 -0.4789 0.227731 160 249 161
-0.13741 -0.359824 0.405706 160 249 161
-0.147966 -0.406893 0.274054 160 249 161
-0.135223 -0.462028 0.416512 160 249 161
-0.146922 -0.29661 0.214133 160 249 161
-0.131764 -0.470613 0.457544 160 249 161
-0.151674 -0.467402 0.248298 160 249 161
-0.0827377 -0.442575 0.125607 160 249 161
-0.145249 -0.325268 0.116797 160 249 161
-0.151549 -0.291458 0.117868 160 249 161
-0.144459 -0.363285 0.119389 160 249 161
-0.126413 -0.481857 0.303207 160 249 161
-0.154244 -0.383803 0.169617 160 249 161
-0.142364 -0.245703 0.118208 160 249 161
-0.15279 -0.479245 0.174946 160 249 161
-0.146083 -0.253191 0.180209 160 249 161
-0.136492 -0.415962 0.376459 160 249 161
-0.136595 -0.246349 0.286836 160 249 161
-0.140356 -0.373883 0.363523 160 249 161
-0.132517 -0.246643 0.4001 160 249 161
-0.1307 -0.443378 0.4542 160 249 161
-0.144907 -0.261557 0.117283 160 249 161
-0.146033 -0.252756 0.18014 160 249 161
-0.153187 -0.468546 0.224064 160 249 161
-0.125564 -0.239373 0.115807 160 249 161
-0.134437 -0.348856 0.439068 160 249 161
-0.145071 -0.314761 0.116052 160 249 161
-0.142791 -0.302057 0.299907 160 249 161
-0.106956 -0.446446 0.125192 160 249 161
-0.146183 -0.433373 0.296344 160 249 161
-0.152067 -0.405978 0.217665 160 249 161
-0.13241 -0.316423 0.116483 160 249 161
-0.154996 -0.348995 0.162593 160 249 161
-0.144371 -0.480616 0.227626 160 249 161
-0.143774 -0.334951 0.347019 160 249 161
-0.119639 -0.481967 0.167738 160 249 161
-0.130747 -0.422292 0.475007 160 249 161
-0.133897 -0.481589 0.242499 160 249 161
-0.125767 -0.426056 0.122687 160 249 161
-0.145763 -0.43345 0.301038 160 249 161
-0.149301 -0.313822 0.116753 160 249 161
-0.155711 -0.312995 0.137263 160 249 161
-0.144401 -0.402128 0.306427 160 249 161
-0.136878 -0.26153 0.325296 160 249 161
-0.145559 -0.343376 0.323971 160 249 161
-0.137796 -0.468106 0.399354 160 249 161
-0.150546 -0.468563 0.271296 160 249 161
-0.106547 -0.468231 0.131358 160 249 161
-0.13085 -0.426781 0.439947 160 249 161
-0.138349 -0.345359 0.407311 160 249 161
-0.0282437 -0.483752 0.28305 160 249 161
-0.152792 -0.442378 0.20875 160 249 161
0.0852103 -0.480695 0.2404 160 249 161
-0.132275 -0.408184 0.478645 160 249 161
-0.156879 -0.344176 0.142631 160 249 161
-0.135897 -0.467017 0.41513 160 249 161
-0.143244 -0.387952 0.119776 160 249 161
-0.133774 -0.479569 0.380791 160 249 161
-0.155493 -0.355382 0.157338 160 249 161
-0.148405 -0.477341 0.31948 160 249 161
-0.139122 -0.265058 0.289318 160 249 161
-0.0786172 -0.458546 0.129169 160 249 161
-0.133048 -0.240596 0.347836 160 249 161
-0.151673 -0.39226 0.225491 160 249 161
-0.131681 -0.339106 0.118431 160 249 161
-0.151278 -0.333748 0.199984 160 249 161
-0.137155 -0.368838 0.398082 160 249 161
-0.1478 -0.458298 0.292561 160 249 161
-0.132064 -0.446084 0.44082 160 249 161
-0.133347 -0.235159 0.319978 160 249 161
-0.145561 -0.37842 0.312766 160 249 161
-0.154451 -0.389827 0.1628 160 249 161
-0.131773 -0.388925 0.436346 160 249 161
-0.128242 -0.351799 0.119285 160 249 161
-0.01507 -0.473869 0.138115 160 249 161
-0.148835 -0.2566 0.162796 160 249 161
-0.152021 -0.458507 0.226153 160 249 161
-0.132496 -0.413166 0.42186 160 249 161
0.0327366 -0.481912 0.222635 160 249 161
-0.139659 -0.332883 0.395677 160 249 161
-0.15087 -0.416571 0.135319 160 249 161
-0.151568 -0.366124 0.125008 160 249 161
-0.145849 -0.336557 0.313234 160 249 161
-0.141066 -0.475651 0.389041 160 249 161
-0.133943 -0.367626 0.428825 160 249 161
-0.147379 -0.388016 0.287094 160 249 161
-0.0809292 -0.482937 0.31115 160 249 161
-0.132824 -0.264535 0.114981 160 249 161
-0.11687 -0.40266 0.119769 160 249 161
-0.147038 -0.325669 0.248813 160 249 161
-0.133834 -0.339901 0.118335 160 249 161
-0.146106 -0.32906 0.297131 160 249 161
-0.11132 -0.254284 0.11484 160 249 161
-0.115471 -0.371515 0.120407 160 249 161
-0.152883 -0.414494 0.198687 160 249 161
-0.14803 -0.460408 0.290152 160 249 161
-0.147066 -0.356125 0.312973 160 249 161
-0.13204 -0.410216 0.427444 160 249 161
0.0101298 -0.483318 0.278327 160 249 161
-0.135722 -0.296865 0.404314 160 249 161
-0.149437 -0.382114 0.2664 160 249 161
-0.154788 -0.422547 0.163196 160 249 161
-0.120943 -0.473877 0.134521 160 249 161
-0.149262 -0.270144 0.11901 160 249 161
-0.13191 -0.460555 0.452681 160 249 161
-0.133018 -0.381208 0.427774 160 249 161
-0.144297 -0.315499 0.300486 160 249 161
-0.15569 -0.32751 0.151938 160 249 161
-0.149042 -0.272884 0.171414 160 249 161
-0.138687 -0.476467 0.403729 160 249 161
-0.134839 -0.333915 0.443933 160 249 161
-0.140608 -0.410332 0.336505 160 249 161
-0.150738 -0.331157 0.203149 160 249 161
-0.154455 -0.40085 0.151398 160 249 161
-0.132804 -0.238029 0.346395 160 249 161
-0.136164 -0.459442 0.402455 160 249 161
-0.108679 -0.451008 0.126294 160 249 161
-0.145643 -0.264876 0.193655 160 249 161
0.00863817 -0.483643 0.267529 160 249 161
-0.141317 -0.253439 0.227333 160 249 161
-0.142451 -0.400933 0.32348 160 249 161
-0.0674723 -0.458359 0.130517 160 249 161
-0.150855 -0.452582 0.247582 160 249 161
-0.153225 -0.30411 0.11972 160 249 161
-0.0448182 -0.483495 0.210453 160 249 161
-0.141701 -0.261152 0.236727 160 249 161
-0.151417 -0.308953 0.179954 160 249 161
-0.151669 -0.475654 0.294588 160 249 161
-0.140478 -0.272928 0.27617 160 249 161
-0.128706 -0.412944 0.120501 160 249 161
-0.14302 -0.303611 0.299204 160 249 161
-0.152729 -0.476079 0.268991 160 249 161
-0.149219 -0.318506 0.207558 160 249 161
-0.0319261 -0.478236 0.143564 160 249 161
-0.148168 -0.451094 0.284269 160 249 161
-0.129172 -0.353819 0.119242 160 249 161
-0.140304 -0.410694 0.339576 160 249 161
-0.14168 -0.323828 0.369895 160 249 161
-0.136652 -0.47781 0.409988 160 249 161
-0.13816 -0.383915 0.375553 160 249 161
-0.151177 -0.450704 0.24348 160 249 161
-0.145841 -0.347037 0.322611 160 249 161
-0.14173 -0.480593 0.254457 160 249 161
-0.150542 -0.331639 0.118822 160 249 161
-0.141483 -0.323602 0.372425 160 249 161
-0.150508 -0.250161 0.137603 160 249 161
-0.143268 -0.305416 0.298713 160 249 161
-0.14659 -0.32372 0.257188 160 249 161
-0.152075 -0.451328 0.230596 160 249 161
-0.137491 -0.242168 0.26027 160 249 161
-0.146021 -0.413048 0.124956 160 249 161
-0.137304 -0.478216 0.401734 160 249 161
-0.155726 -0.301063 0.138664 160 249 161
-0.145219 -0.321419 0.116549 160 249 161
-0.152822 -0.367256 0.193935 160 249 161
-0.133376 -0.257197 0.407566 160 249 161
-0.141613 -0.257743 0.233336 160 249 161
-0.154742 -0.424823 0.165985 160 249 161
-0.152746 -0.363034 0.193628 160 249 161
0.0437091 -0.479152 0.153743 160 249 161
-0.146654 -0.441203 0.296136 160 249 161
-0.151025 -0.356606 0.22038 160 249 161
-0.0226694 -0.483481 0.303533 160 249 161
-0.150924 -0.387016 0.130407 160 249 161
-0.142418 -0.446534 0.342711 160 249 161
-0.138489 -0.393275 0.364577 160 249 161
-0.155605 -0.33468 0.153845 160 249 161
-0.136197 -0.409571 0.381287 160 249 161
-0.131598 -0.386337 0.46135 160 249 161
-0.145511 -0.412545 0.294909 160 249 161
-0.0861268 -0.42694 0.123188 160 249 161
-0.153057 -0.462318 0.206007 160 249 161
-0.152689 -0.344474 0.194197 160 249 161
-0.043944 -0.480625 0.149617 160 249 161
-0.144633 -0.314908 0.292759 160 249 161
-0.0684773 -0.484233 0.239011 160 249 161
-0.0926945 -0.469468 0.13197 160 249 161
-0.156153 -0.349844 0.154053 160 249 161
-0.149616 -0.40369 0.254331 160 249 161
-0.025389 -0.483784 0.227453 160 249 161
-0.144231 -0.312994 0.297893 160 249 161
-0.134946 -0.273923 0.398012 160 249 161
-0.153204 -0.44481 0.187417 160 249 161
-0.146471 -0.271295 0.191505 160 249 161
0.111409 -0.48296 0.2676 160 249 161
-0.144216 -0.479467 0.267214 160 249 161
-0.134063 -0.481334 0.313573 160 249 161
-0.135941 -0.346957 0.118791 160 249 161
-0.154385 -0.288442 0.150465 160 249 161
-0.136453 -0.300847 0.403804 160 249 161
-0.143826 -0.351889 0.34824 160 249 161
-0.149777 -0.468341 0.285959 160 249 161
-0.149473 -0.35542 0.279843 160 249 161
-0.146544 -0.440629 0.132053 160 249 161
-0.151429 -0.263306 0.1539 160 249 161
-0.14445 -0.25236 0.192392 160 249 161
-0.140271 -0.333678 0.389976 160 249 161
0.101999 -0.481596 0.248864 160 249 161
-0.00263293 -0.483655 0.271495 160 249 161
-0.148587 -0.368348 0.29371 160 249 161
-0.154752 -0.42449 0.166713 160 249 161
-0.117991 -0.283918 0.115401 160 249 161
-0.0389684 -0.465531 0.134042 160 249 161
-0.138112 -0.350431 0.406961 160 249 161
-0.15298 -0.309332 0.118722 160 249 161
-0.13225 -0.36791 0.451993 160 249 161
-0.149552 -0.468657 0.296051 160 249 161
-0.152584 -0.312614 0.118356 160 249 161
-0.125292 -0.482408 0.22934 160 249 161
-0.144388 -0.476249 0.364249 160 249 161
-0.137448 -0.477667 0.406052 160 249 161
-0.133583 -0.372146 0.428337 160 249 161
-0.132405 -0.38676 0.467373 160 249 161
-0.100768 -0.267986 0.115357 160 249 161
-0.139437 -0.261732 0.276315 160 249 161
-0.133527 -0.236154 0.316764 160 249 161
-0.152763 -0.265389 0.13882 160 249 161
-0.14121 -0.454883 0.356012 160 249 161
-0.145417 -0.373256 0.318168 160 249 161
-0.1416 -0.335714 0.11748 160 249 161
-0.0553669 -0.483513 0.302389 160 249 161
-0.153601 -0.367887 0.171988 160 249 161
-0.1528 -0.355801 0.187981 160 249 161
-0.156137 -0.344954 0.155526 160 249 161
-0.135311 -0.263812 0.377085 160 249 161
-0.145657 -0.470884 0.138225 160 249 161
-0.140174 -0.411947 0.340188 160 249 161
-0.147571 -0.234722 0.12811 160 249 161
-0.140475 -0.477353 0.140016 160 249 161
-0.15288 -0.400785 0.202629 160 249 161
-0.148221 -0.34112 0.264972 160 249 161
-0.151861 -0.367758 0.127702 160 249 161
0.013725 -0.482853 0.294024 160 249 161
-0.135246 -0.282371 0.39525 160 249 161
-0.148353 -0.274357 0.17905 160 249 161
-0.154983 -0.375397 0.149168 160 249 161
-0.139161 -0.349492 0.39788 160 249 161
-0.136308 -0.418787 0.37807 160 249 161
-0.145262 -0.479023 0.286986 160 249 161
-0.135509 -0.440202 0.395527 160 249 161
-0.137188 -0.33201 0.419482 160 249 161
-0.14827 -0.35383 0.302823 160 249 161
-0.133584 -0.249156 0.369323 160 249 161
-0.130312 -0.420561 0.44866 160 249 161
-0.133107 -0.411059 0.415759 160 249 161
-0.15332 -0.382489 0.185001 160 249 161
-0.142131 -0.479514 0.345756 160 249 161
-0.1427 -0.2776 0.11509 160 249 161
-0.132447 -0.367269 0.452921 160 249 161
-0.130789 -0.413961 0.442424 160 249 161
-0.140188 -0.358197 0.119006 160 249 161
-0.0317467 -0.276127 0.14903 192 234 140
-0.0870248 -0.462508 0.201582 192 234 140
-0.00109112 -0.287675 0.14756 192 234 140
0.202084 -0.441584 0.150711 192 234 140
-0.102984 -0.456876 0.159067 192 234 140
-0.116032 -0.270378 0.146773 192 234 140
0.0598207 -0.412692 0.154364 192 234 140
0.278552 -0.470746 0.163892 192 234 140
0.272973 -0.338736 0.148291 192 234 140
0.295312 -0.408397 0.148875 192 234 140
-0.0571763 -0.368447 0.153045 192 234 140
0.232089 -0.420742 0.151478 192 234 140
0.0447666 -0.376476 0.151748 192 234 140
0.218939 -0.447862 0.149943 192 234 140
0.205456 -0.423198 0.15176 192 234 140
-0.0951878 -0.379583 0.153945 192 234 140
0.0542718 -0.309362 0.14449 192 234 140
0.0321549 -0.354279 0.149639 192 234 140
0.150574 -0.430295 0.15281 192 234 140
0.032691 -0.455192 0.270245 192 234 140
-0.0883158 -0.313678 0.147045 192 234 140
0.0876841 -0.461784 0.18716 192 234 140
0.0386339 -0.459924 0.156052 192 234 140
0.033943 -0.347687 0.148819 192 234 140
0.0508814 -0.282104 0.146098 192 234 140
0.0171122 -0.463634 0.178768 192 234 140
-0.0706266 -0.464238 0.175417 192 234 140
0.128247 -0.462997 0.15259 192 234 140
-0.00762133 -0.303514 0.147011 192 234 140
0.18284 -0.406973 0.153114 192 234 140
0.134337 -0.37752 0.151569 192 234 140
-0.0821094 -0.294098 0.147252 192 234 140
-0.140092 -0.405439 0.157195 192 234 140
-0.118078 -0.33594 0.148855 192 234 140
-0.110314 -0.245773 0.147696 192 234 140
0.186381 -0.463827 0.151037 192 234 140
-0.148322 -0.242703 0.145926 192 234 140
0.270944 -0.441583 0.150155 192 234 140
0.311407 -0.453275 0.148499 192 234 140
-0.0659145 -0.400357 0.15422 192 234 140
0.211045 -0.455985 0.14933 192 234 140
0.202561 -0.367599 0.151057 192 234 140
-0.13718 -0.333383 0.149676 192 234 140
-0.0693083 -0.372564 0.153479 192 234 140
0.0532347 -0.342424 0.147783 192 234 140
0.0809255 -0.396627 0.15302 192 234 140
-0.0866571 -0.392613 0.154432 192 234 140
-0.00826136 -0.424009 0.15499 192 234 140
-0.0685386 -0.464538 0.16461 192 234 140
0.0723265 -0.27977 0.145599 192 234 140
-0.0271963 -0.280835 0.14876 192 234 140
-0.105671 -0.46524 0.276669 192 234 140
-0.00625616 -0.360387 0.151699 192 234 140
0.183423 -0.257918 0.146766 192 234 140
-0.0695238 -0.472784 0.320545 192 234 140
0.00376757 -0.457307 0.301946 192 234 140
0.0395254 -0.348043 0.148703 192 234 140
-0.0571914 -0.458692 0.157492 192 234 140
-0.0841443 -0.298547 0.146946 192 234 140
0.117512 -0.446272 0.153436 192 234 140
-0.0532972 -0.387918 0.153717 192 234 140
0.206385 -0.292006 0.147649 192 234 140
0.0576083 -0.46128 0.155364 192 234 140
0.188608 -0.280803 0.147316 192 234 140
-0.0792388 -0.258066 0.148998 192 234 140
0.296965 -0.446231 0.149276 192 234 140
-0.0145423 -0.391372 0.153698 192 234 140
0.238823 -0.268883 0.147731 192 234 140
0.270576 -0.354863 0.149068 192 234 140
0.25777 -0.438259 0.150657 192 234 140
0.098389 -0.296901 0.145053 192 234 140
0.194546 -0.260733 0.147073 192 234 140
0.0907394 -0.368526 0.15016 192 234 140
0.0119533 -0.366948 0.15182 192 234 140
0.0402255 -0.335174 0.147283 192 234 140
0.205063 -0.30502 0.147295 192 234 140
0.265964 -0.385484 0.149343 192 234 140
0.219917 -0.319371 0.147566 192 234 140
0.23565 -0.365472 0.150244 192 234 140
0.201318 -0.436711 0.151188 192 234 140
0.266218 -0.410128 0.149876 192 234 140
-0.12537 -0.268842 0.146529 192 234 140
0.157642 -0.462809 0.150555 192 234 140
0.129278 -0.287711 0.145341 192 234 140
0.205409 -0.285138 0.147824 192 234 140
-0.129924 -0.287103 0.14591 192 234 140
0.276665 -0.469346 0.156893 192 234 140
-0.0518225 -0.372249 0.153112 192 234 140
0.0383538 -0.455913 0.155749 192 234 140
0.0384243 -0.333509 0.147158 192 234 140
0.0910465 -0.420742 0.154275 192 234 140
-0.0129772 -0.371132 0.152793 192 234 140
0.0458141 -0.454152 0.155478 192 234 140
-0.0810712 -0.442758 0.15647 192 234 140
0.0730466 -0.414424 0.154142 192 234 140
0.102255 -0.463487 0.1538 192 234 140
-0.081692 -0.317127 0.147735 192 234 140
0.0527808 -0.277803 0.146313 192 234 140
-0.132563 -0.42425 0.15671 192 234 140
-0.0907051 -0.465956 0.288218 192 234 140
0.172826 -0.389806 0.152955 192 234 140
0.266575 -0.443725 0.150044 192 234 140
0.0226483 -0.457441 0.30031 192 234 140
-0.0543719 -0.423806 0.154456 192 234 140
0.26607 -0.352864 0.149163 192 234 140
0.301825 -0.464737 0.149212 192 234 140
0.070024 -0.450436 0.15444 192 234 140
0.228959 -0.3083 0.147469 192 234 140
-0.0659966 -0.28523 0.148132 192 234 140
0.171431 -0.305439 0.146028 192 234 140
0.167336 -0.266064 0.146923 192 234 140
0.000264421 -0.463342 0.156036 192 234 140
0.141208 -0.459631 0.217342 192 234 140
0.0953437 -0.462965 0.154054 192 234 140
0.134373 -0.263881 0.146458 192 234 140
0.108227 -0.348532 0.147392 192 234 140
0.164287 -0.401382 0.153241 192 234 140
-0.122208 -0.44005 0.156395 192 234 140
0.054723 -0.332448 0.146514 192 234 140
0.124584 -0.437512 0.153564 192 234 140
-0.0931183 -0.465155 0.166491 192 234 140
-0.0333175 -0.456582 0.295211 192 234 140
-0.0818968 -0.265734 0.148455 192 234 140
0.145081 -0.431033 0.152931 192 234 140
-0.151639 -0.402738 0.157364 192 234 140
-0.0654324 -0.371567 0.153431 192 234 140
-0.0199853 -0.362617 0.152129 192 234 140
0.00824921 -0.460424 0.321675 192 234 140
0.271585 -0.429956 0.150466 192 234 140
-0.112438 -0.372409 0.153621 192 234 140
0.304299 -0.416147 0.148493 192 234 140
-0.0483934 -0.450932 0.156241 192 234 140
0.0272536 -0.464933 0.155625 192 234 140
0.113907 -0.389867 0.152261 192 234 140
0.0521931 -0.432916 0.1549 192 234 140
-0.043604 -0.293578 0.148164 192 234 140
0.306109 -0.457026 0.148206 192 234 140
0.102398 -0.439856 0.154097 192 234 140
-0.0257479 -0.45391 0.259719 192 234 140
0.14807 -0.423257 0.152937 192 234 140
-0.135509 -0.436803 0.156612 192 234 140
0.146172 -0.438643 0.152846 192 234 140
0.109475 -0.306609 0.144182 192 234 140
-0.0267804 -0.321285 0.148484 192 234 140
0.0843412 -0.4429 0.15422 192 234 140
-0.144639 -0.255689 0.146483 192 234 140
0.214191 -0.26703 0.147965 192 234 140
0.241495 -0.467008 0.161262 192 234 140
0.113032 -0.386479 0.152065 192 234 140
0.118222 -0.306141 0.14468 192 234 140
0.0945041 -0.452708 0.154303 192 234 140
-0.0251201 -0.454953 0.156176 192 234 140
0.121941 -0.287954 0.145245 192 234 140
0.27398 -0.303823 0.147362 192 234 140
0.24711 -0.268541 0.147435 192 234 140
0.0453706 -0.354613 0.149347 192 234 140
-0.0197014 -0.395745 0.153758 192 234 140
0.0739403 -0.430389 0.154569 192 234 140
0.152169 -0.374589 0.151785 192 234 140
0.0871847 -0.334388 0.145868 192 234 140
0.20689 -0.393899 0.152449 192 234 140
0.165638 -0.405376 0.153254 192 234 140
0.192383 -0.407992 0.152721 192 234 140
-0.0186234 -0.330481 0.149167 192 234 140
0.108175 -0.45159 0.153893 192 234 140
-0.087976 -0.463685 0.190706 192 234 140
0.071202 -0.283445 0.145685 192 234 140
0.0491209 -0.397343 0.15355 192 234 140
0.00801551 -0.425153 0.155045 192 234 140
-0.0687497 -0.425243 0.15526 192 234 140
0.256798 -0.32371 0.147668 192 234 140
0.209988 -0.343794 0.149005 192 234 140
-0.0657685 -0.3607 0.152643 192 234 140
-0.0311457 -0.459115 0.309482 192 234 140
0.261845 -0.306228 0.147266 192 234 140
0.264704 -0.415885 0.150309 192 234 140
0.231027 -0.293907 0.148256 192 234 140
0.078292 -0.312703 0.143899 192 234 140
0.0801265 -0.269602 0.146472 192 234 140
0.17284 -0.455982 0.150984 192 234 140
0.0858786 -0.461615 0.154447 192 234 140
-0.112569 -0.460271 0.209415 192 234 140
0.031671 -0.370757 0.151583 192 234 140
0.0949323 -0.295649 0.145156 192 234 140
0.210028 -0.4011 0.152382 192 234 140
0.282769 -0.415347 0.149535 192 234 140
0.0681584 -0.308066 0.144664 192 234 140
0.156849 -0.307412 0.144927 192 234 140
0.16505 -0.25896 0.146551 192 234 140
0.0535835 -0.368634 0.150718 192 234 140
0.16691 -0.294592 0.146336 192 234 140
0.0930052 -0.401879 0.153211 192 234 140
0.0547129 -0.456589 0.155572 192 234 140
0.210265 -0.378887 0.151722 192 234 140
0.26259 -0.424561 0.150726 192 234 140
-0.0612042 -0.397366 0.154118 192 234 140
0.0545725 -0.394279 0.153262 192 234 140
-0.150805 -0.397171 0.15703 192 234 140
-0.135895 -0.369997 0.154222 192 234 140
0.0818389 -0.463252 0.169829 192 234 140
0.231531 -0.298205 0.148258 192 234 140
0.116283 -0.459494 0.210897 192 234 140
0.23253 -0.32048 0.147731 192 234 140
-0.0601624 -0.374087 0.153378 192 234 140
0.175054 -0.300518 0.146386 192 234 140
0.0467596 -0.457074 0.288237 192 234 140
-0.0660551 -0.420735 0.155015 192 234 140
0.28913 -0.395433 0.149051 192 234 140
-0.144931 -0.463043 0.168611 192 234 140
0.176617 -0.307947 0.145638 192 234 140
0.0381698 -0.288618 0.146338 192 234 140
0.0678823 -0.272697 0.146299 192 234 140
-0.140705 -0.377874 0.155259 192 234 140
0.245449 -0.467204 0.164661 192 234 140
-0.114665 -0.444649 0.157033 192 234 140
0.266173 -0.360053 0.149273 192 234 140
-0.00221087 -0.429363 0.155159 192 234 140
0.00915393 -0.460132 0.221421 192 234 140
0.0569663 -0.44051 0.154734 192 234 140
0.228817 -0.304489 0.147546 192 234 140
0.206528 -0.447984 0.150199 192 234 140
0.276979 -0.404606 0.149372 192 234 140
-0.0543256 -0.396173 0.154093 192 234 140
0.0546914 -0.387673 0.152785 192 234 140
0.183833 -0.463053 0.17261 192 234 140
0.223329 -0.334039 0.148587 192 234 140
0.298899 -0.371533 0.148148 192 234 140
0.107967 -0.377134 0.151071 192 234 140
0.231748 -0.466642 0.15635 192 234 140
0.155264 -0.460413 0.151186 192 234 140
-0.110263 -0.282458 0.146333 192 234 140
-0.0223869 -0.46348 0.183199 192 234 140
0.0868186 -0.451552 0.154253 192 234 140
0.164196 -0.257418 0.146643 192 234 140
0.0884532 -0.390944 0.152546 192 234 140
0.274758 -0.470663 0.182541 192 234 140
-0.00753783 -0.254465 0.148863 192 234 140
0.0603525 -0.258925 0.14734 192 234 140
0.192587 -0.459818 0.149143 192 234 140
0.187459 -0.459938 0.149332 192 234 140
0.070698 -0.428078 0.154672 192 234 140
-0.0486557 -0.454162 0.255349 192 234 140
0.0797417 -0.31011 0.143889 192 234 140
-0.0216538 -0.461137 0.215811 192 234 140
0.0433246 -0.30861 0.145557 192 234 140
-0.012567 -0.359257 0.151751 192 234 140
0.212221 -0.465048 0.159915 192 234 140
0.27678 -0.303656 0.147158 192 234 140
0.027664 -0.290778 0.146582 192 234 140
0.0162897 -0.385118 0.153156 192 234 140
0.13625 -0.325532 0.14476 192 234 140
-0.0293718 -0.253035 0.149511 192 234 140
0.163265 -0.389068 0.152946 192 234 140
0.166012 -0.448144 0.151921 192 234 140
-0.0019028 -0.462227 0.156187 192 234 140
0.220229 -0.420664 0.15163 192 234 140
0.111532 -0.294488 0.144903 192 234 140
-0.0675049 -0.435251 0.15586 192 234 140
0.249276 -0.410117 0.150761 192 234 140
0.0114388 -0.456813 0.244723 192 234 140
0.137923 -0.462469 0.165354 192 234 140
0.140422 -0.444008 0.152851 192 234 140
0.186265 -0.396741 0.153086 192 234 140
0.200146 -0.302383 0.14722 192 234 140
0.0118099 -0.459809 0.223526 192 234 140
0.037772 -0.359892 0.150128 192 234 140
-0.0256146 -0.313732 0.147731 192 234 140
0.0597521 -0.459565 0.219158 192 234 140
-0.000181317 -0.309085 0.146827 192 234 140
-0.125997 -0.31597 0.14732 192 234 140
0.266407 -0.262899 0.146385 192 234 140
-0.119408 -0.343524 0.149897 192 234 140
0.281092 -0.471102 0.180026 192 234 140
0.291688 -0.446659 0.149437 192 234 140
-0.139139 -0.394721 0.156672 192 234 140
0.0765857 -0.399307 0.153257 192 234 140
0.201384 -0.310727 0.146697 192 234 140
-0.0600731 -0.46035 0.221323 192 234 140
-0.132289 -0.270469 0.146292 192 234 140
0.0496263 -0.260509 0.147579 192 234 140
0.142462 -0.315625 0.144617 192 234 140
-0.00845761 -0.362822 0.15203 192 234 140
-0.0802754 -0.25132 0.149089 192 234 140
0.0843131 -0.307479 0.1442 192 234 140
-0.0544303 -0.329654 0.149849 192 234 140
0.207768 -0.263531 0.147688 192 234 140
-0.145845 -0.249038 0.146271 192 234 140
0.172355 -0.298057 0.146411 192 234 140
0.10515 -0.366778 0.149864 192 234 140
0.314126 -0.446445 0.148615 192 234 140
0.169113 -0.326562 0.146118 192 234 140
0.298351 -0.379156 0.14841 192 234 140
0.252091 -0.431727 0.151053 192 234 140
0.0615965 -0.456405 0.244544 192 234 140
0.157154 -0.460972 0.202384 192 234 140
0.0555118 -0.456223 0.246585 192 234 140
0.235462 -0.312536 0.147612 192 234 140
-0.1503 -0.296003 0.147927 192 234 140
0.216137 -0.299437 0.147893 192 234 140
0.0747756 -0.431 0.154544 192 234 140
0.0849242 -0.36311 0.149579 192 234 140
-0.129277 -0.250665 0.146832 192 234 140
0.219135 -0.465523 0.189195 192 234 140
0.210117 -0.399409 0.152388 192 234 140
0.148661 -0.305714 0.145122 192 234 140
0.0518854 -0.308454 0.144943 192 234 140
0.084945 -0.460715 0.201606 192 234 140
0.30684 -0.466175 0.151538 192 234 140
-0.0508361 -0.458947 0.297033 192 234 140
0.174199 -0.332792 0.14697 192 234 140
-0.0938619 -0.471518 0.301387 192 234 140
0.0599423 -0.457384 0.235783 192 234 140
0.110299 -0.302987 0.14473 192 234 140
-0.138803 -0.432279 0.156799 192 234 140
-0.00916299 -0.322772 0.148062 192 234 140
0.204 -0.367783 0.151078 192 234 140
0.222946 -0.301116 0.147913 192 234 140
-0.0323158 -0.461001 0.217796 192 234 140
0.280004 -0.421322 0.149821 192 234 140
-0.131353 -0.256871 0.146689 192 234 140
