ply
format ascii 1.0
comment Created by Open3D
element vertex 1185
property double x
property double y
property double z
property uchar red
property uchar green
property uchar blue
end_header
0.144236 -0.423217 -0.235801 63 97 250
0.260123 -0.0867776 -0.226852 63 97 250
0.153778 -0.305784 -0.230907 63 97 250
-0.0322041 -0.415087 -0.238241 63 97 250
-0.0194475 -0.44172 -0.238007 63 97 250
0.231857 -0.399903 -0.23332 63 97 250
0.279556 -0.438323 -0.235433 63 97 250
0.317243 -0.401299 -0.231425 63 97 250
0.125939 -0.268351 -0.232142 63 97 250
0.241697 -0.358487 -0.192039 63 97 250
-0.298244 -0.414592 -0.0033643 63 97 250
-0.177456 -0.410245 -0.188536 63 97 250
-0.336156 -0.432856 -0.0902725 63 97 250
0.178162 -0.503016 -0.0233502 63 97 250
0.0601549 -0.475251 -0.235879 63 97 250
0.184497 -0.174832 -0.228028 63 97 250
0.269421 -0.321958 -0.224339 63 97 250
0.182559 -0.421216 -0.225252 63 97 250
-0.267412 -0.399264 -0.156553 63 97 250
-0.062052 -0.365894 -0.247421 63 97 250
0.141991 -0.462053 0.172424 63 97 250
-0.108395 -0.350836 -0.243859 63 97 250
0.239459 -0.2713 -0.224424 63 97 250
0.0219783 -0.336875 -0.248225 63 97 250
-0.0527468 -0.387763 -0.243423 63 97 250
-0.026682 -0.324382 -0.246862 63 97 250
0.264368 -0.489309 0.0412994 63 97 250
-0.0087066 -0.45928 -0.235576 63 97 250
0.243898 -0.387626 -0.197407 63 97 250
-0.0478266 -0.357016 -0.244023 63 97 250
0.248829 -0.253517 -0.224394 63 97 250
0.266674 -0.296228 -0.22366 63 97 250
-0.106539 -0.449425 -0.2286 63 97 250
0.142699 -0.308274 -0.232585 63 97 250
0.185553 -0.0962535 -0.213015 63 97 250
0.0626161 -0.403387 -0.249153 63 97 250
-0.285432 -0.373362 -0.219952 63 97 250
0.0999472 -0.223799 -0.226361 63 97 250
-0.170192 -0.362076 -0.240404 63 97 250
-0.179669 -0.440667 -0.028033 63 97 250
0.211587 -0.24416 -0.199108 63 97 250
0.126146 -0.384543 -0.241653 63 97 250
-0.273159 -0.408792 0.0248102 63 97 250
0.155308 -0.187368 -0.210884 63 97 250
0.0435696 -0.38498 -0.24465 63 97 250
0.312577 -0.145459 -0.225138 63 97 250
0.277011 -0.444162 -0.194761 63 97 250
-0.0898356 -0.379845 -0.239221 63 97 250
-0.256992 -0.435725 -0.228983 63 97 250
-0.197526 -0.452033 -0.228825 63 97 250
0.0182098 -0.423778 -0.241354 63 97 250
0.255821 -0.307813 -0.174321 63 97 250
0.0743892 -0.270789 -0.239226 63 97 250
-0.177828 -0.390864 -0.235161 63 97 250
0.117529 -0.503081 -0.0461887 63 97 250
-0.200792 -0.365226 -0.239894 63 97 250
-0.0844656 -0.345539 -0.245861 63 97 250
-0.20796 -0.392946 -0.207098 63 97 250
0.144144 -0.138903 -0.229852 63 97 250
0.235542 -0.493744 -0.115613 63 97 250
0.132081 0.0725584 -0.104896 31 142 243
-0.0708602 0.0742912 -0.0234369 31 142 243
-0.145827 -0.0896879 -0.245815 31 142 243
-0.0394021 0.0228984 -0.236251 31 142 243
-0.251235 0.0749376 -0.0363036 31 142 243
-0.238303 0.0748732 -0.0315064 31 142 243
-0.293023 0.0746021 0.0199008 31 142 243
-0.464287 0.0749363 -0.117791 31 142 243
0.198362 -0.0244017 -0.251666 31 142 243
0.225534 0.0715414 -0.228086 31 142 243
0.104724 0.0546869 -0.24124 31 142 243
-0.215954 0.0750116 -0.0662394 31 142 243
0.203263 0.0718398 -0.147597 31 142 243
-0.104492 0.074238 0.0240844 31 142 243
0.030193 0.0738037 -0.0296709 31 142 243
-0.291853 0.0754496 -0.111982 31 142 243
0.0370601 0.0737721 -0.00512931 31 142 243
0.255568 0.0713878 -0.193322 31 142 243
-0.421543 0.0752156 -0.134481 31 142 243
-0.255666 0.0754579 -0.164505 31 142 243
-0.236618 0.0754031 -0.21695 31 142 243
-0.128802 0.0742691 0.0259037 31 142 243
0.279004 0.0712086 -0.11971 31 142 243
0.120806 0.0713877 -0.225643 31 142 243
0.150604 0.0572015 -0.241984 31 142 243
0.0544163 0.0736188 -0.0136123 31 142 243
-0.473338 0.0745164 -0.21398 31 142 243
-0.31703 0.074533 0.0147252 31 142 243
-0.0300678 0.0741245 -0.00826057 31 142 243
0.207417 -0.0525467 -0.254493 31 142 243
-0.288538 0.0753236 -0.0916871 31 142 243
-0.0977019 0.0744344 -0.0332086 31 142 243
-0.428992 0.0751677 -0.134501 31 142 243
-0.0724598 0.0743802 -0.0548285 31 142 243
-0.318857 0.0756502 -0.15316 31 142 243
-0.46255 0.0746409 -0.200532 31 142 243
-0.228019 0.0749023 -0.0410153 31 142 243
-0.274683 0.0644045 -0.231612 31 142 243
-0.172541 0.0746426 -0.0229627 31 142 243
-0.192922 0.0748818 -0.0521602 31 142 243
-0.201558 0.0748875 -0.0472545 31 142 243
0.0833226 0.0732286 -0.0689333 31 142 243
0.0210349 0.042137 -0.23879 31 142 243
0.11728 0.0729591 -0.0346307 31 142 243
0.0273966 0.0737968 -0.0420482 31 142 243
0.00666395 0.0741268 0.0464811 31 142 243
0.244973 0.0714655 -0.184129 31 142 243
-0.192334 0.0744028 0.0281981 31 142 243
-0.377476 -0.0644876 -0.248865 31 142 243
-0.373949 0.0752787 -0.111736 31 142 243
-0.445289 0.0697634 -0.231124 31 142 243
-0.209835 0.0747646 -0.0259829 31 142 243
-0.092797 0.074275 -0.212872 31 142 243
-0.386533 0.0752987 -0.189023 31 142 243
-0.399727 0.0751792 -0.186946 31 142 243
-0.152528 -0.0520823 -0.24321 31 142 243
0.228473 0.0716373 -0.137693 31 142 243
-0.390688 0.0749027 -0.0712725 31 142 243
-0.370619 0.0755496 -0.177117 31 142 243
-0.466534 -0.000730216 -0.243593 31 142 243
0.0597644 0.0734455 -0.0733477 31 142 243
-0.341733 0.0743241 0.0190614 31 142 243
0.295913 0.0711042 -0.202247 31 142 243
0.211121 0.0716971 -0.185563 31 142 243
0.206174 0.0720295 0.0175152 31 142 243
-0.220092 0.0751549 -0.0945313 31 142 243
-0.0323418 0.073789 -0.189325 31 142 243
-0.392312 0.0742997 0.00213632 31 142 243
-0.231278 0.0745281 0.0220816 31 142 243
0.0628909 0.0720752 -0.220635 31 142 243
0.0315477 0.0732503 -0.188089 31 142 243
-0.330135 0.0744959 0.0113667 31 142 243
0.209684 0.0718344 -0.0816102 31 142 243
-0.459831 -0.0690931 -0.248149 31 142 243
0.268703 0.0713106 -0.159002 31 142 243
-0.191392 0.0748316 -0.0437425 31 142 243
-0.188131 0.0746054 -0.00947246 31 142 243
0.194454 0.0589542 -0.242128 31 142 243
-0.16734 0.0745492 -0.0106275 31 142 243
0.102385 0.0730389 -0.0781519 31 142 243
-0.440688 0.0748987 -0.179934 31 142 243
-0.243877 0.0753496 -0.12009 31 142 243
-0.385118 0.0741846 -0.233238 31 142 243
-0.456395 -0.0416988 -0.246684 31 142 243
0.163542 0.0724774 -0.0127571 31 142 243
-0.0112694 0.0740434 -0.0857695 31 142 243
-0.224686 0.0290792 -0.237286 31 142 243
-0.260099 0.0755292 -0.191538 31 142 243
-0.368204 0.0748414 -0.0458341 31 142 243
-0.410688 0.0749218 -0.21135 31 142 243
-0.463386 0.0747725 -0.179358 31 142 243
-0.0765586 0.0743458 -0.168244 31 142 243
0.219865 0.071709 -0.11647 31 142 243
-0.441333 0.0748832 -0.0924112 31 142 243
0.221696 0.0716036 -0.218669 31 142 243
-0.40845 0.0748603 -0.231608 31 142 243
-0.219803 0.0746028 0.00639205 31 142 243
-0.219265 0.074804 -0.0285327 31 142 243
-0.247643 0.0400896 -0.236897 31 142 243
-0.0431807 0.0742354 -0.123169 31 142 243
-0.309613 0.0748099 -0.00705541 31 142 243
-0.163343 0.031213 -0.235033 31 142 243
-0.277593 0.0753428 -0.0997512 31 142 243
0.24972 0.0714471 -0.0605161 31 142 243
-0.0593384 0.0630444 -0.229098 31 142 243
-0.312345 0.0752757 -0.0692453 31 142 243
-0.394485 0.0750991 -0.208778 31 142 243
-0.39128 0.0745389 -0.0254343 31 142 243
-0.247456 0.0746782 0.00424264 31 142 243
-0.23361 0.0747308 -0.00948505 31 142 243
-0.0727644 0.0744009 -0.0600945 31 142 243
0.233014 -0.0309552 -0.255561 31 142 243
-0.461713 0.0749411 -0.145075 31 142 243
-0.0660467 0.0741479 0.0332834 31 142 243
0.287247 0.0711601 -0.177987 31 142 243
-0.260171 0.0753222 -0.104186 31 142 243
-0.268577 0.075186 -0.0744251 31 142 243
0.0919537 0.0732098 -0.0304744 31 142 243
0.0715932 0.0727398 -0.207499 31 142 243
0.173595 0.0721092 -0.124671 31 142 243
-0.411614 0.0750824 -0.184554 31 142 243
-0.201601 0.0752483 -0.155858 31 142 243
-0.135275 0.0749066 -0.1469 31 142 243
0.0798703 0.0733108 -0.0400785 31 142 243
-0.307052 0.0753956 -0.0967506 31 142 243
-0.25759 0.0752452 -0.0911532 31 142 243
-0.427118 0.0746002 -0.0474674 31 142 243
-0.159742 0.0744341 0.00587271 31 142 243
-0.318969 0.0749224 -0.024471 31 142 243
-0.185053 0.061469 -0.229963 31 142 243
-0.376038 0.0750844 -0.0841974 31 142 243
0.0712797 0.0733223 -0.0817023 31 142 243
0.181204 0.0718854 -0.187453 31 142 243
-0.321913 0.0755734 -0.215366 31 142 243
-0.154451 0.0747747 -0.05951 31 142 243
-0.361828 0.0754444 -0.214825 31 142 243
-0.141723 0.0743864 0.0047376 31 142 243
-0.0740307 0.0741127 -0.20879 31 142 243
-0.0461409 0.0740976 -0.154016 31 142 243
0.157593 0.0724393 -0.0528444 31 142 243
0.207731 0.0719222 -0.0213339 31 142 243
0.228777 0.0716627 -0.0200901 31 142 243
-0.416217 0.0748031 -0.229882 31 142 243
-0.408275 0.0753019 -0.142786 31 142 243
0.0292837 0.0739751 0.0245363 31 142 243
0.140848 0.0725535 -0.070282 31 142 243
-0.170605 0.0706746 -0.227747 31 142 243
-0.434961 0.0748536 -0.0882467 31 142 243
0.255782 0.0713782 -0.203199 31 142 243
-0.235789 0.0753987 -0.168904 31 142 243
-0.442831 0.0750874 -0.132178 31 142 243
0.166228 -0.0200713 -0.251067 31 142 243
0.25942 0.0713711 -0.100205 31 142 243
-0.304065 0.0744968 0.0231931 31 142 243
-0.142203 0.0749141 -0.120927 31 142 243
0.214518 0.0718118 -0.0519444 31 142 243
-0.0320568 0.0742114 -0.0471174 31 142 243
-0.375061 0.0742313 0.0141817 31 142 243
-0.234559 0.0744855 0.0276775 31 142 243
0.152462 -0.102411 -0.25664 31 142 243
-0.145498 0.0745721 -0.0244852 31 142 243
-0.353917 0.0247257 -0.241983 31 142 243
-0.136044 0.0744799 -0.0156055 31 142 243
-0.203153 0.0752995 -0.200225 31 142 243
-0.354149 0.0613467 -0.237009 31 142 243
0.0361692 0.0732688 -0.178243 31 142 243
-0.382205 -0.0867681 -0.249924 31 142 243
0.188355 0.071809 -0.205512 31 142 243
-0.0814094 0.0743516 -0.177899 31 142 243
-0.438025 0.0750277 -0.158644 31 142 243
0.111209 0.0724156 -0.195191 31 142 243
-0.301538 0.0755901 -0.150877 31 142 243
-0.240985 0.074543 0.0216711 31 142 243
0.214463 0.0717499 -0.14726 31 142 243
-0.266617 0.0749902 -0.0379373 31 142 243
0.0107066 0.073778 -0.113248 31 142 243
-0.209259 0.0753294 -0.192787 31 142 243
0.204005 0.0717259 -0.197139 31 142 243
-0.047077 0.0479624 -0.232512 31 142 243
0.115967 0.0728547 -0.0777282 31 142 243
-0.409644 0.0749143 -0.217621 31 142 243
0.142692 0.072131 -0.209161 31 142 243
-0.0575484 0.074305 -0.138576 31 142 243
-0.159434 0.074606 -0.0229238 31 142 243
-0.0950084 0.0745678 -0.165452 31 142 243
0.170653 0.0726443 0.0215097 31 142 243
0.298311 0.0710831 -0.19807 31 142 243
0.0226502 0.0733779 -0.183363 31 142 243
-0.00711585 0.0740318 -0.075352 31 142 243
-0.126253 0.0748685 -0.155398 31 142 243
-0.279743 -0.0665182 -0.246483 31 142 243
0.184429 0.0718206 -0.216546 31 142 243
-0.43524 0.0748567 -0.088721 31 142 243
0.13637 0.0726562 -0.0506375 31 142 243
-0.204872 0.0747038 -0.0177781 31 142 243
-0.339634 0.0741953 0.0311898 31 142 243
0.159367 0.0723829 -0.0662274 31 142 243
-0.425937 0.0750608 -0.117815 31 142 243
0.0996766 0.0528007 -0.241459 31 142 243
0.0359466 0.0738092 0.00153492 31 142 243
0.23329 0.0715078 -0.224014 31 142 243
-0.221619 0.075311 -0.146044 31 142 243
-0.420843 0.0749959 -0.18463 31 142 243
0.270395 0.0712732 -0.0714484 31 142 243
-0.447748 0.0747236 -0.202872 31 142 243
-0.308767 0.0755854 -0.138434 31 142 243
0.274482 0.071205 0.00482867 31 142 243
0.268373 0.0713148 -0.170786 31 142 243
-0.404676 0.075044 -0.198749 31 142 243
-0.286416 0.0750886 -0.0450491 31 142 243
-0.22493 0.0752741 -0.117804 31 142 243
-0.354408 0.0755471 -0.145 31 142 243
-0.216483 0.0458719 -0.233723 31 142 243
0.216088 0.0716378 -0.206808 31 142 243
-0.311506 0.0752548 -0.0644588 31 142 243
-0.248694 0.0749255 -0.0354659 31 142 243
0.0557257 0.0736069 -0.0131577 31 142 243
-0.469065 0.0747106 -0.18509 31 142 243
0.164133 0.0724065 -0.0400902 31 142 243
-0.164776 0.0746587 -0.0286334 31 142 243
-0.130913 0.0748387 -0.104057 31 142 243
-0.408217 0.0752568 -0.161064 31 142 243
-0.434644 -0.0816536 -0.248794 31 142 243
0.0433173 0.0736127 -0.0622841 31 142 243
0.180174 0.047386 -0.243142 31 142 243
0.0422039 0.0735851 -0.0852653 31 142 243
-0.454648 0.0750207 -0.132255 31 142 243
0.266796 0.0713097 -0.103483 31 142 243
-0.0666189 -0.0615128 -0.24356 31 142 243
-0.193825 0.0749805 -0.0769486 31 142 243
-0.403223 0.0744407 -0.0210261 31 142 243
0.295794 0.0708843 -0.0348207 31 142 243
-0.0900565 0.0746115 -0.0953841 31 142 243
-0.239167 -0.0967237 -0.247687 31 142 243
0.114476 0.0734223 0.0323582 31 142 243
0.0294097 0.0734034 -0.163453 31 142 243
-0.159762 -0.0133728 -0.240032 31 142 243
0.11489 0.072988 -0.0311895 31 142 243
-0.442408 0.0747161 -0.212092 31 142 243
-0.0842635 -0.0874696 -0.245925 31 142 243
-0.381192 0.0743201 0.00380769 31 142 243
-0.455972 0.0749812 -0.142641 31 142 243
-0.35118 0.0741443 0.0310045 31 142 243
-0.407776 0.0751011 -0.18702 31 142 243
-0.0650046 0.0666621 -0.22831 31 142 243
-0.0973977 0.0743082 -0.00257625 31 142 243
-0.0106871 0.0347966 -0.23638 31 142 243
-0.137806 0.0379848 -0.23354 31 142 243
-0.410185 0.0749431 -0.0936879 31 142 243
0.297883 0.0710395 -0.111462 31 142 243
0.0326694 -0.021278 -0.245792 31 142 243
-0.373341 0.0752201 -0.229085 31 142 243
-0.451496 0.0748807 -0.0985248 31 142 243
-0.201984 0.0752264 -0.139639 31 142 243
0.150417 0.0724016 -0.0943287 31 142 243
0.0386202 0.0735651 -0.106197 31 142 243
0.0288304 0.0737183 -0.0758974 31 142 243
-0.261826 -0.0969744 -0.248198 31 142 243
-0.0999997 0.0745011 -0.0510924 31 142 243
-0.0357815 0.0740955 0.0131039 31 142 243
-0.327291 0.0754135 -0.0956467 31 142 243
0.238011 -0.0829241 -0.259657 31 142 243
-0.31926 0.0215087 -0.242271 31 142 243
-0.00648841 0.0233697 -0.238171 31 142 243
0.122919 0.0728315 -0.0542938 31 142 243
0.176079 0.0723258 -0.01088 31 142 243
0.103913 0.0726984 -0.143208 31 142 243
0.148273 0.0722958 -0.141562 31 142 243
-0.449854 0.0575231 -0.234582 31 142 243
-0.154592 0.0750517 -0.197534 31 142 243
0.143264 -0.0403162 -0.252384 31 142 243
0.193613 0.0717639 -0.21772 31 142 243
-0.0864528 -0.0856328 -0.245691 31 142 243
-0.366332 0.0741239 0.0278822 31 142 243
0.0210965 0.00341305 -0.242925 31 142 243
-0.129371 0.074666 -0.0583187 31 142 243
-0.273242 0.0755615 -0.184883 31 142 243
-0.0350907 0.0742608 -0.070437 31 142 243
0.0375164 0.0731532 -0.19403 31 142 243
-0.464531 0.0745152 -0.222542 31 142 243
-0.140559 0.0738619 -0.22676 31 142 243
-0.230076 -0.0623671 -0.245273 31 142 243
0.0179016 0.0731558 -0.212283 31 142 243
0.17734 0.0721671 -0.0794747 31 142 243
-0.410699 0.0375557 -0.240162 31 142 243
-0.26741 0.0748637 -0.0167628 31 142 243
-0.441045 0.0746111 -0.0485281 31 142 243
-0.384932 0.00569604 -0.243256 31 142 243
-0.222136 0.075296 -0.136445 31 142 243
0.0588337 -0.0371486 -0.248925 31 142 243
0.130707 -0.0789422 -0.254779 31 142 243
-0.201508 0.0743939 0.0329931 31 142 243
0.279241 0.0712345 -0.194534 31 142 243
-0.0410528 -0.106197 -0.24926 31 142 243
-0.0407633 0.0742321 -0.0416479 31 142 243
0.244146 0.0714281 -0.226359 31 142 243
0.0334643 -0.037056 -0.247013 31 142 243
-0.0629658 0.0742699 -0.0256575 31 142 243
0.0484902 0.0739196 0.0355669 31 142 243
-0.111213 0.0747552 -0.110768 31 142 243
0.186758 0.0506513 -0.242803 31 142 243
-0.153726 0.0749798 -0.206881 31 142 243
-0.206649 0.074965 -0.0620006 31 142 243
0.0183294 0.0737809 -0.0892558 31 142 243
0.303419 0.0709795 -0.0694381 31 142 243
-0.457399 0.0747547 -0.187288 31 142 243
0.000420012 0.0740817 -0.028352 31 142 243
-0.411971 0.0752077 -0.128606 31 142 243
-0.38552 0.0749685 -0.0751149 31 142 243
0.00382944 -0.102188 -0.25018 31 142 243
0.071347 0.0733317 -0.0759696 31 142 243
0.118964 0.0556344 -0.241779 31 142 243
-0.326782 0.0742298 0.033847 31 142 243
0.0125629 0.0737936 -0.105368 31 142 243
-0.172543 0.0750915 -0.146971 31 142 243
-0.410503 -0.0914136 -0.24991 31 142 243
-0.373143 0.0746279 -0.0238717 31 142 243
-0.212243 0.0745668 0.00921484 31 142 243
-0.397224 0.0136615 -0.242469 31 142 243
-0.2615 0.0750603 -0.0501999 31 142 243
0.11526 0.0729071 -0.0652949 31 142 243
0.24841 0.0711698 0.00395049 31 142 243
-0.119347 -0.0332756 -0.240534 31 142 243
-0.433025 0.0746942 -0.0624043 31 142 243
0.274891 0.0712435 -0.111163 31 142 243
-0.315232 0.0756581 -0.164269 31 142 243
0.269327 0.0712799 -0.223601 31 142 243
-0.0515324 0.0743947 -0.0867782 31 142 243
-0.193619 0.0745944 -0.00477501 31 142 243
0.253292 0.0714057 -0.0277157 31 142 243
0.220746 0.0717436 -0.0405929 31 142 243
0.211991 0.0718495 -0.043269 31 142 243
-0.456489 0.0745879 -0.220196 31 142 243
0.204952 0.0718802 -0.0840154 31 142 243
-0.230827 0.0753545 -0.153851 31 142 243
-0.0988841 0.0744501 -0.0355011 31 142 243
-0.246102 0.0745238 0.0245374 31 142 243
-0.465155 0.0735234 -0.22416 31 142 243
-0.218418 0.0744898 0.0240483 31 142 243
-0.0590352 0.0742673 -0.030004 31 142 243
0.257056 0.0713763 -0.218333 31 142 243
-0.337178 -0.0153211 -0.244734 31 142 243
-0.362833 0.0742057 0.0204961 31 142 243
0.201453 0.0718591 -0.133725 31 142 243
-0.0340547 0.0738876 -0.169886 31 142 243
0.0993875 0.0730906 -0.0572508 31 142 243
-0.387815 0.0746871 -0.0420657 31 142 243
-0.362786 0.0742782 0.0139212 31 142 243
-0.458697 0.0749657 -0.1215 31 142 243
-0.0935934 0.0746847 -0.135514 31 142 243
0.222631 0.0716829 -0.146535 31 142 243
-0.0511181 -0.0176969 -0.2398 31 142 243
-0.356234 0.0750158 -0.0573087 31 142 243
0.0383919 0.073628 -0.079962 31 142 243
0.0253213 0.0736738 -0.1092 31 142 243
-0.349819 0.0751467 -0.0712351 31 142 243
-0.137111 0.0748138 -0.205234 31 142 243
-0.09466 0.0744885 -0.180062 31 142 243
-0.173362 0.0747989 -0.0467297 31 142 243
-0.107887 -0.0770447 -0.244612 31 142 243
-0.319387 0.0756288 -0.207933 31 142 243
-0.0353992 0.0498966 -0.232435 31 142 243
-0.467568 0.074548 -0.214428 31 142 243
-0.264668 0.0752412 -0.0872006 31 142 243
-0.368893 0.0754287 -0.128948 31 142 243
0.323838 0.056143 -0.0349903 31 142 243
-0.0753719 0.0745459 -0.0975011 31 142 243
0.300018 0.0710299 -0.142947 31 142 243
-0.0544224 0.0743925 -0.115869 31 142 243
-0.20992 0.0752829 -0.156909 31 142 243
0.0763264 0.0731867 -0.125178 31 142 243
-0.417527 0.0750873 -0.17624 31 142 243
-0.258927 0.0754471 -0.150448 31 142 243
0.195532 -0.110701 -0.257102 31 142 243
0.0636277 0.0733275 -0.115803 31 142 243
0.268256 0.0712396 -0.233329 31 142 243
-0.290737 0.0756222 -0.185418 31 142 243
-0.399418 -0.0987576 -0.250253 31 142 243
-0.152831 0.0749298 -0.100424 31 142 243
0.0233475 0.0738919 0.00241386 31 142 243
-0.192051 0.0752354 -0.203975 31 142 243
0.0186421 -0.0930534 -0.25022 31 142 243
-0.319055 0.0751799 -0.05185 31 142 243
0.234916 0.0714844 -0.227122 31 142 243
-0.358538 0.0753933 -0.116516 31 142 243
0.0738565 0.0694584 -0.236268 31 142 243
0.236512 0.0714365 -9.38401e-06 31 142 243
-0.445252 0.0749511 -0.167143 31 142 243
-0.465708 -0.0392965 -0.24654 31 142 243
0.122889 0.0416396 -0.244778 31 142 243
-0.360645 0.0754971 -0.138369 31 142 243
0.0499827 0.0735756 -0.0499094 31 142 243
-0.330461 0.0742593 0.0294578 31 142 243
-0.223829 0.0753735 -0.184352 31 142 243
-0.0388624 0.0463766 -0.23304 31 142 243
-0.190428 0.0745507 0.00143777 31 142 243
0.292598 0.0709496 -0.00486908 31 142 243
-0.169963 0.0747502 -0.0407414 31 142 243
-0.462114 0.0749348 -0.148832 31 142 243
-0.172194 0.0747796 -0.0435728 31 142 243
-0.259644 0.0754823 -0.169314 31 142 243
0.17834 0.0718854 -0.194927 31 142 243
0.0034927 0.072471 -0.220158 31 142 243
-0.362949 0.0755194 -0.146846 31 142 243
-0.220739 0.0752945 -0.138296 31 142 243
-0.125794 0.0748334 -0.118988 31 142 243
-0.314991 0.0209858 -0.242279 31 142 243
0.238299 0.0715371 -0.171602 31 142 243
-0.256376 0.0745123 0.0273146 31 142 243
-0.37542 0.0751873 -0.23075 31 142 243
-0.46168 0.0572747 -0.232813 31 142 243
-0.320952 0.0755258 -0.112321 31 142 243
-0.430946 0.0748016 -0.206179 31 142 243
0.264767 0.0713062 -0.0437964 31 142 243
0.220102 0.0622356 -0.24317 31 142 243
0.2071 0.0718518 -0.0877664 31 142 243
-0.061533 -0.0321956 -0.240808 31 142 243
-0.0357274 0.0742267 -0.109581 31 142 243
-0.462506 0.066219 -0.229196 31 142 243
-0.405561 0.0450776 -0.239439 31 142 243
-0.249871 0.0754266 -0.159218 31 142 243
-0.409475 0.0749376 -0.209536 31 142 243
-0.456135 -0.000574797 -0.244095 31 142 243
-0.391496 -0.0202355 -0.245784 31 142 243
-0.425796 0.0748223 -0.207684 31 142 243
0.222139 0.00736763 -0.251242 31 142 243
-0.457951 0.0749561 -0.15409 31 142 243
-0.0553097 -0.0255103 -0.240381 31 142 243
0.241887 0.0715244 -0.145553 31 142 243
-0.143072 0.0748451 -0.0896175 31 142 243
0.0122043 0.0739928 -0.0237041 31 142 243
-0.094069 -0.0306383 -0.239687 31 142 243
-0.310003 0.0756779 -0.181059 31 142 243
-0.260417 0.0750255 -0.0466463 31 142 243
0.151434 0.0724022 -0.0894521 31 142 243
0.0314625 0.0737854 -0.0312795 31 142 243
-0.0139071 0.0739452 -0.121934 31 142 243
-0.472033 0.0746936 -0.186049 31 142 243
-0.0531317 0.0742151 -0.14604 31 142 243
-0.0667895 -0.100867 -0.247764 31 142 243
-0.476173 0.0746343 -0.192768 31 142 243
0.129715 0.0728896 -0.0139993 31 142 243
-0.0164365 0.0739683 -0.121604 31 142 243
-0.046524 0.074044 -0.164757 31 142 243
-0.475212 0.0745633 -0.203573 31 142 243
-0.362611 0.0751833 -0.0892669 31 142 243
-0.000423025 0.0740061 0.0040296 31 142 243
0.210739 0.0716796 -0.214693 31 142 243
0.0364145 0.0735771 -0.109089 31 142 243
0.172536 0.0720239 -0.161106 31 142 243
0.191235 0.0717915 -0.212159 31 142 243
-0.23035 0.0753687 -0.221376 31 142 243
-0.333312 0.0750456 -0.0462261 31 142 243
-0.44539 0.0746954 -0.0603262 31 142 243
-0.45317 0.0748936 -0.10271 31 142 243
0.243328 0.0715089 -0.0900598 31 142 243
0.204653 -0.0898131 -0.2558 31 142 243
-0.390229 0.0753373 -0.13053 31 142 243
0.217679 0.0667906 -0.241672 31 142 243
-0.18465 0.0745418 0.000130434 31 142 243
-0.465221 0.0746015 -0.204612 31 142 243
0.0250723 0.0734719 -0.15462 31 142 243
-0.226047 0.0744957 0.0250931 31 142 243
-0.162065 0.0750296 -0.138028 31 142 243
0.0540133 0.0732939 -0.14255 31 142 243
-0.149964 0.0742876 0.0287426 31 142 243
0.204648 0.0710437 -0.233105 31 142 243
-0.461006 0.0250981 -0.240922 31 142 243
0.0395444 0.0737376 -0.0247072 31 142 243
0.30844 0.0709594 -0.149418 31 142 243
-0.0983051 0.0743501 -0.210862 31 142 243
0.0433698 0.0737709 0.00328425 31 142 243
-0.294644 0.0744537 0.0302905 31 142 243
-0.000556374 0.0740063 -0.0603087 31 142 243
-0.445318 0.010737 -0.242909 31 142 243
0.00591098 0.0740442 0.0255912 31 142 243
-0.0574472 0.0744108 -0.118658 31 142 243
-0.344259 0.0750564 -0.0532645 31 142 243
0.138611 -0.101304 -0.256428 31 142 243
-0.272505 0.0748475 -0.0128678 31 142 243
-0.438178 0.0747332 -0.21439 31 142 243
0.0843288 0.0733149 -0.0226893 31 142 243
0.028351 0.0733195 -0.184081 31 142 243
-0.179676 0.0751651 -0.183037 31 142 243
-0.382747 0.0752858 -0.118531 31 142 243
-0.437509 0.0745558 -0.0422278 31 142 243
0.0929567 0.0727882 -0.149606 31 142 243
-0.432754 -0.00757479 -0.244167 31 142 243
0.229891 0.0715164 -0.22722 31 142 243
-0.146656 0.0749142 -0.205541 31 142 243
-0.14041 0.0560348 -0.230689 31 142 243
-0.40592 0.0749234 -0.223981 31 142 243
-0.380167 0.0744498 -0.00955623 31 142 243
-0.037994 0.0742375 -0.112182 31 142 243
-0.0466568 0.0743271 -0.0726382 31 142 243
-0.333346 -0.0534529 -0.247228 31 142 243
-0.449174 0.0748425 -0.0887492 31 142 243
-0.442675 0.0750255 -0.121507 31 142 243
-0.291102 -0.0720075 -0.247253 31 142 243
-0.323542 0.0754415 -0.0983426 31 142 243
-0.316086 0.075329 -0.0799611 31 142 243
0.137881 0.0729457 0.00102353 31 142 243
-0.0598642 0.0740763 -0.186935 31 142 243
-0.170588 0.0750526 -0.112745 31 142 243
0.256246 0.0713963 -0.093063 31 142 243
-0.149735 0.075005 -0.180201 31 142 243
-0.100359 0.0744485 -0.0334222 31 142 243
-0.349383 -0.0465601 -0.24704 31 142 243
0.0159101 0.0740868 0.0396125 31 142 243
0.214287 -0.0274389 -0.253872 31 142 243
-0.196232 0.0752638 -0.201074 31 142 243
-0.268428 0.075547 -0.185722 31 142 243
0.279043 -0.0399347 -0.23064 0 180 235
-0.0301622 0.0533056 -0.240735 0 180 235
-0.104979 -0.426373 -0.263396 0 180 235
-0.388355 -0.181087 -0.251378 0 180 235
0.000723193 -0.422093 -0.254494 0 180 235
-0.234174 0.0380442 -0.249149 0 180 235
-0.224409 0.0164992 -0.254738 0 180 235
-0.269242 -0.051582 -0.257108 0 180 235
0.194781 0.0477406 -0.233991 0 180 235
0.123754 -0.29147 -0.253385 0 180 235
0.260409 -0.00694804 -0.231636 0 180 235
-0.36704 0.0481003 -0.243895 0 180 235
-0.303262 -0.028259 -0.256818 0 180 235
-0.0408134 -0.388095 -0.271003 0 180 235
0.0751778 0.0532704 -0.241381 0 180 235
0.237444 0.0126208 -0.233094 0 180 235
-0.289805 -0.208117 -0.258703 0 180 235
0.273365 0.0658121 -0.141552 0 180 235
-0.28047 0.0324366 -0.250382 0 180 235
0.291446 0.0578073 -0.159899 0 180 235
0.207831 -0.0223229 -0.23908 0 180 235
0.147004 -0.425846 -0.144296 0 180 235
-0.247892 -0.0427094 -0.25846 0 180 235
-0.12317 -0.358098 -0.259264 0 180 235
0.0666806 0.0265346 -0.246472 0 180 235
0.186725 -0.12906 -0.245769 0 180 235
-0.0786335 -0.189433 -0.264268 0 180 235
-0.0428619 -0.0161942 -0.256112 0 180 235
-0.0808865 0.0756211 -0.225265 0 180 235
0.213149 -0.184689 -0.245796 0 180 235
-0.0207653 -0.00085631 -0.25421 0 180 235
-0.27375 0.0706883 -0.22248 0 180 235
-0.188683 0.0013452 -0.258347 0 180 235
0.215899 -0.187429 -0.24604 0 180 235
0.00721798 0.0816291 -0.179361 0 180 235
0.226237 0.073679 -0.121489 0 180 235
0.157397 -0.325326 -0.235848 0 180 235
-0.3496 -0.39189 -0.253985 0 180 235
0.198692 -0.103631 -0.244349 0 180 235
-0.343761 -0.256277 -0.253036 0 180 235
0.252897 -0.297342 -0.219798 0 180 235
-0.445872 0.050516 -0.235818 0 180 235
0.10409 0.0808075 -0.164006 0 180 235
-0.226416 0.0490721 -0.245549 0 180 235
-0.0763782 -0.0970654 -0.261695 0 180 235
-0.283814 -0.395905 -0.253759 0 180 235
-0.221243 -0.0534886 -0.259 0 180 235
-0.331452 -0.407684 -0.254835 0 180 235
-0.231624 -0.00208716 -0.25878 0 180 235
-0.13314 0.0377433 -0.246888 0 180 235
0.0851248 -0.377774 -0.243586 0 180 235
-0.17951 0.0782222 -0.181794 0 180 235
-0.0643467 -0.424434 -0.272821 0 180 235
0.270966 -0.317281 -0.238634 0 180 235
0.0183659 0.0810151 -0.193972 0 180 235
-0.0510136 -0.417863 -0.273213 0 180 235
-0.042779 -0.4309 -0.274077 0 180 235
0.200222 0.00609384 -0.237938 0 180 235
-0.388289 -0.234193 -0.250377 0 180 235
-0.196156 -0.0147289 -0.260104 0 180 235
-0.019919 0.0809937 -0.193086 0 180 235
0.019066 -0.411554 -0.273131 0 180 235
0.023485 -0.285831 -0.259274 0 180 235
0.249372 -0.342236 -0.255474 0 180 235
0.28672 -0.315674 -0.149075 0 180 235
0.0181681 0.035897 -0.24678 0 180 235
0.308085 0.0433096 -0.157736 0 180 235
-0.346742 0.0735751 -0.191334 0 180 235
0.25935 -0.0429507 -0.234637 0 180 235
-0.337914 -0.175786 -0.255768 0 180 235
-0.400039 0.00698388 -0.247616 0 180 235
0.183868 -0.359221 -0.21752 0 180 235
-0.284312 0.014138 -0.253831 0 180 235
-0.397863 -0.175927 -0.250666 0 180 235
0.28118 0.0530764 -0.211076 0 180 235
-0.119262 0.045171 -0.243697 0 180 235
-0.300448 0.0407171 -0.248175 0 180 235
-0.185906 -0.294145 -0.262576 0 180 235
-0.0192735 -0.431798 -0.274003 0 180 235
0.0328247 -0.358962 -0.251871 0 180 235
0.307342 -0.0485319 -0.186249 0 180 235
-0.386431 -0.0737018 -0.250114 0 180 235
-0.0314617 -0.0146417 -0.255583 0 180 235
-0.403943 -0.0387846 -0.247788 0 180 235
0.0226795 -0.338497 -0.249269 0 180 235
0.288092 -0.108066 -0.232528 0 180 235
0.24408 -0.404676 -0.0905278 0 180 235
-0.28181 0.075733 -0.187413 0 180 235
-0.00698324 -0.173798 -0.26275 0 180 235
-0.293369 0.00109127 -0.256526 0 180 235
0.172399 -0.340423 -0.261165 0 180 235
0.284555 0.0529842 -0.208401 0 180 235
-0.142286 0.0463791 -0.243092 0 180 235
0.255647 -0.0941675 -0.23808 0 180 235
-0.191849 -0.147012 -0.261413 0 180 235
-0.0660033 -0.0219118 -0.258408 0 180 235
-0.213446 -0.341446 -0.259858 0 180 235
0.278769 -0.106691 -0.236848 0 180 235
0.267989 0.0500554 -0.221239 0 180 235
0.248391 0.0353854 -0.22785 0 180 235
-0.395975 0.033467 -0.245024 0 180 235
-0.22428 -0.285674 -0.2613 0 180 235
0.297031 -0.167479 -0.226316 0 180 235
-0.00836381 0.0806264 -0.124188 0 180 235
-0.0806441 -0.135842 -0.26353 0 180 235
-0.0520978 -0.346336 -0.25297 0 180 235
0.183028 0.00533734 -0.239894 0 180 235
0.296728 -0.304818 -0.185521 0 180 235
0.146183 -0.425541 -0.127397 0 180 235
-0.272148 -0.400074 -0.254355 0 180 235
-0.221008 -0.0875198 -0.259497 0 180 235
0.153487 0.0775144 -0.098085 0 180 235
-0.370425 0.0665317 -0.216259 0 180 235
-0.356959 -0.216715 -0.253183 0 180 235
-0.0576277 0.0812687 -0.178491 0 180 235
-0.131749 0.0800659 -0.139984 0 180 235
0.258937 0.0283492 -0.22769 0 180 235
0.0265709 -0.381624 -0.268109 0 180 235
-0.306146 -0.0411942 -0.255738 0 180 235
0.0526117 -0.241827 -0.256159 0 180 235
-0.419045 -0.0305532 -0.246122 0 180 235
-0.278007 0.0657394 -0.235503 0 180 235
-0.309226 0.000675991 -0.255872 0 180 235
-0.286698 -0.324553 -0.255406 0 180 235
-0.405563 -0.057978 -0.247821 0 180 235
-0.423861 -0.00935768 -0.246044 0 180 235
0.145219 -0.331507 -0.259041 0 180 235
-0.0240438 -0.00294614 -0.25454 0 180 235
0.231256 -0.321586 -0.258251 0 180 235
-0.203999 -0.0287254 -0.260307 0 180 235
0.0393594 -0.309315 -0.257527 0 180 235
0.0615713 -0.225088 -0.255472 0 180 235
-0.190496 -0.0675846 -0.259566 0 180 235
-0.339809 0.0736436 -0.193806 0 180 235
0.0633462 0.0208414 -0.246468 0 180 235
-0.361245 -0.0175814 -0.252493 0 180 235
-0.155314 0.0520085 -0.240156 0 180 235
0.196568 -0.0900344 -0.243965 0 180 235
-0.0455893 0.0233616 -0.251441 0 180 235
0.137877 0.080173 -0.197936 0 180 235
-0.311607 -0.384464 -0.252548 0 180 235
-0.209497 0.0709613 -0.22613 0 180 235
-0.349286 -0.0421945 -0.253202 0 180 235
-0.259196 -0.336376 -0.256918 0 180 235
-0.236778 0.034988 -0.249858 0 180 235
-0.349002 0.0560163 -0.241586 0 180 235
-0.0440036 -0.205883 -0.263853 0 180 235
-0.156564 0.0795739 -0.169432 0 180 235
-0.421375 0.0359829 -0.243222 0 180 235
0.0696028 0.0805941 -0.205008 0 180 235
-0.269739 0.0753171 -0.195442 0 180 235
-0.104241 0.0473263 -0.242588 0 180 235
-0.38909 -0.00876284 -0.249546 0 180 235
-0.367013 -0.356319 -0.251905 0 180 235
0.00529844 0.0810783 -0.191427 0 180 235
-0.0657912 -0.370765 -0.256373 0 180 235
-0.0653637 0.0452943 -0.244587 0 180 235
-0.234048 0.00133961 -0.258072 0 180 235
0.159207 0.00879402 -0.242958 0 180 235
0.0150355 0.0462836 -0.244649 0 180 235
-0.397351 -0.247823 -0.249901 0 180 235
-0.195815 0.0425484 -0.247438 0 180 235
0.220948 -0.0285086 -0.237403 0 180 235
0.169428 -0.311106 -0.255832 0 180 235
-0.241951 -0.201153 -0.261234 0 180 235
-0.144085 -0.307265 -0.263826 0 180 235
0.195884 -0.371973 -0.21612 0 180 235
0.305209 0.0453721 -0.170816 0 180 235
-0.389825 -0.271518 -0.249827 0 180 235
0.302975 -0.208329 -0.195973 0 180 235
-0.141707 -0.421664 -0.258774 0 180 235
-0.313844 -0.327599 -0.253254 0 180 235
0.239762 -0.0824529 -0.240011 0 180 235
0.281844 -0.0510496 -0.230895 0 180 235
-0.0804341 -0.323026 -0.264203 0 180 235
-0.238633 0.0515495 -0.244752 0 180 235
0.225876 0.0350002 -0.231942 0 180 235
0.231778 -0.365009 -0.189423 0 180 235
-0.180895 -0.109112 -0.261016 0 180 235
0.24396 -0.402044 -0.101283 0 180 235
0.220516 -0.302861 -0.22615 0 180 235
-0.198135 -0.0273421 -0.260512 0 180 235
0.299821 -0.244043 -0.210331 0 180 235
0.267601 0.0679371 -0.131734 0 180 235
0.21312 -0.0528025 -0.241378 0 180 235
-0.227545 0.00499358 -0.257473 0 180 235
-0.0819325 -0.386137 -0.274878 0 180 235
-0.29005 0.0757602 -0.185326 0 180 235
0.034125 -0.164407 -0.260234 0 180 235
0.110776 -0.317907 -0.245354 0 180 235
-0.0263181 0.0818727 -0.172957 0 180 235
-0.305453 -0.0155109 -0.257144 0 180 235
-0.235425 -0.019893 -0.259617 0 180 235
-0.331794 -0.316591 -0.252321 0 180 235
-0.117016 0.0777641 -0.214529 0 180 235
-0.316435 0.0184385 -0.251913 0 180 235
0.0447624 -0.194826 -0.258691 0 180 235
0.178131 -0.0806559 -0.245145 0 180 235
0.000283153 -0.297747 -0.260892 0 180 235
-0.0241078 0.0667392 -0.232586 0 180 235
-0.0371492 -0.363983 -0.261318 0 180 235
-0.0688062 0.0773265 -0.22205 0 180 235
0.235335 0.0698686 -0.210035 0 180 235
0.119754 -0.426597 -0.0804944 0 180 235
0.119487 -0.416901 -0.228009 0 180 235
0.275109 0.0513824 -0.217484 0 180 235
0.255463 0.00164066 -0.231846 0 180 235
0.290742 0.0543952 -0.192168 0 180 235
0.0551144 -0.327458 -0.258604 0 180 235
0.280085 -0.321662 -0.174595 0 180 235
0.279034 -0.291363 -0.240242 0 180 235
0.00434982 -0.319917 -0.26046 0 180 235
0.206275 -0.245877 -0.249569 0 180 235
-0.267321 -0.0940268 -0.257618 0 180 235
0.173502 0.00350417 -0.241175 0 180 235
-0.295646 0.067653 -0.228475 0 180 235
-0.16906 0.0739574 -0.21964 0 180 235
0.214058 0.0612798 -0.226725 0 180 235
0.0691288 -0.0740256 -0.254959 0 180 235
-0.100053 0.0483832 -0.242079 0 180 235
-0.124622 -0.0143713 -0.260196 0 180 235
0.272424 -0.388584 -0.10231 0 180 235
-0.218584 -0.0975338 -0.259888 0 180 235
0.259101 0.0327683 -0.226848 0 180 235
-0.34762 0.0678554 -0.218903 0 180 235
-0.287407 0.0762642 -0.178489 0 180 235
-0.436119 0.00183749 -0.245742 0 180 235
-0.438575 0.047975 -0.236556 0 180 235
-0.280129 -0.342101 -0.255061 0 180 235
0.31184 0.021931 -0.164531 0 180 235
0.0879112 0.0210122 -0.246025 0 180 235
0.178615 0.0696568 -0.224984 0 180 235
-0.259576 0.0628649 -0.239631 0 180 235
0.185971 0.0760399 -0.0939615 0 180 235
0.0347956 -0.298421 -0.258019 0 180 235
-0.125141 -0.411396 -0.260123 0 180 235
0.206693 0.0762541 -0.180112 0 180 235
-0.171539 0.0794854 -0.158937 0 180 235
-0.251529 -0.347704 -0.256943 0 180 235
0.171664 0.0778837 -0.126688 0 180 235
-0.381366 0.0708829 -0.196697 0 180 235
0.268904 -0.381138 -0.11829 0 180 235
0.307534 -0.0086744 -0.195175 0 180 235
0.108376 -0.035131 -0.250427 0 180 235
-0.427022 0.0204836 -0.245149 0 180 235
0.090987 0.00101572 -0.248588 0 180 235
0.304844 0.0352335 -0.195345 0 180 235
0.280671 -0.32668 -0.241571 0 180 235
-0.321831 0.0742953 -0.194135 0 180 235
0.234027 -0.0788251 -0.240674 0 180 235
0.23165 0.0116076 -0.233857 0 180 235
0.275548 -0.331534 -0.176154 0 180 235
-0.285445 -0.0822415 -0.256242 0 180 235
0.231262 0.0363357 -0.230586 0 180 235
0.153307 0.0798542 -0.150472 0 180 235
-0.0485081 0.0679863 -0.231745 0 180 235
-0.0377836 -0.0339142 -0.258679 0 180 235
0.0284032 -0.130531 -0.259915 0 180 235
-0.224221 0.073452 -0.216599 0 180 235
-0.144724 -0.00761748 -0.259543 0 180 235
0.266233 -0.065063 -0.235394 0 180 235
-0.338694 -0.0604893 -0.252476 0 180 235
-0.190628 -0.356802 -0.260651 0 180 235
-0.107445 -0.36899 -0.253642 0 180 235
0.187449 -0.0913335 -0.244504 0 180 235
-0.383956 0.0590889 -0.229913 0 180 235
0.0397175 0.0802016 -0.123367 0 180 235
0.189534 0.0705841 -0.223461 0 180 235
0.305215 -0.06457 -0.19824 0 180 235
0.305596 -0.113261 -0.168257 0 180 235
-0.367241 -0.270094 -0.250975 0 180 235
0.0304344 -0.0153469 -0.252937 0 180 235
0.285212 -0.345395 -0.145738 0 180 235
-0.0892452 0.0805986 -0.181935 0 180 235
-0.150043 0.0791359 -0.184853 0 180 235
-0.368384 0.0212125 -0.249239 0 180 235
-0.300689 -0.0080142 -0.257116 0 180 235
0.298706 0.0483648 -0.193083 0 180 235
-0.247981 0.077626 -0.167374 0 180 235
-0.409456 0.0337177 -0.244 0 180 235
-0.326968 -0.390569 -0.253361 0 180 235
0.1264 -0.000291854 -0.246807 0 180 235
0.154163 0.0802043 -0.168423 0 180 235
0.287802 -0.306237 -0.152661 0 180 235
0.139146 -0.12459 -0.248543 0 180 235
-0.0960424 -0.129932 -0.263339 0 180 235
-0.178256 -0.385294 -0.260595 0 180 235
-0.209164 -0.0520809 -0.259474 0 180 235
0.00452015 0.0808656 -0.200949 0 180 235
0.179451 0.0513867 -0.235019 0 180 235
-0.154 -0.0367146 -0.261488 0 180 235
0.279513 -0.109067 -0.237 0 180 235
0.00439687 0.0817033 -0.162779 0 180 235
0.0061917 -0.441568 -0.221376 0 180 235
0.0874964 0.0796442 -0.118482 0 180 235
0.247933 -0.287577 -0.252074 0 180 235
0.0417698 -0.148177 -0.259692 0 180 235
-0.109528 -0.130469 -0.263204 0 180 235
-0.340952 -0.021988 -0.254328 0 180 235
-0.289491 -0.104667 -0.256707 0 180 235
-0.19325 -0.390767 -0.258947 0 180 235
-0.0966723 -0.422437 -0.263922 0 180 235
-0.0467212 0.0255237 -0.250974 0 180 235
-0.330478 -0.346212 -0.251523 0 180 235
-0.0805362 -0.391253 -0.261901 0 180 235
0.304741 -0.115481 -0.193793 0 180 235
-0.0270076 -0.14114 -0.262497 0 180 235
-0.19019 0.076885 -0.199497 0 180 235
-0.30598 -0.369252 -0.252814 0 180 235
-0.342868 0.0315783 -0.248577 0 180 235
-0.0228578 -0.361419 -0.258941 0 180 235
0.277403 0.0649058 -0.139711 0 180 235
0.021401 -0.38513 -0.26152 0 180 235
0.0965397 -0.124643 -0.252847 0 180 235
-0.236474 0.0103722 -0.256167 0 180 235
0.102522 -0.141159 -0.251774 0 180 235
0.0443592 -0.385924 -0.256902 0 180 235
0.291223 -0.293328 -0.143305 0 180 235
-0.41887 0.0577997 -0.22221 0 180 235
0.0709817 -0.33328 -0.259703 0 180 235
-0.0548735 0.028501 -0.250303 0 180 235
-0.353152 -0.381267 -0.25324 0 180 235
0.213724 -0.227296 -0.248506 0 180 235
0.101379 -0.0103615 -0.249116 0 180 235
0.0748905 0.0799041 -0.123806 0 180 235
-0.388226 0.0373385 -0.244849 0 180 235
-0.430679 0.01183 -0.245414 0 180 235
-0.172884 -0.0793998 -0.260384 0 180 235
-0.10025 -0.130917 -0.263334 0 180 235
-0.356556 -0.18173 -0.254308 0 180 235
0.245896 -0.030442 -0.235088 0 180 235
0.239831 0.0250494 -0.231396 0 180 235
-0.0831357 0.0810519 -0.154212 0 180 235
0.0524178 -0.350225 -0.247765 0 180 235
-0.357946 -0.247281 -0.252287 0 180 235
-0.316593 0.00615091 -0.254655 0 180 235
0.0688569 -0.423548 -0.233645 0 180 235
0.246961 -0.359564 -0.178026 0 180 235
0.10905 -0.116686 -0.25162 0 180 235
-0.0847014 -0.20435 -0.264228 0 180 235
0.206091 0.0753074 -0.0898123 0 180 235
-0.15913 0.0778657 -0.199647 0 180 235
-0.100027 -0.385303 -0.262667 0 180 235
0.0997385 -0.0544537 -0.252078 0 180 235
0.0271057 -0.369709 -0.256033 0 180 235
-0.0384341 -0.408275 -0.271859 0 180 235
0.121319 -0.426152 -0.194058 0 180 235
-0.11764 -0.357622 -0.249028 0 180 235
0.269857 -0.240174 -0.244421 0 180 235
0.0576218 0.0809773 -0.154503 0 180 235
0.299955 0.0446897 -0.199413 0 180 235
-0.378648 -0.139618 -0.252399 0 180 235
0.237073 -0.209283 -0.248507 0 180 235
0.28871 -0.316188 -0.228833 0 180 235
-0.248864 -0.301149 -0.259294 0 180 235
-0.133471 0.0688723 -0.230133 0 180 235
0.153473 -0.120292 -0.247225 0 180 235
0.0992749 -0.400772 -0.244097 0 180 235
-0.337227 -0.200436 -0.255355 0 180 235
-0.365051 -0.377914 -0.253272 0 180 235
0.138417 -0.0910932 -0.249234 0 180 235
0.0949457 -0.374285 -0.267759 0 180 235
-0.287679 0.0658159 -0.234232 0 180 235
-0.108277 -0.0974359 -0.261855 0 180 235
-0.381916 -0.109424 -0.251274 0 180 235
0.179881 0.0396658 -0.23749 0 180 235
-0.293106 -0.185641 -0.258443 0 180 235
-0.252347 0.0392501 -0.248831 0 180 235
0.231675 0.0736582 -0.0558901 0 180 235
-0.290184 -0.40809 -0.253849 0 180 235
-0.207732 0.0507744 -0.244251 0 180 235
-0.0685018 0.0218753 -0.252547 0 180 235
-0.0459431 -0.267092 -0.263758 0 180 235
-0.190698 -0.0783684 -0.259902 0 180 235
0.187944 0.0679297 -0.225747 0 180 235
-0.397982 0.0203933 -0.246733 0 180 235
0.184264 -0.0152646 -0.242302 0 180 235
0.176671 0.0780145 -0.134729 0 180 235
0.26106 -0.0725971 -0.236626 0 180 235
0.216609 -0.326434 -0.26125 0 180 235
0.233798 -0.0110755 -0.234944 0 180 235
-0.098893 0.0575236 -0.236899 0 180 235
-0.106008 0.0772693 -0.218272 0 180 235
0.281769 0.0608753 -0.177647 0 180 235
0.247647 0.0682375 -0.203189 0 180 235
0.248658 0.0710989 -0.117433 0 180 235
-0.0412946 -0.393979 -0.273278 0 180 235
-0.364682 -0.0752175 -0.251628 0 180 235
0.052916 -0.433675 -0.1175 0 180 235
0.201634 -0.374559 -0.268108 0 180 235
0.0461424 -0.374226 -0.253931 0 180 235
-0.112671 -0.357198 -0.249919 0 180 235
-0.211786 0.0781378 -0.161679 0 180 235
-0.373259 -0.365848 -0.252634 0 180 235
-0.215012 -0.208432 -0.262277 0 180 235
0.0964675 0.0788799 -0.091655 0 180 235
0.273524 0.0628599 -0.186846 0 180 235
0.0952815 0.0803447 -0.143223 0 180 235
0.158995 0.0514748 -0.236973 0 180 235
-0.126216 -0.33386 -0.264611 0 180 235
0.284244 -0.293202 -0.237359 0 180 235
0.263613 -0.0527203 -0.234757 0 180 235
-0.387787 0.0635173 -0.218052 0 180 235
-0.0569588 -0.0895129 -0.260623 0 180 235
-0.145582 -0.38209 -0.245479 0 180 235
-0.0898442 -0.00653567 -0.257834 0 180 235
0.262955 -0.351755 -0.253316 0 180 235
0.0227228 0.0812799 -0.184614 0 180 235
-0.0747318 0.0576914 -0.237416 0 180 235
-0.176751 -0.218892 -0.262921 0 180 235
-0.151824 -0.0201416 -0.261226 0 180 235
-0.00499096 -0.0545994 -0.259131 0 180 235
0.23409 0.0321459 -0.231022 0 180 235
-0.357765 -0.378063 -0.25311 0 180 235
0.221938 0.0745173 -0.077788 0 180 235
-0.178179 -0.249686 -0.262801 0 180 235
0.133874 -0.118646 -0.24921 0 180 235
-0.306485 -0.12972 -0.256541 0 180 235
-0.181208 -0.0265915 -0.261045 0 180 235
-0.05468 0.0678508 -0.231589 0 180 235
0.203678 -0.407379 -0.144025 0 180 235
0.0637973 -0.304031 -0.255817 0 180 235
0.270247 -0.30387 -0.246077 0 180 235
-0.140869 0.0773119 -0.212784 0 180 235
-0.388953 -0.130221 -0.251505 0 180 235
-0.143926 0.0798458 -0.165798 0 180 235
-0.320755 -0.0431126 -0.254761 0 180 235
-0.130826 0.0299873 -0.250112 0 180 235
0.131792 -0.344596 -0.225428 0 180 235
-0.10247 0.0564867 -0.237449 0 180 235
-0.264981 -0.0889227 -0.257586 0 180 235
-0.159334 -0.125728 -0.261842 0 180 235
0.0544265 -0.369587 -0.250958 0 180 235
0.259643 -0.101253 -0.237975 0 180 235
0.232747 0.0701785 -0.210839 0 180 235
0.264701 0.065911 -0.177966 0 180 235
-0.208774 -0.337434 -0.260397 0 180 235
0.312842 0.0195328 -0.155708 0 180 235
0.205981 -0.397472 -0.17626 0 180 235
-0.0413658 0.0806952 -0.125558 0 180 235
0.0851344 -0.423299 -0.230077 0 180 235
0.241854 0.015894 -0.232476 0 180 235
-0.354651 -0.0325318 -0.252937 0 180 235
-0.172114 0.078902 -0.17055 0 180 235
-0.0919731 -0.0143341 -0.259311 0 180 235
0.241744 0.0362614 -0.22858 0 180 235
-0.304955 -0.0463082 -0.255463 0 180 235
-0.00681546 -0.361008 -0.26329 0 180 235
-0.0369829 -0.0999485 -0.260849 0 180 235
-0.0356041 -0.364275 -0.261315 0 180 235
0.0706734 -0.393776 -0.250426 0 180 235
0.238905 -0.342752 -0.199325 0 180 235
0.300473 -0.115443 -0.21501 0 180 235
-0.354538 -0.294128 -0.251287 0 180 235
-0.344265 -0.221196 -0.254187 0 180 235
-0.223313 -0.0017031 -0.258787 0 180 235
-0.120427 -0.0308643 -0.261685 0 180 235
0.276048 -0.358498 -0.139853 0 180 235
0.259588 0.0691718 -0.141378 0 180 235
-0.37679 -0.0605663 -0.250186 0 180 235
-0.194057 -0.278463 -0.26246 0 180 235
-0.420602 0.0194083 -0.245243 0 180 235
-0.0774578 0.0805366 -0.187633 0 180 235
0.11986 0.0463307 -0.24153 0 180 235
-0.102437 0.0237414 -0.252062 0 180 235
0.174967 -0.150804 -0.246823 0 180 235
-0.336007 -0.309975 -0.252187 0 180 235
-0.226504 -0.104828 -0.259774 0 180 235
-0.104297 0.0806747 -0.161347 0 180 235
-0.157868 -0.292956 -0.263212 0 180 235
0.308643 0.00116119 -0.190787 0 180 235
0.294915 0.0560183 -0.153804 0 180 235
0.266403 0.0675739 -0.141272 0 180 235
0.255917 -0.345541 -0.253719 0 180 235
-0.355837 -0.262656 -0.252024 0 180 235
-0.252557 -0.171537 -0.260486 0 180 235
-0.168926 -0.0826141 -0.260576 0 180 235
0.289607 -0.280629 -0.232347 0 180 235
-0.0651848 0.0813283 -0.166852 0 180 235
-0.218811 -0.328403 -0.26031 0 180 235
-0.424045 0.0115432 -0.245518 0 180 235
-0.0292742 -0.393682 -0.266242 0 180 235
-0.433638 0.0524574 -0.229619 0 180 235
0.258558 -0.0107111 -0.232273 0 180 235
0.237618 0.0662123 -0.217185 0 180 235
-0.0345605 -0.36967 -0.262948 0 180 235
-0.207363 -0.259251 -0.262126 0 180 235
0.162789 -0.3061 -0.25511 0 180 235
-0.156719 -0.244847 -0.263022 0 180 235
0.279073 -0.288742 -0.197874 0 180 235
0.0691391 -0.433091 -0.142022 0 180 235
-0.315543 -0.351584 -0.252569 0 180 235
-0.186031 0.00471054 -0.257464 0 180 235
0.239368 -0.318487 -0.207261 0 180 235
-0.284695 -0.379153 -0.253931 0 180 235
0.0866463 -0.334017 -0.253251 0 180 235
0.179201 0.021723 -0.239839 0 180 235
0.301797 -0.0801591 -0.209103 0 180 235
-0.269521 -0.00542183 -0.258563 0 180 235
0.134432 -0.0859592 -0.249727 0 180 235
0.0228263 -0.301611 -0.259191 0 180 235
-0.315105 0.0627872 -0.236738 0 180 235
-0.226572 0.0212012 -0.253524 0 180 235
-0.412109 -0.0808849 -0.248359 0 180 235
-0.305562 0.0321882 -0.249833 0 180 235
-0.124311 0.0439157 -0.244195 0 180 235
-0.384071 0.0458866 -0.243215 0 180 235
-0.388703 -0.229173 -0.250457 0 180 235
0.107074 -0.302589 -0.255141 0 180 235
0.278871 -0.288459 -0.197946 0 180 235
-0.379701 0.0639934 -0.219544 0 180 235
0.280674 0.0539257 -0.210641 0 180 235
0.325969 -0.36305 -0.203731 32 212 224
0.323963 -0.31625 -0.19734 32 212 224
0.3206 -0.229117 -0.120893 32 212 224
0.316864 -0.119313 -0.0337284 32 212 224
0.312104 0.0598306 -0.204354 32 212 224
0.312208 -0.429442 -0.118935 32 212 224
0.312104 -0.47234 0.101734 32 212 224
0.321334 -0.475744 0.0851604 32 212 224
0.331006 -0.457915 -0.204374 32 212 224
0.318199 -0.340932 -0.154072 32 212 224
0.314917 -0.0168987 -0.206593 32 212 224
0.326211 -0.342195 0.0267194 32 212 224
0.315599 -0.109535 -0.130367 32 212 224
0.317926 -0.199396 -0.188712 32 212 224
0.315242 -0.0901149 -0.127434 32 212 224
0.326798 -0.32959 -0.0351953 32 212 224
0.249188 -0.471949 -0.0865057 32 212 224
0.31553 -0.0660633 -0.198174 32 212 224
-0.05218 -0.460089 -0.0967056 32 212 224
0.325098 -0.4128 -0.171028 32 212 224
0.194459 -0.374083 -0.188272 32 212 224
0.313967 -0.428973 -0.0852634 32 212 224
0.321358 -0.474293 0.0700318 32 212 224
0.325767 -0.4409 -0.172276 32 212 224
0.333133 -0.483391 -0.0892015 32 212 224
0.316691 -0.162153 -0.155183 32 212 224
0.327295 -0.470176 -0.138545 32 212 224
0.31426 -0.0559772 -0.171036 32 212 224
0.325882 -0.439704 -0.173859 32 212 224
0.323605 -0.373084 -0.125011 32 212 224
0.102791 -0.444185 -0.168714 32 212 224
0.319158 -0.188657 -0.0963176 32 212 224
0.321869 -0.28162 -0.0971984 32 212 224
0.318953 -0.156767 -0.0613945 32 212 224
0.323187 -0.219829 0.00670324 32 212 224
0.327319 -0.304123 -0.00685687 32 212 224
0.326647 -0.428378 -0.186717 32 212 224
0.325817 -0.347115 -0.200872 32 212 224
0.322284 -0.334941 -0.166914 32 212 224
0.323522 -0.354176 -0.139419 32 212 224
0.320287 -0.238962 -0.0635648 32 212 224
0.328097 -0.444914 0.0122616 32 212 224
0.327453 -0.327298 0.0178798 32 212 224
0.327887 -0.361017 -0.0444189 32 212 224
0.327099 -0.466458 -0.114576 32 212 224
0.317155 -0.0506865 -0.0543832 32 212 224
0.32168 -0.23726 -0.0367321 32 212 224
0.32944 -0.473124 0.130253 32 212 224
0.30531 -0.454755 -0.064145 32 212 224
0.332215 -0.485317 -0.187421 32 212 224
0.328144 -0.423833 -0.0388273 32 212 224
0.314221 -0.317373 -0.170404 32 212 224
0.328506 -0.438679 0.013645 32 212 224
0.319066 -0.242101 -0.00292122 32 212 224
0.314022 -0.0322066 -0.17515 32 212 224
0.327642 -0.45426 -0.0445109 32 212 224
0.303924 -0.108886 -0.166064 32 212 224
0.319879 -0.229863 -0.180377 32 212 224
0.315641 0.0375358 -0.155637 32 212 224
0.322971 -0.347923 -0.178337 32 212 224
0.338206 -0.48032 -0.02298 32 212 224
0.315884 -0.109688 -0.163546 32 212 224
0.323342 -0.375981 -0.158692 32 212 224
0.318212 -0.167248 -0.194542 32 212 224
0.0417757 -0.468988 0.0439489 32 212 224
0.31358 -0.0205991 -0.183122 32 212 224
0.326144 -0.447316 -0.0896063 32 212 224
0.0245557 -0.458593 -0.128987 32 212 224
0.324173 -0.32003 0.00978449 32 212 224
0.0820572 -0.470827 -0.0637219 32 212 224
0.31992 -0.216707 -0.0782636 32 212 224
0.332753 -0.476266 -0.203768 32 212 224
0.314263 -0.017386 -0.171746 32 212 224
0.329356 -0.39867 -0.00464662 32 212 224
0.320307 -0.0836614 -0.0633868 32 212 224
0.317921 0.0100124 -0.221239 32 212 224
0.313857 0.0173011 -0.176286 32 212 224
0.273755 -0.477026 0.0495295 32 212 224
0.3245 -0.289024 -0.0293507 32 212 224
0.324092 -0.433814 -0.140487 32 212 224
0.0832591 -0.465872 -0.115574 32 212 224
0.322243 -0.305236 -0.127826 32 212 224
0.330913 -0.478447 -0.187831 32 212 224
0.323937 -0.382597 -0.17013 32 212 224
0.327456 -0.235183 -0.212963 32 212 224
0.32429 -0.437782 0.0538947 32 212 224
0.319191 -0.105335 -0.0643998 32 212 224
0.322668 -0.411626 -0.130298 32 212 224
0.278861 -0.472231 -0.0301099 32 212 224
0.319665 -0.201931 -0.10924 32 212 224
0.335216 -0.481782 -0.0387259 32 212 224
0.318741 -0.188094 -0.136619 32 212 224
0.325813 -0.287315 -0.202176 32 212 224
0.312621 0.0226194 -0.197363 32 212 224
0.313251 -0.00961936 -0.189192 32 212 224
0.328921 -0.375532 -0.0156029 32 212 224
0.324689 -0.387423 -0.0921961 32 212 224
0.299764 -0.156107 -0.0963596 32 212 224
0.328092 -0.395327 0.0257352 32 212 224
0.330523 -0.472077 0.117751 32 212 224
0.067371 -0.47012 0.0821426 32 212 224
