ply
format ascii 1.0
comment Created by Open3D
element vertex 1195
property double x
property double y
property double z
property uchar red
property uchar green
property uchar blue
end_header
-0.189579 -0.276214 -0.0299107 31 142 243
0.0933209 -0.420893 -0.183772 31 142 243
0.369258 -0.462456 -0.053033 31 142 243
0.25512 -0.392136 -0.203721 31 142 243
-0.193063 -0.422221 0.186394 31 142 243
-0.18698 -0.352504 0.0549452 31 142 243
-0.195757 -0.211929 0.0419951 31 142 243
-0.196002 -0.208585 0.0981472 31 142 243
-0.0677933 -0.465041 -0.146159 31 142 243
0.212903 -0.292891 -0.213185 31 142 243
-0.189424 -0.315818 0.0617571 31 142 243
-0.0375927 -0.473149 0.236992 31 142 243
-0.195823 -0.208445 0.125034 31 142 243
-0.0859601 -0.296446 -0.196 31 142 243
-0.187811 -0.385534 0.0425337 31 142 243
0.013255 -0.472262 0.114013 31 142 243
-0.187151 -0.374976 -0.00796996 31 142 243
0.368544 -0.466353 -0.140858 31 142 243
-0.0656647 -0.219599 -0.218356 31 142 243
-0.195841 -0.371376 0.159956 31 142 243
-0.0481613 -0.243511 -0.208096 31 142 243
-0.195292 -0.377904 0.071165 31 142 243
0.287499 -0.387445 -0.195401 31 142 243
-0.189161 -0.346675 -0.110017 31 142 243
0.15754 -0.321767 -0.202408 31 142 243
-0.134878 -0.33438 -0.177083 31 142 243
0.00680963 -0.229401 -0.227191 31 142 243
-0.192318 -0.357574 0.00573059 31 142 243
0.210181 -0.482483 0.18752 31 142 243
0.377168 -0.461168 -0.0615704 31 142 243
0.0103894 -0.489499 0.139637 31 142 243
0.333094 -0.468304 -0.125442 31 142 243
-0.199496 -0.217421 0.255876 31 142 243
0.258266 -0.476822 -0.0328593 31 142 243
-0.188036 -0.394082 0.0801347 31 142 243
-0.194276 -0.249586 0.17428 31 142 243
-0.125105 -0.304642 -0.187293 31 142 243
-0.195315 -0.378981 -0.0133174 31 142 243
0.19929 -0.433321 -0.120943 31 142 243
-0.188354 -0.355021 -0.148349 31 142 243
-0.194982 -0.259548 0.126376 31 142 243
-0.190395 -0.345552 0.144451 31 142 243
0.308943 -0.470474 0.044402 31 142 243
0.114525 -0.273274 -0.209935 31 142 243
-0.201243 -0.23867 0.268683 31 142 243
0.219374 -0.479104 0.0232852 31 142 243
-0.189846 -0.324553 -0.0150547 31 142 243
-0.195978 -0.259926 0.145861 31 142 243
-0.176891 -0.44811 0.184449 31 142 243
-0.193277 -0.257428 -0.0736901 31 142 243
0.179107 -0.229207 -0.230322 31 142 243
0.222325 -0.244579 -0.221332 31 142 243
0.158183 -0.462464 -0.09099 31 142 243
0.109486 -0.24535 -0.231165 31 142 243
-0.190161 -0.316594 0.112077 31 142 243
0.0366031 -0.479545 0.16677 31 142 243
0.224273 -0.464282 -0.0922961 31 142 243
-0.196424 -0.214288 0.198686 31 142 243
0.302619 -0.468899 -0.115324 31 142 243
-0.189544 -0.290337 0.0477159 31 142 243
0.282283 -0.474331 0.115547 31 142 243
0.393784 -0.469593 -0.125858 31 142 243
-0.201058 -0.274785 0.260542 31 142 243
-0.1973 -0.197217 0.247592 31 142 243
-0.17623 -0.433842 0.231754 31 142 243
-0.190189 -0.25247 0.00959765 31 142 243
-0.194304 -0.211624 -0.0690875 31 142 243
-0.187862 -0.363427 0.0784636 31 142 243
0.172095 -0.428289 -0.119171 31 142 243
-0.188691 -0.387615 0.128851 31 142 243
-0.197257 -0.257394 0.171676 31 142 243
-0.189737 -0.321492 -0.133758 31 142 243
-0.193677 -0.237231 0.0915332 31 142 243
-0.194852 -0.214504 0.0552673 31 142 243
0.243325 -0.292141 -0.218695 31 142 243
0.101167 -0.228931 -0.219857 31 142 243
0.0866554 -0.463536 -0.0528195 31 142 243
-0.184658 -0.226481 -0.155841 31 142 243
-0.186355 -0.405902 0.0567475 31 142 243
-0.0298956 -0.237574 -0.225332 31 142 243
-0.190158 -0.334193 0.0472847 31 142 243
-0.182128 -0.4091 -0.0732841 31 142 243
-0.199341 -0.382129 0.259187 31 142 243
-0.185915 -0.252933 -0.134351 31 142 243
-0.0536356 -0.44354 0.0698247 31 142 243
-0.187394 -0.369808 0.0639409 31 142 243
-0.162616 -0.439873 0.271681 31 142 243
-0.181164 -0.40955 -0.0532026 31 142 243
0.139511 -0.450994 -0.14776 31 142 243
0.130159 -0.308943 -0.205175 31 142 243
-0.192831 -0.288716 0.161769 31 142 243
-0.140747 -0.430312 0.226997 31 142 243
-0.188011 -0.373433 -0.112978 31 142 243
-0.18664 -0.331236 0.0294611 31 142 243
-0.19485 -0.235665 0.00626985 31 142 243
0.238292 -0.383635 -0.163634 31 142 243
-0.00586105 -0.477877 0.177854 31 142 243
0.364623 -0.4614 -0.153641 31 142 243
0.160451 -0.358025 -0.19565 31 142 243
0.293105 -0.467153 -0.0554617 31 142 243
0.190186 -0.392282 -0.191651 31 142 243
0.0204772 -0.424598 -0.192642 31 142 243
-0.00169017 -0.416231 -0.195385 31 142 243
-0.192932 -0.431042 0.179838 31 142 243
0.0373307 -0.489873 0.231244 31 142 243
0.0531793 -0.456033 -0.141183 31 142 243
0.188547 -0.231885 -0.220232 31 142 243
0.27367 -0.425371 -0.196195 31 142 243
-0.195446 -0.216194 0.203341 31 142 243
0.239868 -0.308089 -0.215772 31 142 243
0.0485129 -0.45487 -0.153659 31 142 243
-0.132628 -0.47442 0.270519 31 142 243
0.266619 -0.479127 0.155435 31 142 243
-0.201029 -0.260744 0.322482 31 142 243
-0.193031 -0.444424 -0.106906 31 142 243
-0.117135 -0.235116 -0.205943 31 142 243
-0.200527 -0.265213 0.244898 31 142 243
0.0425693 -0.259223 -0.23058 31 142 243
0.256485 -0.409942 -0.188532 31 142 243
-0.197951 -0.20888 0.29125 31 142 243
0.0153864 -0.220683 -0.220213 31 142 243
0.176607 -0.315672 -0.207997 0 180 235
-0.172604 -0.199137 0.172041 0 180 235
0.125302 -0.388994 -0.0566681 0 180 235
-0.0876563 -0.202729 0.266837 0 180 235
0.19306 -0.306565 -0.196329 0 180 235
-0.136972 -0.428032 -0.197635 0 180 235
0.0374158 -0.313714 0.215744 0 180 235
-0.116322 -0.275736 0.0939651 0 180 235
-0.176713 -0.300974 -0.185157 0 180 235
-0.178737 -0.260691 -0.167497 0 180 235
0.0920296 -0.395306 -0.0862349 0 180 235
-0.107854 -0.356379 -0.164511 0 180 235
-0.135577 -0.440578 -0.196323 0 180 235
-0.1825 -0.237031 -0.182039 0 180 235
-0.17496 -0.199971 0.110968 0 180 235
-0.149469 -0.337113 -0.169871 0 180 235
-0.108269 -0.28927 0.0685338 0 180 235
-0.0650223 -0.316863 0.122886 0 180 235
0.236193 -0.335117 0.00277223 0 180 235
0.151054 -0.314148 -0.197819 0 180 235
-0.176062 -0.304092 -0.186019 0 180 235
0.265861 -0.332287 0.0274882 0 180 235
-0.147038 -0.349385 -0.179871 0 180 235
-0.0116292 -0.366089 -0.184013 0 180 235
-0.189571 -0.197582 -0.161632 0 180 235
0.20133 -0.330116 -0.195918 0 180 235
0.0237126 -0.357548 -0.198724 0 180 235
-0.187519 -0.195581 -0.0854845 0 180 235
-0.182186 -0.197671 -0.0873335 0 180 235
-0.0022072 -0.353924 -0.165777 0 180 235
0.1654 -0.388464 0.103365 0 180 235
-0.107309 -0.253792 0.190598 0 180 235
-0.17719 -0.204332 -0.0938698 0 180 235
0.139241 -0.385936 -0.183318 0 180 235
-0.0834998 -0.276009 0.18794 0 180 235
-0.0965983 -0.302328 0.0788891 0 180 235
-0.187904 -0.20456 -0.209232 0 180 235
-0.0470147 -0.282525 0.215519 0 180 235
0.187855 -0.36621 0.203246 0 180 235
0.0778482 -0.24055 0.240171 0 180 235
0.0533732 -0.355369 -0.23927 0 180 235
-0.0361579 -0.364474 -0.193716 0 180 235
0.234192 -0.332508 0.0490229 0 180 235
0.0668658 -0.318974 0.220245 0 180 235
-0.147047 -0.196838 0.24985 0 180 235
-0.00778631 -0.418508 -0.176628 0 180 235
-0.1888 -0.198327 -0.164956 0 180 235
-0.0982041 -0.301787 0.0932156 0 180 235
-0.150624 -0.224617 0.196324 0 180 235
-0.135857 -0.436709 -0.19681 0 180 235
-0.0995526 -0.224798 0.23584 0 180 235
0.0941001 -0.371453 0.0626248 0 180 235
0.210564 -0.332525 -0.205881 0 180 235
-0.168941 -0.207639 0.0894993 0 180 235
-0.189777 -0.257976 -0.212163 0 180 235
0.0630077 -0.233679 0.243023 0 180 235
-0.167029 -0.238886 -0.105191 0 180 235
-0.152693 -0.410253 -0.199556 0 180 235
-0.16887 -0.20587 -0.014401 0 180 235
-0.14903 -0.24329 0.123421 0 180 235
-0.175138 -0.20144 -0.054016 0 180 235
-0.162606 -0.232071 -0.0112547 0 180 235
-0.197866 -0.192676 -0.0487488 0 180 235
-0.0166382 -0.33371 -0.0657084 0 180 235
-0.174492 -0.199749 -0.0175677 0 180 235
0.149008 -0.37669 0.118669 0 180 235
-0.178262 -0.244061 -0.151427 0 180 235
-0.168617 -0.349567 -0.197563 0 180 235
-0.175202 -0.259011 -0.155413 0 180 235
-0.0425313 -0.398389 -0.174071 0 180 235
0.131888 -0.384687 -0.158459 0 180 235
-0.167202 -0.31647 -0.178464 0 180 235
0.246935 -0.3255 0.0802204 0 180 235
0.0543175 -0.359812 -0.177776 0 180 235
-0.0259416 -0.335937 0.0379333 0 180 235
0.120135 -0.355093 -0.14158 0 180 235
-0.186992 -0.196134 -0.0480422 0 180 235
-0.0995511 -0.210467 0.254843 0 180 235
0.218741 -0.35051 -0.0358966 0 180 235
-0.187134 -0.22385 -0.215207 0 180 235
-0.179798 -0.236867 -0.155439 0 180 235
-0.171605 -0.197162 0.228157 0 180 235
0.135527 -0.38342 -0.0244183 0 180 235
-0.107409 -0.275702 -0.0372992 0 180 235
-0.177936 -0.276066 -0.175374 0 180 235
0.0514687 -0.332361 0.186167 0 180 235
-0.130041 -0.260528 -0.034086 0 180 235
-0.157619 -0.231995 0.13861 0 180 235
-0.169899 -0.207977 -0.0402627 0 180 235
-0.17663 -0.198331 0.152611 0 180 235
-0.160535 -0.245695 -0.0949535 0 180 235
-0.165826 -0.364789 -0.19921 0 180 235
-0.171429 -0.202232 0.0950964 0 180 235
0.152259 -0.320508 -0.030913 0 180 235
-0.154023 -0.273127 -0.124723 0 180 235
-0.0410452 -0.321407 -0.121703 0 180 235
0.158343 -0.292983 -0.164021 0 180 235
0.16498 -0.327754 0.0213782 0 180 235
-0.162923 -0.19674 0.242216 0 180 235
-0.182052 -0.20191 -0.120839 0 180 235
-0.125532 -0.277564 -0.0957521 0 180 235
0.0237601 -0.357572 -0.14272 0 180 235
0.261956 -0.325554 0.0889993 0 180 235
-0.147742 -0.243849 0.0553118 0 180 235
-0.0983185 -0.283444 -0.0453939 0 180 235
0.0634998 -0.322854 0.210001 0 180 235
-0.197648 -0.1927 -0.0635656 0 180 235
-0.052886 -0.283479 0.2084 0 180 235
-0.181633 -0.250242 -0.183064 0 180 235
0.0136386 -0.355315 0.105298 0 180 235
-0.191255 -0.197958 -0.194434 0 180 235
-0.167615 -0.196693 0.236546 0 180 235
-0.0165377 -0.369413 -0.186681 0 180 235
0.0833939 -0.357121 -0.162819 0 180 235
-0.0430278 -0.271777 0.231672 0 180 235
-0.130159 -0.25713 0.0071864 0 180 235
-0.172731 -0.216329 -0.0961776 0 180 235
-0.142422 -0.249491 0.0288201 0 180 235
-0.071956 -0.306207 -0.0459891 0 180 235
-0.113612 -0.224586 0.222041 0 180 235
0.102868 -0.307744 0.233419 0 180 235
-0.0624243 -0.309698 -0.0517276 0 180 235
-0.182984 -0.217094 -0.163187 0 180 235
0.14509 -0.350086 -0.131421 0 180 235
-0.178302 -0.198525 0.0383669 0 180 235
-0.13077 -0.205682 0.238974 0 180 235
-0.168522 -0.212762 -0.00672479 0 180 235
0.0696602 -0.353476 -0.141548 0 180 235
-0.175814 -0.239334 -0.138336 0 180 235
-0.14543 -0.254121 -0.0550404 0 180 235
-0.171668 -0.201155 0.119896 0 180 235
-0.167002 -0.19653 0.241419 0 180 235
0.153723 -0.343839 0.215517 0 180 235
0.222751 -0.33865 -0.0514349 0 180 235
-0.17265 -0.239174 -0.126871 0 180 235
0.0700355 -0.349972 -0.234192 0 180 235
0.0462281 -0.29105 0.232819 0 180 235
0.0938835 -0.378464 -0.14516 0 180 235
-0.0544947 -0.225456 0.25681 0 180 235
-0.185947 -0.220216 -0.212297 0 180 235
0.163433 -0.30502 -0.184493 0 180 235
-0.16405 -0.221031 0.116454 0 180 235
-0.0716267 -0.417334 -0.18269 0 180 235
-0.174029 -0.200155 -0.0306493 0 180 235
0.0236858 -0.380432 -0.0353046 0 180 235
0.0261044 -0.35262 -0.161801 0 180 235
0.16958 -0.332214 -0.144251 0 180 235
-0.0742612 -0.305469 -0.0958353 0 180 235
0.0957535 -0.347686 -0.174547 0 180 235
0.0258923 -0.351468 -0.167241 0 180 235
-0.154104 -0.366724 -0.195895 0 180 235
-0.16982 -0.204328 0.017944 0 180 235
0.0434265 -0.35738 -0.17399 0 180 235
-0.185855 -0.286317 -0.192564 0 180 235
-0.156889 -0.233753 0.114729 0 180 235
0.139214 -0.334934 -0.176425 0 180 235
0.104093 -0.334895 -0.224522 0 180 235
-0.180777 -0.323805 -0.19934 0 180 235
-0.0455075 -0.256146 0.239543 0 180 235
-0.166471 -0.289144 -0.157545 0 180 235
0.0878955 -0.349645 -0.175147 0 180 235
-0.176017 -0.200251 -0.0478965 0 180 235
-0.117094 -0.274724 0.0871138 0 180 235
0.209036 -0.325601 -0.203804 0 180 235
-0.0359084 -0.370906 -0.187364 0 180 235
-0.191874 -0.194673 -0.130267 0 180 235
-0.183393 -0.218474 -0.179234 0 180 235
0.00551877 -0.253102 0.241187 0 180 235
-0.174056 -0.199232 0.142477 0 180 235
0.246806 -0.332446 -0.0326492 0 180 235
-0.168701 -0.206039 -0.0227715 0 180 235
-0.0600502 -0.208649 0.26486 0 180 235
-0.172732 -0.328627 -0.193057 0 180 235
0.0381245 -0.354782 -0.146528 0 180 235
0.159988 -0.351837 -0.0801117 0 180 235
0.131372 -0.387969 -0.174576 0 180 235
-0.138906 -0.330518 -0.158421 0 180 235
-0.0183316 -0.352883 -0.177851 0 180 235
0.0540776 -0.353449 -0.191605 0 180 235
-0.140086 -0.251594 0.00743911 0 180 235
-0.0737478 -0.305237 0.141184 0 180 235
-0.133041 -0.197733 0.254534 0 180 235
0.172447 -0.33827 -0.123808 0 180 235
-0.101642 -0.282942 0.0171184 0 180 235
-0.179467 -0.198885 -0.075806 0 180 235
0.185067 -0.393773 0.155456 0 180 235
-0.168231 -0.216483 -0.0348509 0 180 235
-0.0858621 -0.21671 0.256738 0 180 235
-0.183004 -0.197515 -0.0324765 0 180 235
-0.168827 -0.198783 0.210107 0 180 235
0.133808 -0.336572 -0.202394 0 180 235
0.239731 -0.334707 -0.0310884 0 180 235
-0.0173622 -0.401266 -0.170376 0 180 235
0.199685 -0.348923 -0.0673701 0 180 235
-0.185928 -0.228453 -0.210416 0 180 235
-0.108912 -0.353658 -0.16311 0 180 235
-0.0981893 -0.256316 0.197463 0 180 235
-0.186136 -0.196389 -0.1004 0 180 235
-0.0104936 -0.254843 0.242403 0 180 235
-0.0161753 -0.229568 0.252644 0 180 235
-0.186274 -0.210917 -0.212105 0 180 235
0.141431 -0.349053 -0.113272 0 180 235
-0.127934 -0.258582 0.0158742 0 180 235
-0.198566 -0.192285 -0.0491949 0 180 235
-0.128524 -0.41628 -0.196612 0 180 235
-0.167813 -0.219705 -0.0390721 0 180 235
-0.167426 -0.20276 0.200561 0 180 235
-0.0964947 -0.282189 -0.00553185 0 180 235
-0.12586 -0.199107 0.253135 0 180 235
-0.17764 -0.199055 0.108635 0 180 235
0.0681351 -0.345942 0.1664 0 180 235
0.0700385 -0.347677 -0.242271 0 180 235
-0.159527 -0.246194 -0.090451 0 180 235
-0.141514 -0.249452 0.0569531 0 180 235
0.101559 -0.334228 0.203149 0 180 235
-0.126343 -0.376025 -0.188037 0 180 235
0.0217195 -0.363811 -0.0444594 0 180 235
-0.194389 -0.194293 -0.0688081 0 180 235
-0.169023 -0.197375 0.219264 0 180 235
-0.18629 -0.225994 -0.212151 0 180 235
0.17131 -0.344949 -0.118348 0 180 235
-0.0946719 -0.286407 -0.0432685 0 180 235
0.0494273 -0.420815 -0.170001 0 180 235
-0.171571 -0.201216 0.0326378 0 180 235
0.0643302 -0.385219 -0.0202231 0 180 235
0.00154451 -0.367801 -0.243425 0 180 235
-0.179306 -0.225072 -0.141795 0 180 235
-0.172635 -0.197448 0.224133 0 180 235
0.139599 -0.334838 -0.189024 0 180 235
0.244615 -0.352033 0.0035763 0 180 235
-0.185453 -0.258664 -0.200787 0 180 235
0.130844 -0.370547 -0.111927 0 180 235
-0.0360064 -0.37079 -0.220309 0 180 235
-0.058058 -0.325792 0.0760019 0 180 235
-0.18296 -0.232835 -0.182659 0 180 235
-0.182697 -0.330536 -0.202134 0 180 235
-0.163172 -0.220891 0.14638 0 180 235
0.138003 -0.385755 -0.172849 0 180 235
0.104888 -0.335164 0.203104 0 180 235
0.201303 -0.322699 -0.216025 0 180 235
0.10291 -0.305419 0.233827 0 180 235
-0.192103 -0.194836 -0.13856 0 180 235
-0.0112649 -0.342435 -0.0521148 0 180 235
-0.171427 -0.22709 -0.108515 0 180 235
0.0411324 -0.277502 0.235891 0 180 235
0.160865 -0.330842 -0.120565 0 180 235
-0.111801 -0.240597 0.200985 0 180 235
-0.153981 -0.237529 0.0884112 0 180 235
0.191688 -0.303708 -0.188862 0 180 235
0.0814387 -0.342399 -0.231242 0 180 235
0.202531 -0.390862 0.181025 0 180 235
-0.0800527 -0.216627 0.259066 0 180 235
0.232236 -0.350205 -0.01656 0 180 235
0.238708 -0.333204 -0.0317693 0 180 235
-0.182617 -0.197236 -0.0858276 0 180 235
-0.16828 -0.214366 0.00708276 0 180 235
-0.169253 -0.20931 0.0542117 0 180 235
-0.0951191 -0.287305 -0.069598 0 180 235
0.0196227 -0.363627 -0.146867 0 180 235
0.180788 -0.312128 -0.202367 0 180 235
0.279169 -0.326544 0.0961691 0 180 235
-0.158296 -0.245649 -0.0691874 0 180 235
-0.00208027 -0.410227 -0.173165 0 180 235
-0.171402 -0.20524 -0.0415878 0 180 235
-0.183792 -0.197068 -0.0474343 0 180 235
0.0861708 -0.349597 -0.176935 0 180 235
0.0821496 -0.348352 -0.185327 0 180 235
0.149235 -0.363589 0.182717 0 180 235
-0.175867 -0.200018 -0.0439426 0 180 235
-0.17516 -0.201144 -0.0495385 0 180 235
-0.183558 -0.248364 -0.197095 0 180 235
-0.181144 -0.238519 -0.170935 0 180 235
-0.0373821 -0.223884 0.257497 0 180 235
-0.162197 -0.228091 0.0439081 0 180 235
0.168202 -0.334295 -0.134148 0 180 235
-0.0486198 -0.321568 0.136324 0 180 235
-0.170063 -0.211875 -0.0505069 0 180 235
-0.188648 -0.196279 0.0170657 0 180 235
-0.180814 -0.223491 -0.148064 0 180 235
-0.157304 -0.361655 -0.195312 0 180 235
-0.171498 -0.200626 0.00687898 0 180 235
0.159226 -0.34614 -0.125443 0 180 235
-0.14752 -0.427905 -0.199463 0 180 235
-0.0902488 -0.225238 0.244425 0 180 235
-0.173442 -0.200686 0.048997 0 180 235
-0.106104 -0.45376 -0.185382 0 180 235
-0.0157449 -0.364225 -0.202371 0 180 235
-0.168634 -0.208162 0.0916929 0 180 235
-0.17564 -0.265631 -0.161909 0 180 235
0.211178 -0.349521 -0.0402107 0 180 235
-0.178138 -0.198239 0.144384 0 180 235
-0.191886 -0.195561 -0.0272495 0 180 235
-0.164362 -0.216641 0.160109 0 180 235
-0.163419 -0.426405 -0.20244 0 180 235
0.0298674 -0.343114 -0.204789 0 180 235
-0.175224 -0.199852 0.0388671 0 180 235
-0.114744 -0.421083 -0.193342 0 180 235
0.0560579 -0.378681 -0.0855275 0 180 235
0.145966 -0.349536 -0.131344 0 180 235
-0.112089 -0.278194 -0.0771664 0 180 235
-0.0395056 -0.357151 -0.199986 0 180 235
-0.0101087 -0.333838 -0.0859976 0 180 235
0.0738592 -0.336835 0.186092 0 180 235
-0.0151922 -0.349423 0.0319504 0 180 235
0.100891 -0.33483 -0.220969 0 180 235
-0.0102577 -0.352661 -0.176198 0 180 235
-0.17548 -0.216734 -0.110502 0 180 235
-0.167151 -0.224907 -0.0461464 0 180 235
-0.0650366 -0.211554 0.263749 0 180 235
-0.0327961 -0.355765 -0.196008 0 180 235
-0.181444 -0.253282 -0.182676 0 180 235
0.0463946 -0.368329 -0.0862591 0 180 235
-0.179866 -0.19818 -0.0123562 0 180 235
-0.165218 -0.241775 -0.104206 0 180 235
0.193897 -0.32543 -0.219884 0 180 235
-0.154405 -0.236953 0.0806222 0 180 235
0.0144011 -0.426191 -0.177147 0 180 235
-0.162181 -0.22157 0.158203 0 180 235
-0.101805 -0.369311 -0.171521 0 180 235
-0.166485 -0.378449 -0.200431 0 180 235
0.048081 -0.333991 0.182747 0 180 235
-0.12435 -0.228909 0.209408 0 180 235
0.295021 -0.338008 0.0585579 0 180 235
-0.172561 -0.205931 -0.0486633 0 180 235
-0.137629 -0.464019 -0.193929 0 180 235
0.157999 -0.352095 -0.0812967 0 180 235
-0.184895 -0.197092 -0.0108495 0 180 235
0.0946887 -0.384309 -0.0268185 0 180 235
0.088421 -0.371257 0.0597132 0 180 235
-0.166825 -0.295439 -0.163846 0 180 235
-0.164504 -0.392234 -0.20098 0 180 235
0.156671 -0.314333 -0.167325 0 180 235
-0.00149146 -0.385218 -0.159399 0 180 235
-0.178762 -0.198444 0.00940848 0 180 235
0.126941 -0.391244 -0.145592 0 180 235
-0.1727 -0.197945 0.209222 0 180 235
0.0325227 -0.361904 -0.248806 0 180 235
-0.112207 -0.284197 0.0703473 0 180 235
0.165224 -0.325699 -0.0516874 0 180 235
0.0506525 -0.364011 0.0812191 0 180 235
-0.177864 -0.199189 0.0618951 0 180 235
-0.169753 -0.202091 -0.00139965 0 180 235
-0.16056 -0.374873 -0.198364 0 180 235
0.158313 -0.352363 -0.195289 0 180 235
-0.144764 -0.25801 -0.0756876 0 180 235
-0.118449 -0.355711 -0.168067 0 180 235
-0.0691331 -0.262844 0.218861 0 180 235
0.0760188 -0.347928 -0.203841 0 180 235
0.100436 -0.34366 -0.186191 0 180 235
0.117552 -0.389577 -0.0796031 0 180 235
0.291561 -0.346319 0.0505862 0 180 235
-0.1797 -0.2754 -0.183441 0 180 235
0.12642 -0.355953 0.182028 0 180 235
0.148052 -0.387851 -0.182002 0 180 235
-0.136995 -0.342255 -0.165636 0 180 235
-0.154707 -0.369379 -0.196513 0 180 235
-0.0308163 -0.213503 0.261565 0 180 235
-0.023735 -0.405352 -0.17414 0 180 235
-0.13751 -0.251236 0.102309 0 180 235
-0.126856 -0.417033 -0.196273 0 180 235
-0.193257 -0.196243 -0.181877 0 180 235
-0.165727 -0.22466 -0.0148611 0 180 235
0.100181 -0.347989 -0.163023 0 180 235
0.290748 -0.344176 0.0459272 0 180 235
0.0529619 -0.357835 -0.127839 0 180 235
-0.165802 -0.216045 0.0949677 0 180 235
-0.174456 -0.199676 0.017003 0 180 235
0.107724 -0.405149 -0.162811 0 180 235
-0.159446 -0.233667 0.0242555 0 180 235
-0.193985 -0.194324 -0.0722677 0 180 235
-0.111985 -0.282319 0.0890656 0 180 235
0.175071 -0.337557 -0.12264 0 180 235
-0.190902 -0.19567 0.00127497 0 180 235
-0.0620961 -0.42418 -0.181852 0 180 235
-0.0636278 -0.310772 -0.0240678 0 180 235
0.0475651 -0.227627 0.245532 0 180 235
-0.175618 -0.199329 0.0026326 0 180 235
0.155258 -0.381316 -0.195826 0 180 235
0.221028 -0.331098 -0.0812705 0 180 235
-0.119881 -0.267531 -0.047717 0 180 235
-0.179191 -0.198383 -0.0169038 0 180 235
-0.0190513 -0.353005 -0.176907 0 180 235
-0.040282 -0.354686 -0.196396 0 180 235
-0.0527818 -0.356445 -0.202775 0 180 235
-0.0986543 -0.28103 -0.0270951 0 180 235
0.101581 -0.351655 -0.13954 0 180 235
0.263364 -0.331053 0.0470526 0 180 235
0.076519 -0.32681 0.205093 0 180 235
0.0360209 -0.361108 -0.249383 0 180 235
0.0623301 -0.349968 -0.226178 0 180 235
-0.139897 -0.256914 -0.0470476 0 180 235
0.139065 -0.335036 -0.192582 0 180 235
0.10482 -0.342811 -0.196464 0 180 235
0.0238375 -0.374579 -0.0418553 0 180 235
0.190792 -0.310397 -0.187407 0 180 235
-0.134307 -0.449793 -0.19469 0 180 235
0.147295 -0.364851 -0.182408 0 180 235
0.0799535 -0.351956 -0.149685 0 180 235
0.28432 -0.327835 0.0963183 0 180 235
-0.178503 -0.199229 0.0850194 0 180 235
0.22653 -0.337678 0.000277678 0 180 235
-0.114546 -0.277723 -0.0813997 0 180 235
0.038326 -0.357552 -0.182802 0 180 235
-0.157407 -0.301408 -0.153299 0 180 235
0.01577 -0.348253 -0.225428 0 180 235
0.209406 -0.322268 -0.209468 0 180 235
0.0535928 -0.392182 -0.0645031 0 180 235
0.0173069 -0.358687 -0.209508 0 180 235
-0.184588 -0.197155 -0.0113246 0 180 235
0.139509 -0.390375 -0.181166 0 180 235
-0.0388846 -0.353492 -0.193053 0 180 235
-0.174038 -0.200681 0.0851609 0 180 235
-0.185447 -0.196996 -0.00528341 0 180 235
-0.146707 -0.236238 0.172618 0 180 235
-0.152449 -0.446764 -0.200043 0 180 235
-0.118639 -0.380016 -0.186161 0 180 235
-0.106437 -0.201933 0.260936 0 180 235
-0.179236 -0.204501 -0.107676 0 180 235
-0.183493 -0.201957 -0.133414 0 180 235
-0.1341 -0.240763 0.181341 0 180 235
-0.184735 -0.199836 -0.130092 0 180 235
-0.0189823 -0.235571 0.248164 0 180 235
-0.174928 -0.200333 0.0927499 0 180 235
-0.120274 -0.447704 -0.178352 0 180 235
-0.150843 -0.224166 0.196801 0 180 235
-0.174854 -0.199751 0.119101 0 180 235
-0.080556 -0.298652 -0.0477683 0 180 235
-0.168979 -0.198383 0.210984 0 180 235
0.0142743 -0.260061 0.238994 0 180 235
0.122985 -0.386452 -0.166847 0 180 235
0.0466514 -0.374088 -0.0744554 0 180 235
0.0716923 -0.342712 -0.141441 0 180 235
-0.176215 -0.199889 0.0926767 0 180 235
-0.160512 -0.224716 0.168382 0 180 235
-0.168153 -0.203684 0.17234 0 180 235
-0.0599804 -0.359386 -0.209537 0 180 235
0.264437 -0.326466 0.0850328 0 180 235
-0.0786939 -0.311574 0.0628381 0 180 235
-0.141903 -0.263631 -0.096862 0 180 235
-0.00288004 -0.372407 0.0351784 0 180 235
-0.18129 -0.232283 -0.163867 0 180 235
-0.189236 -0.195527 -0.0553062 0 180 235
-0.174718 -0.302982 -0.183883 0 180 235
-0.067985 -0.306159 -0.0257638 0 180 235
-0.143373 -0.251339 -0.00768451 0 180 235
-0.132343 -0.340802 -0.162761 0 180 235
-0.177355 -0.199927 -0.0671795 0 180 235
-0.175819 -0.198406 0.153855 0 180 235
-0.181572 -0.305513 -0.193943 0 180 235
-0.0142276 -0.328539 0.162446 0 180 235
0.190394 -0.3304 -0.206159 0 180 235
-0.159617 -0.236947 -0.0150969 0 180 235
0.0663738 -0.350229 -0.198005 0 180 235
-0.173954 -0.288235 -0.174652 0 180 235
-0.170145 -0.204214 0.0332689 0 180 235
-0.183181 -0.216472 -0.165594 0 180 235
0.129426 -0.384481 -0.00668257 0 180 235
-0.187136 -0.199826 -0.168947 0 180 235
-0.190987 -0.195071 -0.128511 0 180 235
0.208458 -0.340677 -0.111867 0 180 235
-0.0605675 -0.241578 0.24001 0 180 235
0.220917 -0.332784 -0.0673148 0 180 235
-0.178442 -0.313715 -0.19339 0 180 235
-0.0366258 -0.357211 -0.199144 0 180 235
0.0131704 -0.315134 0.202852 0 180 235
-0.179159 -0.198827 0.0740877 0 180 235
-0.134762 -0.254657 0.00292267 0 180 235
-0.184754 -0.198094 -0.108544 0 180 235
-0.0697354 -0.256078 0.224742 0 180 235
-0.123228 -0.271031 0.0722339 0 180 235
-0.0487691 -0.331908 0.0862364 0 180 235
-0.0308936 -0.36679 -0.203645 0 180 235
-0.158237 -0.347099 -0.189541 0 180 235
0.00233745 -0.364043 -0.151375 0 180 235
-0.146396 -0.359649 -0.190074 0 180 235
-0.172395 -0.201115 0.113455 0 180 235
0.146608 -0.335482 -0.139166 0 180 235
0.0658413 -0.368132 0.0610213 0 180 235
-0.0358468 -0.314952 0.17849 0 180 235
0.223515 -0.34963 -0.0317835 0 180 235
-0.174973 -0.201209 -0.0482897 0 180 235
-0.184228 -0.27726 -0.191424 0 180 235
-0.181756 -0.23357 -0.171291 0 180 235
-0.136258 -0.256203 -0.0195614 0 180 235
-0.155756 -0.23497 0.129057 0 180 235
0.158864 -0.368243 0.180353 0 180 235
0.063556 -0.3713 -0.143325 0 180 235
0.0645689 -0.408958 -0.167784 0 180 235
0.088446 -0.367737 0.0794299 0 180 235
-0.0530179 -0.321493 0.0554247 0 180 235
0.0874171 -0.346478 -0.18825 0 180 235
0.043938 -0.310354 0.223845 0 180 235
-0.120008 -0.228023 0.213079 0 180 235
0.159891 -0.35009 -0.12096 0 180 235
0.167119 -0.378881 0.14639 0 180 235
0.118376 -0.376896 0.0504794 0 180 235
0.125791 -0.335141 0.217034 0 180 235
-0.185393 -0.251789 -0.20297 0 180 235
0.203969 -0.350841 -0.0385479 0 180 235
-0.0146339 -0.368687 -0.231017 0 180 235
0.0903601 -0.30601 0.233212 0 180 235
0.171766 -0.379342 0.154126 0 180 235
-0.179871 -0.198619 0.0812904 0 180 235
-0.192015 -0.196158 -0.165334 0 180 235
0.138573 -0.350565 -0.123125 0 180 235
-0.00326984 -0.227009 0.253139 0 180 235
-0.184644 -0.197171 0.00444062 0 180 235
0.224356 -0.352952 -0.0130282 0 180 235
0.000982884 -0.239061 0.244954 0 180 235
0.0317175 -0.338124 0.170188 0 180 235
-0.0520604 -0.321095 -0.0238629 0 180 235
-0.191399 -0.19475 -0.078825 0 180 235
0.346731 -0.481084 -0.0650618 32 212 224
0.303437 -0.480941 -0.215108 32 212 224
-0.201434 -0.448801 -0.123485 32 212 224
0.0193791 -0.482229 0.171727 32 212 224
0.310929 -0.485433 0.150427 32 212 224
-0.131085 -0.459554 0.379215 32 212 224
0.23441 -0.484029 0.130002 32 212 224
0.341255 -0.480708 -0.152035 32 212 224
-0.160436 -0.482787 -0.0415969 32 212 224
0.273462 -0.482224 0.0335625 32 212 224
-0.12097 -0.47815 0.0631264 32 212 224
0.337481 -0.480566 -0.176185 32 212 224
0.0151032 -0.481214 -0.063006 32 212 224
0.283261 -0.484952 0.198868 32 212 224
0.393761 -0.483523 0.0442181 32 212 224
-0.0952029 -0.477381 -0.234091 32 212 224
0.24482 -0.481406 -0.219143 32 212 224
-0.100716 -0.481339 -0.00339649 32 212 224
0.422314 -0.48242 -0.024828 32 212 224
-0.145797 -0.482529 -0.15571 32 212 224
-0.0576644 -0.404928 -0.262464 32 212 224
0.0875271 -0.473737 -0.261935 32 212 224
0.248391 -0.481969 -0.0265297 32 212 224
0.181886 -0.481048 -0.117396 32 212 224
0.390411 -0.479927 -0.126589 32 212 224
-0.199896 -0.452487 0.237454 32 212 224
-0.130701 -0.473101 0.23623 32 212 224
0.0346383 -0.478369 -0.236878 32 212 224
-0.138953 -0.480561 0.00390893 32 212 224
0.175301 -0.384653 -0.264192 32 212 224
-0.0928777 -0.481176 0.0144101 32 212 224
-0.0670358 -0.480595 0.164205 32 212 224
-0.153303 -0.462083 0.342036 32 212 224
-0.0311707 -0.383385 -0.262703 32 212 224
0.241978 -0.42648 -0.277739 32 212 224
-0.197653 -0.425102 0.0801249 32 212 224
0.345549 -0.480844 -0.104751 32 212 224
0.259329 -0.481772 -0.140314 32 212 224
0.356347 -0.480067 -0.190496 32 212 224
0.0794704 -0.483497 0.133899 32 212 224
-0.0731311 -0.48104 -0.0321681 32 212 224
-0.00657881 -0.482336 0.0884367 32 212 224
0.0868572 -0.311948 -0.259876 32 212 224
0.403484 -0.483062 -0.00849387 32 212 224
-0.185949 -0.47238 -0.152113 32 212 224
-0.183176 -0.469367 0.17129 32 212 224
-0.0538825 -0.481237 0.182538 32 212 224
-0.199277 -0.453511 0.21027 32 212 224
0.0429004 -0.442313 -0.265527 32 212 224
-0.0804696 -0.452091 -0.259986 32 212 224
0.310651 -0.48123 -0.118593 32 212 224
-0.200785 -0.411674 0.231361 32 212 224
-0.171662 -0.35886 0.315549 32 212 224
0.176758 -0.48326 0.231793 32 212 224
0.0361401 -0.481154 0.356341 32 212 224
0.228975 -0.481907 -0.0243878 32 212 224
-0.0673512 -0.48059 0.180011 32 212 224
0.00620049 -0.48088 0.202266 32 212 224
-0.188241 -0.458664 -0.175008 32 212 224
0.119483 -0.482244 0.25192 32 212 224
0.00848462 -0.482647 0.100804 32 212 224
0.247489 -0.481511 -0.122325 32 212 224
0.260367 -0.48193 -0.178494 32 212 224
-0.0637038 -0.48175 0.102568 32 212 224
-0.0187407 -0.482069 0.061745 32 212 224
0.124698 -0.480323 -0.0956032 32 212 224
-0.117023 -0.44418 -0.250873 32 212 224
-0.142932 -0.469324 0.263366 32 212 224
-0.203962 -0.432564 0.157022 32 212 224
0.140499 -0.483269 0.199833 32 212 224
-0.176703 -0.458334 0.326999 32 212 224
0.402716 -0.480339 -0.100609 32 212 224
0.231855 -0.482299 0.0270087 32 212 224
0.427057 -0.480695 -0.0773354 32 212 224
-0.208461 -0.417313 0.196692 32 212 224
0.40556 -0.47904 -0.157657 32 212 224
0.0325714 -0.482784 0.162083 32 212 224
0.427541 -0.478967 -0.146772 32 212 224
-0.0826182 -0.480333 -0.200078 32 212 224
-0.112459 -0.480761 -0.0776352 32 212 224
0.135204 -0.483151 0.099316 32 212 224
0.109572 -0.479845 -0.129979 32 212 224
0.224534 -0.484282 0.160466 32 212 224
0.0266521 -0.480649 0.218978 32 212 224
-0.15371 -0.476361 0.0622526 32 212 224
0.0919777 -0.482435 0.0803869 32 212 224
-0.136762 -0.480699 0.00277778 32 212 224
0.00704219 -0.482401 0.0882453 32 212 224
0.201072 -0.481178 -0.124275 32 212 224
0.138446 -0.351618 -0.258895 32 212 224
0.168276 -0.480515 -0.183401 32 212 224
0.352111 -0.483068 0.0790135 32 212 224
0.309519 -0.484021 0.107175 32 212 224
-0.117773 -0.481233 -0.0274171 32 212 224
0.14885 -0.48191 -0.00288021 32 212 224
0.0912071 -0.481736 0.00740701 32 212 224
-0.183003 -0.467864 0.194239 32 212 224
0.383095 -0.483047 0.0109075 32 212 224
-0.0701096 -0.468483 0.387365 32 212 224
0.241397 -0.482324 0.0293606 32 212 224
0.111657 -0.483603 0.175949 32 212 224
0.246594 -0.441421 -0.278514 32 212 224
-0.19403 -0.460091 0.24335 32 212 224
0.264132 -0.481507 -0.209544 32 212 224
0.0751403 -0.482484 0.305809 32 212 224
0.100479 -0.472085 -0.263146 32 212 224
0.434608 -0.479115 -0.133869 32 212 224
-0.165859 -0.45824 0.358005 32 212 224
0.228687 -0.481898 -0.0200364 32 212 224
0.105047 -0.483038 0.0988925 32 212 224
-0.0955866 -0.480857 -0.0727212 32 212 224
-0.115261 -0.477244 0.0835041 32 212 224
0.339244 -0.481407 -0.0338883 32 212 224
0.226361 -0.483731 0.249496 32 212 224
0.295112 -0.482713 0.0558373 32 212 224
0.0180882 -0.481109 -0.0745384 32 212 224
0.201017 -0.482873 0.263942 32 212 224
0.214629 -0.446947 -0.276329 32 212 224
-0.0462043 -0.477209 -0.240833 32 212 224
-0.173844 -0.483299 -0.0766844 32 212 224
0.337594 -0.481955 0.0151536 32 212 224
-0.080885 -0.481191 -0.0137339 32 212 224
0.0967514 -0.48241 0.0786125 32 212 224
0.137141 -0.480345 -0.200379 32 212 224
0.280602 -0.481522 -0.0776508 32 212 224
0.1502 -0.480448 -0.197227 32 212 224
0.0994733 -0.481865 0.253546 32 212 224
-0.0567324 -0.481393 0.0347805 32 212 224
0.283351 -0.481464 -0.191636 32 212 224
0.21671 -0.483987 0.225556 32 212 224
-0.0265572 -0.478158 -0.23411 32 212 224
-0.131173 -0.464213 0.339606 32 212 224
0.147797 -0.48361 0.112947 32 212 224
-0.177989 -0.47254 0.13679 32 212 224
-0.129545 -0.479835 0.0431023 32 212 224
0.02621 -0.432775 -0.265412 32 212 224
-0.134558 -0.476333 0.0736654 32 212 224
0.368767 -0.479807 -0.188278 32 212 224
0.302687 -0.481781 0.0177601 32 212 224
0.222037 -0.476666 -0.252783 32 212 224
0.0699606 -0.483428 0.127159 32 212 224
0.025173 -0.478596 -0.234258 32 212 224
-0.162538 -0.470345 0.216374 32 212 224
0.359299 -0.481717 -0.0439692 32 212 224
0.336233 -0.481319 -0.0368145 32 212 224
-0.166035 -0.469697 0.223632 32 212 224
-0.0556131 -0.479482 -0.22169 32 212 224
0.233014 -0.481515 -0.0973167 32 212 224
0.0173542 -0.482758 0.114863 32 212 224
0.300715 -0.481324 -0.0429608 32 212 224
-0.197455 -0.456148 0.262095 32 212 224
-0.00846271 -0.482778 0.126373 32 212 224
0.298484 -0.481812 0.0204343 32 212 224
-0.171438 -0.400674 0.345205 32 212 224
0.0208607 -0.479834 -0.165519 32 212 224
-0.172043 -0.400517 0.342726 32 212 224
0.274816 -0.483487 0.0841256 32 212 224
0.0724725 -0.41241 -0.264045 32 212 224
0.145581 -0.480208 -0.174546 32 212 224
-0.0039569 -0.481427 -0.0233537 32 212 224
-0.201459 -0.417198 0.109763 32 212 224
-0.091484 -0.478481 0.100523 32 212 224
-0.0854569 -0.481209 0.0462741 32 212 224
-0.166157 -0.478131 -0.185514 32 212 224
-0.17571 -0.472986 0.127773 32 212 224
-0.133737 -0.476938 0.0516976 32 212 224
0.0440236 -0.422119 -0.265481 32 212 224
0.395196 -0.47881 -0.18435 32 212 224
0.00994098 -0.481287 -0.0555924 32 212 224
0.110497 -0.482923 0.0959595 32 212 224
0.269248 -0.481765 -0.0610071 32 212 224
0.251187 -0.48157 0.00464309 32 212 224
-0.124999 -0.481256 -0.145668 32 212 224
0.21065 -0.45054 -0.275745 32 212 224
0.244532 -0.481946 -0.0208422 32 212 224
0.0803119 -0.479629 -0.145407 32 212 224
0.127228 -0.481443 -0.0387317 32 212 224
0.259925 -0.481679 -0.100034 32 212 224
-0.18139 -0.474177 0.0582803 32 212 224
0.22337 -0.483186 0.0770471 32 212 224
-0.173087 -0.464844 0.270612 32 212 224
-0.030875 -0.482208 0.0876456 32 212 224
0.068824 -0.481579 0.199113 32 212 224
-0.135563 -0.47543 0.196382 32 212 224
-0.121025 -0.477871 0.175905 32 212 224
0.31845 -0.485618 0.158773 32 212 224
0.171331 -0.480923 -0.119382 32 212 224
-0.178334 -0.474029 0.0847905 32 212 224
0.0356767 -0.481769 0.297871 32 212 224
-0.182203 -0.47355 -0.0036271 32 212 224
0.424678 -0.479008 -0.14723 32 212 224
0.182888 -0.483958 0.204883 32 212 224
0.33954 -0.484274 0.119788 32 212 224
-0.192423 -0.448511 0.0603096 32 212 224
-0.096225 -0.48037 -0.130955 32 212 224
-0.10461 -0.480322 -0.127605 32 212 224
0.0701765 -0.479324 -0.234932 32 212 224
0.180625 -0.368598 -0.262118 32 212 224
0.326919 -0.482723 0.0594975 32 212 224
-0.041899 -0.481065 -0.178729 32 212 224
-0.122878 -0.466782 0.332209 32 212 224
-0.172741 -0.381661 0.326392 32 212 224
0.282765 -0.48166 -0.160489 32 212 224
0.121266 -0.483337 0.107061 32 212 224
-0.0826866 -0.477443 0.236426 32 212 224
0.0986717 -0.482615 0.0886576 32 212 224
0.223869 -0.471586 -0.262627 32 212 224
0.126051 -0.480349 -0.0955764 32 212 224
-0.169147 -0.464326 0.290076 32 212 224
0.0717775 -0.479578 -0.150002 32 212 224
0.142714 -0.480375 -0.137375 32 212 224
0.237062 -0.475182 -0.255401 32 212 224
0.0497209 -0.483165 0.135282 32 212 224
0.103917 -0.480131 -0.202628 32 212 224
0.193456 -0.407122 -0.270716 32 212 224
0.220356 -0.483095 0.0615602 32 212 224
-0.182965 -0.381799 0.28342 32 212 224
-0.106878 -0.480472 -0.107845 32 212 224
0.28131 -0.484852 0.211673 32 212 224
-0.175642 -0.460961 0.304592 32 212 224
0.164735 -0.481169 -0.0815188 32 212 224
0.391341 -0.483695 0.0743916 32 212 224
0.230237 -0.483293 0.271705 32 212 224
-0.0716195 -0.480415 -0.15204 32 212 224
-0.147671 -0.476363 0.0881036 32 212 224
0.364737 -0.479981 -0.176702 32 212 224
-0.186714 -0.460401 0.277172 32 212 224
0.128584 -0.41681 -0.26428 32 212 224
0.331621 -0.485133 0.135169 32 212 224
-0.11209 -0.480514 -0.10084 32 212 224
0.427906 -0.480157 -0.0970486 32 212 224
-0.0539275 -0.481264 0.0131414 32 212 224
-0.183497 -0.459591 -0.0252693 32 212 224
0.383395 -0.482701 -0.0136127 32 212 224
0.280073 -0.481352 -0.209532 32 212 224
0.348165 -0.480639 -0.137331 32 212 224
-0.176123 -0.440416 0.354184 32 212 224
0.118936 -0.482747 0.285691 32 212 224
0.258998 -0.481075 -0.228245 32 212 224
0.0624671 -0.48171 -0.0162525 32 212 224
0.323986 -0.48073 -0.194215 32 212 224
-0.0320405 -0.478669 0.305549 32 212 224
-0.204433 -0.41611 0.124088 32 212 224
0.0426954 -0.450543 -0.265735 32 212 224
0.219582 -0.484003 0.131662 32 212 224
0.378874 -0.48361 0.102434 32 212 224
0.324828 -0.480659 -0.213332 32 212 224
0.203495 -0.48291 0.0726383 32 212 224
0.328399 -0.483893 0.110289 32 212 224
0.194016 -0.482932 0.255452 32 212 224
0.0801076 -0.48004 -0.209579 32 212 224
0.426279 -0.481396 -0.0549813 32 212 224
0.129008 -0.480111 -0.189922 32 212 224
-0.0734763 -0.48078 -0.0790161 32 212 224
-0.11614 -0.472792 0.263143 32 212 224
0.337285 -0.481029 -0.0766318 32 212 224
0.407292 -0.480381 -0.0976818 32 212 224
0.221891 -0.483597 0.251517 32 212 224
-0.0882977 -0.465691 0.386759 32 212 224
-0.121186 -0.480405 0.0403425 32 212 224
0.0630181 -0.481277 0.244332 32 212 224
0.200642 -0.405917 -0.271264 32 212 224
0.0937598 -0.481689 -0.00362142 32 212 224
0.0334144 -0.343371 -0.257976 32 212 224
0.421421 -0.482753 -0.0144953 32 212 224
0.409174 -0.479347 -0.139806 32 212 224
-0.0273801 -0.48269 0.12365 32 212 224
0.203629 -0.480327 -0.243607 32 212 224
-0.164072 -0.334904 0.331797 32 212 224
0.090972 -0.478822 -0.242219 32 212 224
0.0474374 -0.480063 -0.134648 32 212 224
-0.0703034 -0.481282 0.0213279 32 212 224
0.250677 -0.484359 0.154376 32 212 224
-0.201485 -0.447732 0.20855 32 212 224
-0.0195624 -0.481811 0.0404801 32 212 224
0.168271 -0.29489 -0.259594 32 212 224
0.0956585 -0.430717 -0.264053 32 212 224
0.0225412 -0.42738 -0.265925 32 212 224
0.352526 -0.482217 0.0192219 32 212 224
0.382478 -0.482795 -0.006432 32 212 224
0.157538 -0.483828 0.130424 32 212 224
0.273515 -0.481808 0.017584 32 212 224
0.389453 -0.479113 -0.179729 32 212 224
0.325904 -0.481459 -0.0192918 32 212 224
0.170485 -0.351084 -0.260118 32 212 224
-0.0973236 -0.480972 0.0535137 32 212 224
-0.0623689 -0.479771 0.131468 32 212 224
-0.0118761 -0.477462 0.365181 32 212 224
0.111026 -0.48368 0.161389 32 212 224
0.0931587 -0.474865 -0.260318 32 212 224
-0.192824 -0.424939 0.271598 32 212 224
0.221024 -0.477887 -0.250035 32 212 224
0.273189 -0.481562 0.00373843 32 212 224
-0.143371 -0.470176 -0.230533 32 212 224
0.347453 -0.482136 0.0204882 32 212 224
0.286259 -0.481591 -0.146554 32 212 224
0.116471 -0.483491 0.133442 32 212 224
0.0809926 -0.323905 -0.259501 32 212 224
0.162421 -0.483822 0.128229 32 212 224
0.118584 -0.481761 -0.0278597 32 212 224
0.11757 -0.301401 -0.260222 32 212 224
-0.0638573 -0.47576 0.31024 32 212 224
0.113218 -0.482891 0.0951909 32 212 224
0.208821 -0.481793 -0.0262998 32 212 224
-0.0178096 -0.478184 0.345916 32 212 224
0.0203048 -0.482805 0.122463 32 212 224
-0.00697848 -0.481579 0.235433 32 212 224
0.364215 -0.480365 -0.137299 32 212 224
0.175618 -0.482922 0.0756166 32 212 224
0.14971 -0.483467 0.298117 32 212 224
0.0324693 -0.482898 0.135215 32 212 224
0.256835 -0.484222 0.140108 32 212 224
0.405995 -0.478825 -0.167881 32 212 224
0.273806 -0.482125 0.0298478 32 212 224
0.243274 -0.467345 -0.264723 32 212 224
0.188674 -0.481229 -0.232655 32 212 224
-0.197911 -0.455877 0.198425 32 212 224
0.109778 -0.481995 0.246735 32 212 224
-0.0260955 -0.474973 0.378568 32 212 224
0.317309 -0.483023 0.0714105 32 212 224
-0.012833 -0.482602 0.0976434 32 212 224
0.18467 -0.343659 -0.261904 32 212 224
0.0711556 -0.479546 -0.174199 32 212 224
0.11614 -0.294999 -0.260425 32 212 224
-0.0464765 -0.480475 0.236378 32 212 224
0.31631 -0.484077 0.109882 32 212 224
-0.124557 -0.463926 -0.245974 32 212 224
-0.16684 -0.481375 -0.155338 32 212 224
0.149671 -0.483834 0.13402 32 212 224
0.227167 -0.48201 -0.0404609 32 212 224
0.267924 -0.481048 -0.226823 32 212 224
-0.105295 -0.478905 0.156369 32 212 224
0.288924 -0.483705 0.097159 32 212 224
0.401744 -0.4809 -0.0792699 32 212 224
0.184007 -0.34292 -0.261832 32 212 224
0.0691953 -0.482002 0.0300948 32 212 224
-0.0981741 -0.480741 -0.0843593 32 212 224
0.287809 -0.481421 -0.0553583 32 212 224
0.285879 -0.485036 0.172657 32 212 224
0.223466 -0.402602 -0.272875 32 212 224
-0.130217 -0.476057 0.0632719 32 212 224
0.173352 -0.480809 -0.241221 32 212 224
0.00590745 -0.479775 -0.203807 32 212 224
0.162565 -0.480502 -0.169531 32 212 224
0.0788993 -0.479922 -0.114734 32 212 224
0.325942 -0.480963 -0.113442 32 212 224
0.107816 -0.482631 0.289928 32 212 224
0.0357119 -0.481071 -0.0929892 32 212 224
-0.0856943 -0.481002 -0.0419125 32 212 224
-0.146569 -0.481533 -0.00723958 32 212 224
0.0771801 -0.479587 -0.150229 32 212 224
0.0616324 -0.482195 0.331666 32 212 224
0.20019 -0.484048 0.140545 32 212 224
0.0879492 -0.482509 0.0857772 32 212 224
0.277391 -0.481768 0.0164754 32 212 224
0.427287 -0.478907 -0.149777 32 212 224
0.0812743 -0.481683 -0.0110841 32 212 224
-0.0779866 -0.478507 -0.23312 32 212 224
-0.181005 -0.404317 0.304157 32 212 224
-0.0560859 -0.480524 -0.144544 32 212 224
0.261531 -0.484771 0.205864 32 212 224
-0.122327 -0.481222 -0.0280529 32 212 224
-0.203999 -0.434882 0.164084 32 212 224
0.14872 -0.484001 0.16555 32 212 224
0.290204 -0.481537 -0.139328 32 212 224
0.349709 -0.483281 0.0890407 32 212 224
0.364597 -0.481981 -0.0342433 32 212 224
0.232197 -0.483862 0.118711 32 212 224
-0.16707 -0.372386 0.341874 32 212 224
0.0122653 -0.479351 0.363668 32 212 224
0.258708 -0.484052 0.110329 32 212 224
-0.16518 -0.464058 0.300912 32 212 224
-0.175843 -0.419857 0.339531 32 212 224
0.393511 -0.480444 -0.100471 32 212 224
0.351978 -0.480947 -0.0778484 32 212 224
0.291858 -0.479685 -0.238548 32 212 224
-0.188982 -0.429137 0.288457 32 212 224
0.0379567 -0.482242 0.173279 32 212 224
0.188087 -0.480867 -0.155025 32 212 224
-0.0665423 -0.481266 -0.00433174 32 212 224
-0.131499 -0.476385 0.188998 32 212 224
0.312417 -0.481239 -0.105846 32 212 224
0.136609 -0.480206 -0.145432 32 212 224
0.23128 -0.479142 -0.245076 32 212 224
0.310651 -0.48559 0.192258 32 212 224
0.375819 -0.482979 0.0303491 32 212 224
-0.0352519 -0.48085 -0.185461 32 212 224
-0.0612639 -0.480862 0.195667 32 212 224
0.310527 -0.48558 0.196764 32 212 224
-0.173063 -0.47043 0.195216 32 212 224
-0.128339 -0.480347 -0.198909 32 212 224
0.295899 -0.481421 -0.0751718 32 212 224
-0.119183 -0.480093 -0.200437 32 212 224
0.272434 -0.484791 0.210853 32 212 224
-0.177352 -0.473926 0.0904767 32 212 224
0.0290192 -0.467212 -0.264225 32 212 224
0.177418 -0.466039 -0.269031 32 212 224
0.136819 -0.382144 -0.259346 32 212 224
-0.0500606 -0.480596 -0.13633 32 212 224
0.121235 -0.480325 -0.20806 32 212 224
0.263448 -0.481802 -0.0843631 32 212 224
0.310227 -0.484638 0.12063 32 212 224
-0.0672165 -0.480491 -0.134269 32 212 224
0.387545 -0.481551 -0.0639621 32 212 224
0.43002 -0.480593 -0.0795155 32 212 224
0.0116794 -0.479921 -0.191758 32 212 224
-0.181604 -0.463325 0.260891 32 212 224
0.0767588 -0.481243 0.222483 32 212 224
0.192834 -0.483629 0.22771 32 212 224
-0.187982 -0.394561 0.271635 32 212 224
0.155552 -0.483033 0.282903 32 212 224
0.196069 -0.481022 -0.21729 32 212 224
0.00664478 -0.482459 0.0912583 32 212 224
0.346207 -0.480674 -0.135331 32 212 224
-0.123779 -0.481225 -0.156369 32 212 224
0.356629 -0.482822 0.0630774 32 212 224
-0.0126924 -0.481517 0.0176 32 212 224
-0.11405 -0.478432 0.0704988 32 212 224
0.217546 -0.483146 0.0884021 32 212 224
0.0465989 -0.482116 0.176146 32 212 224
0.196743 -0.482847 0.265089 32 212 224
0.401973 -0.483739 0.0306208 32 212 224
0.384588 -0.481196 -0.0772158 32 212 224
0.364684 -0.480175 -0.153881 32 212 224
0.388636 -0.483721 0.0847762 32 212 224
0.0921835 -0.477878 -0.249626 32 212 224
0.0817583 -0.447025 -0.264864 32 212 224
0.00211258 -0.482773 0.118964 32 212 224
0.0233176 -0.479756 -0.181931 32 212 224
0.188327 -0.480387 -0.244954 32 212 224
0.294602 -0.485072 0.136151 32 212 224
-0.127086 -0.481251 -0.0225005 32 212 224
-0.167649 -0.385105 0.34863 32 212 224
0.236538 -0.483553 0.103577 32 212 224
0.095358 -0.479709 -0.138587 32 212 224
0.154593 -0.482623 0.0585481 32 212 224
0.0942556 -0.465088 -0.26453 32 212 224
0.193983 -0.480901 -0.161561 32 212 224
0.241994 -0.484145 0.138723 32 212 224
0.362179 -0.482577 0.0359656 32 212 224
0.196784 -0.483398 0.239958 32 212 224
0.123823 -0.322832 -0.259353 32 212 224
0.321531 -0.481177 -0.0624769 32 212 224
0.235415 -0.483906 0.120673 32 212 224
0.00632831 -0.481988 0.17301 32 212 224
0.336292 -0.480545 -0.183726 32 212 224
0.403381 -0.480572 -0.0907177 32 212 224
0.25355 -0.484273 0.145828 32 212 224
0.143873 -0.481614 -0.021932 32 212 224
0.232128 -0.484005 0.128486 32 212 224
0.190721 -0.484215 0.169265 32 212 224
0.240062 -0.482771 0.0451777 32 212 224
0.340387 -0.482287 0.0425228 32 212 224
0.124557 -0.480305 -0.0977422 32 212 224
0.117946 -0.482275 0.060251 32 212 224
0.188517 -0.370339 -0.263366 32 212 224
0.125737 -0.48178 -0.0230831 32 212 224
-0.0442399 -0.393342 -0.263666 32 212 224
0.428342 -0.480274 -0.0919725 32 212 224
0.0719799 -0.482119 0.0466669 32 212 224
0.333915 -0.48088 -0.12974 32 212 224
0.107361 -0.48327 0.186618 32 212 224
-0.170829 -0.385209 0.336236 32 212 224
0.260978 -0.48172 -0.20118 32 212 224
0.128028 -0.481654 -0.0282584 32 212 224
0.0942791 -0.482811 0.0926918 32 212 224
-0.049378 -0.480566 0.228112 32 212 224
-0.0277479 -0.475209 0.374505 32 212 224
0.00209985 -0.481334 0.259005 32 212 224
-0.198362 -0.466873 -0.110361 32 212 224
0.21857 -0.449909 -0.275789 32 212 224
0.099084 -0.478537 -0.246417 32 212 224
0.000367405 -0.479603 0.343774 32 212 224
-0.0378329 -0.478484 0.296413 32 212 224
0.416454 -0.481687 -0.0493203 32 212 224
0.210173 -0.481361 -0.22545 32 212 224
-0.146009 -0.443679 -0.239029 32 212 224
0.243767 -0.481672 -0.195976 32 212 224
-0.00440384 -0.481038 -0.0870274 32 212 224
0.0511455 -0.48183 0.0121147 32 212 224
-0.0684985 -0.480941 -0.0525789 32 212 224
0.369379 -0.480926 -0.0838887 32 212 224
0.0691939 -0.365307 -0.260911 32 212 224
0.389733 -0.480414 -0.103587 32 212 224
-0.124239 -0.471254 0.271807 32 212 224
-0.137413 -0.481548 -0.0733837 32 212 224
-0.166575 -0.459686 0.342144 32 212 224
-0.195119 -0.456871 0.13267 32 212 224
0.202302 -0.435591 -0.275785 32 212 224
0.00519695 -0.479588 -0.212917 32 212 224
-0.0445641 -0.432278 -0.26462 32 212 224
0.087223 -0.436378 -0.264139 32 212 224
0.0846879 -0.479943 -0.222846 32 212 224
0.113466 -0.482358 0.215264 32 212 224
0.146394 -0.470878 -0.266535 32 212 224
-0.140249 -0.476974 0.125537 32 212 224
0.101168 -0.482542 0.291584 32 212 224
0.416318 -0.482914 -0.0104209 32 212 224
0.15831 -0.36153 -0.259305 32 212 224
0.283965 -0.483763 0.0978503 32 212 224
0.167043 -0.481137 -0.0873025 32 212 224
0.0203291 -0.397343 -0.264394 32 212 224
0.093468 -0.482547 0.29785 32 212 224
0.187834 -0.48082 -0.163848 32 212 224
0.210318 -0.4818 -0.0163176 32 212 224
-0.0900214 -0.479722 0.0957077 32 212 224
0.255409 -0.440066 -0.279292 32 212 224
-0.00831744 -0.482802 0.130446 32 212 224
0.129153 -0.481949 0.0184234 32 212 224
0.278771 -0.481443 -0.00298363 32 212 224
-0.0703565 -0.473944 0.335735 32 212 224
0.123001 -0.483445 0.111583 32 212 224
-0.117522 -0.340405 -0.239998 64 236 211
-0.196782 -0.46644 0.0193395 64 236 211
-0.150303 -0.488677 -0.158873 64 236 211
-0.0398005 -0.346756 -0.243231 64 236 211
0.133032 -0.488229 -0.21109 64 236 211
-0.0540493 -0.488808 0.0838393 64 236 211
0.0898592 -0.474689 -0.239364 64 236 211
-0.192167 -0.337192 -0.155554 64 236 211
0.102039 -0.394958 -0.244951 64 236 211
-0.191936 -0.406596 -0.127171 64 236 211
-0.145551 -0.487652 0.144796 64 236 211
-0.0768122 -0.488547 -0.0568768 64 236 211
0.0352419 -0.488482 -0.203077 64 236 211
0.216178 -0.444063 -0.245716 64 236 211
0.186429 -0.488928 0.0884515 64 236 211
-0.178913 -0.487323 0.0714749 64 236 211
-0.042281 -0.489103 0.107753 64 236 211
0.0102308 -0.489504 0.0397814 64 236 211
-0.14694 -0.488607 -0.143355 64 236 211
0.0681429 -0.331828 -0.246049 64 236 211
-0.144067 -0.377689 -0.237443 64 236 211
0.0742322 -0.489794 -0.127757 64 236 211
0.22694 -0.489659 -0.0977811 64 236 211
0.0107951 -0.489661 0.158702 64 236 211
-0.193812 -0.486532 -0.0949183 64 236 211
0.131078 -0.472628 -0.240914 64 236 211
0.148881 -0.487882 0.223207 64 236 211
0.051108 -0.419339 -0.242842 64 236 211
-0.104814 -0.488921 -0.169743 64 236 211
0.000961618 -0.489184 -0.159363 64 236 211
0.0745866 -0.489657 0.141458 64 236 211
-0.153259 -0.487166 0.318891 64 236 211
-0.195832 -0.382489 -0.0937109 64 236 211
-0.175322 -0.487394 0.128728 64 236 211
-0.0690873 -0.414362 -0.241423 64 236 211
-0.0998849 -0.488695 -0.203954 64 236 211
-0.128902 -0.435333 -0.240768 64 236 211
0.147335 -0.48444 -0.231236 64 236 211
0.234825 -0.489674 -0.0877395 64 236 211
-0.0202017 -0.489329 0.0838108 64 236 211
0.0463591 -0.489019 -0.198689 64 236 211
0.0079853 -0.489146 -0.0861613 64 236 211
0.103102 -0.48935 -0.197326 64 236 211
0.227944 -0.418609 -0.247531 64 236 211
0.138322 -0.477704 -0.240346 64 236 211
-0.00481906 -0.4894 0.0475659 64 236 211
0.0617473 -0.489681 -0.145342 64 236 211
-0.150403 -0.487927 -0.0882752 64 236 211
-0.190525 -0.340225 -0.201488 64 236 211
0.125108 -0.489992 0.0156508 64 236 211
