ply
format ascii 1.0
comment Created by Open3D
element vertex 1143
property double x
property double y
property double z
property uchar red
property uchar green
property uchar blue
end_header
-0.205172 -0.142749 0.14881 160 249 161
-0.198278 -0.023292 0.0266199 160 249 161
-0.208231 -0.18147 0.259874 160 249 161
-0.204364 -0.247032 0.228015 160 249 161
-0.207005 -0.124492 0.195409 160 249 161
-0.205596 -0.116275 0.165231 160 249 161
-0.195062 -0.0225203 -0.004941 160 249 161
-0.192607 -0.29884 -0.0545258 160 249 161
-0.200245 -0.459845 -0.168494 160 249 161
-0.20517 -0.0197039 0.121287 160 249 161
-0.212422 0.0163731 0.20121 160 249 161
-0.20402 -0.169285 0.133457 160 249 161
-0.202171 -0.370868 0.0880617 160 249 161
-0.201288 -0.163678 0.0967608 160 249 161
-0.195321 -0.00713098 -0.0570232 160 249 161
-0.210796 -0.133256 0.279396 160 249 161
-0.198838 -0.390523 -0.123558 160 249 161
-0.205321 -0.335257 0.258693 160 249 161
-0.207592 -0.461304 -0.135641 160 249 161
-0.204715 -0.0940449 0.10665 160 249 161
-0.203225 0.0235888 -0.122717 160 249 161
-0.204724 -0.135603 0.135633 160 249 161
-0.200555 -0.166494 -0.119373 160 249 161
-0.200879 -0.143367 0.0879493 160 249 161
-0.209741 -0.108777 0.237597 160 249 161
-0.205054 -0.266397 0.270204 160 249 161
-0.20233 -0.215432 0.138181 160 249 161
-0.197494 -0.0505531 -0.0795086 160 249 161
-0.200269 -0.255554 -0.143743 160 249 161
-0.2046 -0.258106 0.247069 160 249 161
-0.199459 -0.247791 0.113042 160 249 161
-0.2039 -0.110287 0.100981 160 249 161
-0.207296 -0.0605811 0.157418 160 249 161
-0.203317 0.0605538 -0.11895 160 249 161
-0.207516 -0.207082 0.285137 160 249 161
-0.19469 -0.262132 -0.0069416 160 249 161
-0.206917 -0.389604 0.203868 160 249 161
-0.200568 0.03476 0.0724432 160 249 161
-0.207491 -0.189345 0.243138 160 249 161
-0.198633 -0.349067 -0.164477 160 249 161
-0.211833 -0.457434 -0.14294 160 249 161
-0.210317 -0.0418727 0.211472 160 249 161
-0.136162 -0.48042 -0.184871 160 249 161
-0.197181 -0.256067 0.0221988 160 249 161
-0.201349 -0.255256 0.145005 160 249 161
-0.191489 -0.362145 -0.0286338 160 249 161
-0.213295 -0.0109283 0.219837 160 249 161
-0.192033 -0.344439 -0.031107 160 249 161
-0.205985 -0.14827 0.183933 160 249 161
-0.198904 -0.29885 0.0341114 160 249 161
-0.206108 0.0400675 0.143349 160 249 161
-0.203446 -0.0322236 0.0943317 160 249 161
-0.192095 -0.348435 -0.0825325 160 249 161
-0.204691 -0.42764 0.122504 160 249 161
-0.199129 -0.209647 0.0534528 160 249 161
-0.19783 -0.336754 0.0164469 160 249 161
-0.200235 -0.225212 0.11145 160 249 161
-0.206725 -0.139026 0.193049 160 249 161
-0.193216 0.0482517 -0.0143158 160 249 161
-0.205044 -0.329388 0.247993 160 249 161
-0.20046 -0.0575821 0.0477045 160 249 161
-0.20897 -0.134758 0.236628 160 249 161
-0.1975 -0.105056 0.0104482 160 249 161
-0.193151 -0.232703 -0.052269 160 249 161
-0.215022 -0.0429136 0.259574 160 249 161
-0.20713 -0.188503 0.223269 160 249 161
-0.20051 -0.412881 -0.119111 160 249 161
-0.205326 -0.136375 0.154658 160 249 161
-0.205724 -0.0737283 0.139981 160 249 161
-0.200927 -0.262342 0.136226 160 249 161
-0.202386 -0.104562 0.0836375 160 249 161
-0.20203 -0.243778 0.155456 160 249 161
-0.192307 -0.300849 -0.0617675 160 249 161
-0.202889 -0.3791 0.144588 160 249 161
-0.194711 0.0372345 -0.0526733 160 249 161
-0.204847 -0.0771522 0.104648 160 249 161
-0.200526 -0.18605 -0.124278 160 249 161
-0.20403 -0.243162 0.20681 160 249 161
-0.198001 -0.333498 -0.164298 160 249 161
-0.201412 -0.351047 0.105583 160 249 161
-0.202973 -0.020834 0.0909529 160 249 161
-0.195162 0.0152416 -0.0550817 160 249 161
-0.194976 -0.206564 -0.00828053 160 249 161
-0.209771 -0.115975 0.245184 160 249 161
-0.20357 -0.412168 0.11821 160 249 161
-0.206958 -0.168032 0.203064 160 249 161
-0.198396 -0.451699 0.01332 160 249 161
-0.205353 -0.0583336 -0.142997 160 249 161
-0.200395 -0.054362 0.0556207 160 249 161
-0.20098 0.0181808 0.0762966 160 249 161
-0.202773 -0.00585347 0.0920186 160 249 161
-0.217169 0.0132345 0.240602 160 249 161
-0.201401 -0.353081 0.0759161 160 249 161
-0.201228 -0.342781 0.0976285 160 249 161
-0.197709 -0.0340659 0.01895 160 249 161
-0.194989 -0.164263 -0.0211715 160 249 161
-0.199472 -0.199078 -0.114551 160 249 161
-0.202648 -0.0211818 0.0859469 160 249 161
-0.200237 -0.269484 -0.156276 160 249 161
-0.197176 0.0265867 0.0280408 160 249 161
-0.203883 -0.269169 0.216568 160 249 161
-0.195887 -0.0492942 -0.0031476 160 249 161
-0.200916 -0.166475 -0.123044 160 249 161
-0.201743 -0.402567 0.0772894 160 249 161
-0.194761 -0.0442968 -0.0578544 160 249 161
-0.199241 -0.120134 -0.0998761 160 249 161
-0.201928 -0.205831 0.121661 160 249 161
-0.192876 -0.242749 -0.0602724 160 249 161
-0.198275 0.0279498 0.0416782 160 249 161
-0.194663 -0.0847343 -0.038309 160 249 161
-0.206456 -0.0291763 0.136634 160 249 161
-0.204715 -0.335739 0.207112 160 249 161
-0.20499 -0.168734 0.155749 160 249 161
-0.205407 -0.308979 0.293277 160 249 161
-0.204859 0.058446 -0.127269 160 249 161
-0.208064 -0.0506462 0.162603 160 249 161
-0.193894 -0.215652 -0.0344917 160 249 161
-0.194137 -0.253257 -0.0831376 160 249 161
-0.196185 -0.0440888 0.00114172 160 249 161
-0.195971 -0.198434 -0.00115239 160 249 161
-0.19629 -0.294192 -0.101222 160 249 161
-0.203534 -0.0649115 0.087514 160 249 161
-0.194884 -0.167743 -0.0293907 160 249 161
-0.193225 -0.144149 -0.0665792 160 249 161
-0.205347 -0.000475943 0.128902 160 249 161
0.173908 -0.164043 -0.192437 192 234 140
0.176779 -0.255323 -0.191253 192 234 140
0.187889 -0.346003 -0.191787 192 234 140
0.190614 -0.293979 -0.19216 192 234 140
-0.00214898 -0.313171 -0.187668 192 234 140
0.269914 -0.356641 -0.197709 192 234 140
0.0539865 -0.186374 -0.187344 192 234 140
0.206452 -0.016178 -0.192968 192 234 140
0.25343 -0.215893 -0.196628 192 234 140
0.347678 -0.182733 -0.201779 192 234 140
0.00701252 -0.356187 -0.18597 192 234 140
0.137842 -0.438791 -0.196387 192 234 140
0.331655 -0.201168 -0.200472 192 234 140
-0.0579582 -0.216708 -0.188071 192 234 140
0.147672 0.0200942 -0.191211 192 234 140
1.49179e-05 -0.130829 -0.183902 192 234 140
-0.0282483 -0.197972 -0.187297 192 234 140
0.328473 -0.444554 -0.207902 192 234 140
0.240583 -0.212603 -0.196201 192 234 140
-0.0332584 0.0532926 -0.182467 192 234 140
0.0309831 -0.341737 -0.184657 192 234 140
0.307977 -0.375615 -0.201762 192 234 140
-0.104359 -0.33652 -0.188182 192 234 140
-0.155257 -0.366199 -0.191032 192 234 140
0.255247 -0.277691 -0.19438 192 234 140
0.141787 -0.235762 -0.191342 192 234 140
-0.000361465 -0.297431 -0.186321 192 234 140
0.0659453 0.0277225 -0.18836 192 234 140
0.126682 -0.00295045 -0.190558 192 234 140
0.303891 -0.0422096 -0.199043 192 234 140
0.359452 -0.418499 -0.208058 192 234 140
0.179141 -0.366421 -0.192209 192 234 140
0.212299 -0.0313118 -0.193303 192 234 140
0.199679 -0.261152 -0.192557 192 234 140
-0.00256365 0.0081566 -0.183801 192 234 140
0.100418 -0.331323 -0.188093 192 234 140
-0.0760068 -0.167258 -0.18731 192 234 140
0.100282 -0.410413 -0.190364 192 234 140
-0.0732053 -0.138961 -0.186746 192 234 140
0.355656 -0.184088 -0.202006 192 234 140
0.138863 -0.0275648 -0.190857 192 234 140
0.093521 -0.456751 -0.196203 192 234 140
0.341767 -0.456376 -0.208996 192 234 140
0.137637 -0.0834462 -0.190245 192 234 140
0.283355 -0.374718 -0.200023 192 234 140
0.16532 -0.107055 -0.191045 192 234 140
0.374089 -0.393274 -0.207247 192 234 140
0.224846 -0.10188 -0.194576 192 234 140
-0.0160049 -0.447589 -0.197712 192 234 140
0.0178022 -0.296318 -0.186051 192 234 140
0.281734 -0.409785 -0.202329 192 234 140
-0.0809259 -0.417169 -0.194108 192 234 140
-0.0398973 0.0437981 -0.182349 192 234 140
0.319456 -0.453189 -0.207887 192 234 140
0.151962 -0.228015 -0.191765 192 234 140
0.286813 -0.0697382 -0.198202 192 234 140
0.00732118 -0.175383 -0.184157 192 234 140
0.210059 -0.323988 -0.192276 192 234 140
0.225628 -0.259535 -0.193968 192 234 140
0.00680103 -0.379306 -0.187625 192 234 140
-0.0183511 -0.0933729 -0.183517 192 234 140
0.152651 -0.357702 -0.189983 192 234 140
-0.120692 -0.230049 -0.18961 192 234 140
0.105349 -0.449541 -0.19532 192 234 140
0.386151 -0.166195 -0.205527 192 234 140
0.128218 -0.336363 -0.188822 192 234 140
-0.0292389 -0.247008 -0.189161 192 234 140
-0.173786 -0.451621 -0.199358 192 234 140
-0.172536 -0.379714 -0.192982 192 234 140
0.296666 -0.45416 -0.206472 192 234 140
0.153853 -0.260741 -0.190756 192 234 140
0.373997 -0.311546 -0.20152 192 234 140
0.299606 -0.444819 -0.206207 192 234 140
0.249935 -0.245515 -0.195396 192 234 140
-0.12934 -0.00621046 -0.181824 192 234 140
0.322127 -0.258651 -0.197274 192 234 140
0.36819 -0.424821 -0.209204 192 234 140
0.110504 -0.295986 -0.189886 192 234 140
-0.118802 0.0272048 -0.180526 192 234 140
-0.126107 -0.285902 -0.191042 192 234 140
0.314597 -0.243872 -0.197803 192 234 140
0.0856535 0.0331282 -0.189716 192 234 140
0.296494 -0.200575 -0.199186 192 234 140
0.233231 -0.177147 -0.196378 192 234 140
-0.160237 -0.267455 -0.191631 192 234 140
0.129269 -0.347941 -0.188174 192 234 140
0.0844436 -0.163386 -0.189743 192 234 140
0.0629946 -0.124618 -0.187759 192 234 140
0.28027 -0.439571 -0.204649 192 234 140
0.358366 0.0446169 -0.201229 192 234 140
0.369325 -0.282341 -0.199302 192 234 140
0.369563 -0.266205 -0.198893 192 234 140
0.232038 -0.22364 -0.19548 192 234 140
0.289809 -0.327132 -0.197562 192 234 140
0.247387 -0.0665912 -0.195792 192 234 140
0.00852191 -0.454745 -0.197536 192 234 140
-0.110943 0.0491968 -0.179842 192 234 140
0.224548 -0.384535 -0.196512 192 234 140
0.395127 -0.0192167 -0.204452 192 234 140
0.144962 -0.444774 -0.197293 192 234 140
-0.0489001 -0.364462 -0.187007 192 234 140
0.0351743 -0.0975072 -0.185811 192 234 140
0.0199164 -0.350542 -0.184291 192 234 140
-0.00877609 -0.43935 -0.196598 192 234 140
0.0868452 -0.19388 -0.190002 192 234 140
-0.0297224 -0.46345 -0.19615 192 234 140
0.234876 -0.386198 -0.197207 192 234 140
0.34266 -0.0438229 -0.201101 192 234 140
0.00223072 -0.310021 -0.186336 192 234 140
-0.128126 -0.434174 -0.198451 192 234 140
-0.122825 -0.167411 -0.187817 192 234 140
0.311525 -0.161929 -0.20133 192 234 140
0.32129 0.0152934 -0.200228 192 234 140
0.319322 -0.306236 -0.198008 192 234 140
0.0726447 -0.194583 -0.189137 192 234 140
0.278972 -0.434108 -0.204102 192 234 140
-0.0808978 -0.35139 -0.187227 192 234 140
-0.0362886 -0.316127 -0.188009 192 234 140
-0.138407 -0.024967 -0.182293 192 234 140
-0.0950743 -0.0388374 -0.182318 192 234 140
0.136523 -0.132913 -0.190564 192 234 140
-0.116106 -0.44363 -0.198292 192 234 140
0.281592 -0.266047 -0.195668 192 234 140
0.02399 -0.334237 -0.184984 192 234 140
0.0627182 -0.439156 -0.192401 192 234 140
0.266887 -0.00226625 -0.19692 192 234 140
0.252953 -0.42571 -0.201832 192 234 140
-0.0625765 -0.247668 -0.189593 192 234 140
-0.0556438 -0.0619273 -0.182757 192 234 140
0.151966 -0.419964 -0.195388 192 234 140
0.233466 -0.366408 -0.195577 192 234 140
0.176136 -0.278496 -0.19153 192 234 140
-0.00725899 -0.186374 -0.184503 192 234 140
-0.0101933 -0.216785 -0.186373 192 234 140
0.0738299 -0.379173 -0.185928 192 234 140
-0.171794 -0.451687 -0.199364 192 234 140
0.201693 -0.245634 -0.19296 192 234 140
0.247936 -0.260571 -0.194686 192 234 140
-0.0361209 -0.199183 -0.187418 192 234 140
0.377779 -0.36104 -0.204966 192 234 140
-0.16676 -0.385424 -0.193253 192 234 140
0.322327 -0.240212 -0.198229 192 234 140
0.000312094 -0.266499 -0.185901 192 234 140
0.175934 -0.0217941 -0.191749 192 234 140
-0.144995 -0.228574 -0.189822 192 234 140
0.201438 -0.422884 -0.198535 192 234 140
0.109838 -0.367967 -0.188412 192 234 140
-0.0472026 -0.383695 -0.188604 192 234 140
0.153411 -0.370979 -0.19072 192 234 140
0.173074 -0.417584 -0.196356 192 234 140
0.0322241 -0.334313 -0.18494 192 234 140
0.203501 -0.281083 -0.192713 192 234 140
-0.0931332 -0.306198 -0.189881 192 234 140
0.105051 -0.172645 -0.190276 192 234 140
-0.120798 -0.162816 -0.187661 192 234 140
-0.148766 -0.473378 -0.186438 192 234 140
0.00410713 -0.130731 -0.184145 192 234 140
0.0163576 -0.116027 -0.184721 192 234 140
0.263079 -0.203489 -0.197534 192 234 140
0.156206 -0.0145486 -0.191403 192 234 140
-0.0732544 -0.0915564 -0.184412 192 234 140
0.386652 -0.292459 -0.201614 192 234 140
0.249777 -0.0428973 -0.195868 192 234 140
0.0450891 -0.149637 -0.186825 192 234 140
0.00710454 -0.33839 -0.185707 192 234 140
0.168987 -0.409978 -0.195299 192 234 140
0.162094 -0.130074 -0.191313 192 234 140
-0.108205 -0.446622 -0.198582 192 234 140
0.1289 -0.0849836 -0.189963 192 234 140
-0.0280651 -0.0782036 -0.183029 192 234 140
0.0601176 -0.0448957 -0.187314 192 234 140
0.0716218 -0.196699 -0.189053 192 234 140
0.203406 -0.258408 -0.192822 192 234 140
-0.107475 -0.455746 -0.199064 192 234 140
0.140334 -0.214372 -0.191825 192 234 140
0.290233 -0.145997 -0.199787 192 234 140
0.0251443 -0.139026 -0.185607 192 234 140
0.36899 -0.356041 -0.20415 192 234 140
0.166852 -0.0905961 -0.190958 192 234 140
0.0723611 -0.298051 -0.187228 192 234 140
0.182492 -0.366182 -0.192422 192 234 140
0.122791 -0.202067 -0.191121 192 234 140
0.0501378 -0.333744 -0.184952 192 234 140
0.287968 -0.428569 -0.204233 192 234 140
0.257023 -0.424623 -0.202002 192 234 140
-0.0321147 -0.172253 -0.186865 192 234 140
-0.0963264 -0.0374908 -0.182268 192 234 140
0.222704 -0.448079 -0.202042 192 234 140
-0.0961483 0.0134043 -0.180482 192 234 140
0.0725326 -0.209458 -0.189135 192 234 140
0.214728 -0.224375 -0.194386 192 234 140
-0.118363 -0.0814697 -0.183966 192 234 140
0.328888 -0.0723834 -0.200246 192 234 140
0.281423 -0.416145 -0.202813 192 234 140
0.2248 -0.00832035 -0.194123 192 234 140
0.347072 -0.0367425 -0.20136 192 234 140
0.181235 -0.233613 -0.192073 192 234 140
0.280154 -0.22199 -0.197458 192 234 140
0.123273 -0.232821 -0.191227 192 234 140
-0.11027 -0.24795 -0.190377 192 234 140
0.105476 -0.420955 -0.191765 192 234 140
-0.000189899 -0.329592 -0.187281 192 234 140
-0.129954 -0.323883 -0.189602 192 234 140
0.0601212 -0.207651 -0.187936 192 234 140
-0.0111031 -0.160988 -0.185442 192 234 140
0.388608 -0.429004 -0.210085 192 234 140
0.140112 -0.0923845 -0.190278 192 234 140
0.303794 -0.260533 -0.196574 192 234 140
0.13214 -0.0251455 -0.190643 192 234 140
-0.0367008 -0.401987 -0.190675 192 234 140
0.0365859 -0.336806 -0.184829 192 234 140
0.330193 -0.0150514 -0.200439 192 234 140
0.155065 -0.10863 -0.190788 192 234 140
-0.0029997 -0.00863456 -0.183731 192 234 140
0.254722 -0.178739 -0.198066 192 234 140
0.327528 -0.314316 -0.199031 192 234 140
0.163239 -0.286199 -0.19084 192 234 140
0.293412 0.0246418 -0.19852 192 234 140
-0.0536917 -0.287836 -0.189528 192 234 140
0.221963 -0.010019 -0.193943 192 234 140
0.0899575 -0.43417 -0.192207 192 234 140
0.241538 0.0240524 -0.19528 192 234 140
-0.0355478 0.0516348 -0.182596 192 234 140
-0.134132 0.0543026 -0.18025 192 234 140
-0.0308712 -0.231128 -0.188429 192 234 140
0.0206148 -0.284293 -0.185943 192 234 140
0.0448962 -0.018085 -0.186602 192 234 140
0.00114605 -0.45683 -0.195559 192 234 140
0.233336 -0.33569 -0.19405 192 234 140
0.0165449 -0.121363 -0.184812 192 234 140
-0.0207787 -0.0216703 -0.18272 192 234 140
0.12746 -0.367553 -0.188981 192 234 140
0.138693 -0.366591 -0.189473 192 234 140
0.313262 -0.270622 -0.196377 192 234 140
0.337755 -0.345691 -0.201221 192 234 140
0.0431173 -0.0926963 -0.186355 192 234 140
-0.0429152 -0.0199104 -0.181904 192 234 140
0.0169116 -0.275894 -0.185808 192 234 140
-0.0913433 -0.387845 -0.19054 192 234 140
-0.104051 0.0504157 -0.180044 192 234 140
0.19551 -0.374202 -0.193779 192 234 140
0.228108 -0.354381 -0.194742 192 234 140
0.0707468 0.0103311 -0.188487 192 234 140
0.277078 0.000644624 -0.197602 192 234 140
-0.00395837 -0.246834 -0.186318 192 234 140
0.369164 -0.26764 -0.198816 192 234 140
0.278479 -0.113177 -0.198275 192 234 140
0.0113987 -0.0757992 -0.184209 192 234 140
0.326538 -0.0581748 -0.200145 192 234 140
0.089135 -0.17886 -0.189916 192 234 140
-0.063669 0.0524496 -0.181421 192 234 140
0.0686913 -0.0204637 -0.187988 192 234 140
0.0422139 -0.254963 -0.185958 192 234 140
-0.159904 -0.37158 -0.191655 192 234 140
-0.00097855 -0.347366 -0.186479 192 234 140
0.0119381 0.0513263 -0.185048 192 234 140
0.392109 -0.379316 -0.206711 192 234 140
0.0860517 -0.408097 -0.189169 192 234 140
0.0686311 -0.15937 -0.188708 192 234 140
0.326093 -0.321039 -0.199271 192 234 140
0.0478366 -0.147571 -0.187018 192 234 140
0.0742467 -0.348395 -0.184895 192 234 140
-0.0635742 -0.0448721 -0.1822 192 234 140
0.357511 -0.0183616 -0.202011 192 234 140
0.152341 -0.404507 -0.193657 192 234 140
0.289638 -0.137675 -0.199448 192 234 140
0.38363 -0.303605 -0.201694 192 234 140
0.280746 -0.0729998 -0.197933 192 234 140
-0.145335 -0.301401 -0.191224 192 234 140
0.291464 -0.315261 -0.196902 192 234 140
0.304982 -0.456485 -0.207148 192 234 140
0.0285621 -0.431673 -0.193694 192 234 140
-0.0778394 -0.449233 -0.198363 192 234 140
0.0407616 -0.243199 -0.186102 192 234 140
-0.088799 -0.0403759 -0.182293 192 234 140
0.19487 -0.299395 -0.19221 192 234 140
0.0420237 -0.249592 -0.186033 192 234 140
0.309317 -0.442146 -0.206678 192 234 140
0.221421 -0.219036 -0.194963 192 234 140
0.101807 -0.158367 -0.190171 192 234 140
0.137407 -0.0769679 -0.190271 192 234 140
0.382414 -0.221621 -0.202268 192 234 140
0.0612995 -0.369861 -0.185019 192 234 140
0.0537125 -0.0924155 -0.186951 192 234 140
-0.0507223 0.0490179 -0.181896 192 234 140
0.200903 -0.326724 -0.19191 192 234 140
0.0777314 -0.459887 -0.196919 192 234 140
0.362796 -0.0654769 -0.202366 192 234 140
0.325846 -0.267416 -0.196966 192 234 140
0.211461 -0.243213 -0.193599 192 234 140
0.283132 -0.304812 -0.195829 192 234 140
0.204433 -0.444824 -0.20076 192 234 140
0.261095 -0.306284 -0.194553 192 234 140
0.224118 -0.0111192 -0.194076 192 234 140
-0.0160149 -0.311845 -0.188017 192 234 140
-0.0080168 -0.23804 -0.187098 192 234 140
-0.00320085 -0.300331 -0.187355 192 234 140
0.111368 -0.0459324 -0.189731 192 234 140
0.147201 -0.152385 -0.191394 192 234 140
0.270506 -0.456604 -0.204767 192 234 140
-0.0743916 0.0268834 -0.180695 192 234 140
0.222731 -0.14562 -0.195149 192 234 140
0.380297 -0.344775 -0.203922 192 234 140
-0.00461198 -0.25485 -0.186839 192 234 140
0.279957 -0.0672415 -0.197895 192 234 140
-0.0924219 -0.279397 -0.190427 192 234 140
0.15983 -0.22883 -0.191813 192 234 140
0.350784 -0.193011 -0.20145 192 234 140
-0.0676191 -0.13465 -0.186582 192 234 140
0.0948887 -0.366967 -0.186823 192 234 140
0.313528 -0.308606 -0.197793 192 234 140
0.256529 -0.133712 -0.197314 192 234 140
0.0238662 -0.391394 -0.186467 192 234 140
-0.00454251 -0.0628668 -0.183227 192 234 140
0.074319 -0.29954 -0.18733 192 234 140
-0.135195 -0.411399 -0.195219 192 234 140
0.354898 -0.262249 -0.198153 192 234 140
0.0196953 -0.00686971 -0.185284 192 234 140
0.377393 -0.100789 -0.204163 192 234 140
0.0137461 0.0240218 -0.185045 192 234 140
-0.0866881 0.0357724 -0.180392 192 234 140
0.0381543 -0.454096 -0.196212 192 234 140
0.279798 -0.294091 -0.195098 192 234 140
0.275073 -0.422565 -0.202837 192 234 140
0.389211 -0.0252288 -0.203961 192 234 140
0.29192 -0.10254 -0.198755 192 234 140
0.192872 -0.323131 -0.191682 192 234 140
0.384096 -0.245925 -0.201168 192 234 140
0.205933 -0.254356 -0.193042 192 234 140
-0.0779199 -0.443912 -0.198502 192 234 140
-0.0125119 -0.19635 -0.186642 192 234 140
0.240181 0.0161207 -0.19519 192 234 140
0.230483 -0.239044 -0.194887 192 234 140
0.0955306 -0.332256 -0.187532 192 234 140
0.263954 -0.307385 -0.194804 192 234 140
0.261979 -0.408725 -0.200947 192 234 140
0.337501 -0.0213454 -0.200819 192 234 140
0.279749 -0.299489 -0.195336 192 234 140
0.0490146 -0.169232 -0.186921 192 234 140
0.0910476 -0.0849905 -0.188971 192 234 140
0.37114 -0.334879 -0.202812 192 234 140
0.154628 -0.0149682 -0.191367 192 234 140
0.394264 -0.431917 -0.209897 192 234 140
0.318012 -0.299101 -0.197414 192 234 140
0.0180857 -0.36243 -0.184187 192 234 140
0.237848 -0.0425376 -0.194929 192 234 140
0.0729168 -0.0296087 -0.188159 192 234 140
0.0775412 -0.422496 -0.190058 192 234 140
0.319808 -0.424717 -0.20604 192 234 140
0.0516971 -0.276072 -0.186173 192 234 140
0.359171 -0.177094 -0.202441 192 234 140
-0.0464971 -0.239097 -0.189046 192 234 140
0.181498 -0.414647 -0.196479 192 234 140
-0.100954 -0.281143 -0.190507 192 234 140
-0.0540497 -0.417447 -0.19326 192 234 140
-0.00582718 0.0479452 -0.183747 192 234 140
-0.0283096 -0.449609 -0.198246 192 234 140
0.30177 -0.139438 -0.200336 192 234 140
0.342436 -0.383376 -0.204488 192 234 140
0.321272 -0.0965533 -0.200075 192 234 140
0.12874 -0.373524 -0.18939 192 234 140
-0.180064 -0.380963 -0.193755 192 234 140
0.140951 -0.370525 -0.189883 192 234 140
-0.104308 -0.31822 -0.189436 192 234 140
0.389563 -0.293644 -0.201926 192 234 140
0.179443 -0.454249 -0.200106 192 234 140
0.193476 -0.356654 -0.192667 192 234 140
0.0500799 0.033988 -0.187307 192 234 140
0.24856 0.0169767 -0.195723 192 234 140
0.0143201 -0.376063 -0.18684 192 234 140
-0.00308244 0.0335373 -0.183861 192 234 140
0.291459 -0.0342139 -0.198445 192 234 140
0.288581 0.0179022 -0.198234 192 234 140
-0.117779 -0.0884625 -0.184234 192 234 140
0.0552356 -0.109104 -0.187117 192 234 140
0.27323 -0.333738 -0.196739 192 234 140
0.279953 -0.244606 -0.196576 192 234 140
0.0959471 -0.0149162 -0.189549 192 234 140
0.344415 -0.220098 -0.199961 192 234 140
0.311752 -0.171343 -0.201099 192 234 140
-0.107492 -0.341349 -0.187821 192 234 140
0.377794 -0.367833 -0.205449 192 234 140
0.18783 -0.225096 -0.192706 192 234 140
0.232936 0.0401721 -0.194825 192 234 140
0.3303 0.0425404 -0.200433 192 234 140
0.233398 -0.0637627 -0.194675 192 234 140
-0.0479178 0.0262692 -0.181752 192 234 140
0.074156 0.00140577 -0.188649 192 234 140
0.155076 -0.302546 -0.190406 192 234 140
0.05485 -0.133208 -0.187419 192 234 140
0.380854 -0.0617623 -0.203664 192 234 140
0.351567 -0.0900701 -0.20195 192 234 140
0.379046 0.0353728 -0.202058 192 234 140
0.316462 -0.371845 -0.202003 192 234 140
-0.035877 -0.0303557 -0.182241 192 234 140
-0.0074944 -0.193097 -0.184752 192 234 140
0.285758 -0.221997 -0.197702 192 234 140
0.0945777 -0.436655 -0.192822 192 234 140
0.0354137 -0.122248 -0.186069 192 234 140
0.231736 -0.121215 -0.195356 192 234 140
0.269579 -0.297828 -0.194804 192 234 140
0.333016 -0.363489 -0.202291 192 234 140
0.250906 0.0382838 -0.19586 192 234 140
0.302245 -0.436645 -0.205945 192 234 140
0.11711 -0.381889 -0.189611 192 234 140
0.274206 -0.196856 -0.198254 192 234 140
0.321768 0.0278231 -0.200311 192 234 140
0.124609 -0.00383578 -0.190491 192 234 140
0.0958003 -0.30185 -0.189162 192 234 140
0.179052 -0.383347 -0.193341 192 234 140
-0.12005 -0.17505 -0.188004 192 234 140
0.114352 -0.0435948 -0.189847 192 234 140
0.213246 -0.284524 -0.193213 192 234 140
0.0677485 -0.451712 -0.195116 192 234 140
0.0212912 -0.218146 -0.184557 192 234 140
0.271103 -0.451704 -0.204682 192 234 140
0.170517 -0.168025 -0.192381 192 234 140
0.0578179 -0.0479571 -0.187183 192 234 140
-0.128147 -0.0784617 -0.183839 192 234 140
0.0743922 -0.358236 -0.184749 192 234 140
0.330501 -0.29186 -0.197643 192 234 140
0.0322344 -0.458562 -0.194872 192 234 140
0.37679 -0.147286 -0.204502 192 234 140
0.0419748 -0.251394 -0.186002 192 234 140
0.0323861 -0.213685 -0.185259 192 234 140
0.3555 -0.0901406 -0.202193 192 234 140
0.0040333 -0.329196 -0.186404 192 234 140
0.21089 -0.277232 -0.193007 192 234 140
-0.109245 -0.0838078 -0.184058 192 234 140
0.192823 -0.436173 -0.199342 192 234 140
0.0739404 -0.109227 -0.188393 192 234 140
-0.0843231 -0.267433 -0.190192 192 234 140
0.337801 -0.431646 -0.20752 192 234 140
0.00262964 -0.305721 -0.185969 192 234 140
0.322282 -0.012874 -0.200083 192 234 140
0.198596 -0.337853 -0.192053 192 234 140
0.360993 -0.195312 -0.201698 192 234 140
0.160426 -0.379694 -0.1917 192 234 140
0.172208 -0.243254 -0.191236 192 234 140
0.0166759 -0.415351 -0.192279 192 234 140
0.181075 -0.170048 -0.192513 192 234 140
0.313978 -0.0149979 -0.199666 192 234 140
0.260863 -0.191423 -0.197998 192 234 140
0.237707 -0.0647981 -0.195025 192 234 140
0.319358 -0.250228 -0.197622 192 234 140
0.235757 -0.00547854 -0.194873 192 234 140
-0.132321 -0.0844135 -0.184047 192 234 140
0.0780189 0.0327725 -0.189397 192 234 140
0.134891 -0.142067 -0.190727 192 234 140
0.0759697 -0.235805 -0.189255 192 234 140
-0.173465 -0.392973 -0.194495 192 234 140
0.154378 -0.209516 -0.192115 192 234 140
0.094534 -0.193489 -0.190213 192 234 140
0.225256 -0.0145297 -0.194145 192 234 140
0.262725 -0.35599 -0.197136 192 234 140
0.390559 -0.328672 -0.203379 192 234 140
0.116926 -0.131955 -0.19014 192 234 140
-0.178562 -0.445665 -0.19948 192 234 140
0.322159 -0.147911 -0.201991 192 234 140
0.184709 -0.450834 -0.20015 192 234 140
-0.159239 -0.473396 -0.184948 192 234 140
0.0146678 -0.115945 -0.184614 192 234 140
-0.0742868 -0.206209 -0.187978 192 234 140
-0.0430046 0.0165121 -0.181924 192 234 140
-0.0801263 -0.0229554 -0.181381 192 234 140
-0.010586 -0.0518404 -0.18293 192 234 140
0.305878 -0.0708044 -0.199138 192 234 140
0.123097 -0.377582 -0.189466 192 234 140
0.0665422 -0.24116 -0.188281 192 234 140
0.36985 -0.247398 -0.199787 192 234 140
0.15796 -0.199416 -0.192079 192 234 140
-0.0878346 -0.425696 -0.195809 192 234 140
-0.108799 -0.325053 -0.1891 192 234 140
0.0466119 -0.45089 -0.194953 192 234 140
-0.0665114 -0.240676 -0.189356 192 234 140
0.0931845 -0.152588 -0.190033 192 234 140
0.147961 -0.176296 -0.191674 192 234 140
0.250264 0.021719 -0.195823 192 234 140
0.163194 -0.397251 -0.193568 192 234 140
0.165219 -0.00732707 -0.19162 192 234 140
0.245965 -0.104728 -0.196127 192 234 140
0.362404 -0.0917915 -0.202651 192 234 140
0.0541286 -0.430408 -0.191026 192 234 140
0.228829 -0.352416 -0.194724 192 234 140
0.21225 0.0353528 -0.193506 192 234 140
0.17971 -0.431518 -0.198183 192 234 140
0.181463 -0.0323673 -0.1918 192 234 140
-0.0609084 -0.407642 -0.191983 192 234 140
-0.00263246 -0.170826 -0.183975 192 234 140
-0.0963128 -0.412829 -0.193993 192 234 140
-0.0492882 -0.208777 -0.18774 192 234 140
0.104659 0.0135652 -0.19007 192 234 140
0.2057 -0.0302738 -0.19291 192 234 140
-0.0835011 -0.0288044 -0.181661 192 234 140
-0.00276244 -0.386217 -0.188346 192 234 140
0.132738 -0.18387 -0.191069 192 234 140
0.0649728 0.00818431 -0.188049 192 234 140
-0.151939 -0.32606 -0.189811 192 234 140
0.00141675 -0.432636 -0.195582 192 234 140
0.208132 -0.310409 -0.192497 192 234 140
0.265575 -0.0218304 -0.196952 192 234 140
0.325238 -0.4179 -0.205923 192 234 140
0.392866 -0.0979456 -0.206657 192 234 140
0.134626 -0.367425 -0.189222 192 234 140
0.357125 -0.252041 -0.198744 192 234 140
0.276379 -0.302216 -0.195282 192 234 140
0.0328239 -0.0307614 -0.186026 192 234 140
0.0356115 -0.149449 -0.186191 192 234 140
0.0170301 0.0270616 -0.185232 192 234 140
-0.0125989 -0.160361 -0.185999 192 234 140
0.160364 -0.0698608 -0.190904 192 234 140
0.00880649 -0.230903 -0.185104 192 234 140
0.0835715 -0.309076 -0.192321 224 210 119
-0.131986 -0.342131 -0.204157 224 210 119
-0.175558 -0.226762 0.163655 224 210 119
-0.0627521 -0.292343 -0.203193 224 210 119
-0.175378 -0.308341 0.200516 224 210 119
-0.0911035 -0.268262 -0.205172 224 210 119
-0.0185438 -0.0732538 -0.198837 224 210 119
0.184444 0.000815868 -0.202692 224 210 119
-0.193064 -0.323353 -0.116267 224 210 119
-0.173818 -0.137261 0.0711491 224 210 119
-0.102161 -0.276409 -0.20568 224 210 119
-0.158466 -0.0838072 -0.203173 224 210 119
-0.174848 -0.107108 0.151514 224 210 119
-0.176657 -0.141489 0.206855 224 210 119
-0.177102 -0.345247 0.0995653 224 210 119
-0.194568 -0.329295 -0.139404 224 210 119
-0.191919 -0.108455 -0.130681 224 210 119
-0.175838 -0.0386805 0.115453 224 210 119
-0.17384 -0.126653 0.0861975 224 210 119
-0.185938 0.00161689 -0.163005 224 210 119
0.0241296 0.0166598 -0.194854 224 210 119
0.13864 -0.283744 -0.194608 224 210 119
-0.191999 -0.0953041 -0.127325 224 210 119
-0.194411 -0.0220282 -0.103815 224 210 119
-0.176943 -0.311468 0.078658 224 210 119
-0.0526677 -0.264631 -0.202495 224 210 119
-0.00636921 -0.222616 -0.201634 224 210 119
-0.17537 -0.0621699 0.154603 224 210 119
-0.144125 -0.0579188 -0.207651 224 210 119
-0.116582 -0.298261 -0.206218 224 210 119
0.0776149 -0.13809 -0.202563 224 210 119
-0.176429 -0.26103 0.0686892 224 210 119
-0.175331 -0.0395367 0.0602053 224 210 119
-0.160561 -0.325964 -0.198908 224 210 119
-0.0151404 -0.261644 -0.200671 224 210 119
-0.191112 -0.142774 -0.108376 224 210 119
-0.0152603 -0.242888 -0.201421 224 210 119
-0.0684619 0.050989 -0.20307 224 210 119
0.209173 -0.300168 -0.197175 224 210 119
0.187171 -0.115848 -0.206873 224 210 119
0.113026 -0.383616 -0.188077 224 210 119
-0.17936 -0.0194912 0.271201 224 210 119
-0.192329 -0.0821491 -0.088587 224 210 119
-0.0406223 0.0263944 -0.198586 224 210 119
-0.176234 -0.210003 0.0525096 224 210 119
-0.134296 -0.291085 -0.206066 224 210 119
-0.110802 -0.144589 -0.202126 224 210 119
-0.177387 -0.134864 -0.0155138 224 210 119
-0.175521 -0.161674 0.176663 224 210 119
0.0349976 -0.179536 -0.200303 224 210 119
-0.192945 -0.309047 -0.147885 224 210 119
-0.167572 0.048433 -0.190051 224 210 119
-0.181086 -0.27289 -0.0157387 224 210 119
-0.103016 -0.0105359 -0.205677 224 210 119
-0.182371 0.0185467 -0.172156 224 210 119
-0.175861 -0.148251 0.188148 224 210 119
-0.168079 -0.365346 -0.195732 224 210 119
0.123403 -0.107728 -0.203754 224 210 119
-0.141063 -0.332921 -0.203598 224 210 119
0.219572 -0.0442857 -0.207831 224 210 119
-0.180421 0.00716792 0.232523 224 210 119
0.159034 -0.183454 -0.204201 224 210 119
-0.190491 -0.374414 -0.0850383 224 210 119
-0.138197 -0.367605 -0.202319 224 210 119
-0.172642 -0.10083 0.0271294 224 210 119
-0.176981 -0.124541 0.212915 224 210 119
-0.200839 0.0388752 0.079517 224 210 119
-0.174969 -0.274102 0.209917 224 210 119
-0.202078 0.0367213 0.0470741 224 210 119
-0.203595 0.0409705 -0.0949882 224 210 119
-0.166409 -0.0974095 -0.199841 224 210 119
-0.0684448 -0.0440954 -0.200232 224 210 119
-0.18136 -0.243547 -0.0111882 224 210 119
-0.185015 -0.0201432 -0.162466 224 210 119
0.0922817 -0.105234 -0.202076 224 210 119
-0.175478 -0.0426683 0.112458 224 210 119
0.210081 0.0235805 -0.203066 224 210 119
-0.146407 0.0288062 -0.204955 224 210 119
-0.17667 -0.125882 0.204693 224 210 119
0.16774 -0.243273 -0.199114 224 210 119
-0.0434747 0.0425212 -0.1993 224 210 119
-0.19453 -0.219213 -0.137094 224 210 119
0.135987 -0.283584 -0.194475 224 210 119
0.137536 -0.209778 -0.201549 224 210 119
0.22125 -0.28418 -0.198884 224 210 119
-0.176077 -0.015805 -0.183139 224 210 119
-0.186239 0.0142887 0.0105179 224 210 119
0.192403 -0.0230146 -0.204543 224 210 119
-0.194635 -0.296548 -0.138796 224 210 119
-0.0589659 -0.196288 -0.203372 224 210 119
-0.0166592 -0.176174 -0.202491 224 210 119
-0.142736 -0.199257 -0.204639 224 210 119
-0.182355 -0.311934 -0.0247998 224 210 119
0.0990784 -0.390543 -0.187924 224 210 119
-0.193876 -0.0208504 -0.0789891 224 210 119
-0.17804 -0.0209142 0.148938 224 210 119
0.104148 -0.405007 -0.187473 224 210 119
0.220406 -0.12366 -0.207622 224 210 119
-0.0931949 -0.402417 -0.201246 224 210 119
-0.190899 -0.354915 -0.0940012 224 210 119
-0.175137 -0.166706 0.0205132 224 210 119
0.0279335 -0.199653 -0.20013 224 210 119
0.149113 -0.0304747 -0.202528 224 210 119
-0.176529 -0.0302003 0.117501 224 210 119
0.203867 -0.129563 -0.207293 224 210 119
-0.187772 -0.260094 -0.0703055 224 210 119
-0.181006 -0.307944 -0.00776806 224 210 119
-0.192948 -0.00533817 -0.0685646 224 210 119
-0.142124 -0.34948 -0.20257 224 210 119
-0.158063 -0.204781 -0.204997 224 210 119
-0.125444 -0.366957 -0.203175 224 210 119
0.163068 -0.198361 -0.203014 224 210 119
-0.18324 -0.357773 -0.0150893 224 210 119
-0.179308 -0.0129117 0.0193237 224 210 119
-0.20905 0.0655431 -0.132862 224 210 119
-0.196366 -0.0106896 -0.0904229 224 210 119
-0.190806 0.0218495 -0.153777 224 210 119
0.0755273 -0.136831 -0.202361 224 210 119
0.062313 -0.070824 -0.199888 224 210 119
0.0184014 -0.325798 -0.194518 224 210 119
-0.19047 -0.286546 -0.0949368 224 210 119
-0.175017 -0.270783 0.185159 224 210 119
-0.175328 -0.248203 0.197838 224 210 119
-0.195664 -0.0108356 -0.103165 224 210 119
0.069321 -0.147616 -0.201923 224 210 119
-0.187155 0.0406335 -0.16677 224 210 119
0.0886397 -0.231599 -0.19894 224 210 119
-0.115612 -0.0718203 -0.204371 224 210 119
-0.174068 -0.0573977 0.0288134 224 210 119
0.0840828 -0.395505 -0.188477 224 210 119
-0.174644 -0.0461151 0.05477 224 210 119
-0.176274 -0.0434948 0.149068 224 210 119
-0.179547 -0.0299773 -0.00375351 224 210 119
0.0776718 -0.385707 -0.18921 224 210 119
-0.18341 0.0207658 0.204961 224 210 119
-0.0693855 -0.117631 -0.200707 224 210 119
-0.186488 0.00441986 -0.0267495 224 210 119
-0.208773 -0.0279522 0.299442 224 210 119
-0.181425 0.00101717 0.159161 224 210 119
-0.179047 -0.327482 0.0362074 224 210 119
-0.178756 -0.353973 0.0556019 224 210 119
-0.103396 -0.10894 -0.201378 224 210 119
-0.177407 -0.0489932 0.205171 224 210 119
-0.149519 -0.0530259 -0.205195 224 210 119
-0.191534 -0.0720447 -0.129615 224 210 119
-0.184447 -0.383636 -0.021077 224 210 119
-0.0553732 -0.0710607 -0.200187 224 210 119
-0.0266365 -0.19287 -0.20268 224 210 119
-0.173902 -0.0621512 0.0967021 224 210 119
-0.0633458 0.0617725 -0.20271 224 210 119
-0.105739 -0.121551 -0.20149 224 210 119
0.0334934 -0.083252 -0.197695 224 210 119
0.125999 -0.118392 -0.204328 224 210 119
-0.141525 -0.415614 -0.200169 224 210 119
-0.178171 -0.0202821 0.0221934 224 210 119
-0.1774 0.0577009 -0.180115 224 210 119
-0.184264 -0.345461 -0.18006 224 210 119
-0.180034 -0.323789 0.0166735 224 210 119
0.0589762 -0.386384 -0.190254 224 210 119
-0.0754757 -0.314737 -0.204087 224 210 119
-0.0155444 -0.326761 -0.198534 224 210 119
-0.175568 -0.180612 0.116835 224 210 119
-0.175593 -0.228486 0.20682 224 210 119
-0.131639 -0.0667762 -0.207139 224 210 119
-0.17549 -0.0385711 0.0682485 224 210 119
-0.145308 -0.191091 -0.20474 224 210 119
-0.0219025 -0.358584 -0.198369 224 210 119
0.168688 0.0281402 -0.201806 224 210 119
0.188136 -0.171616 -0.2053 224 210 119
0.127797 -0.310261 -0.192374 224 210 119
-0.191473 -0.176871 -0.101825 224 210 119
-0.185133 0.0232403 0.209945 224 210 119
0.147323 -0.204591 -0.20228 224 210 119
0.142312 -0.0361753 -0.202627 224 210 119
-0.1967 -0.388373 -0.119798 224 210 119
0.121939 -0.00118492 -0.199967 224 210 119
-0.172745 -0.135428 0.0310204 224 210 119
0.0344669 -0.122264 -0.199494 224 210 119
-0.107612 -0.121943 -0.201499 224 210 119
0.212412 -0.316766 -0.196456 224 210 119
0.00375433 -0.0342314 -0.196603 224 210 119
0.057272 0.00779445 -0.197031 224 210 119
-0.193559 -0.353486 -0.108137 224 210 119
-0.132923 -0.34532 -0.203937 224 210 119
0.0764089 0.00855261 -0.197926 224 210 119
-0.0211619 -0.0309839 -0.19766 224 210 119
-0.178667 -0.316516 0.0379103 224 210 119
-0.173634 -0.0978413 0.012735 224 210 119
-0.174359 -0.103195 0.128097 224 210 119
-0.142004 -0.39583 -0.201096 224 210 119
0.214273 -0.041625 -0.207614 224 210 119
0.0490867 -0.122464 -0.199557 224 210 119
-0.177155 -0.210441 0.035122 224 210 119
-0.192899 -0.202777 -0.155487 224 210 119
-0.1963 -0.00767585 -0.0883203 224 210 119
-0.172694 -0.0898428 0.0313414 224 210 119
0.0929135 -0.109016 -0.202182 224 210 119
-0.173173 -0.130813 0.0593859 224 210 119
0.109674 -0.383209 -0.188095 224 210 119
-0.188573 -0.203623 -0.0698695 224 210 119
-0.175174 -0.186378 0.0616499 224 210 119
-0.188896 0.0305387 0.110868 224 210 119
0.0200938 -0.351931 -0.193144 224 210 119
-0.157615 0.0487916 -0.198321 224 210 119
-0.178008 -0.0360815 0.204129 224 210 119
-0.157868 -0.0934777 -0.204008 224 210 119
-0.176292 -0.0930422 -0.0100194 224 210 119
0.19618 -0.0371307 -0.206496 224 210 119
-0.151594 0.0513124 -0.202215 224 210 119
-0.0973072 -0.250368 -0.205643 224 210 119
-0.0588189 -0.0920677 -0.200234 224 210 119
-0.176677 -0.149899 0.210335 224 210 119
-0.00479632 -0.246075 -0.200665 224 210 119
-0.128799 -0.0817473 -0.205683 224 210 119
0.189278 -0.0565422 -0.206607 224 210 119
-0.0707212 -0.273726 -0.203891 224 210 119
-0.175537 -0.328358 0.214081 224 210 119
-0.196832 0.00221213 -0.113979 224 210 119
-0.175141 -0.292086 0.203679 224 210 119
0.0121932 -0.247683 -0.199596 224 210 119
0.14262 -0.234757 -0.199288 224 210 119
-0.194501 -0.0322442 -0.0838111 224 210 119
-0.191246 -0.137837 -0.161336 224 210 119
-0.176989 -0.0288951 0.131123 224 210 119
0.0165484 -0.251124 -0.199102 224 210 119
-0.0218853 0.0488266 -0.198365 224 210 119
-0.175784 -0.190168 0.0792499 224 210 119
-0.17683 -0.084806 0.226162 224 210 119
-0.000649426 -0.119514 -0.199945 224 210 119
0.00281724 -0.0387394 -0.196701 224 210 119
-0.18012 -0.00617382 0.13103 224 210 119
-0.0353429 -0.296262 -0.201579 224 210 119
-0.178622 -0.01416 0.0615891 224 210 119
-0.183003 -0.017459 -0.0282886 224 210 119
0.0347133 -0.318966 -0.193779 224 210 119
-0.0383382 -0.0664755 -0.199196 224 210 119
-0.17904 -0.0112056 0.05472 224 210 119
-0.19063 -0.14244 -0.0895655 224 210 119
-0.0605177 -0.323522 -0.202982 224 210 119
-0.192902 0.0327084 -0.0212513 224 210 119
-0.17427 -0.147398 0.0827709 224 210 119
-0.0670911 -0.0312741 -0.20006 224 210 119
-0.189966 -0.0343127 -0.0601865 224 210 119
0.0443511 -0.0954807 -0.198015 224 210 119
-0.058458 -0.222055 -0.203562 224 210 119
-0.188143 -0.00785706 -0.151778 224 210 119
-0.188109 0.0168181 -0.00716097 224 210 119
-0.100887 -0.00864668 -0.205399 224 210 119
0.0853073 -0.160098 -0.203034 224 210 119
-0.172896 -0.112431 0.0556855 224 210 119
-0.198636 0.00666738 -0.0984256 224 210 119
-0.18913 -0.33706 -0.0799593 224 210 119
0.192562 0.022957 -0.202395 224 210 119
-0.000262745 0.0389682 -0.196821 224 210 119
0.0418513 -0.236334 -0.198341 224 210 119
-0.194736 0.00962731 -0.0706876 224 210 119
0.209847 -0.208909 -0.203024 224 210 119
-0.17543 -0.148812 0.00630849 224 210 119
-0.0534712 -0.146539 -0.201433 224 210 119
-0.0113023 -0.213089 -0.202196 224 210 119
-0.191523 -0.158646 -0.114846 224 210 119
-0.200489 0.0218847 -0.118613 224 210 119
-0.187758 -0.00133014 -0.155756 224 210 119
0.0225703 -0.0103699 -0.195372 224 210 119
-0.188187 -0.0207851 -0.147901 224 210 119
0.15788 0.00386011 -0.201467 224 210 119
-0.177186 -0.116383 0.218394 224 210 119
0.0971028 -0.0482348 -0.201079 224 210 119
-0.175455 -0.170914 0.136229 224 210 119
-0.177373 -0.212109 0.0316128 224 210 119
0.121603 -0.337186 -0.190416 224 210 119
-0.0102728 0.0448372 -0.197628 224 210 119
0.228901 -0.00876059 -0.205067 224 210 119
0.0662134 -0.0147977 -0.19768 224 210 119
-0.183031 -0.12622 -0.185237 224 210 119
-0.173746 -0.0748546 0.11524 224 210 119
-0.177711 -0.276526 -0.191349 224 210 119
-0.0700761 -0.352642 -0.203 224 210 119
0.199267 -0.343071 -0.194379 224 210 119
-0.176781 -0.0778344 -0.0118878 224 210 119
0.239694 0.0334618 -0.204266 224 210 119
-0.192332 -0.0896294 -0.119101 224 210 119
-0.173492 -0.143255 0.0601092 224 210 119
0.220849 -0.23494 -0.201899 224 210 119
0.161832 -0.0278195 -0.203072 224 210 119
0.121519 -0.155053 -0.204476 224 210 119
-0.120921 -0.155114 -0.202804 224 210 119
-0.190449 -0.0836026 -0.0675159 224 210 119
-0.0306575 -0.358901 -0.199284 224 210 119
-0.189996 -0.107691 -0.0697047 224 210 119
0.0631831 -0.128705 -0.201104 224 210 119
-0.0708003 0.0360839 -0.202068 224 210 119
0.0432694 -0.0234676 -0.196037 224 210 119
0.0893917 -0.0800495 -0.201165 224 210 119
-0.185419 0.0148674 0.116662 224 210 119
-0.11866 -0.405568 -0.201615 224 210 119
-0.175302 -0.137372 0.00238319 224 210 119
-0.195977 -0.371853 -0.126911 224 210 119
-0.199154 0.0722137 -0.163579 224 210 119
-0.176389 -0.214431 0.0637431 224 210 119
-0.179572 -0.35321 0.0432928 224 210 119
-0.184218 -0.00895598 -0.0313005 224 210 119
0.14517 -0.17684 -0.204442 224 210 119
-0.194284 -0.302722 -0.143086 224 210 119
-0.191483 0.0464262 -0.158355 224 210 119
0.115207 0.0161497 -0.199731 224 210 119
0.0795747 -0.33695 -0.190351 224 210 119
0.129984 -0.119473 -0.204541 224 210 119
-0.0714981 -0.0428146 -0.200351 224 210 119
-0.00982674 -0.39986 -0.194599 224 210 119
-0.173385 -0.109545 0.0156727 224 210 119
-0.176023 -0.158318 0.196312 224 210 119
-0.196565 0.0102445 -0.0795569 224 210 119
-0.189363 -0.387014 -0.175228 224 210 119
0.0520557 -0.301883 -0.194038 224 210 119
-0.132734 -0.0135374 -0.208673 224 210 119
-0.191388 -0.306726 -0.153105 224 210 119
-0.177269 -0.121764 -0.194153 224 210 119
-0.177761 -0.223598 0.0293252 224 210 119
-0.177321 -0.149116 -0.00972284 224 210 119
-0.2001 0.0249047 -0.0937996 224 210 119
-0.00712119 -0.0653405 -0.197984 224 210 119
-0.20642 -0.00474187 0.218377 224 210 119
-0.174852 -0.148247 0.110868 224 210 119
-0.178747 -0.0134197 0.0296141 224 210 119
-0.177391 -0.0260629 0.0242253 224 210 119
0.0417549 -0.316326 -0.193537 224 210 119
-0.179113 -0.0105875 0.0507858 224 210 119
-0.188602 -0.0899164 -0.0611506 224 210 119
-0.0339955 -0.345012 -0.200168 224 210 119
-0.117931 -0.174981 -0.203963 224 210 119
-0.176517 -0.155917 0.208845 224 210 119
-0.178508 -0.308783 0.036737 224 210 119
-0.146984 0.0119465 -0.204746 224 210 119
-0.182026 0.00392103 0.151883 224 210 119
-0.188077 -0.235463 -0.0700872 224 210 119
0.111204 -0.0630846 -0.202322 224 210 119
-0.0737859 -0.322018 -0.203925 224 210 119
-0.18704 -0.00429552 -0.1574 224 210 119
-0.104757 -0.0626432 -0.203162 224 210 119
-0.174445 -0.12098 0.119643 224 210 119
0.0716428 -0.224211 -0.198324 224 210 119
0.00949136 -0.00281196 -0.195632 224 210 119
-0.186828 0.0268194 0.153617 224 210 119
-0.102637 0.0139331 -0.206792 224 210 119
-0.00820524 -0.0982196 -0.199049 224 210 119
0.16114 0.0244299 -0.201466 224 210 119
-0.178039 -0.37448 0.0700017 224 210 119
-0.18778 -0.2171 -0.0653445 224 210 119
-0.177841 -0.217581 0.0258844 224 210 119
0.00995817 -0.0867898 -0.19832 224 210 119
0.0876513 -0.0578587 -0.20134 224 210 119
-0.193119 -0.165588 -0.135721 224 210 119
0.17567 -0.31858 -0.19393 224 210 119
0.0530104 0.0330729 -0.196988 224 210 119
0.115337 -0.0944231 -0.202996 224 210 119
-0.180842 0.000846669 0.27751 224 210 119
-0.124822 -0.217196 -0.205272 224 210 119
-0.145856 -0.0704744 -0.207682 224 210 119
-0.0125869 -0.0638708 -0.198049 224 210 119
0.116917 -0.23044 -0.199346 224 210 119
-0.194295 0.0381176 -2.40058e-05 224 210 119
-0.176548 -0.259681 0.0573748 224 210 119
-0.190208 -0.0991486 -0.150944 224 210 119
-0.173179 -0.412829 -0.193699 224 210 119
0.235906 -0.00784616 -0.205291 224 210 119
0.0762146 -0.20404 -0.199842 224 210 119
0.0103153 -0.0524281 -0.19711 224 210 119
-0.175899 -0.268953 0.115384 224 210 119
-0.170076 -0.280823 -0.19682 224 210 119
-0.209971 0.063445 -0.124655 224 210 119
-0.109381 -0.415083 -0.201234 224 210 119
-0.19219 -0.237938 -0.116772 224 210 119
-0.208996 -0.0431091 0.282258 224 210 119
0.039514 -0.217163 -0.198835 224 210 119
-0.209301 0.0691375 -0.140507 224 210 119
-0.12478 -0.23284 -0.205837 224 210 119
-0.183223 -0.374815 -0.00590904 224 210 119
-0.094929 -0.362332 -0.203386 224 210 119
-0.187966 0.02464 0.205097 224 210 119
-0.0307712 -0.0137733 -0.197926 224 210 119
0.100696 -0.0197353 -0.199451 224 210 119
0.17555 -0.0345487 -0.204698 224 210 119
-0.160315 -0.198598 -0.205244 224 210 119
-0.191981 -0.148762 -0.128711 224 210 119
-0.0103247 -0.25418 -0.200701 224 210 119
-0.0368354 -0.0139347 -0.198243 224 210 119
-0.175707 -0.179368 0.0261914 224 210 119
0.165305 -0.333753 -0.192529 224 210 119
-0.0461541 -0.401443 -0.19879 224 210 119
-0.187942 0.016057 0.288523 224 210 119
-0.176871 -0.366711 0.0995181 224 210 119
0.106325 -0.36559 -0.188717 224 210 119
-0.200315 0.0295173 -0.127431 224 210 119
-0.176934 -0.149116 0.217381 224 210 119
0.0763961 -0.26528 -0.195955 224 210 119
-0.196236 -0.389798 -0.115134 224 210 119
0.140552 -0.0777194 -0.203929 224 210 119
-0.0379064 -0.0681987 -0.19926 224 210 119
0.0139712 0.0418104 -0.196251 224 210 119
-0.182949 -0.0220379 -0.16866 224 210 119
-0.187451 -0.390925 -0.0567812 224 210 119
0.134134 -0.0686829 -0.203557 224 210 119
-0.180149 -0.0109396 0.214288 224 210 119
-0.196214 0.0564826 -0.152076 224 210 119
-0.177435 -0.051529 0.210805 224 210 119
-0.106559 0.0184044 -0.207261 224 210 119
-0.164943 -0.116961 -0.202833 224 210 119
-0.105211 -0.381432 -0.202298 224 210 119
-0.175607 -0.0693749 0.173902 224 210 119
0.0271422 0.0409001 -0.195961 224 210 119
0.0591337 0.0407951 -0.19809 224 210 119
-0.189573 -0.232066 -0.0823088 224 210 119
-0.196034 -0.37464 -0.132613 224 210 119
0.0821318 -0.12776 -0.202686 224 210 119
-0.203037 0.0431591 0.0267353 224 210 119
-0.10489 -0.372257 -0.202797 224 210 119
-0.0596343 -0.163246 -0.202112 224 210 119
-0.188495 -0.237392 -0.0737045 224 210 119
-0.184598 -0.00926656 -0.0335284 224 210 119
0.214874 -0.175991 -0.205205 224 210 119
-0.159706 -0.000211209 -0.197582 224 210 119
-0.0861437 0.0670655 -0.207421 224 210 119
-0.176711 -0.364505 0.11321 224 210 119
-0.163321 -0.114879 -0.20333 224 210 119
-0.173042 -0.12901 0.0571231 224 210 119
0.0625221 -0.106486 -0.200208 224 210 119
-0.0113043 -0.0159307 -0.197012 224 210 119
-0.207035 0.0584849 -0.123179 224 210 119
-0.111605 -0.222235 -0.205346 224 210 119
-0.186427 -0.112905 -0.176789 224 210 119
0.0360855 -0.0656672 -0.197634 224 210 119
0.0313694 -0.143347 -0.2007 224 210 119
-0.0158034 0.0523392 -0.198181 224 210 119
-0.0325965 -0.0777408 -0.199458 224 210 119
-0.193247 -0.355602 -0.146915 224 210 119
-0.184654 -0.11644 -0.0477194 224 210 119
-0.192134 -0.0589622 -0.0707488 224 210 119
-0.0480847 -0.22563 -0.202979 224 210 119
-0.176398 -0.275913 0.100357 224 210 119
-0.1521 -0.107269 -0.206608 224 210 119
-0.0228038 -0.31414 -0.199689 224 210 119
-0.176548 -0.0427764 0.159866 224 210 119
-0.184889 0.0312714 -0.169753 224 210 119
-0.110135 -0.0646618 -0.203941 224 210 119
-0.0914236 0.0123914 -0.204854 224 210 119
-0.166857 -0.0823942 -0.198567 224 210 119
-0.177486 -0.333251 0.0766272 224 210 119
-0.118451 -0.0189715 -0.208058 224 210 119
0.203502 0.0233903 -0.202799 224 210 119
-0.15441 -0.070465 -0.20462 224 210 119
0.0253632 -0.146098 -0.200923 224 210 119
-0.174377 -0.150308 0.0853941 224 210 119
-0.0974345 0.0171918 -0.206068 224 210 119
0.0208708 -0.0488375 -0.196832 224 210 119
-0.173458 -0.109645 0.0762431 224 210 119
-0.201916 0.0502398 -0.00651978 224 210 119
-0.194756 -0.331876 -0.128584 224 210 119
-0.111886 -0.252423 -0.205846 224 210 119
0.150313 -0.0708327 -0.204423 224 210 119
-0.00545739 -0.399588 -0.194071 224 210 119
-0.191638 -0.289308 -0.105714 224 210 119
-0.177667 -0.263709 -0.191831 224 210 119
-0.204492 0.0507941 -0.00606157 224 210 119
0.113828 0.0424465 -0.200602 224 210 119
-0.121775 0.0672047 -0.208754 224 210 119
-0.182216 0.00873543 0.160144 224 210 119
-0.190048 -0.0841465 -0.14658 224 210 119
-0.0789623 0.0607128 -0.205676 224 210 119
-0.190885 -0.0662121 -0.134797 224 210 119
-0.180747 -0.00797471 0.186429 224 210 119
-0.195839 -0.38926 -0.139054 224 210 119
-0.200448 0.03185 -0.0829304 224 210 119
-0.193169 -0.0155621 -0.0735706 224 210 119
0.0907752 -0.0802845 -0.201213 224 210 119
-0.19502 -0.0075499 -0.0796896 224 210 119
-0.183591 -0.0760884 -0.17516 224 210 119
-0.0364738 0.0587023 -0.199184 224 210 119
0.119505 -0.230459 -0.199376 224 210 119
-0.176648 -0.362982 0.119312 224 210 119
-0.172433 -0.117814 0.0345899 224 210 119
-0.0470085 -0.317957 -0.20225 224 210 119
0.142773 -0.0892888 -0.204345 224 210 119
0.0539734 -0.177688 -0.199834 224 210 119
-0.172629 -0.0961937 0.0338942 224 210 119
-0.0703568 0.0322965 -0.201672 224 210 119
-0.105369 -0.305699 -0.205779 224 210 119
0.0181088 -0.0781084 -0.197849 224 210 119
-0.182182 -0.271109 -0.183626 224 210 119
-0.208635 -0.0101275 0.164407 224 210 119
-0.172724 -0.116782 0.0482675 224 210 119
0.0640107 -0.0617924 -0.200355 224 210 119
-0.177774 -0.371085 0.0732874 224 210 119
-0.125462 -0.064241 -0.206524 224 210 119
-0.17964 -0.338171 0.0321116 224 210 119
-0.0395165 -0.165612 -0.202177 224 210 119
-0.0891293 0.04583 -0.206503 224 210 119
-0.197191 0.0415355 -0.038156 224 210 119
-0.179221 -0.0100239 0.0594811 224 210 119
0.0423169 0.0443705 -0.196789 224 210 119
-0.156956 -0.0735358 -0.203504 224 210 119
-0.175535 -0.0718277 0.175712 224 210 119
-0.000531897 -0.148487 -0.201465 224 210 119
0.0645718 -0.187239 -0.199748 224 210 119
0.0274248 -0.0196942 -0.195544 224 210 119
-0.0824491 0.0252924 -0.203854 224 210 119
