ply
format ascii 1.0
comment Created by Open3D
element vertex 1176
property double x
property double y
property double z
property uchar red
property uchar green
property uchar blue
end_header
0.0201072 0.0172617 -0.168666 0 180 235
-0.11087 0.0138443 -0.165637 0 180 235
0.145004 -0.202077 -0.17091 0 180 235
-0.0825062 -0.0849222 -0.172901 0 180 235
0.214202 -0.103895 -0.169036 0 180 235
0.13723 -0.0102607 -0.172922 0 180 235
0.0417249 -0.16809 -0.175359 0 180 235
-0.279355 0.0403813 -0.175275 0 180 235
-0.138052 -0.100739 -0.175958 0 180 235
-0.289555 -0.00916731 -0.186382 0 180 235
0.225962 -0.235071 -0.164678 0 180 235
0.192844 -0.152505 -0.169737 0 180 235
-0.260673 -0.263091 -0.202708 0 180 235
-0.0691125 -0.342796 -0.178881 0 180 235
-0.145701 0.0185111 -0.16567 0 180 235
0.18691 -0.0407089 -0.171774 0 180 235
-0.211749 -0.226929 -0.186093 0 180 235
-0.0233254 0.024932 -0.166433 0 180 235
0.135964 -0.0435101 -0.173999 0 180 235
0.138179 -0.201452 -0.171503 0 180 235
0.194475 -0.272604 -0.164047 0 180 235
0.0608158 -0.0802423 -0.174999 0 180 235
-0.28884 -0.0411715 -0.190976 0 180 235
0.0769245 0.00738518 -0.170597 0 180 235
0.200695 -0.0627144 -0.170105 0 180 235
-0.317847 0.0484074 -0.180219 0 180 235
-0.264363 -0.225718 -0.1977 0 180 235
-0.106558 -0.0415142 -0.170624 0 180 235
-0.295593 -0.0154999 -0.189365 0 180 235
0.0274852 0.0104427 -0.170227 0 180 235
-0.196623 -0.262354 -0.186784 0 180 235
-0.180796 -0.0252587 -0.173129 0 180 235
0.040934 -0.216864 -0.173958 0 180 235
0.173835 0.00426902 -0.169409 0 180 235
-0.0322675 -0.0866427 -0.172481 0 180 235
-0.0537247 -0.0766203 -0.171713 0 180 235
-0.156388 0.035603 -0.162949 0 180 235
0.167662 -0.295547 -0.164287 0 180 235
-0.109579 0.032072 -0.162737 0 180 235
-0.277825 -0.192863 -0.198816 0 180 235
0.0216054 -0.000545584 -0.171749 0 180 235
-0.133202 -0.295877 -0.182051 0 180 235
-0.271491 -0.195881 -0.196742 0 180 235
-0.204298 -0.294057 -0.191967 0 180 235
-0.276593 -0.168593 -0.196304 0 180 235
-0.10004 -0.332777 -0.182781 0 180 235
-0.131325 -0.208216 -0.17894 0 180 235
0.145845 0.00836201 -0.169113 0 180 235
-0.117476 -0.24094 -0.17896 0 180 235
-0.131742 -0.0551711 -0.173117 0 180 235
-0.0420914 -0.162296 -0.177133 0 180 235
-0.153781 -0.0456966 -0.172763 0 180 235
-0.266702 -0.187952 -0.194351 0 180 235
0.0427932 -0.253125 -0.171864 0 180 235
0.138069 -0.034276 -0.174126 0 180 235
-0.148976 -0.315595 -0.184793 0 180 235
0.24409 -0.174167 -0.168224 0 180 235
-0.0671271 -0.290947 -0.178729 0 180 235
0.132967 -0.236119 -0.169935 0 180 235
0.183159 -0.145177 -0.170207 0 180 235
-0.0637902 -0.297491 -0.17855 0 180 235
0.22435 -0.0322585 -0.169665 0 180 235
-0.262738 -0.277111 -0.205459 0 180 235
0.216334 -0.316675 -0.163474 0 180 235
-0.259379 -0.00407036 -0.179496 0 180 235
-0.280621 -0.285721 -0.211703 0 180 235
-0.14406 -0.100931 -0.176099 0 180 235
-0.257382 0.00721539 -0.177873 0 180 235
-0.247773 0.0415804 -0.169552 0 180 235
-0.188811 -0.128649 -0.178944 0 180 235
0.0606322 -0.0147694 -0.174315 0 180 235
-0.302226 0.0478753 -0.177021 0 180 235
-0.153514 -0.109108 -0.176566 0 180 235
-0.187887 0.000134252 -0.171835 0 180 235
-0.203132 -0.227547 -0.184889 0 180 235
-0.0806918 -0.29333 -0.179534 0 180 235
-0.169804 -0.306857 -0.186196 0 180 235
-0.0689087 -0.238762 -0.179132 0 180 235
0.245243 -0.0652693 -0.16789 0 180 235
-0.164121 -0.213032 -0.179934 0 180 235
-0.109559 0.0191565 -0.164977 0 180 235
-9.45432e-05 -0.272333 -0.173332 0 180 235
0.245173 -0.209665 -0.165442 0 180 235
-0.227662 -0.163026 -0.184054 0 180 235
0.0272833 -0.248096 -0.172974 0 180 235
0.0991655 -0.170882 -0.17403 0 180 235
0.112549 -0.102396 -0.173597 0 180 235
0.0915294 -0.0891767 -0.17471 0 180 235
0.262109 -0.0633725 -0.167093 0 180 235
-0.259075 -0.225511 -0.196022 0 180 235
-0.0928184 -0.0427715 -0.170327 0 180 235
-0.320063 0.0260041 -0.19078 0 180 235
0.167408 -0.200962 -0.169296 0 180 235
-0.0966973 -0.000944853 -0.167257 0 180 235
-0.13819 -0.0574093 -0.173416 0 180 235
0.209205 -0.115819 -0.169397 0 180 235
-0.263944 -0.156046 -0.190354 0 180 235
0.218253 -0.111005 -0.168808 0 180 235
-0.22556 0.0346227 -0.169346 0 180 235
-0.216914 0.0246219 -0.171323 0 180 235
-0.275435 -0.103517 -0.19117 0 180 235
0.0937529 -0.0122938 -0.173847 0 180 235
-0.137581 0.0150154 -0.165819 0 180 235
-0.324102 0.0315058 -0.190222 0 180 235
0.0569636 -0.000685163 -0.171935 0 180 235
-0.218603 -0.301971 -0.196588 0 180 235
-0.177141 -0.279379 -0.184691 0 180 235
-0.0484557 0.0143423 -0.166742 0 180 235
0.187895 0.0102286 -0.16673 0 180 235
0.0415444 -0.149087 -0.175489 0 180 235
-0.201971 0.027981 -0.168725 0 180 235
-0.263797 0.0338818 -0.174359 0 180 235
-0.109079 -0.0851661 -0.17426 0 180 235
0.146065 0.0205725 -0.165476 0 180 235
-0.141902 -0.353935 -0.188532 0 180 235
-0.0653432 0.00798606 -0.166636 0 180 235
-0.15142 -0.0380634 -0.172167 0 180 235
0.238312 -0.0457561 -0.168991 0 180 235
-0.325589 0.0341761 -0.189819 0 180 235
-0.287732 -0.205273 -0.204019 0 180 235
-0.282809 -0.262589 -0.209804 0 180 235
-0.0831556 -0.284794 -0.179477 0 180 235
-0.101035 -0.238224 -0.178836 0 180 235
-0.0814923 -0.128084 -0.176125 0 180 235
0.105949 -0.107427 -0.173899 0 180 235
-0.25346 0.00971927 -0.176908 0 180 235
-0.116125 0.00517777 -0.166787 0 180 235
0.23861 -0.0154943 -0.168643 0 180 235
-0.279572 0.00145806 -0.18261 0 180 235
-0.206739 0.0259661 -0.169686 0 180 235
-0.130105 0.00811242 -0.166915 0 180 235
0.0908518 -0.215202 -0.172096 0 180 235
0.209383 -0.00118952 -0.168367 0 180 235
-0.0871796 0.0393633 -0.161754 0 180 235
-0.0923205 -0.0450043 -0.170505 0 180 235
0.258538 -0.31735 -0.163308 0 180 235
0.138801 -0.319144 -0.161426 0 180 235
-0.286281 -0.0919438 -0.194462 0 180 235
0.215557 0.00720198 -0.165362 0 180 235
0.173936 -0.182535 -0.170352 0 180 235
-0.051286 -0.0110344 -0.168723 0 180 235
-0.292577 -0.0393349 -0.192367 0 180 235
-0.0991505 0.0357265 -0.161982 0 180 235
0.213063 -0.186836 -0.168301 0 180 235
-0.323148 0.0334073 -0.188676 0 180 235
-0.0950221 -0.169096 -0.177709 0 180 235
-0.306896 0.00826035 -0.18871 0 180 235
0.187439 -0.0069751 -0.170517 0 180 235
-0.283508 -0.289439 -0.212775 0 180 235
-0.260489 -0.0740824 -0.184804 0 180 235
0.0418409 -0.207405 -0.174424 0 180 235
-0.279391 -0.0731952 -0.189974 0 180 235
0.118088 -0.120509 -0.17304 0 180 235
-0.193413 0.0478908 -0.161939 0 180 235
-0.241455 -0.152007 -0.185371 0 180 235
0.0892476 -0.160861 -0.17412 0 180 235
-0.225555 -0.0448409 -0.177689 0 180 235
0.14324 -0.299313 -0.163445 0 180 235
-0.299194 -0.0581306 -0.197936 0 180 235
-0.282558 -0.0326518 -0.187662 0 180 235
-0.122555 0.0427933 -0.159664 0 180 235
-0.0744121 -0.00353248 -0.167628 0 180 235
-0.120892 -0.100001 -0.175642 0 180 235
-0.228612 0.038664 -0.168293 0 180 235
-0.296624 0.0505206 -0.174863 0 180 235
-0.285247 -0.00766387 -0.18511 0 180 235
0.239517 -0.113642 -0.167555 0 180 235
0.0100304 -0.228998 -0.174662 0 180 235
-0.20768 0.033965 -0.167785 0 180 235
-0.223195 -0.11339 -0.180288 0 180 235
0.0661772 -0.212082 -0.173185 0 180 235
-0.17715 0.0297123 -0.165936 0 180 235
0.204883 -0.00278661 -0.169012 0 180 235
0.0719327 -0.223199 -0.172123 0 180 235
-0.269177 -0.265714 -0.205695 0 180 235
0.0685421 -0.192486 -0.174072 0 180 235
-0.281273 0.0279833 -0.179159 0 180 235
-0.0463773 0.0308185 -0.164751 0 180 235
-0.156424 0.0300642 -0.164116 0 180 235
0.152124 -0.0365595 -0.173499 0 180 235
-0.20196 0.00642787 -0.172341 0 180 235
-0.284128 -0.259287 -0.209734 0 180 235
0.170581 -0.250371 -0.166257 0 180 235
0.111831 -0.05215 -0.174239 0 180 235
-0.270365 0.00412976 -0.180613 0 180 235
-0.246986 0.0105956 -0.175936 0 180 235
-0.134373 0.0435092 -0.15978 0 180 235
-0.187468 0.018126 -0.169631 0 180 235
-0.308683 -0.0202062 -0.196051 0 180 235
0.181965 -0.121107 -0.170435 0 180 235
0.0927496 -0.0205737 -0.174812 0 180 235
-0.236387 -0.0635033 -0.179289 0 180 235
0.0496791 0.00654024 -0.170798 0 180 235
0.255522 -0.0451678 -0.168348 0 180 235
0.00107956 -0.131782 -0.17512 0 180 235
-0.188009 -0.085456 -0.177208 0 180 235
0.0383647 -0.0675039 -0.174339 0 180 235
-0.27966 -0.0974333 -0.192291 0 180 235
-0.111675 -0.0101813 -0.167879 0 180 235
0.11358 -0.234024 -0.170429 0 180 235
-0.116829 0.0198237 -0.164895 0 180 235
-0.219279 -0.00575653 -0.174764 0 180 235
-0.0714948 -0.28589 -0.179032 0 180 235
-0.00653128 -0.334009 -0.170796 0 180 235
-0.135015 0.0320165 -0.162865 0 180 235
-0.277863 -0.0519716 -0.188166 0 180 235
-0.15774 -0.0602483 -0.174073 0 180 235
0.188302 -0.0194048 -0.171412 0 180 235
0.00118755 -0.273287 -0.173185 0 180 235
-0.320867 0.0467889 -0.181593 0 180 235
-0.0486348 -0.119234 -0.174514 0 180 235
0.259635 -0.0631916 -0.167241 0 180 235
0.0697196 -0.0197488 -0.175044 0 180 235
-0.246386 -0.3114 -0.205469 0 180 235
0.0404754 -0.0105666 -0.173394 0 180 235
-0.227262 0.0471032 -0.165292 0 180 235
-0.146485 -0.258656 -0.180984 0 180 235
0.249256 -0.0314762 -0.168393 0 180 235
0.207202 0.015721 -0.162047 0 180 235
0.257225 -0.328846 -0.164151 0 180 235
0.0841588 -0.19826 -0.173473 0 180 235
0.0909979 0.00600855 -0.170763 0 180 235
0.0469275 -0.0318965 -0.174577 0 180 235
0.00507492 -0.214678 -0.175694 0 180 235
-0.234446 0.0261614 -0.173056 0 180 235
-0.10693 -0.186145 -0.178276 0 180 235
-0.278586 -0.262813 -0.208291 0 180 235
0.0334626 -0.10763 -0.174891 0 180 235
0.000181049 -0.0963016 -0.17372 0 180 235
-0.293489 -0.226723 -0.208431 0 180 235
-0.0821595 -0.139925 -0.176898 0 180 235
0.0650117 -0.231989 -0.17207 0 180 235
0.10111 -0.164787 -0.174096 0 180 235
-0.176226 -0.349675 -0.192191 0 180 235
0.266797 -0.321893 -0.163658 0 180 235
0.00475021 0.0115974 -0.169853 0 180 235
0.0257692 0.0144926 -0.169352 0 180 235
-0.292494 0.0395997 -0.177934 0 180 235
0.0291471 -0.182068 -0.175469 0 180 235
-0.137965 -0.277122 -0.181392 0 180 235
-0.299734 -0.130076 -0.203808 0 180 235
-0.0478256 -0.0863424 -0.172291 0 180 235
0.00110637 0.00488811 -0.170163 0 180 235
-0.253101 -0.138025 -0.186549 0 180 235
-0.241249 -0.107999 -0.182047 0 180 235
-0.179965 -0.157129 -0.179315 0 180 235
-0.197307 0.0420944 -0.164112 0 180 235
-0.255198 -0.0876881 -0.184013 0 180 235
-0.028574 -0.0440234 -0.17142 0 180 235
-0.097306 -0.0634896 -0.171986 0 180 235
-0.0590015 -0.336109 -0.176943 0 180 235
0.17792 0.00639758 -0.168614 0 180 235
0.0466839 -0.249765 -0.171925 0 180 235
-0.118051 -0.131515 -0.176895 0 180 235
-0.243725 0.0485808 -0.166567 0 180 235
-0.241249 -0.0811274 -0.180633 0 180 235
-0.0636502 -0.360873 -0.177535 0 180 235
-0.067093 -0.175869 -0.178017 0 180 235
-0.267525 0.0363548 -0.174229 0 180 235
0.227735 -0.0675306 -0.168602 0 180 235
-0.15432 -0.198586 -0.179302 0 180 235
-0.185226 -0.346481 -0.194021 0 180 235
0.175894 -0.0840197 -0.170924 0 180 235
-0.143691 -0.10895 -0.176363 0 180 235
0.240278 -0.181599 -0.167914 0 180 235
-0.267174 -0.0803724 -0.186944 0 180 235
-0.0494828 0.0364207 -0.163437 0 180 235
-0.177055 -0.0957922 -0.176746 0 180 235
-0.295298 -0.150009 -0.202438 0 180 235
-0.202577 -0.346035 -0.198483 0 180 235
-0.257881 -0.275073 -0.20371 0 180 235
-0.076659 -0.155594 -0.177416 0 180 235
-0.19892 -0.0665733 -0.17705 0 180 235
-0.00291869 -0.126369 -0.174936 0 180 235
0.0103035 -0.214955 -0.175312 0 180 235
-0.222206 -0.0297692 -0.176462 0 180 235
0.149403 -0.331592 -0.16103 0 180 235
0.153995 0.016646 -0.166308 0 180 235
-0.304972 -0.0837335 -0.204128 0 180 235
-0.283435 -0.175514 -0.199782 0 180 235
0.0720886 -0.151946 -0.174364 0 180 235
-0.291514 0.0285586 -0.180765 0 180 235
0.0846368 -0.00116029 -0.172128 0 180 235
-0.050938 -0.14692 -0.176675 0 180 235
-0.241042 0.0126074 -0.17519 0 180 235
-0.0974882 -0.292038 -0.180126 0 180 235
-0.0436393 -0.260976 -0.177201 0 180 235
0.199114 -0.272719 -0.163792 0 180 235
0.170819 -0.0460871 -0.172379 0 180 235
0.147995 -0.270319 -0.166237 0 180 235
0.195302 -0.014007 -0.170897 0 180 235
0.208541 -0.181229 -0.168503 0 180 235
-0.275832 0.0369551 -0.175642 0 180 235
-0.00336085 -0.218994 -0.176215 0 180 235
-0.00653712 0.00132858 -0.170024 0 180 235
-0.0900027 -0.11454 -0.175434 0 180 235
0.0307977 -0.130458 -0.175305 0 180 235
-0.0815912 0.0267699 -0.163978 0 180 235
-0.0746934 -0.0194624 -0.168451 0 180 235
0.162395 -0.305377 -0.16369 0 180 235
0.0180109 -0.0130873 -0.172596 0 180 235
-0.296307 -0.167889 -0.204072 0 180 235
-0.215948 -0.283388 -0.193639 0 180 235
-0.178113 0.0278203 -0.166457 0 180 235
0.0077438 -0.223044 -0.175062 0 180 235
0.259174 -0.0929764 -0.167011 0 180 235
0.109839 -0.292492 -0.164265 0 180 235
0.204811 -0.298119 -0.162555 0 180 235
-0.234623 0.0330156 -0.170907 0 180 235
0.203288 -0.0220037 -0.170766 0 180 235
-0.244049 -0.302309 -0.203414 0 180 235
0.011898 -0.26613 -0.172829 0 180 235
0.123792 -0.255026 -0.168521 0 180 235
0.0333697 -0.220007 -0.174091 0 180 235
-0.255599 -0.00783352 -0.179234 0 180 235
-0.213738 -0.0870266 -0.178169 0 180 235
-0.305071 -0.023424 -0.195031 0 180 235
0.0297673 -0.326177 -0.167292 0 180 235
-0.267939 0.0419552 -0.172606 0 180 235
-0.0633865 0.0267687 -0.164851 0 180 235
0.230275 -0.16643 -0.168399 0 180 235
0.0103512 -0.103908 -0.174292 0 180 235
-0.171146 0.0195053 -0.167683 0 180 235
-0.305366 -0.062558 -0.201806 0 180 235
-0.284236 -0.0263643 -0.187425 0 180 235
-0.179845 -0.196804 -0.180268 0 180 235
-0.212329 0.0277234 -0.169846 0 180 235
-0.186553 0.0440376 -0.162651 0 180 235
-0.101897 -0.225977 -0.178708 0 180 235
0.0503438 -0.059263 -0.17469 0 180 235
-0.3031 0.0346299 -0.181431 0 180 235
-0.0645253 -0.304252 -0.178694 0 180 235
-0.124077 -0.0767205 -0.17429 0 180 235
0.0809395 -0.209386 -0.172903 0 180 235
-0.175491 0.0287161 -0.225538 32 212 224
0.110986 -0.265018 -0.211104 32 212 224
-0.0502687 -0.375201 -0.197784 32 212 224
-0.0958328 -0.0343123 -0.229805 32 212 224
-0.144433 -0.180022 -0.214394 32 212 224
-0.296611 0.00614714 -0.19674 32 212 224
-0.0590998 -0.0396704 -0.226109 32 212 224
-0.230093 -0.0658248 -0.200295 32 212 224
-0.0348146 -0.349792 -0.202001 32 212 224
0.0165386 -0.358191 -0.20417 32 212 224
0.208184 -0.164979 -0.208822 32 212 224
-0.168916 -0.0613626 -0.222661 32 212 224
-0.178334 -0.168578 -0.211951 32 212 224
-0.134284 -0.311704 -0.204963 32 212 224
-0.152736 -0.381882 -0.197129 32 212 224
0.238168 -0.320067 -0.201515 32 212 224
0.00611218 -0.281867 -0.208756 32 212 224
0.0992824 -0.255012 -0.211033 32 212 224
-0.00708377 -0.108371 -0.216993 32 212 224
-0.147643 -0.429625 -0.19326 32 212 224
0.122532 -0.343087 -0.211237 32 212 224
0.286822 -0.229702 -0.201745 32 212 224
-0.119988 -0.411089 -0.194641 32 212 224
-0.0835989 -0.176507 -0.213097 32 212 224
-0.215471 -0.119676 -0.202161 32 212 224
-0.218574 -0.0810699 -0.202777 32 212 224
0.192673 -0.329183 -0.205834 32 212 224
0.0282146 -0.359129 -0.20495 32 212 224
0.111183 -0.249575 -0.210262 32 212 224
-0.0270574 -0.348793 -0.202498 32 212 224
-0.204468 -0.375425 -0.206837 32 212 224
-0.0345157 -0.115714 -0.218397 32 212 224
-0.206842 -0.17867 -0.206253 32 212 224
-0.179156 -0.209196 -0.208886 32 212 224
0.0495099 -0.239577 -0.211589 32 212 224
-0.221169 -0.0150409 -0.210409 32 212 224
0.187167 -0.0435277 -0.212515 32 212 224
-0.048929 -0.0726322 -0.223018 32 212 224
-0.212869 0.0182061 -0.21465 32 212 224
-0.0705176 -0.380515 -0.196725 32 212 224
-0.201466 -0.415714 -0.200478 32 212 224
-0.125197 -0.0286317 -0.230213 32 212 224
-0.19319 -0.407575 -0.201527 32 212 224
-0.149082 -0.327856 -0.204564 32 212 224
-0.114449 -0.09125 -0.223239 32 212 224
-0.145331 -0.393544 -0.196065 32 212 224
-0.124623 -0.424798 -0.193315 32 212 224
0.0191883 -0.0504072 -0.218682 32 212 224
-0.171711 0.0303288 -0.227701 32 212 224
-0.127629 0.0331097 -0.237212 32 212 224
-0.0464351 -0.306718 -0.204609 32 212 224
-0.0253185 -0.374061 -0.19923 32 212 224
-0.203481 -0.338323 -0.205317 32 212 224
-0.167567 -0.259064 -0.208129 32 212 224
-0.208774 -0.275604 -0.204015 32 212 224
-0.22506 -0.113892 -0.19468 32 212 224
-0.232498 0.0466688 -0.210016 32 212 224
0.0730887 -0.281013 -0.212422 32 212 224
-0.126987 -0.124258 -0.219818 32 212 224
0.135967 -0.00265821 -0.214902 32 212 224
0.241401 -0.208321 -0.20835 32 212 224
-0.166301 -0.0144637 -0.226576 32 212 224
-0.0836713 -0.248075 -0.206446 32 212 224
-0.184565 0.000671506 -0.222073 32 212 224
-0.150296 -0.309105 -0.205984 32 212 224
-0.19048 -0.131706 -0.21395 32 212 224
0.00423022 -0.12147 -0.216006 32 212 224
0.0427266 -0.109053 -0.214604 32 212 224
-0.196868 -0.372711 -0.206271 32 212 224
-0.134849 -0.0499862 -0.227299 32 212 224
-0.0671892 -0.119609 -0.218879 32 212 224
-0.0121347 -0.322533 -0.205349 32 212 224
0.119738 -0.0112942 -0.215137 32 212 224
-0.0958181 -0.174327 -0.214006 32 212 224
-0.195929 -0.33702 -0.205716 32 212 224
-0.205128 -0.222107 -0.205707 32 212 224
0.205293 -0.0823277 -0.211869 32 212 224
-0.037786 -0.0985761 -0.220116 32 212 224
0.0790389 -0.348948 -0.210182 32 212 224
-0.204877 -0.0248833 -0.214357 32 212 224
-0.207596 -0.140816 -0.207923 32 212 224
0.123597 -0.252138 -0.209598 32 212 224
-0.147805 -0.0739046 -0.224134 32 212 224
-0.206333 0.0323453 -0.216907 32 212 224
0.142316 -0.167756 -0.211928 32 212 224
-0.128962 -0.0757987 -0.224622 32 212 224
0.0653159 -0.0710764 -0.214967 32 212 224
-0.146699 -0.216238 -0.210629 32 212 224
0.0688764 -0.0818099 -0.214651 32 212 224
-0.0458462 -0.318437 -0.203756 32 212 224
-0.012893 -0.358106 -0.202247 32 212 224
0.184843 -0.0631131 -0.211884 32 212 224
-0.0314809 -0.378381 -0.198415 32 212 224
0.260531 -0.269658 -0.202349 32 212 224
-0.0862997 0.0156588 -0.232281 32 212 224
-0.21523 -0.282745 -0.202731 32 212 224
0.203958 -0.0594297 -0.212749 32 212 224
-0.181457 -0.355012 -0.204744 32 212 224
0.0228834 -0.0200142 -0.220408 32 212 224
0.0604509 -0.262548 -0.212783 32 212 224
-0.0904261 -0.0297968 -0.229706 32 212 224
-0.215159 -0.211787 -0.199738 32 212 224
-0.198231 -0.158308 -0.210094 32 212 224
-0.0293339 0.00690226 -0.22632 32 212 224
-0.127962 -0.352862 -0.201102 32 212 224
0.00918058 -0.219054 -0.210558 32 212 224
0.231042 -0.130857 -0.210681 32 212 224
-0.121181 -0.300971 -0.205083 32 212 224
0.0768073 -0.367114 -0.207497 32 212 224
-0.161797 -0.0214421 -0.226987 32 212 224
-0.143703 -0.303627 -0.205918 32 212 224
-0.133836 -0.407258 -0.195152 32 212 224
0.258415 -0.277912 -0.202104 32 212 224
-0.175573 -0.223517 -0.208824 32 212 224
-0.180308 -0.110619 -0.216891 32 212 224
-0.104954 -0.207403 -0.210479 32 212 224
0.0569951 -0.0884189 -0.214801 32 212 224
0.110797 -0.171677 -0.212339 32 212 224
0.262867 -0.264966 -0.202399 32 212 224
-0.186246 -0.264418 -0.207238 32 212 224
0.247166 -0.273814 -0.203216 32 212 224
-0.108106 -0.306327 -0.204154 32 212 224
0.0109403 -0.0491387 -0.219421 32 212 224
-0.15665 -0.288301 -0.207618 32 212 224
0.201315 -0.222535 -0.206346 32 212 224
0.0716804 -0.21395 -0.211966 32 212 224
-0.265748 -0.0516464 -0.188914 32 212 224
0.126278 -0.0916426 -0.21354 32 212 224
0.0584421 -0.254935 -0.21251 32 212 224
-0.184209 -0.159233 -0.212189 32 212 224
-0.0793631 -0.369684 -0.198408 32 212 224
-0.201944 -0.272757 -0.204794 32 212 224
-0.180697 -0.314299 -0.206475 32 212 224
-0.220554 -0.251071 -0.194683 32 212 224
-0.128524 -0.311296 -0.204682 32 212 224
0.274205 -0.26708 -0.201434 32 212 224
-0.191239 -0.0666685 -0.218204 32 212 224
-0.217814 -0.310608 -0.200352 32 212 224
-0.108593 -0.307283 -0.204058 32 212 224
-0.114154 -0.280618 -0.205442 32 212 224
-0.210729 -0.260356 -0.203822 32 212 224
-0.104372 -0.045021 -0.229612 32 212 224
0.154036 -0.246022 -0.20647 32 212 224
-0.201058 -0.346116 -0.205471 32 212 224
0.0576045 -0.336334 -0.20989 32 212 224
0.100658 -0.162205 -0.212984 32 212 224
0.248123 -0.199555 -0.208843 32 212 224
-0.0339646 -0.349497 -0.202074 32 212 224
-0.178841 -0.193895 -0.209991 32 212 224
-0.292556 0.0012072 -0.195984 32 212 224
-0.200113 -0.22569 -0.206303 32 212 224
0.0904489 -0.30991 -0.211433 32 212 224
0.186804 -0.288109 -0.206618 32 212 224
-0.191544 -0.414434 -0.200066 32 212 224
0.270512 -0.179202 -0.209285 32 212 224
0.0341387 -0.0317165 -0.21879 32 212 224
0.0533468 -0.251489 -0.212321 32 212 224
-0.212138 -0.303654 -0.203053 32 212 224
0.237407 -0.200847 -0.208338 32 212 224
-0.15753 -0.270988 -0.20834 32 212 224
0.115897 -0.236368 -0.209451 32 212 224
0.12996 -0.0283952 -0.213515 32 212 224
0.254989 -0.295183 -0.201517 32 212 224
0.0382347 -0.379363 -0.202566 32 212 224
-0.210649 -0.111324 -0.206504 32 212 224
-0.0818343 -0.401743 -0.195092 32 212 224
0.0539892 -0.360889 -0.206796 32 212 224
0.215121 -0.279392 -0.20463 32 212 224
0.206607 -0.32388 -0.204338 32 212 224
-0.197172 -0.279449 -0.206058 32 212 224
0.157769 -0.270751 -0.207847 32 212 224
-0.0636632 -0.330111 -0.202108 32 212 224
-0.210698 -0.344545 -0.204287 32 212 224
0.0246403 -0.119197 -0.214699 32 212 224
-0.0485042 -0.00415126 -0.227171 32 212 224
0.0250631 0.00184914 -0.221626 32 212 224
-0.06497 -0.327635 -0.20224 32 212 224
-0.137055 -0.137587 -0.218485 32 212 224
-0.202888 -0.325254 -0.205322 32 212 224
0.171302 -0.223327 -0.207005 32 212 224
-0.228546 -0.0528718 -0.202851 32 212 224
-0.0532846 -0.211534 -0.209297 32 212 224
-0.0756138 -0.402626 -0.195053 32 212 224
-0.155789 -0.263298 -0.208551 32 212 224
0.1489 -0.0335722 -0.212717 32 212 224
-0.0529323 -0.335509 -0.202118 32 212 224
-0.0989928 -0.280391 -0.2056 32 212 224
-0.150455 0.0322848 -0.233119 32 212 224
-0.17416 -0.131253 -0.215918 32 212 224
-0.194697 -0.334886 -0.205729 32 212 224
-0.206409 -0.428924 -0.195695 32 212 224
0.00698676 -0.287611 -0.208954 32 212 224
0.111348 -0.305682 -0.210999 32 212 224
-0.19165 -0.101181 -0.215803 32 212 224
0.0543688 -0.0393277 -0.216891 32 212 224
0.169875 -0.22018 -0.207384 32 212 224
-0.294812 0.0495829 -0.201145 32 212 224
-0.062772 -0.360034 -0.199357 32 212 224
0.0363498 -0.373591 -0.203486 32 212 224
0.179802 -0.337865 -0.207324 32 212 224
-0.18172 -0.378778 -0.20177 32 212 224
0.25907 -0.182601 -0.209296 32 212 224
0.183825 -0.0958546 -0.21151 32 212 224
0.230053 -0.212976 -0.207896 32 212 224
0.0714352 -0.110704 -0.214569 32 212 224
0.134828 -0.13471 -0.213293 32 212 224
-0.0010641 -0.0687518 -0.218967 32 212 224
0.195451 -0.316295 -0.205288 32 212 224
0.132917 -0.182217 -0.211141 32 212 224
-0.204528 -0.261112 -0.204649 32 212 224
-0.201323 -0.242929 -0.205545 32 212 224
-0.20997 0.0433148 -0.216239 32 212 224
0.230866 -0.268945 -0.204462 32 212 224
-0.166556 -0.00791019 -0.226923 32 212 224
0.0173394 -0.0419532 -0.219432 32 212 224
-0.242868 0.000893682 -0.204771 32 212 224
0.098064 -0.00522211 -0.217008 32 212 224
0.0683886 -0.100048 -0.214692 32 212 224
0.166482 -0.323543 -0.208244 32 212 224
-0.0481995 -0.0456331 -0.224814 32 212 224
0.11914 -0.273095 -0.210692 32 212 224
0.0424531 0.00769219 -0.220744 32 212 224
0.0955826 -0.355115 -0.210213 32 212 224
-0.203208 -0.173181 -0.207695 32 212 224
0.0856752 -0.117305 -0.214331 32 212 224
-0.199578 -0.330542 -0.205604 32 212 224
-0.201946 -0.404016 -0.204242 32 212 224
-0.11362 0.0224842 -0.23579 32 212 224
0.139836 -0.209646 -0.209108 32 212 224
0.00140382 -0.340929 -0.204974 32 212 224
-0.174562 -0.015118 -0.225158 32 212 224
-0.203764 -0.316573 -0.20519 32 212 224
0.242889 -0.204029 -0.208597 32 212 224
0.265243 -0.313613 -0.199262 32 212 224
0.27154 -0.178075 -0.209331 32 212 224
-0.256252 -0.000267565 -0.199792 32 212 224
-0.149929 -0.199364 -0.212097 32 212 224
-0.159467 -0.319649 -0.205673 32 212 224
-0.140229 -0.273492 -0.206608 32 212 224
-0.188486 -0.121871 -0.215084 32 212 224
0.00373662 -0.289118 -0.208701 32 212 224
-0.0512106 -0.308102 -0.204431 32 212 224
-0.197774 -0.287828 -0.206118 32 212 224
-0.0120645 -0.106629 -0.217473 32 212 224
-0.0238181 -0.105375 -0.218556 32 212 224
0.0583167 -0.262692 -0.212777 32 212 224
-0.248913 0.0339897 -0.205376 32 212 224
-0.0999315 -0.123476 -0.218776 32 212 224
-0.01545 -0.316091 -0.205979 32 212 224
-0.211508 -0.129537 -0.205195 32 212 224
-0.125918 -0.340749 -0.202142 32 212 224
0.095913 -0.210552 -0.21085 32 212 224
-0.142176 -0.00265876 -0.231299 32 212 224
-0.0223142 -0.296575 -0.206858 32 212 224
0.280641 -0.247267 -0.201546 32 212 224
0.0976201 -0.208186 -0.21074 32 212 224
-0.158202 -0.128817 -0.21786 32 212 224
-0.169103 -0.291451 -0.207793 32 212 224
0.0570576 -0.101953 -0.214768 32 212 224
0.155451 -0.0295693 -0.212738 32 212 224
-0.165263 -0.0109326 -0.227027 32 212 224
0.212806 -0.26476 -0.205238 32 212 224
0.26174 -0.215563 -0.205748 32 212 224
-0.106816 0.023944 -0.235163 32 212 224
-0.0685943 -0.344067 -0.201367 32 212 224
-0.240919 0.00395043 -0.205638 32 212 224
0.274474 -0.205473 -0.20576 32 212 224
0.0309198 -0.14905 -0.214198 32 212 224
-0.140919 -0.381982 -0.19633 32 212 224
-0.274691 -0.00899796 -0.196452 32 212 224
0.0542497 -0.0865413 -0.21486 32 212 224
-0.17277 -0.00468079 -0.226091 32 212 224
0.109392 -0.128252 -0.213957 32 212 224
0.232496 -0.312677 -0.202045 32 212 224
-0.10745 -0.350199 -0.20087 32 212 224
0.182025 -0.161358 -0.210573 32 212 224
0.189418 -0.103763 -0.211262 32 212 224
-0.0479641 -0.368478 -0.198613 32 212 224
-0.0904693 -0.22847 -0.207039 32 212 224
-0.1527 -0.342958 -0.203762 32 212 224
-0.19343 -0.337501 -0.205632 32 212 224
-0.219147 -0.134933 -0.197636 32 212 224
-0.0465494 -0.390178 -0.196309 32 212 224
0.0674174 -0.351105 -0.209084 32 212 224
-0.204335 -0.363523 -0.20591 32 212 224
0.279732 -0.227682 -0.202579 32 212 224
0.104866 -0.0594095 -0.213935 32 212 224
-0.0513195 -0.343862 -0.201629 32 212 224
-0.083754 -0.0332646 -0.228783 32 212 224
-0.125659 -0.179742 -0.21483 32 212 224
0.233406 -0.181456 -0.208017 32 212 224
0.0820103 -0.304359 -0.211766 32 212 224
-0.172924 -0.211133 -0.209318 32 212 224
-0.0424425 -0.00315623 -0.226674 32 212 224
0.00192395 -0.0226227 -0.221889 32 212 224
0.0978754 -0.319552 -0.21112 32 212 224
0.0882635 -0.130978 -0.214166 32 212 224
0.0273944 -0.00608449 -0.220898 32 212 224
-0.224636 -0.137295 -0.191887 32 212 224
0.300677 -0.300202 -0.19732 32 212 224
0.220817 -0.264462 -0.205017 32 212 224
-0.0831135 -0.133977 -0.217181 32 212 224
0.139225 -0.242748 -0.207857 32 212 224
-0.175569 -0.141359 -0.214823 32 212 224
-0.0262411 -0.163272 -0.214984 32 212 224
0.0517236 -0.213167 -0.212438 32 212 224
0.188224 -0.203799 -0.207496 32 212 224
-0.156326 -0.0406918 -0.226265 32 212 224
-0.170528 -0.0711336 -0.221631 32 212 224
-0.121846 -0.194992 -0.212947 32 212 224
-0.145669 0.0162497 -0.232581 32 212 224
-0.119688 -0.346541 -0.201286 32 212 224
-0.209815 -0.224364 -0.204601 32 212 224
0.0236716 -0.0967337 -0.215411 32 212 224
0.214128 -0.205847 -0.20714 32 212 224
-0.0765116 -0.188973 -0.21169 32 212 224
0.0437789 -0.332581 -0.208788 32 212 224
-0.112016 -0.0430149 -0.229631 32 212 224
-0.157194 -0.368497 -0.200428 32 212 224
0.132363 -0.291531 -0.210156 32 212 224
-0.205163 -0.385829 -0.207186 32 212 224
0.189967 -0.0806394 -0.211466 32 212 224
-0.118646 0.022586 -0.236144 32 212 224
0.000848099 -0.385038 -0.199232 32 212 224
-0.195655 -0.382007 -0.206124 32 212 224
-0.0645746 -0.408109 -0.194912 32 212 224
0.268714 -0.230375 -0.203205 32 212 224
-0.144465 0.0352799 -0.234839 32 212 224
0.152721 -0.301437 -0.209049 32 212 224
-0.133865 0.00197044 -0.233067 32 212 224
-0.175822 -0.120259 -0.21671 32 212 224
-0.188712 -0.123807 -0.214899 32 212 224
0.0834489 -0.0183161 -0.216848 32 212 224
-0.153979 -0.0366417 -0.226914 32 212 224
-0.115444 -0.332715 -0.202115 32 212 224
-0.0172696 -0.150443 -0.215777 32 212 224
0.0486688 -0.279881 -0.212141 32 212 224
-0.103146 -0.174031 -0.214398 32 212 224
0.123976 -0.27883 -0.210414 32 212 224
0.259773 -0.177203 -0.20936 32 212 224
0.178194 -0.21454 -0.20737 32 212 224
0.0263446 -0.362975 -0.204264 32 212 224
-0.297619 0.00923926 -0.197144 32 212 224
0.203204 -0.26302 -0.205539 32 212 224
0.162546 -0.214113 -0.208204 32 212 224
0.12295 -0.101256 -0.213757 32 212 224
-0.0677465 -0.348219 -0.201034 32 212 224
0.182299 -0.123467 -0.211309 32 212 224
-0.00621224 -0.0197774 -0.222728 32 212 224
-0.198247 -0.252038 -0.205405 32 212 224
0.163968 -0.23398 -0.206226 32 212 224
-0.179082 -0.0848356 -0.219441 32 212 224
-0.0815639 -0.400059 -0.195123 32 212 224
-0.145973 -0.234708 -0.209284 32 212 224
-0.206786 -0.24562 -0.204956 32 212 224
0.0802101 -0.230942 -0.211524 32 212 224
-0.116385 -0.370482 -0.198485 32 212 224
-0.167552 -0.284962 -0.207954 32 212 224
-0.29972 0.00872792 -0.196269 32 212 224
-0.188169 -0.373447 -0.204476 32 212 224
0.067626 -0.230928 -0.21184 32 212 224
-0.205633 -0.371014 -0.206523 32 212 224
0.271736 -0.294992 -0.200063 32 212 224
-0.0907108 -0.255572 -0.206349 32 212 224
0.0397754 -0.203934 -0.212865 32 212 224
0.0700938 -0.0932086 -0.214687 32 212 224
0.107313 -0.216177 -0.210188 32 212 224
-0.177455 0.00568899 -0.225619 32 212 224
0.134205 -0.205869 -0.209468 32 212 224
0.0868504 -0.168077 -0.212968 32 212 224
-0.176436 -0.186468 -0.210877 32 212 224
0.270432 -0.175232 -0.209515 32 212 224
-0.188204 -0.0804053 -0.217931 32 212 224
-0.164522 -0.17822 -0.212947 32 212 224
-0.0589987 -0.0305155 -0.226663 32 212 224
-0.186044 -0.207738 -0.208024 32 212 224
-0.097151 -0.0878009 -0.223173 32 212 224
0.0759837 -0.232317 -0.211662 32 212 224
-0.106053 -0.256183 -0.206212 32 212 224
0.22395 -0.310035 -0.202873 32 212 224
0.0630532 -0.326429 -0.211108 32 212 224
-0.0968986 -0.0266124 -0.230551 32 212 224
0.0616655 -0.276545 -0.212828 32 212 224
0.0542908 -0.0204697 -0.217949 32 212 224
0.10734 -0.209666 -0.210238 32 212 224
-0.0409884 0.0185224 -0.228002 32 212 224
0.2586 -0.288537 -0.20166 32 212 224
0.0401223 -0.32734 -0.208603 32 212 224
-0.0504393 -0.173121 -0.213354 32 212 224
0.112167 -0.227674 -0.209911 32 212 224
0.0392767 -0.320268 -0.208786 32 212 224
-0.189513 -0.36114 -0.204735 32 212 224
0.0570045 -0.0196245 -0.217812 32 212 224
-0.125769 -0.425254 -0.19325 32 212 224
-0.150694 -0.42629 -0.194089 32 212 224
-0.191787 -0.140616 -0.213043 32 212 224
-0.0999555 -0.00493613 -0.232584 32 212 224
-0.173904 -0.367337 -0.202448 32 212 224
0.0299906 -0.37652 -0.202572 32 212 224
0.0393664 -0.205406 -0.212791 32 212 224
-0.167618 -0.214535 -0.209372 32 212 224
-0.1939 -0.33958 -0.205601 32 212 224
-0.181781 -0.174293 -0.211068 32 212 224
-0.0338324 -0.271981 -0.206489 32 212 224
0.189025 -0.181764 -0.208762 32 212 224
-0.137741 -0.283234 -0.206224 32 212 224
-0.189755 -0.111515 -0.215521 32 212 224
-0.0860809 -0.0894623 -0.222929 32 212 224
0.0276453 -0.0240761 -0.219769 32 212 224
0.0464446 -0.0458172 -0.216832 32 212 224
-0.0870789 -0.237097 -0.206595 32 212 224
0.0798306 -0.0612039 -0.214509 32 212 224
-0.273166 0.045942 -0.204674 32 212 224
-0.21057 -0.374995 -0.206544 32 212 224
-0.126011 -0.299336 -0.205282 32 212 224
-0.192788 -0.360496 -0.205098 32 212 224
0.188186 -0.134396 -0.21089 32 212 224
-0.198681 -0.129532 -0.211878 32 212 224
-0.215281 -0.341387 -0.203076 32 212 224
-0.207499 -0.319912 -0.204476 32 212 224
-0.0249002 -0.33036 -0.203979 32 212 224
-0.159687 -0.0867891 -0.221818 32 212 224
-0.141067 -0.422026 -0.19402 32 212 224
-0.176191 -0.182222 -0.211214 32 212 224
-0.158764 -0.330547 -0.205167 32 212 224
0.0402573 -0.2986 -0.210506 32 212 224
-0.210509 -0.0835024 -0.207469 32 212 224
0.174017 -0.200249 -0.208488 32 212 224
0.200326 -0.095086 -0.211191 32 212 224
0.091071 -0.189179 -0.211689 32 212 224
0.280084 -0.212922 -0.2046 32 212 224
-0.220231 -0.160698 -0.19469 32 212 224
-0.0580075 -0.399188 -0.195259 32 212 224
-0.20991 -0.00956199 -0.214101 32 212 224
-0.227191 0.0340687 -0.211187 32 212 224
0.0439982 -0.0546251 -0.216485 32 212 224
0.0831857 -0.280365 -0.212084 32 212 224
0.165337 -0.2683 -0.207191 32 212 224
0.209561 -0.201727 -0.206945 32 212 224
-0.204965 -0.0825215 -0.211623 32 212 224
-0.0897218 -0.252939 -0.206413 32 212 224
0.118616 -0.313285 -0.210713 32 212 224
0.00769177 -0.0514478 -0.219496 32 212 224
-0.194035 -0.290234 -0.206659 32 212 224
-0.126688 -0.337581 -0.202421 32 212 224
0.0662488 -0.179932 -0.213087 32 212 224
0.115725 -0.0735226 -0.21376 32 212 224
-0.142613 0.0133654 -0.232907 32 212 224
-0.125614 -0.12907 -0.219418 32 212 224
-0.149584 -0.169777 -0.214926 32 212 224
0.088057 -0.021422 -0.216446 32 212 224
-0.0281267 -0.00672227 -0.225309 32 212 224
-0.224127 -0.127892 -0.193147 32 212 224
-0.11451 -0.420147 -0.193977 32 212 224
-0.155106 -0.245042 -0.20881 32 212 224
0.0302435 -0.279078 -0.2108 32 212 224
0.156174 -0.0425682 -0.212457 32 212 224
-0.0470941 -0.153831 -0.215161 32 212 224
-0.217596 -0.103928 -0.201076 32 212 224
0.0097916 -0.0461887 -0.219731 32 212 224
-0.117555 -0.128171 -0.219334 32 212 224
-0.151899 -0.017076 -0.228667 32 212 224
0.217164 -0.103467 -0.211488 32 212 224
0.255249 -0.205869 -0.207389 32 212 224
-0.120862 0.00493102 -0.234833 32 212 224
0.252479 -0.251102 -0.203569 32 212 224
-0.106532 -0.363005 -0.199613 32 212 224
-0.105127 -0.405874 -0.194903 32 212 224
-0.152646 -0.249661 -0.208845 32 212 224
0.0575675 -0.289409 -0.212017 32 212 224
0.19489 -0.280267 -0.20584 32 212 224
0.195773 -0.215221 -0.206812 32 212 224
0.148241 -0.321405 -0.209611 32 212 224
0.077433 -0.20766 -0.211809 32 212 224
-0.10787 -0.0435183 -0.229908 32 212 224
-0.204079 -0.418713 -0.199462 32 212 224
-0.196363 -0.100073 -0.214563 32 212 224
0.160118 -0.00436633 -0.214203 32 212 224
-0.21974 -0.183362 -0.194533 32 212 224
-0.0572313 -0.337993 -0.201745 32 212 224
0.239935 -0.215614 -0.207277 32 212 224
0.297899 -0.300166 -0.197555 32 212 224
-0.137175 -0.0750649 -0.224442 32 212 224
0.087213 -0.33491 -0.211219 32 212 224
-0.190634 -0.158274 -0.211672 32 212 224
-0.120154 -0.0410084 -0.229053 32 212 224
0.197861 -0.189036 -0.207737 32 212 224
-0.224085 -0.111894 -0.195487 32 212 224
-0.0615942 -0.358036 -0.199676 32 212 224
-0.216959 -0.325802 -0.201442 32 212 224
0.245819 -0.280132 -0.203001 32 212 224
-0.0887199 0.0214393 -0.232929 32 212 224
0.0371703 -0.292989 -0.210771 32 212 224
0.0155126 -0.0109705 -0.221558 32 212 224
0.202143 -0.126312 -0.210496 32 212 224
-0.209019 -0.142248 -0.206756 32 212 224
0.11108 -0.296869 -0.210819 32 212 224
-0.262427 -0.0690628 -0.18655 32 212 224
0.147815 -0.12879 -0.212818 32 212 224
-0.20878 -0.420012 -0.198705 32 212 224
-0.000200441 -0.253536 -0.208061 32 212 224
-0.259153 0.0493812 -0.206418 32 212 224
0.186355 -0.27352 -0.206246 32 212 224
-0.0603138 -0.374003 -0.197359 32 212 224
-0.144497 -0.0354577 -0.227979 32 212 224
-0.116707 -0.0138237 -0.233089 32 212 224
-0.197517 -0.331888 -0.205705 32 212 224
-0.14728 -0.0269592 -0.228496 32 212 224
-0.197521 -0.179556 -0.208775 32 212 224
-0.102469 -0.390389 -0.195518 32 212 224
0.240412 -0.164109 -0.209513 32 212 224
-0.11466 0.0238234 -0.23599 32 212 224
-0.260788 -0.395729 -0.303367 64 236 211
-0.249419 -0.11241 -0.273575 64 236 211
-0.257555 -0.317435 -0.215952 64 236 211
-0.237037 -0.478283 -0.284591 64 236 211
-0.26976 -0.402863 -0.260192 64 236 211
-0.254015 -0.248344 -0.312726 64 236 211
-0.247982 -0.16282 -0.195952 64 236 211
-0.250977 -0.369796 -0.309675 64 236 211
-0.239232 -0.479618 -0.226339 64 236 211
-0.248368 -0.167084 -0.194354 64 236 211
-0.269551 -0.400673 -0.260213 64 236 211
-0.249662 -0.106693 -0.262499 64 236 211
-0.24962 -0.0592542 -0.168261 64 236 211
-0.257643 -0.279685 -0.155676 64 236 211
-0.253469 -0.147471 -0.302527 64 236 211
-0.266379 -0.35519 -0.253985 64 236 211
-0.248896 -0.157118 -0.160783 64 236 211
-0.255447 -0.351274 -0.304792 64 236 211
-0.249838 -0.122373 -0.238433 64 236 211
-0.253067 -0.0437319 -0.27237 64 236 211
-0.250501 -0.115937 -0.232199 64 236 211
-0.271273 -0.432232 -0.274365 64 236 211
-0.248266 -0.159877 -0.225842 64 236 211
-0.25281 -0.172836 -0.304218 64 236 211
-0.252479 -0.0517445 -0.279309 64 236 211
-0.251469 -0.228396 -0.242798 64 236 211
-0.263842 -0.370464 -0.223552 64 236 211
-0.248861 -0.147332 -0.222529 64 236 211
-0.22899 -0.480248 -0.179642 64 236 211
-0.252306 -0.243815 -0.221445 64 236 211
-0.248835 -0.127468 -0.250818 64 236 211
-0.255114 -0.0433451 -0.30359 64 236 211
-0.249201 -0.105205 -0.195157 64 236 211
-0.262699 -0.325134 -0.288984 64 236 211
-0.250652 -0.477661 -0.166849 64 236 211
-0.266537 -0.43815 -0.181887 64 236 211
-0.252628 -0.112167 -0.288459 64 236 211
-0.270849 -0.430607 -0.280034 64 236 211
-0.25238 -0.16752 -0.294012 64 236 211
-0.252034 -0.0649222 -0.247744 64 236 211
-0.25331 -0.252777 -0.213244 64 236 211
-0.248648 -0.137884 -0.198858 64 236 211
-0.253818 -0.225449 -0.152134 64 236 211
-0.254369 -0.0129914 -0.262057 64 236 211
-0.253628 -0.0979993 -0.296223 64 236 211
-0.260325 -0.312397 -0.23537 64 236 211
-0.255292 -0.25448 -0.183766 64 236 211
-0.252012 -0.182719 -0.285461 64 236 211
-0.243081 -0.47946 -0.146379 64 236 211
-0.251375 -0.0876253 -0.227596 64 236 211
-0.253539 -0.103435 -0.297713 64 236 211
-0.263726 -0.444978 -0.293869 64 236 211
-0.248504 -0.145631 -0.194841 64 236 211
-0.248718 -0.479157 -0.171905 64 236 211
-0.262533 -0.464353 -0.238043 64 236 211
-0.249864 -0.112505 -0.21971 64 236 211
-0.269931 -0.404975 -0.265004 64 236 211
-0.205262 -0.459584 -0.319868 64 236 211
-0.256295 -0.313307 -0.209471 64 236 211
-0.267213 -0.411537 -0.16514 64 236 211
-0.252029 -0.0671638 -0.26821 64 236 211
-0.261248 -0.266749 -0.285471 64 236 211
-0.230145 -0.433657 -0.322553 64 236 211
-0.267558 -0.433389 -0.198743 64 236 211
-0.268562 -0.436143 -0.205302 64 236 211
-0.257147 -0.338409 -0.19363 64 236 211
-0.224848 -0.479089 -0.264752 64 236 211
-0.249399 -0.11633 -0.213943 64 236 211
-0.253992 -0.0243288 -0.272978 64 236 211
-0.230442 -0.480087 -0.208178 64 236 211
-0.24994 -0.112102 -0.246784 64 236 211
-0.252519 -0.21097 -0.189585 64 236 211
-0.258865 -0.30154 -0.299241 64 236 211
-0.250078 -0.106884 -0.250716 64 236 211
-0.269685 -0.409952 -0.231574 64 236 211
-0.223787 -0.479421 -0.239702 64 236 211
-0.267217 -0.432402 -0.197385 64 236 211
-0.265222 -0.385768 -0.164181 64 236 211
-0.214663 -0.480161 -0.139138 64 236 211
-0.257952 -0.238165 -0.293881 64 236 211
-0.223425 -0.479312 -0.249039 64 236 211
-0.254806 -0.0110916 -0.290695 64 236 211
-0.248411 -0.168883 -0.231176 64 236 211
-0.255548 -0.248464 -0.144147 64 236 211
-0.25199 -0.365225 -0.308594 64 236 211
-0.268483 -0.427588 -0.169516 64 236 211
-0.242414 -0.331319 -0.314909 64 236 211
-0.254695 -0.0943262 -0.305601 64 236 211
-0.257371 -0.243993 -0.302038 64 236 211
-0.252274 -0.310293 -0.309299 64 236 211
-0.253479 -0.24791 -0.240455 64 236 211
-0.252461 -0.0494365 -0.241505 64 236 211
-0.254444 -0.0802143 -0.309242 64 236 211
-0.249291 -0.0258629 -0.215274 64 236 211
-0.262107 -0.274618 -0.26797 64 236 211
-0.259041 -0.308375 -0.142688 64 236 211
-0.249393 -0.0400691 -0.21468 64 236 211
-0.257409 -0.471279 -0.25328 64 236 211
-0.255719 -0.251179 -0.146537 64 236 211
-0.25731 -0.468077 -0.273408 64 236 211
-0.258768 -0.466685 -0.192378 64 236 211
-0.239461 -0.480064 -0.200917 64 236 211
-0.23374 -0.480034 -0.21632 64 236 211
-0.261567 -0.406853 -0.304261 64 236 211
-0.238793 -0.466623 -0.306119 64 236 211
-0.217906 -0.479514 -0.215376 64 236 211
-0.253893 -0.234803 -0.193558 64 236 211
-0.256429 -0.218028 -0.296814 64 236 211
-0.233038 -0.383229 -0.321546 64 236 211
-0.269719 -0.401234 -0.254205 64 236 211
-0.255067 -0.0166095 -0.302184 64 236 211
-0.25955 -0.301728 -0.238113 64 236 211
-0.249517 -0.177504 -0.270332 64 236 211
-0.24544 -0.479066 -0.147694 64 236 211
-0.220774 -0.48019 -0.15331 64 236 211
-0.271347 -0.424935 -0.272632 64 236 211
-0.238142 -0.480139 -0.161439 64 236 211
-0.249098 -0.105348 -0.167605 64 236 211
-0.191691 -0.452502 -0.324085 64 236 211
-0.259541 -0.248496 -0.276777 64 236 211
-0.248999 -0.17453 -0.317314 64 236 211
-0.252828 -0.229571 -0.214312 64 236 211
-0.263713 -0.462512 -0.260003 64 236 211
-0.255314 -0.220206 -0.30661 64 236 211
-0.265798 -0.379177 -0.284374 64 236 211
-0.249142 -0.122227 -0.210593 64 236 211
-0.253606 -0.186442 -0.295485 64 236 211
-0.260423 -0.259463 -0.2696 64 236 211
-0.271467 -0.435102 -0.262301 64 236 211
-0.253469 -0.104323 -0.297268 64 236 211
-0.251017 -0.191263 -0.154637 64 236 211
-0.246287 -0.465727 -0.298878 64 236 211
-0.235124 -0.462951 -0.311317 64 236 211
-0.250909 -0.0429274 -0.224569 64 236 211
-0.251091 -0.197148 -0.214092 64 236 211
-0.264501 -0.321872 -0.281089 64 236 211
-0.255238 -0.291931 -0.217445 64 236 211
-0.2618 -0.273729 -0.26681 64 236 211
-0.254061 -0.236945 -0.191976 64 236 211
-0.246427 -0.392178 -0.316111 64 236 211
-0.248791 -0.169167 -0.225417 64 236 211
-0.253609 -0.19855 -0.308624 64 236 211
-0.252417 -0.118751 -0.288827 64 236 211
-0.271598 -0.427563 -0.255714 64 236 211
-0.256856 -0.231102 -0.272596 64 236 211
-0.257584 -0.302656 -0.178607 64 236 211
-0.249509 -0.4652 -0.295661 64 236 211
-0.233453 -0.479583 -0.236009 64 236 211
-0.254805 -0.306279 -0.204252 64 236 211
-0.254432 -0.0812677 -0.309312 64 236 211
-0.239514 -0.479717 -0.220791 64 236 211
-0.221401 -0.479888 -0.198642 64 236 211
-0.250152 -0.182731 -0.270065 64 236 211
-0.257992 -0.316839 -0.301115 64 236 211
-0.246196 -0.40375 -0.317455 64 236 211
-0.265036 -0.384242 -0.165045 64 236 211
-0.252847 -0.222635 -0.210348 64 236 211
-0.217424 -0.479748 -0.178786 64 236 211
-0.255011 -0.473001 -0.185796 64 236 211
-0.254253 -0.04047 -0.292189 64 236 211
-0.229256 -0.480347 -0.16497 64 236 211
-0.23388 -0.480205 -0.204417 64 236 211
-0.260407 -0.350064 -0.214065 64 236 211
-0.254302 -0.0911506 -0.302465 64 236 211
-0.217168 -0.422513 -0.327067 64 236 211
-0.253245 -0.154997 -0.300387 64 236 211
-0.248924 -0.165652 -0.153309 64 236 211
-0.251363 -0.196667 -0.181943 64 236 211
-0.253797 -0.228974 -0.18908 64 236 211
-0.253244 -0.143544 -0.299245 64 236 211
-0.242831 -0.293053 -0.317475 64 236 211
-0.250298 -0.170585 -0.315586 64 236 211
-0.224731 -0.480419 -0.147567 64 236 211
-0.252763 -0.118849 -0.2933 64 236 211
-0.252152 -0.0355621 -0.232339 64 236 211
-0.259931 -0.434431 -0.303887 64 236 211
-0.242128 -0.47658 -0.279104 64 236 211
-0.270855 -0.441731 -0.270373 64 236 211
-0.244129 -0.273682 -0.319078 64 236 211
-0.265841 -0.410742 -0.204132 64 236 211
-0.24929 -0.175414 -0.223636 64 236 211
-0.249009 -0.123924 -0.199208 64 236 211
-0.254373 -0.282281 -0.205517 64 236 211
-0.253194 -0.23264 -0.210471 64 236 211
-0.215224 -0.479838 -0.162934 64 236 211
-0.266787 -0.43829 -0.179794 64 236 211
-0.253863 -0.189582 -0.303295 64 236 211
-0.254405 -0.234162 -0.253681 64 236 211
-0.221836 -0.479927 -0.188347 64 236 211
-0.251236 -0.19697 -0.196573 64 236 211
-0.249444 -0.0505998 -0.190798 64 236 211
-0.214915 -0.47952 -0.194246 64 236 211
-0.249476 -0.029586 -0.191933 64 236 211
-0.257363 -0.285246 -0.235703 64 236 211
-0.252534 -0.214534 -0.256982 64 236 211
-0.253415 -0.0894654 -0.290992 64 236 211
-0.242684 -0.403474 -0.319139 64 236 211
-0.248955 -0.136183 -0.272731 64 236 211
-0.249773 -0.110217 -0.149593 64 236 211
-0.252756 -0.205961 -0.267758 64 236 211
-0.258887 -0.317638 -0.170994 64 236 211
-0.238043 -0.478947 -0.256566 64 236 211
-0.251832 -0.112952 -0.282873 64 236 211
-0.248119 -0.159977 -0.211382 64 236 211
-0.262904 -0.279085 -0.278754 64 236 211
-0.260417 -0.36739 -0.188021 64 236 211
-0.271078 -0.435077 -0.2366 64 236 211
-0.25615 -0.31551 -0.207446 64 236 211
-0.253247 -0.0236141 -0.244871 64 236 211
-0.253018 -0.201645 -0.310734 64 236 211
-0.249579 -0.066003 -0.20058 64 236 211
-0.247683 -0.17059 -0.262887 64 236 211
-0.253066 -0.220707 -0.197289 64 236 211
-0.25649 -0.382582 -0.30599 64 236 211
-0.25666 -0.436514 -0.307131 64 236 211
-0.264154 -0.454857 -0.207263 64 236 211
-0.249025 -0.134487 -0.171264 64 236 211
-0.266097 -0.384123 -0.228961 64 236 211
-0.262657 -0.278988 -0.281344 64 236 211
-0.250253 -0.199043 -0.254302 64 236 211
-0.251337 -0.0795053 -0.269476 64 236 211
-0.247334 -0.24891 -0.319648 64 236 211
-0.263625 -0.453264 -0.199187 64 236 211
-0.255749 -0.239537 -0.257658 64 236 211
-0.223508 -0.403656 -0.326233 64 236 211
-0.253002 -0.250742 -0.21613 64 236 211
-0.264062 -0.459711 -0.229617 64 236 211
-0.244876 -0.384504 -0.316035 64 236 211
-0.250756 -0.186953 -0.145092 64 236 211
-0.252928 -0.0191129 -0.238117 64 236 211
-0.248538 -0.165743 -0.214081 64 236 211
-0.232609 -0.478407 -0.286389 64 236 211
-0.258308 -0.35501 -0.198645 64 236 211
-0.263593 -0.431846 -0.299514 64 236 211
-0.259887 -0.325307 -0.162027 64 236 211
-0.270887 -0.440308 -0.241607 64 236 211
-0.247374 -0.169696 -0.261599 64 236 211
-0.262451 -0.463047 -0.270831 64 236 211
-0.248094 -0.469145 -0.292273 64 236 211
-0.267705 -0.416681 -0.162293 64 236 211
-0.248273 -0.169809 -0.234302 64 236 211
-0.256983 -0.271565 -0.149583 64 236 211
-0.252849 -0.0425648 -0.248396 64 236 211
-0.249438 -0.0516227 -0.187256 64 236 211
-0.252755 -0.174522 -0.304493 64 236 211
-0.249609 -0.183131 -0.263019 64 236 211
-0.258631 -0.297936 -0.15452 64 236 211
-0.262844 -0.320146 -0.288198 64 236 211
-0.255276 -0.00316425 -0.299084 64 236 211
-0.248205 -0.160358 -0.190126 64 236 211
-0.26579 -0.3383 -0.259763 64 236 211
-0.255244 -0.202713 -0.298663 64 236 211
-0.25545 -0.324795 -0.30463 64 236 211
-0.218106 -0.479749 -0.182364 64 236 211
-0.249381 -0.0284481 -0.215859 64 236 211
-0.264288 -0.301798 -0.281674 64 236 211
-0.252942 -0.219671 -0.205913 64 236 211
-0.254509 -0.109297 -0.307428 64 236 211
-0.254206 -0.0609178 -0.295832 64 236 211
-0.258873 -0.428534 -0.307183 64 236 211
-0.250123 -0.476225 -0.257991 64 236 211
-0.267945 -0.4013 -0.282928 64 236 211
-0.251944 -0.132341 -0.289099 64 236 211
-0.253597 -0.189779 -0.290685 64 236 211
-0.249402 -0.0699028 -0.190931 64 236 211
-0.262358 -0.455297 -0.190569 64 236 211
-0.251484 -0.089482 -0.280787 64 236 211
-0.24949 -0.116189 -0.215175 64 236 211
-0.252484 -0.478379 -0.197685 64 236 211
-0.265433 -0.444236 -0.191724 64 236 211
-0.258915 -0.337763 -0.180623 64 236 211
-0.25155 -0.24953 -0.315464 64 236 211
-0.266173 -0.441888 -0.194063 64 236 211
-0.252223 -0.0272557 -0.23317 64 236 211
-0.248009 -0.47945 -0.189835 64 236 211
-0.270395 -0.409127 -0.25718 64 236 211
-0.24967 -0.0670343 -0.162478 64 236 211
-0.247843 -0.138447 -0.254368 64 236 211
-0.268625 -0.435853 -0.168485 64 236 211
-0.253807 -0.0861508 -0.29562 64 236 211
-0.255948 -0.220851 -0.303341 64 236 211
-0.26703 -0.376982 -0.272106 64 236 211
-0.220111 -0.479303 -0.239088 64 236 211
-0.25252 -0.088879 -0.31418 64 236 211
-0.248853 -0.130535 -0.200071 64 236 211
-0.255442 -0.227886 -0.307539 64 236 211
-0.253245 -0.0192081 -0.2426 64 236 211
-0.254211 -0.208037 -0.279594 64 236 211
-0.24966 -0.0624685 -0.203243 64 236 211
-0.250427 -0.269048 -0.315175 64 236 211
-0.254057 -0.0235338 -0.263412 64 236 211
-0.249963 -0.219622 -0.240043 64 236 211
-0.257137 -0.258575 -0.252936 64 236 211
-0.266818 -0.439586 -0.176539 64 236 211
-0.24933 -0.0892104 -0.197479 64 236 211
-0.258511 -0.451334 -0.297454 64 236 211
-0.260598 -0.260659 -0.269887 64 236 211
-0.234239 -0.447496 -0.317494 64 236 211
-0.251414 -0.172373 -0.288869 64 236 211
-0.255039 -0.241432 -0.151373 64 236 211
-0.265727 -0.36914 -0.237623 64 236 211
-0.247502 -0.157764 -0.267443 64 236 211
-0.247126 -0.168753 -0.260921 64 236 211
-0.24911 -0.110814 -0.188753 64 236 211
-0.262256 -0.464609 -0.260064 64 236 211
-0.253829 -0.32708 -0.306431 64 236 211
-0.251019 -0.200912 -0.257524 64 236 211
-0.266288 -0.386166 -0.228612 64 236 211
-0.23564 -0.478623 -0.273647 64 236 211
-0.249217 -0.153392 -0.150688 64 236 211
-0.271094 -0.424455 -0.234553 64 236 211
-0.247722 -0.140419 -0.254227 64 236 211
-0.249868 -0.191569 -0.230395 64 236 211
-0.250557 -0.222411 -0.232759 64 236 211
-0.252713 -0.17122 -0.299184 64 236 211
-0.253063 -0.0300254 -0.244874 64 236 211
-0.263021 -0.374405 -0.210204 64 236 211
-0.250806 -0.199342 -0.257358 64 236 211
-0.269744 -0.424611 -0.213038 64 236 211
-0.258073 -0.450903 -0.298124 64 236 211
-0.255061 -0.203906 -0.291777 64 236 211
-0.238213 -0.478685 -0.265294 64 236 211
-0.256568 -0.298258 -0.304378 64 236 211
-0.24796 -0.148479 -0.243488 64 236 211
-0.260063 -0.304413 -0.296118 64 236 211
-0.252242 -0.173987 -0.294126 64 236 211
-0.243354 -0.377217 -0.315878 64 236 211
-0.244718 -0.479382 -0.223481 64 236 211
-0.254034 -0.0925074 -0.300075 64 236 211
-0.25388 -0.288562 -0.210044 64 236 211
