ply
format ascii 1.0
comment Created by Open3D
element vertex 1201
property double x
property double y
property double z
property uchar red
property uchar green
property uchar blue
end_header
0.00812718 -0.363219 -0.151816 255 0 255
0.271106 -0.215783 -0.140873 255 0 255
0.372802 -0.30137 -0.128663 255 0 255
0.315119 -0.123376 -0.13743 255 0 255
0.177027 -0.366602 -0.140785 255 0 255
0.212518 -0.261146 -0.145723 255 0 255
-0.0949472 -0.368382 -0.151813 255 0 255
0.42295 -0.145551 -0.135484 255 0 255
-0.146006 -0.334021 -0.153803 255 0 255
-0.0672141 -0.180971 -0.157435 255 0 255
-0.193617 -0.247867 -0.153428 255 0 255
0.18971 -0.332069 -0.143161 255 0 255
-0.00545475 -0.158229 -0.155186 255 0 255
-0.186082 -0.21361 -0.155495 255 0 255
-0.0725418 -0.193337 -0.157527 255 0 255
-0.122121 -0.168118 -0.157595 255 0 255
-0.110434 -0.246911 -0.158285 255 0 255
0.162053 -0.207317 -0.14703 255 0 255
-0.0373911 -0.343419 -0.15406 255 0 255
0.110384 -0.114038 -0.145968 255 0 255
0.15441 -0.354967 -0.142998 255 0 255
0.405839 -0.249309 -0.127094 255 0 255
0.44614 -0.299876 -0.126443 255 0 255
0.333412 -0.31641 -0.133258 255 0 255
0.312675 -0.16477 -0.137908 255 0 255
-0.0703176 -0.283187 -0.158783 255 0 255
0.0965046 -0.239468 -0.151357 255 0 255
0.307038 -0.14392 -0.137845 255 0 255
0.104734 -0.286216 -0.151596 255 0 255
0.150772 -0.245619 -0.149194 255 0 255
-0.0391502 -0.181723 -0.156704 255 0 255
-0.0985251 -0.400908 -0.146496 255 0 255
0.272645 -0.0996201 -0.138009 255 0 255
0.0884116 -0.228568 -0.151238 255 0 255
0.134844 -0.336961 -0.145748 255 0 255
0.143929 -0.157499 -0.144932 255 0 255
-0.0134801 -0.175672 -0.155672 255 0 255
-0.122923 -0.392963 -0.145553 255 0 255
0.43979 -0.251302 -0.129581 255 0 255
0.0239699 -0.13549 -0.153229 255 0 255
0.399974 -0.0947464 -0.134056 255 0 255
0.458649 -0.259381 -0.134017 255 0 255
0.46448 -0.313441 -0.132817 255 0 255
0.211447 -0.206878 -0.144281 255 0 255
0.285516 -0.0797177 -0.137821 255 0 255
0.222574 -0.120958 -0.140434 255 0 255
0.0975676 -0.365058 -0.146308 255 0 255
0.321322 -0.29 -0.136241 255 0 255
0.329101 -0.140648 -0.136901 255 0 255
0.012414 -0.374714 -0.150551 255 0 255
-0.0225672 -0.185719 -0.156077 255 0 255
0.430516 -0.118792 -0.139458 255 0 255
-0.152035 -0.189493 -0.15726 255 0 255
-0.0799051 -0.185345 -0.157661 255 0 255
0.273128 -0.162622 -0.139518 255 0 255
0.461491 -0.258672 -0.135424 255 0 255
0.397204 -0.177465 -0.130542 255 0 255
0.0873379 -0.39097 -0.144808 255 0 255
0.319581 -0.200144 -0.137025 255 0 255
0.192938 -0.25453 -0.146914 255 0 255
0.40811 -0.26139 -0.126381 255 0 255
0.180679 -0.258703 -0.147402 255 0 255
-0.106271 -0.188811 -0.157636 255 0 255
0.204674 -0.227822 -0.145931 255 0 255
0.445356 -0.230321 -0.133165 255 0 255
0.357358 -0.290475 -0.131914 255 0 255
-0.063588 -0.393185 -0.149663 255 0 255
0.231375 -0.123934 -0.140047 255 0 255
0.344102 -0.336974 -0.129846 255 0 255
0.256901 -0.0827076 -0.13877 255 0 255
-0.126746 -0.323606 -0.155233 255 0 255
0.451974 -0.192367 -0.140269 255 0 255
-0.149476 -0.32389 -0.154437 255 0 255
0.410189 -0.327688 -0.122192 255 0 255
0.130917 -0.349266 -0.145087 255 0 255
-0.0895013 -0.366103 -0.152 255 0 255
0.407639 -0.113735 -0.133476 255 0 255
0.133108 -0.21565 -0.148837 255 0 255
0.404204 -0.25741 -0.126424 255 0 255
0.476698 -0.326821 -0.142309 255 0 255
0.457931 -0.300077 -0.130216 255 0 255
-0.108686 -0.403307 -0.14476 255 0 255
0.208264 -0.222201 -0.145465 255 0 255
0.284104 -0.149493 -0.138836 255 0 255
0.47094 -0.304161 -0.137104 255 0 255
-0.137165 -0.231245 -0.157105 255 0 255
0.0618636 -0.186947 -0.151116 255 0 255
0.327548 -0.31752 -0.133808 255 0 255
-0.0678299 -0.160225 -0.157294 255 0 255
-0.0609353 -0.240131 -0.158341 255 0 255
0.117484 -0.221027 -0.149697 255 0 255
0.132757 -0.186745 -0.147127 255 0 255
0.464499 -0.213078 -0.142547 255 0 255
0.217331 -0.178202 -0.141818 255 0 255
0.458832 -0.263691 -0.133653 255 0 255
0.415326 -0.111099 -0.13498 255 0 255
0.107036 -0.344052 -0.147064 255 0 255
0.215799 -0.376624 -0.137279 255 0 255
-0.0816025 -0.321714 -0.156226 255 0 255
-0.131156 -0.34601 -0.153226 255 0 255
0.00741326 -0.314118 -0.15483 255 0 255
0.470969 -0.246045 -0.142326 255 0 255
0.333253 -0.115859 -0.136391 255 0 255
0.0326153 -0.311382 -0.154098 255 0 255
0.359323 -0.276732 -0.132403 255 0 255
-0.105193 -0.21164 -0.157687 255 0 255
0.387008 -0.317373 -0.12567 255 0 255
0.479322 -0.319654 -0.146355 255 0 255
0.0873401 -0.186273 -0.149477 255 0 255
0.102042 -0.352884 -0.146787 255 0 255
0.292167 -0.1849 -0.13883 255 0 255
-0.193616 -0.238152 -0.153637 255 0 255
-0.114929 -0.202242 -0.15761 255 0 255
0.45953 -0.200243 -0.141992 255 0 255
0.280887 -0.107365 -0.13807 255 0 255
0.291261 -0.202043 -0.138724 255 0 255
0.0354869 -0.213029 -0.15349 255 0 255
0.19439 -0.137739 -0.141726 255 0 255
0.257366 -0.260923 -0.143229 255 0 255
-0.106023 -0.279054 -0.158568 255 0 255
0.0769693 -0.229732 -0.151838 255 0 255
0.291552 -0.286896 -0.13956 255 0 255
0.108882 -0.109128 -0.146194 255 0 255
0.0173215 -0.156377 -0.153876 255 0 255
0.239398 -0.197752 -0.142181 255 0 255
-0.192026 -0.187498 -0.157003 255 0 255
0.158232 -0.292539 -0.147713 255 0 255
0.402495 -0.0677999 -0.136291 255 0 255
0.404155 -0.0935771 -0.134427 255 0 255
-0.0942849 -0.390071 -0.149238 255 0 255
-0.14918 -0.166305 -0.158426 255 0 255
0.265175 -0.362385 -0.135102 255 0 255
0.15428 -0.114069 -0.142652 255 0 255
0.185632 -0.36128 -0.140777 255 0 255
0.477928 -0.307329 -0.144199 255 0 255
0.0812969 -0.192859 -0.150169 255 0 255
0.349324 -0.110527 -0.135272 255 0 255
-0.0560106 -0.224743 -0.157901 255 0 255
0.344105 -0.242667 -0.135066 255 0 255
0.360808 -0.255139 -0.132717 255 0 255
0.41756 -0.257634 -0.127113 255 0 255
0.0241458 -0.36708 -0.150789 255 0 255
-0.180567 -0.28785 -0.153456 255 0 255
0.224277 -0.206662 -0.143573 255 0 255
-0.167185 -0.288276 -0.154666 255 0 255
0.0871706 -0.179534 -0.149087 255 0 255
0.0697388 -0.32392 -0.151354 255 0 255
-0.0751167 -0.140062 -0.157 255 0 255
0.466592 -0.280871 -0.136007 255 0 255
0.439106 -0.160704 -0.139359 255 0 255
0.314624 -0.163165 -0.137814 255 0 255
-0.0301165 -0.143599 -0.155781 255 0 255
0.00668061 -0.391713 -0.149024 255 0 255
-0.14351 -0.282541 -0.156256 255 0 255
-0.0683779 -0.278977 -0.158762 255 0 255
-0.0867108 -0.207076 -0.157689 255 0 255
-0.138821 -0.247295 -0.156703 255 0 255
-0.092801 -0.272872 -0.159069 255 0 255
0.0873764 -0.181016 -0.149165 255 0 255
0.419614 -0.148401 -0.134327 255 0 255
-0.140138 -0.340032 -0.153567 255 0 255
0.414424 -0.21922 -0.130212 255 0 255
-0.0714373 -0.338803 -0.154749 255 0 255
0.179235 -0.258458 -0.147473 255 0 255
-0.0829623 -0.34628 -0.153846 255 0 255
-0.163379 -0.277623 -0.155003 255 0 255
0.208457 -0.196904 -0.143687 255 0 255
0.388442 -0.325522 -0.12482 255 0 255
0.3762 -0.247156 -0.130566 255 0 255
0.432205 -0.306163 -0.124348 255 0 255
0.454375 -0.271637 -0.130994 255 0 255
0.0179116 -0.240027 -0.155481 255 0 255
-0.0445918 -0.167254 -0.15675 255 0 255
-0.1056 -0.364223 -0.152202 255 0 255
0.206634 -0.354845 -0.140179 255 0 255
0.0893671 -0.28448 -0.152441 255 0 255
0.155485 -0.244763 -0.148945 255 0 255
0.381091 -0.333469 -0.125069 255 0 255
0.0085858 -0.413205 -0.146411 255 0 255
0.477088 -0.299175 -0.143258 255 0 255
0.384854 -0.284318 -0.127871 255 0 255
-0.0221791 -0.297155 -0.156795 255 0 255
0.182744 -0.230683 -0.147161 255 0 255
0.210285 -0.315994 -0.143202 255 0 255
-0.147092 -0.318286 -0.154885 255 0 255
-0.101458 -0.289567 -0.158638 255 0 255
0.22273 -0.254277 -0.145358 255 0 255
-0.0975129 -0.275592 -0.158986 255 0 255
0.120399 -0.18945 -0.147915 255 0 255
0.373799 -0.224901 -0.131998 255 0 255
0.435226 -0.135238 -0.139963 255 0 255
-0.148223 -0.253324 -0.156133 255 0 255
0.00727033 -0.320116 -0.154496 255 0 255
0.184765 -0.319709 -0.144223 255 0 255
0.342338 -0.340764 -0.129567 255 0 255
0.467519 -0.210084 -0.144293 255 0 255
-0.0344585 -0.196073 -0.156623 255 0 255
0.427754 -0.311558 -0.12359 255 0 255
0.168575 -0.172319 -0.144449 255 0 255
0.291629 -0.250757 -0.140169 255 0 255
0.30658 -0.163124 -0.138143 255 0 255
0.458188 -0.322227 -0.129159 255 0 255
-0.0139855 -0.229403 -0.156672 255 0 255
0.386752 -0.2013 -0.13095 255 0 255
0.255224 -0.337589 -0.138696 255 0 255
0.129257 -0.260981 -0.150698 255 0 255
-0.136954 -0.255525 -0.156771 255 0 255
0.106628 -0.162279 -0.147176 255 0 255
0.207487 -0.244266 -0.146288 255 0 255
-0.143957 -0.332153 -0.153985 255 0 255
0.335293 -0.300985 -0.133946 255 0 255
0.368223 -0.177206 -0.13363 255 0 255
-0.130005 -0.349894 -0.152992 255 0 255
0.265146 -0.305934 -0.140315 255 0 255
0.28866 -0.159692 -0.138843 255 0 255
-0.143237 -0.259323 -0.156352 255 0 255
0.295748 -0.190407 -0.138585 255 0 255
0.0233173 -0.307957 -0.154617 255 0 255
-0.0507126 -0.382252 -0.150422 255 0 255
-0.0932024 -0.163806 -0.157662 255 0 255
0.215708 -0.153931 -0.141102 255 0 255
0.442243 -0.192158 -0.137129 255 0 255
0.00467661 -0.362188 -0.152006 255 0 255
-0.130852 -0.339497 -0.153715 255 0 255
-0.189644 -0.244001 -0.153899 255 0 255
0.0135566 -0.284513 -0.155931 255 0 255
0.186996 -0.213245 -0.146065 255 0 255
0.167561 -0.182909 -0.145204 255 0 255
0.375392 -0.345708 -0.124609 255 0 255
0.407351 -0.300006 -0.124167 255 0 255
-0.108413 -0.182503 -0.157603 255 0 255
-0.173589 -0.254056 -0.15496 255 0 255
0.16968 -0.295398 -0.146814 255 0 255
0.428945 -0.119368 -0.138907 255 0 255
-0.0886823 -0.421226 -0.141567 255 0 255
0.1165 -0.377773 -0.143755 255 0 255
0.423203 -0.259047 -0.127324 255 0 255
0.201379 -0.359938 -0.140032 255 0 255
0.453416 -0.174413 -0.142928 255 0 255
0.369732 -0.334907 -0.126455 255 0 255
0.013265 -0.334294 -0.153439 255 0 255
0.418768 -0.124389 -0.135392 255 0 255
0.281763 -0.164714 -0.139186 255 0 255
-0.119212 -0.232201 -0.157744 255 0 255
0.404211 -0.197597 -0.130214 255 0 255
0.0952495 -0.190889 -0.149311 255 0 255
-0.186424 -0.195779 -0.156605 255 0 255
0.00640508 -0.17349 -0.154678 255 0 255
0.448096 -0.228088 -0.134467 255 0 255
0.238007 -0.235645 -0.144305 255 0 255
0.437068 -0.320712 -0.123884 255 0 255
-0.180157 -0.265497 -0.154097 255 0 255
0.0431942 -0.386548 -0.148285 255 0 255
0.462122 -0.270712 -0.13439 255 0 255
0.400508 -0.0829852 -0.134855 255 0 255
0.0714203 -0.290099 -0.153131 255 0 255
0.294605 -0.357607 -0.132784 255 0 255
0.423116 -0.161151 -0.134368 255 0 255
0.375498 -0.223105 -0.131869 255 0 255
0.0648907 -0.247076 -0.15325 255 0 255
0.432202 -0.284988 -0.125875 255 0 255
0.465565 -0.219206 -0.142563 255 0 255
0.163548 -0.27313 -0.148217 255 0 255
-0.176719 -0.24932 -0.154843 255 0 255
0.357213 -0.168911 -0.13476 255 0 255
0.46024 -0.206341 -0.141545 255 0 255
0.0115463 -0.18611 -0.154786 255 0 255
0.357991 -0.0744811 -0.137168 255 0 255
-0.0422645 -0.249976 -0.158104 255 0 255
0.316164 -0.247693 -0.137691 255 0 255
0.164552 -0.271836 -0.148177 255 0 255
-0.0626807 -0.218408 -0.157808 255 0 255
-0.032669 -0.273323 -0.157656 255 0 255
-0.0392319 -0.405281 -0.148455 255 0 255
0.246296 -0.271942 -0.143459 255 0 255
0.418284 -0.328756 -0.122113 255 0 255
0.372502 -0.152345 -0.133565 255 0 255
0.136234 -0.381832 -0.141926 255 0 255
0.159659 -0.260729 -0.148772 255 0 255
0.439611 -0.292505 -0.126047 255 0 255
0.386959 -0.226565 -0.129837 255 0 255
0.41142 -0.0827579 -0.135851 255 0 255
0.104778 -0.296551 -0.151069 255 0 255
0.14926 -0.253363 -0.149555 255 0 255
0.394294 -0.10433 -0.133585 255 0 255
-0.1651 -0.172123 -0.15831 255 0 255
0.421402 -0.157693 -0.134164 255 0 255
-0.144802 -0.110785 -0.194547 255 0 255
-0.303199 -0.248365 -0.18837 255 0 255
-0.209313 -0.232395 -0.196948 255 0 255
-0.248076 -0.229031 -0.19282 255 0 255
-0.293672 -0.0308992 -0.185352 255 0 255
-0.304359 -0.0425186 -0.182563 255 0 255
0.236066 -0.0343947 -0.216021 255 0 255
-0.0716009 0.00776953 -0.198151 255 0 255
0.0625757 -0.169203 -0.213685 255 0 255
-0.237506 -0.0159813 -0.188975 255 0 255
-0.0122938 0.014512 -0.203568 255 0 255
0.260437 -0.0777648 -0.212334 255 0 255
0.0163456 -0.176608 -0.211836 255 0 255
-0.0798415 -0.190872 -0.206114 255 0 255
0.219665 -0.108079 -0.212812 255 0 255
-0.301503 -0.105518 -0.17861 255 0 255
-0.268452 -0.0481612 -0.181997 255 0 255
-0.252548 -0.0950034 -0.182707 255 0 255
0.1024 -0.152229 -0.213934 255 0 255
0.0665882 -0.206224 -0.216896 255 0 255
0.241982 -0.0877359 -0.211892 255 0 255
-0.0481724 -0.0267674 -0.199438 255 0 255
-0.111692 -0.203344 -0.20338 255 0 255
0.068331 -0.27117 -0.220992 255 0 255
-0.234346 -0.186959 -0.191107 255 0 255
-0.172789 -0.203365 -0.198363 255 0 255
0.0238933 -0.118275 -0.208041 255 0 255
0.0609382 0.0307505 -0.210133 255 0 255
0.167409 -0.00134751 -0.215472 255 0 255
-0.263687 -0.090399 -0.181585 255 0 255
0.200214 -0.20028 -0.219158 255 0 255
0.208827 -0.253694 -0.221561 255 0 255
-0.295438 -0.0676381 -0.178501 255 0 255
-0.158474 0.000402471 -0.194118 255 0 255
0.20819 -0.0168552 -0.216754 255 0 255
-0.0153944 0.0130409 -0.203237 255 0 255
0.288825 -0.0548572 -0.215585 255 0 255
-0.150215 -0.222538 -0.201469 255 0 255
-0.199324 0.00115447 -0.194638 255 0 255
-0.138554 -0.00297597 -0.192924 255 0 255
-0.0857346 -0.260521 -0.209545 255 0 255
-0.149335 -0.198204 -0.199784 255 0 255
0.0659591 0.0209441 -0.209024 255 0 255
-0.212952 -0.137732 -0.189448 255 0 255
-0.285135 -0.172346 -0.18471 255 0 255
0.0262923 -0.126432 -0.208731 255 0 255
-0.282937 -0.139768 -0.181705 255 0 255
0.216073 -0.0826416 -0.212026 255 0 255
-0.197814 0.00246923 -0.195113 255 0 255
0.0891283 -0.199531 -0.21738 255 0 255
0.0708296 -0.0256885 -0.207692 255 0 255
0.246617 -0.0456992 -0.214939 255 0 255
0.041278 -0.2108 -0.215772 255 0 255
0.126963 -0.303926 -0.221921 255 0 255
-0.0480123 -0.00673899 -0.199404 255 0 255
-0.149219 -0.131286 -0.195504 255 0 255
-0.258264 -0.0834113 -0.181707 255 0 255
-0.182866 -0.0117853 -0.189744 255 0 255
-0.149648 0.00659198 -0.19658 255 0 255
-0.272895 -0.052271 -0.181162 255 0 255
0.272272 -0.036174 -0.217624 255 0 255
0.109443 -0.0537813 -0.209116 255 0 255
0.291036 -0.0491533 -0.216543 255 0 255
-0.0700602 -0.235512 -0.2098 255 0 255
-0.178474 -0.173458 -0.195727 255 0 255
-0.0108371 -0.150525 -0.20815 255 0 255
-0.274652 -0.165042 -0.184739 255 0 255
-0.180572 -0.0239578 -0.188092 255 0 255
0.213636 -0.0225043 -0.216392 255 0 255
-0.037348 -0.249999 -0.212944 255 0 255
0.0893282 -0.0803525 -0.209046 255 0 255
0.153056 0.0144983 -0.216077 255 0 255
-0.227566 -0.0186226 -0.188213 255 0 255
0.255804 -0.0488438 -0.214958 255 0 255
-0.263581 -0.0681491 -0.181024 255 0 255
-0.116472 -0.0257202 -0.193115 255 0 255
0.227567 -0.172373 -0.216959 255 0 255
-0.096941 0.0125936 -0.198364 255 0 255
0.212186 -0.0526432 -0.213074 255 0 255
-0.252204 -0.0468804 -0.182897 255 0 255
0.0923221 0.0277175 -0.21188 255 0 255
-0.161946 -0.14332 -0.195043 255 0 255
0.0169284 0.0133177 -0.205603 255 0 255
-0.13357 -0.0641032 -0.192666 255 0 255
-0.0777956 -0.261409 -0.210273 255 0 255
0.191951 -0.240978 -0.22156 255 0 255
-0.177467 -0.0321883 -0.1877 255 0 255
-0.273865 -0.0271774 -0.186099 255 0 255
0.242458 -0.0535414 -0.213962 255 0 255
-0.0273488 -0.0716293 -0.20291 255 0 255
-0.0124702 0.000220107 -0.20291 255 0 255
0.233652 -0.166202 -0.216372 255 0 255
-0.27151 -0.0497491 -0.181612 255 0 255
-0.210513 -0.0253327 -0.187243 255 0 255
0.125742 -0.199938 -0.218346 255 0 255
0.0287975 0.00355831 -0.205732 255 0 255
-0.210114 -0.0099954 -0.190636 255 0 255
0.133289 -0.166987 -0.215531 255 0 255
-0.299189 -0.181792 -0.184801 255 0 255
-0.115525 -0.0545734 -0.194537 255 0 255
-0.19049 -0.159565 -0.193319 255 0 255
-0.0126633 0.0226217 -0.204489 255 0 255
0.170755 -0.0168574 -0.213537 255 0 255
0.0302742 -0.00715301 -0.205815 255 0 255
-0.293499 -0.055665 -0.179678 255 0 255
-0.0267931 -0.178452 -0.209445 255 0 255
-0.0233161 -0.0265255 -0.201702 255 0 255
-0.0625736 0.00377304 -0.198086 255 0 255
0.251302 -0.215655 -0.219077 255 0 255
0.0648729 0.0116959 -0.208124 255 0 255
0.0686748 -0.027626 -0.20756 255 0 255
-0.0593521 -0.226404 -0.210161 255 0 255
-0.100032 -0.237742 -0.207194 255 0 255
-0.13724 -0.0609571 -0.191977 255 0 255
0.198633 -0.00530106 -0.217713 255 0 255
-0.154259 -2.03997e-05 -0.193951 255 0 255
-0.30672 -0.108081 -0.178268 255 0 255
-0.0175231 -0.0609126 -0.203209 255 0 255
0.0267196 -0.213323 -0.215019 255 0 255
-0.241389 -0.169228 -0.188549 255 0 255
0.239132 -0.0907672 -0.211836 255 0 255
-0.220001 -0.0539328 -0.184318 255 0 255
-0.159411 -0.149118 -0.195615 255 0 255
0.261334 -0.0825418 -0.2122 255 0 255
0.0341744 0.025632 -0.207554 255 0 255
-0.192816 -0.0649995 -0.186767 255 0 255
-0.0618567 0.0134157 -0.199849 255 0 255
-0.119885 -0.0683272 -0.194799 255 0 255
-0.272505 -0.208543 -0.188652 255 0 255
-0.276581 -0.0356472 -0.184205 255 0 255
0.0637319 -0.21131 -0.217129 255 0 255
-0.277639 -0.0625486 -0.179958 255 0 255
-0.0738309 0.00538234 -0.197471 255 0 255
-0.315053 -0.0480509 -0.181336 255 0 255
-0.282015 -0.173508 -0.18499 255 0 255
0.242202 -0.236297 -0.220239 255 0 255
-0.30222 -0.147861 -0.181196 255 0 255
-0.264441 -0.133472 -0.18333 255 0 255
0.156157 -0.246332 -0.222217 255 0 255
0.213105 -0.0394112 -0.21436 255 0 255
-0.011344 0.0242035 -0.204835 255 0 255
-0.312317 -0.191062 -0.185065 255 0 255
-0.165911 -0.22828 -0.200622 255 0 255
0.0487527 -0.139532 -0.210759 255 0 255
0.171397 0.00572714 -0.21691 255 0 255
0.0951819 -0.113695 -0.211258 255 0 255
-0.0376039 -0.00145039 -0.200583 255 0 255
-0.125693 -0.115505 -0.197238 255 0 255
-0.0781249 0.0016425 -0.196679 255 0 255
0.237447 -0.187743 -0.218009 255 0 255
-0.309335 -0.0910937 -0.177362 255 0 255
-0.283566 -0.194097 -0.186578 255 0 255
-0.0724389 -0.0873201 -0.201101 255 0 255
-0.262142 -0.0629484 -0.18107 255 0 255
0.162647 -0.285869 -0.222298 255 0 255
-0.0576884 -0.275354 -0.212557 255 0 255
-0.288173 -0.0175541 -0.189859 255 0 255
0.142778 -0.0926016 -0.210876 255 0 255
0.275286 -0.142956 -0.212758 255 0 255
-0.164153 -0.2399 -0.201457 255 0 255
-0.104751 -0.0539804 -0.195885 255 0 255
-0.138064 0.00963408 -0.197574 255 0 255
-0.322426 -0.0744627 -0.176649 255 0 255
-0.208541 -0.0704438 -0.185648 255 0 255
0.0735119 -0.0553641 -0.207901 255 0 255
0.0107419 -0.203122 -0.213424 255 0 255
-0.309036 -0.137717 -0.179701 255 0 255
-0.0814436 -0.227918 -0.208259 255 0 255
-0.238165 -0.172614 -0.18921 255 0 255
-0.194882 -0.0265838 -0.187496 255 0 255
-0.168527 -0.145585 -0.194555 255 0 255
0.140001 -0.102655 -0.211407 255 0 255
-0.312818 -0.220513 -0.186863 255 0 255
0.0367429 -0.208971 -0.215385 255 0 255
0.1353 -0.144511 -0.21394 255 0 255
0.282947 -0.0439758 -0.217001 255 0 255
-0.162059 -0.00256626 -0.192838 255 0 255
-0.154185 -0.246709 -0.202478 255 0 255
0.108844 -0.248883 -0.221649 255 0 255
0.224962 -0.024949 -0.216712 255 0 255
0.17686 -0.0563217 -0.211667 255 0 255
-0.243263 -0.210333 -0.192153 255 0 255
-0.276021 -0.130369 -0.181598 255 0 255
-0.218187 -0.207421 -0.194683 255 0 255
0.223136 -0.0897554 -0.21194 255 0 255
0.279766 -0.0462423 -0.216572 255 0 255
-0.315087 -0.0742657 -0.176849 255 0 255
0.286234 -0.0909367 -0.21167 255 0 255
-0.105359 -0.188933 -0.203229 255 0 255
0.194146 -0.22343 -0.220599 255 0 255
-0.233045 -0.188947 -0.191451 255 0 255
-0.29077 -0.106122 -0.179492 255 0 255
-0.242112 -0.225283 -0.193245 255 0 255
0.0338215 -0.0766907 -0.206327 255 0 255
0.0954024 -0.105499 -0.21077 255 0 255
0.206401 -0.141451 -0.215072 255 0 255
-0.00933069 -0.207903 -0.21258 255 0 255
-0.0634073 -0.265473 -0.211728 255 0 255
-0.019434 -0.0129851 -0.202073 255 0 255
0.126933 -0.100927 -0.211128 255 0 255
-0.080063 -0.116952 -0.201836 255 0 255
0.0761801 -0.173433 -0.214648 255 0 255
0.0289365 -0.253427 -0.217759 255 0 255
-0.123707 -0.0188869 -0.192547 255 0 255
0.266794 -0.0430801 -0.216487 255 0 255
0.238825 -0.00874133 -0.219684 255 0 255
-0.190061 -0.0237672 -0.187866 255 0 255
-0.173349 -0.254622 -0.201304 255 0 255
-0.267201 -0.0373138 -0.183889 255 0 255
-0.233764 -0.163544 -0.189042 255 0 255
0.204293 -0.2245 -0.220642 255 0 255
-0.257771 -0.101072 -0.182508 255 0 255
-0.210518 -0.178489 -0.192941 255 0 255
-0.194441 0.00158116 -0.194731 255 0 255
-0.0154543 -0.0712688 -0.203502 255 0 255
-0.241384 -0.00407596 -0.193893 255 0 255
-0.200983 -0.158592 -0.192141 255 0 255
-0.116456 -0.103249 -0.197467 255 0 255
-0.189673 -0.257995 -0.19987 255 0 255
-0.172473 -0.00590563 -0.191523 255 0 255
-0.252009 -0.0874345 -0.182368 255 0 255
-0.137355 -0.0145343 -0.191299 255 0 255
-0.167744 0.0084128 -0.197384 255 0 255
-0.107653 -0.0194782 -0.19385 255 0 255
0.144976 -0.0402831 -0.210858 255 0 255
-0.20707 -0.0322172 -0.186587 255 0 255
-0.191691 -0.077991 -0.187612 255 0 255
0.0912181 0.0288613 -0.211976 255 0 255
0.23256 -0.113728 -0.212966 255 0 255
-0.110021 -0.0196011 -0.193655 255 0 255
-0.174566 -0.243597 -0.200725 255 0 255
-0.149281 -0.228608 -0.201951 255 0 255
-0.0598405 -0.142824 -0.204378 255 0 255
0.0755789 -0.142935 -0.212301 255 0 255
-0.102152 -0.0111525 -0.19457 255 0 255
0.0888788 -0.23881 -0.220246 255 0 255
-0.213852 -0.167796 -0.191553 255 0 255
-0.166318 -0.240582 -0.201302 255 0 255
0.150822 0.00498556 -0.214443 255 0 255
0.0340665 -0.0923673 -0.206963 255 0 255
-0.28174 -0.248981 -0.190724 255 0 255
-0.261961 -0.0114203 -0.19113 255 0 255
-0.212795 -0.161145 -0.191132 255 0 255
0.110651 -0.211186 -0.219068 255 0 255
-0.262729 -0.0216387 -0.187318 255 0 255
0.021804 -0.28674 -0.218678 255 0 255
-0.170246 0.0107818 -0.198319 255 0 255
0.268545 -0.0499268 -0.215406 255 0 255
0.0624358 -0.253456 -0.219913 255 0 255
0.161911 0.00500417 -0.215778 255 0 255
0.0175568 -0.122775 -0.207985 255 0 255
0.161701 -0.216654 -0.220234 255 0 255
-0.0989877 0.00185919 -0.19554 255 0 255
0.0905981 -0.0803358 -0.20909 255 0 255
-0.0271219 -0.00565547 -0.201577 255 0 255
-0.194148 -0.0524275 -0.186123 255 0 255
-0.16447 -0.0213895 -0.189029 255 0 255
-0.156549 -0.262717 -0.20285 255 0 255
-0.230755 -0.0976785 -0.184871 255 0 255
0.143422 -0.249437 -0.222368 255 0 255
-0.261494 -0.00469321 -0.195046 255 0 255
0.0687554 -0.0306383 -0.207537 255 0 255
0.259298 -0.081481 -0.212215 255 0 255
-0.0186329 -0.185134 -0.210471 255 0 255
-0.159681 -0.218007 -0.200369 255 0 255
0.220765 -0.146515 -0.215287 255 0 255
-0.063009 -0.221987 -0.209568 255 0 255
0.237547 -0.0329022 -0.216314 255 0 255
-0.0762826 -0.0504691 -0.198589 255 0 255
0.196004 -0.0212489 -0.215306 255 0 255
-0.231105 -0.0447762 -0.184017 255 0 255
-0.181179 -0.0465231 -0.187096 255 0 255
-0.164936 -0.109428 -0.192438 255 0 255
-0.0978166 -0.155488 -0.202063 255 0 255
0.061478 -0.244032 -0.219138 255 0 255
0.108622 -0.0020932 -0.209563 255 0 255
0.263738 -0.0434709 -0.216271 255 0 255
0.0229564 0.0156959 -0.206189 255 0 255
-0.285942 -0.133996 -0.180965 255 0 255
-0.0231095 -0.251424 -0.214035 255 0 255
0.222994 -0.0244802 -0.216672 255 0 255
0.259519 -0.190772 -0.217401 255 0 255
0.0350734 -0.0603007 -0.206116 255 0 255
0.190612 -0.0391501 -0.213267 255 0 255
0.0936947 -0.127826 -0.211981 255 0 255
0.227882 -0.100679 -0.212301 255 0 255
-0.0239394 0.0263357 -0.204872 255 0 255
-0.0618333 -0.0591468 -0.200496 255 0 255
-0.0110387 -0.259396 -0.215477 255 0 255
-0.228652 -0.224477 -0.194709 255 0 255
0.164675 -0.300683 -0.221023 255 0 255
-0.250993 -0.1983 -0.190098 255 0 255
-0.170141 -0.105678 -0.191633 255 0 255
-0.0614453 -0.0355648 -0.198661 255 0 255
-0.312304 -0.127229 -0.178713 255 0 255
-0.115785 -0.161667 -0.200703 255 0 255
-0.229617 -0.221049 -0.194388 255 0 255
-0.264871 -0.23512 -0.191575 255 0 255
-0.304776 -0.199488 -0.185946 255 0 255
0.0843466 0.0238208 -0.210799 255 0 255
-0.227264 -0.0560084 -0.183799 255 0 255
0.224819 -0.31778 -0.214608 255 0 255
0.0931114 -0.0134282 -0.20892 255 0 255
0.121854 -0.102192 -0.211119 255 0 255
-0.304498 -0.0788077 -0.177268 255 0 255
0.237531 -0.277931 -0.21825 255 0 255
0.0573382 -0.0492073 -0.207027 255 0 255
0.1952 -0.0354171 -0.213921 255 0 255
0.0218293 -0.0394755 -0.205053 255 0 255
-0.138584 0.00771007 -0.196878 255 0 255
-0.147573 0.00669653 -0.196622 255 0 255
0.0763512 -0.0750062 -0.20851 255 0 255
-0.188362 -0.194238 -0.19663 255 0 255
-0.188494 -0.0104448 -0.190047 255 0 255
-0.0604379 -0.0289936 -0.198366 255 0 255
-0.311541 -0.167695 -0.182826 255 0 255
0.117755 -0.0494997 -0.209381 255 0 255
-0.233919 -0.178421 -0.190318 255 0 255
-0.301242 -0.142199 -0.180612 255 0 255
-0.00180761 -0.122303 -0.206819 255 0 255
-0.238893 -0.189418 -0.190774 255 0 255
0.0268985 -0.237108 -0.216342 255 0 255
-0.100037 -0.140806 -0.201183 255 0 255
-0.315842 -0.161405 -0.181866 255 0 255
0.0488892 -0.0975204 -0.208207 255 0 255
0.201985 -0.0638568 -0.212051 255 0 255
0.210184 -0.256563 -0.221532 255 0 255
-0.154118 -0.145255 -0.195883 255 0 255
-0.26102 -0.129007 -0.183392 255 0 255
0.166753 -0.305216 -0.22043 255 0 255
0.00816675 -0.110676 -0.206597 255 0 255
0.1059 -0.152559 -0.214052 255 0 255
-0.0658127 0.0144396 -0.199914 255 0 255
-0.127332 -0.197305 -0.201613 255 0 255
0.0368789 0.00690098 -0.206286 255 0 255
-0.0959999 -0.0526897 -0.196743 255 0 255
-0.283625 -0.176864 -0.185204 255 0 255
-0.0812087 -0.0825107 -0.200274 255 0 255
0.236138 -0.00609092 -0.219982 255 0 255
0.267356 -0.151351 -0.213889 255 0 255
-0.0524967 -0.0107715 -0.198939 255 0 255
0.176949 -0.195076 -0.218539 255 0 255
0.0775007 0.0152799 -0.209046 255 0 255
0.275871 -0.0200984 -0.220284 255 0 255
0.18263 -0.0309155 -0.213438 255 0 255
-0.171725 -0.0181059 -0.189101 255 0 255
-0.302053 -0.217655 -0.187503 255 0 255
-0.288555 -0.132452 -0.180633 255 0 255
-0.321052 -0.110041 -0.176997 255 0 255
0.222432 -0.246787 -0.221199 255 0 255
-0.277591 -0.0453774 -0.181876 255 0 255
-0.206162 -0.00855117 -0.19112 255 0 255
-0.249447 -0.166701 -0.18753 255 0 255
-0.0504382 0.0226634 -0.202813 255 0 255
-0.315634 -0.15159 -0.180675 255 0 255
-0.0483966 -0.190987 -0.208915 255 0 255
0.292298 -0.0368484 -0.218353 255 0 255
-0.281281 -0.129618 -0.180967 255 0 255
0.231968 -0.017222 -0.217983 255 0 255
-0.0785471 0.0170327 -0.200108 255 0 255
-0.114057 0.00410274 -0.19542 255 0 255
0.213621 -0.227592 -0.220664 255 0 255
-0.113924 -0.0843919 -0.196608 255 0 255
-0.0630491 -0.0429869 -0.199139 255 0 255
-0.188619 -0.0771778 -0.187831 255 0 255
0.0243102 -0.143494 -0.209723 255 0 255
0.000376947 -0.189035 -0.211865 255 0 255
-0.0860449 -0.237439 -0.20846 255 0 255
0.0806555 -0.145271 -0.212631 255 0 255
0.224128 -0.12305 -0.213554 255 0 255
0.0189786 0.0171688 -0.206036 255 0 255
-0.157495 -0.206417 -0.199669 255 0 255
0.168832 -0.29917 -0.220949 255 0 255
-0.261204 -0.0824638 -0.18143 255 0 255
-0.161797 0.00144788 -0.194547 255 0 255
0.125068 -0.232842 -0.221181 255 0 255
0.117261 -0.210757 -0.219144 255 0 255
-0.281595 -0.0880968 -0.179827 255 0 255
-0.0433642 -0.015947 -0.199824 255 0 255
-0.0896873 -0.140216 -0.202098 255 0 255
-0.106513 -0.0488631 -0.195289 255 0 255
0.0441896 -0.0108998 -0.206607 255 0 255
0.00392813 -0.0270934 -0.203809 255 0 255
0.200238 -0.0622668 -0.212079 255 0 255
0.0164929 -0.124455 -0.208045 255 0 255
-0.0884086 -0.114072 -0.201006 255 0 255
0.186181 0.0116535 -0.218993 255 0 255
-0.21754 -0.181251 -0.192442 255 0 255
0.0773807 -0.0654718 -0.208344 255 0 255
0.258032 -0.0838596 -0.212134 255 0 255
-0.197957 -0.0690563 -0.186492 255 0 255
0.0177867 -0.246189 -0.216454 255 0 255
0.132535 -0.298211 -0.222172 255 0 255
-0.182679 -0.142731 -0.192991 255 0 255
0.0939149 -0.23221 -0.220031 255 0 255
-0.262732 -0.249056 -0.192745 255 0 255
-0.289177 -0.112935 -0.179893 255 0 255
-0.260386 -0.0197069 -0.187794 255 0 255
-0.267931 -0.163088 -0.185243 255 0 255
0.206137 -0.12187 -0.213587 255 0 255
0.219713 -0.106094 -0.2127 255 0 255
-0.300385 -0.055391 -0.179416 255 0 255
0.254608 -0.098532 -0.211846 255 0 255
0.0585263 -0.170079 -0.213538 255 0 255
-0.239453 -0.0278998 -0.186311 255 0 255
0.0638897 -0.144687 -0.211945 255 0 255
-0.0666504 -0.0427787 -0.198778 255 0 255
-0.0651085 -0.0894202 -0.20163 255 0 255
0.162447 -0.00511988 -0.214257 255 0 255
0.250679 -0.0541704 -0.214169 255 0 255
-0.30372 -0.0364181 -0.184168 255 0 255
-0.199589 -0.042558 -0.186044 255 0 255
-0.16088 -0.164151 -0.19666 255 0 255
-0.152101 -0.211047 -0.200457 255 0 255
0.226094 -0.0335661 -0.215528 255 0 255
-0.167978 -0.13097 -0.193687 255 0 255
-0.247514 -0.0641597 -0.182286 255 0 255
-0.0222132 -0.244485 -0.213702 255 0 255
-0.277125 -0.21329 -0.188724 255 0 255
0.0172621 -0.194716 -0.21324 255 0 255
0.258229 -0.145181 -0.213938 255 0 255
-0.321054 -0.0677733 -0.177268 255 0 255
-0.00328537 -0.0158759 -0.203335 255 0 255
0.117096 -0.0817918 -0.209894 255 0 255
-0.00702704 -0.000767592 -0.203322 255 0 255
-0.14208 -0.0742331 -0.192219 255 0 255
0.206521 -0.0102818 -0.21752 255 0 255
0.12735 -0.211659 -0.219402 255 0 255
0.035703 -0.00262334 -0.206205 255 0 255
0.214346 -0.224838 -0.22053 255 0 255
-0.281793 -0.250105 -0.190731 255 0 255
0.129686 -0.114302 -0.211949 255 0 255
-0.0210654 -0.265524 -0.215171 255 0 255
0.0162408 0.0223655 -0.206183 255 0 255
0.0264214 0.014576 -0.206292 255 0 255
-0.10619 0.0168034 -0.199835 255 0 255
0.176812 -0.0584654 -0.211567 255 0 255
-0.170746 -0.229137 -0.200283 255 0 255
-0.179716 -0.00513109 -0.191941 255 0 255
0.266947 -0.0631445 -0.213758 255 0 255
0.0545196 -0.0321807 -0.206762 255 0 255
0.249574 -0.178467 -0.216756 255 0 255
0.275826 -0.0284265 -0.218905 255 0 255
0.142657 0.0116046 -0.21441 255 0 255
-0.232717 -0.193642 -0.191916 255 0 255
-0.0433794 -0.25011 -0.212533 255 0 255
-0.218272 0.00565042 -0.197103 255 0 255
0.040516 -0.0436511 -0.206048 255 0 255
-0.317831 -0.194478 -0.185062 255 0 255
-0.273917 -0.237458 -0.190925 255 0 255
-0.139667 -0.114523 -0.195467 255 0 255
-0.0197294 -0.03342 -0.20228 255 0 255
0.117156 -0.270129 -0.222514 255 0 255
-0.240189 -0.132836 -0.186014 255 0 255
0.000740308 -0.0215477 -0.203589 255 0 255
-0.140923 -0.0819781 -0.193007 255 0 255
-0.210678 -0.240676 -0.197205 255 0 255
-0.132599 0.00189405 -0.194662 255 0 255
0.0733849 0.0292882 -0.210857 255 0 255
0.0437642 -0.292793 -0.220019 255 0 255
0.117614 -0.202911 -0.218488 255 0 255
-0.139131 -0.00911599 -0.191787 255 0 255
0.243607 -0.204934 -0.218987 255 0 255
-0.124903 -0.247697 -0.205226 255 0 255
-0.257541 -0.155258 -0.185772 255 0 255
0.0718827 -0.225566 -0.218466 255 0 255
-0.0174778 -0.0199967 -0.202124 255 0 255
-0.0378238 -0.0299991 -0.200596 255 0 255
-0.289205 -0.165137 -0.183726 255 0 255
-0.226134 -0.0676815 -0.183976 255 0 255
-0.203605 -0.150662 -0.191351 255 0 255
-0.0578076 -0.00154838 -0.198521 255 0 255
0.170614 -0.00626676 -0.215064 255 0 255
-0.237436 -0.00243842 -0.194514 255 0 255
-0.0668965 -0.169104 -0.205777 255 0 255
-0.286207 -0.0336592 -0.184622 255 0 255
0.090092 0.0227605 -0.210987 255 0 255
-0.176535 -0.0301453 -0.187788 255 0 255
-0.0778937 -0.148133 -0.203402 255 0 255
-0.214044 -0.153777 -0.190497 255 0 255
0.193218 0.00790648 -0.219102 255 0 255
-0.301098 -0.22444 -0.187987 255 0 255
0.0414102 0.00756363 -0.206597 255 0 255
-0.296302 -0.063278 -0.17891 255 0 255
0.229747 -0.0477718 -0.214122 255 0 255
-0.0772514 -0.122563 -0.2023 255 0 255
-0.111344 -0.147752 -0.200331 255 0 255
-0.229084 -0.028373 -0.186388 255 0 255
0.210346 -0.178347 -0.217641 255 0 255
-0.102498 -0.207382 -0.204641 255 0 255
-0.256477 -0.18432 -0.188041 255 0 255
0.237563 -0.0623889 -0.212937 255 0 255
-0.30782 -0.121523 -0.178833 255 0 255
0.215101 -0.0136389 -0.217594 255 0 255
-0.0839623 -0.164305 -0.203866 255 0 255
0.276531 -0.0858476 -0.211995 255 0 255
0.0525617 0.00409718 -0.207131 255 0 255
0.24752 -0.0452043 -0.215031 255 0 255
0.219605 -0.0292138 -0.215831 255 0 255
0.134629 0.0234714 -0.215179 255 0 255
-0.282195 -0.172625 -0.184901 255 0 255
-0.0522476 -0.0558078 -0.201102 255 0 255
-0.240401 -0.0943834 -0.18381 255 0 255
-0.221975 -0.235297 -0.195908 255 0 255
0.210633 -0.135266 -0.214614 255 0 255
0.255181 -0.176492 -0.216319 255 0 255
-0.289044 -0.0667882 -0.178971 255 0 255
-0.313 -0.127919 -0.178711 255 0 255
-0.165528 -0.165463 -0.196309 255 0 255
-0.230772 -0.00410339 -0.193602 255 0 255
0.156461 -0.00803229 -0.213096 255 0 255
0.276718 -0.124581 -0.211765 255 0 255
0.0614455 -0.131452 -0.196522 255 0 255
-0.0628646 -0.280123 -0.20456 255 0 255
0.229114 -0.134365 -0.190399 255 0 255
-0.00418013 -0.116456 -0.202075 255 0 255
0.0662763 -0.374027 -0.184991 255 0 255
0.245972 -0.0260249 -0.196169 255 0 255
-0.0263524 -0.319908 -0.197657 255 0 255
-0.0910778 -0.362557 -0.200764 255 0 255
-0.106485 -0.19903 -0.207586 255 0 255
0.194032 -0.159993 -0.189525 255 0 255
-0.0863401 -0.302977 -0.205055 255 0 255
-0.18344 -0.124047 -0.209649 255 0 255
-0.0976377 -0.302985 -0.207215 255 0 255
0.28544 -0.350999 -0.17626 255 0 255
0.27002 -0.153724 -0.188853 255 0 255
-0.0774215 -0.179005 -0.206615 255 0 255
0.299579 -0.338971 -0.175917 255 0 255
0.211531 -0.0878208 -0.192652 255 0 255
0.0625686 -0.110247 -0.197066 255 0 255
0.0764928 -0.0638338 -0.197751 255 0 255
0.224207 -0.188393 -0.188296 255 0 255
0.0134294 -0.213727 -0.20007 255 0 255
0.121809 -0.0591757 -0.195632 255 0 255
0.00608003 -0.268548 -0.199301 255 0 255
-0.0220883 -0.366364 -0.192869 255 0 255
-0.0753712 -0.406265 -0.192999 255 0 255
0.154013 -0.0487946 -0.195075 255 0 255
-0.170441 -0.204179 -0.214174 255 0 255
0.182741 -0.0317138 -0.195504 255 0 255
-0.152596 -0.103824 -0.204793 255 0 255
0.205471 -0.181838 -0.188696 255 0 255
0.0851596 -0.309351 -0.188952 255 0 255
-0.112518 -0.380386 -0.202421 255 0 255
-0.121814 -0.320582 -0.210391 255 0 255
-0.0785425 -0.0117922 -0.199272 255 0 255
-0.155603 -0.108253 -0.205395 255 0 255
-0.103813 -0.0916109 -0.202376 255 0 255
0.0522659 -0.296036 -0.192552 255 0 255
0.156048 -0.11775 -0.19219 255 0 255
-0.121429 -0.375117 -0.204441 255 0 255
-0.157733 -0.0525357 -0.200731 255 0 255
0.0632044 -0.383975 -0.184374 255 0 255
-0.164586 -0.147232 -0.209494 255 0 255
-0.159752 -0.19601 -0.212356 255 0 255
0.057915 -0.357651 -0.187077 255 0 255
0.0436442 -0.31281 -0.191875 255 0 255
0.208378 -0.272809 -0.185804 255 0 255
-0.0921635 -0.305135 -0.205989 255 0 255
-0.0851145 -0.352068 -0.200603 255 0 255
0.0344248 -0.14578 -0.197966 255 0 255
0.0322336 -0.0716023 -0.200014 255 0 255
-0.109118 -0.22329 -0.208985 255 0 255
0.0727624 -0.0143454 -0.199652 255 0 255
0.0502556 -0.366768 -0.186996 255 0 255
0.06866 -0.0548458 -0.198507 255 0 255
-0.000214155 -0.235225 -0.20093 255 0 255
0.0908918 -0.155739 -0.193867 255 0 255
0.209533 -0.165521 -0.189127 255 0 255
0.165213 -0.242936 -0.188258 255 0 255
-0.00605128 -0.146164 -0.201703 255 0 255
-0.0673832 -0.198153 -0.206636 255 0 255
-0.000719516 -0.346103 -0.193203 255 0 255
0.153282 -0.266031 -0.18789 255 0 255
0.25286 -0.0527556 -0.194363 255 0 255
-0.0605039 -0.305548 -0.202028 255 0 255
0.157427 -0.302262 -0.185825 255 0 255
-0.0265627 -0.190731 -0.203881 255 0 255
-0.213741 -0.138205 -0.211597 255 0 255
0.148148 -0.166625 -0.190772 255 0 255
0.000283927 -0.11729 -0.201712 255 0 255
0.192043 -0.20333 -0.188728 255 0 255
0.148996 -0.0874165 -0.193537 255 0 255
-0.187632 -0.0305057 -0.200216 255 0 255
0.101797 0.00884763 -0.199318 255 0 255
-0.160489 -0.207733 -0.213009 255 0 255
-0.133887 -0.402929 -0.202087 255 0 255
0.101145 -0.3414 -0.185289 255 0 255
-0.168293 -0.311687 -0.216834 255 0 255
0.191896 -0.252936 -0.187023 255 0 255
0.143997 -0.033561 -0.196011 255 0 255
0.178613 -0.376455 -0.179231 255 0 255
0.00816646 -0.221572 -0.200463 255 0 255
0.235189 -0.0791522 -0.192875 255 0 255
0.0249587 -0.331656 -0.192146 255 0 255
0.153284 -0.226599 -0.189073 255 0 255
-0.0746486 -0.274234 -0.205689 255 0 255
-0.0937525 -0.0897144 -0.202256 255 0 255
-0.130168 -0.0603818 -0.200067 255 0 255
-0.138007 -0.327018 -0.212794 255 0 255
0.0429856 -0.377767 -0.186666 255 0 255
0.0620732 -0.228424 -0.195448 255 0 255
0.283789 -0.272098 -0.181548 255 0 255
0.17979 -0.303289 -0.185151 255 0 255
0.101462 -0.0155568 -0.198163 255 0 255
0.329369 -0.330896 -0.173872 255 0 255
-0.129088 -0.336847 -0.210145 255 0 255
-0.101121 -0.359629 -0.202793 255 0 255
0.0594614 -0.16014 -0.19593 255 0 255
-0.0314554 -0.315079 -0.198577 255 0 255
0.179707 -0.199589 -0.189102 255 0 255
-0.096594 -0.33007 -0.204692 255 0 255
0.251647 -0.139075 -0.189953 255 0 255
0.257028 -0.186955 -0.188118 255 0 255
-0.155661 -0.271953 -0.215137 255 0 255
0.0285689 -0.236598 -0.198128 255 0 255
-0.0142744 -0.383916 -0.190767 255 0 255
-0.114601 -0.116588 -0.203929 255 0 255
0.205174 -0.185136 -0.188644 255 0 255
-0.113369 -0.0178437 -0.197593 255 0 255
-0.145523 -0.100749 -0.203917 255 0 255
0.101803 -0.303335 -0.188305 255 0 255
0.0732939 -0.377871 -0.184112 255 0 255
0.169479 -0.0851144 -0.193269 255 0 255
-0.137158 -0.405065 -0.202233 255 0 255
0.226341 -0.263437 -0.185491 255 0 255
0.214357 0.00318219 -0.19777 255 0 255
-0.102336 -0.0228598 -0.198607 255 0 255
0.207134 -0.0183705 -0.196313 255 0 255
0.252091 -0.337129 -0.17948 255 0 255
0.121268 -0.0696386 -0.195288 255 0 255
0.1309 -0.0216734 -0.196987 255 0 255
-0.0267994 -0.148293 -0.203378 255 0 255
0.210087 -0.082693 -0.192889 255 0 255
-0.177595 -0.158951 -0.21205 255 0 255
0.20989 -0.157067 -0.189451 255 0 255
0.0930694 -0.275157 -0.191022 255 0 255
-0.0156095 -0.342983 -0.194603 255 0 255
0.111986 -0.0235064 -0.197377 255 0 255
0.0942011 -0.166755 -0.193369 255 0 255
0.175052 -0.201037 -0.189155 255 0 255
-0.103029 -0.0322158 -0.199087 255 0 255
0.330588 -0.299621 -0.176631 255 0 255
-0.00854101 -0.372188 -0.191436 255 0 255
0.14688 -0.166623 -0.190811 255 0 255
0.110569 -0.0296841 -0.197184 255 0 255
0.0750904 -0.377638 -0.183999 255 0 255
0.177136 -0.0192102 -0.196218 255 0 255
-0.15741 -0.0444496 -0.199927 255 0 255
0.0703266 -0.307641 -0.190125 255 0 255
0.15706 -0.0762915 -0.193849 255 0 255
0.0556208 -0.209151 -0.1961 255 0 255
-0.0915388 -0.313681 -0.205157 255 0 255
0.238688 -0.12447 -0.190828 255 0 255
0.0606949 -0.0135314 -0.200404 255 0 255
-0.0897417 -0.230117 -0.208051 255 0 255
0.0660997 -0.134814 -0.196139 255 0 255
-0.00606929 -0.140419 -0.201728 255 0 255
-0.0632919 -0.379652 -0.194614 255 0 255
-0.11918 -0.0459353 -0.199327 255 0 255
0.261812 -0.355691 -0.177471 255 0 255
-0.0676194 -0.136268 -0.204721 255 0 255
0.00758945 -0.0825915 -0.201556 255 0 255
-0.00287123 -0.116485 -0.201975 255 0 255
0.0565168 -0.370585 -0.186122 255 0 255
-0.0607598 -0.369204 -0.195644 255 0 255
-0.0944737 -0.0868291 -0.2021 255 0 255
0.284906 -0.28402 -0.180553 255 0 255
-0.013283 -0.285683 -0.199888 255 0 255
-0.089012 -0.220847 -0.208069 255 0 255
-0.164261 -0.26015 -0.215803 255 0 255
0.286704 -0.2715 -0.181451 255 0 255
0.0422208 -0.071701 -0.199433 255 0 255
0.233022 -0.304594 -0.182926 255 0 255
-0.0911025 -0.0750457 -0.201623 255 0 255
0.171344 -0.270054 -0.186997 255 0 255
0.249599 -0.0730403 -0.193191 255 0 255
0.234485 -0.183443 -0.188437 255 0 255
0.323334 -0.285583 -0.17848 255 0 255
-0.0402897 -0.108507 -0.203454 255 0 255
-0.0116134 -0.00515148 -0.200843 255 0 255
0.166484 -0.20609 -0.189217 255 0 255
-0.116106 -0.142343 -0.205169 255 0 255
-0.133323 -0.153103 -0.206754 255 0 255
-0.00828706 -0.129581 -0.202114 255 0 255
0.139058 0.00726405 -0.198465 255 0 255
-0.0481742 -0.261785 -0.204172 255 0 255
-0.116554 -0.320609 -0.209348 255 0 255
-0.0671591 -0.217122 -0.20638 255 0 255
-0.094441 -0.25258 -0.208331 255 0 255
0.102653 -0.330502 -0.186132 255 0 255
0.0449546 -0.357642 -0.188168 255 0 255
-0.229666 -0.0528404 -0.200694 255 0 255
0.16601 -0.0952103 -0.192894 255 0 255
0.203632 -0.164447 -0.189207 255 0 255
-0.00159722 -0.0157296 -0.201258 255 0 255
0.176696 -0.0382137 -0.195196 255 0 255
-0.0765935 -0.322648 -0.201745 255 0 255
-0.00474247 -0.368274 -0.191461 255 0 255
-0.172888 -0.297053 -0.217723 255 0 255
-0.00508221 -0.186811 -0.20184 255 0 255
0.149398 -0.0842485 -0.193624 255 0 255
0.229273 -0.168925 -0.188934 255 0 255
-0.0173138 -0.272443 -0.201171 255 0 255
0.272551 -0.191349 -0.187292 255 0 255
0.303209 -0.26341 -0.181239 255 0 255
0.0593952 -0.291027 -0.192323 255 0 255
-0.109687 -0.053572 -0.200108 255 0 255
-0.138663 -0.206563 -0.210584 255 0 255
-0.197935 -0.14959 -0.213014 255 0 255
0.0812975 -0.288391 -0.190844 255 0 255
0.21751 0.0224416 -0.199141 255 0 255
-0.0982796 -0.0409349 -0.199805 255 0 255
0.183949 -0.0751561 -0.193459 255 0 255
-0.109779 -0.341594 -0.20608 255 0 255
0.102933 -0.327343 -0.186402 255 0 255
-0.114478 -0.291018 -0.211315 255 0 255
-0.0479372 -0.238375 -0.20469 255 0 255
-0.206661 -0.0431209 -0.202219 255 0 255
0.108686 -0.0175302 -0.197776 255 0 255
0.10956 -0.209057 -0.191595 255 0 255
0.0819689 -0.00111261 -0.199701 255 0 255
-0.155466 -0.32607 -0.215628 255 0 255
0.0558817 -0.316902 -0.190517 255 0 255
-0.165146 -0.106377 -0.206133 255 0 255
0.0727981 -0.175536 -0.194748 255 0 255
-0.00124567 -0.160499 -0.201382 255 0 255
-0.147467 -0.186888 -0.210241 255 0 255
0.0837575 -0.05576 -0.197603 255 0 255
-0.147534 -0.256247 -0.213806 255 0 255
0.335995 -0.353196 -0.172019 255 0 255
-0.000730556 -0.340683 -0.193679 255 0 255
0.181261 -0.138309 -0.190582 255 0 255
-0.140402 -0.325253 -0.213388 255 0 255
-0.155751 -0.105138 -0.205189 255 0 255
0.208735 -0.257547 -0.186368 255 0 255
-0.0604443 -0.146685 -0.20523 255 0 255
-0.144094 -0.259835 -0.213628 255 0 255
0.118833 -0.365724 -0.182652 255 0 255
0.04918 -0.0423055 -0.200049 255 0 255
-0.147971 -0.0247631 -0.19777 255 0 255
-0.0198529 -0.0325809 -0.20136 255 0 255
-0.0310159 -0.123243 -0.203684 255 0 255
0.237832 -0.0992646 -0.191908 255 0 255
0.0609837 -0.164167 -0.195734 255 0 255
0.168787 -0.0533677 -0.194539 255 0 255
0.0682678 -0.370968 -0.185052 255 0 255
0.260136 -0.280176 -0.182501 255 0 255
-0.0560224 -0.31979 -0.200218 255 0 255
0.0556065 -0.285452 -0.193038 255 0 255
0.191555 -0.303646 -0.184855 255 0 255
0.000211515 -0.0567971 -0.201793 255 0 255
0.0985458 -0.0997378 -0.195378 255 0 255
-0.114424 -0.292921 -0.211218 255 0 255
0.11223 -0.28403 -0.188902 255 0 255
0.231962 -0.104232 -0.191713 255 0 255
-0.0231745 -0.133996 -0.203021 255 0 255
-0.111587 -0.187555 -0.207272 255 0 255
-0.188811 -0.111007 -0.208947 255 0 255
-0.0553554 -0.104134 -0.203381 255 0 255
-0.0772723 -0.233417 -0.206839 255 0 255
0.194364 -0.342755 -0.182264 255 0 255
-0.0938651 -0.125116 -0.204121 255 0 255
0.279621 -0.14661 -0.188873 255 0 255
-0.146843 -0.374081 -0.20869 255 0 255
0.095526 -0.321969 -0.187282 255 0 255
0.229128 -0.0261757 -0.195978 255 0 255
-0.180968 -0.253579 -0.217796 255 0 255
0.140286 -0.161305 -0.191237 255 0 255
0.0510775 -0.248905 -0.195955 255 0 255
0.0444951 -0.172686 -0.196861 255 0 255
-0.0526244 -0.278393 -0.203865 255 0 255
-0.139209 -0.338283 -0.211873 255 0 255
-0.120476 -0.40399 -0.199868 255 0 255
0.250917 -0.110985 -0.191319 255 0 255
0.175894 -0.0179838 -0.196292 255 0 255
-0.0936658 -0.0901912 -0.202282 255 0 255
0.213676 -0.348196 -0.180849 255 0 255
0.00848626 -0.306484 -0.196007 255 0 255
-0.203574 -0.0336462 -0.201394 255 0 255
0.0597982 -0.370188 -0.185859 255 0 255
0.151332 -0.284837 -0.186934 255 0 255
0.21014 -0.2772 -0.185599 255 0 255
0.134015 -0.139773 -0.192199 255 0 255
-0.0751912 -0.191801 -0.207028 255 0 255
0.253262 -0.234182 -0.185852 255 0 255
0.0606285 -0.33285 -0.188848 255 0 255
-0.108694 -0.143503 -0.205202 255 0 255
-0.192708 -0.117159 -0.210006 255 0 255
0.0464707 -0.174001 -0.19669 255 0 255
0.0276971 -0.200738 -0.198587 255 0 255
-0.0863438 -0.0256232 -0.199613 255 0 255
0.156653 -0.165641 -0.190534 255 0 255
0.263331 -0.0961151 -0.191947 255 0 255
0.0244143 -0.15062 -0.198775 255 0 255
-0.159138 -0.153721 -0.20937 255 0 255
0.133031 -0.140798 -0.192207 255 0 255
0.0709832 -0.371079 -0.184806 255 0 255
0.125672 -0.363137 -0.182639 255 0 255
0.183584 -0.309547 -0.184757 255 0 255
-0.15127 -0.310882 -0.215462 255 0 255
-0.157949 -0.299697 -0.216134 255 0 255
0.0217925 -0.132714 -0.199393 255 0 255
-0.0551978 -0.131113 -0.204245 255 0 255
-0.0419559 -0.025926 -0.200936 255 0 255
0.141645 -0.363797 -0.182101 255 0 255
0.0144179 -0.245432 -0.199388 255 0 255
-0.010051 -0.0393365 -0.20153 255 0 255
0.0959486 -0.0860688 -0.19591 255 0 255
-0.0652513 -0.371203 -0.19575 255 0 255
0.0261708 -0.190532 -0.198716 255 0 255
0.167291 -0.258689 -0.187724 255 0 255
0.178536 -0.355612 -0.18171 255 0 255
0.222823 -0.0798847 -0.192919 255 0 255
0.0159873 -0.375622 -0.189119 255 0 255
-0.0590464 -0.395603 -0.19211 255 0 255
-0.109207 -0.402028 -0.198456 255 0 255
0.162721 -0.182368 -0.189901 255 0 255
0.161564 -0.0346189 -0.195569 255 0 255
-0.152776 -0.223129 -0.212688 255 0 255
0.0404437 -0.179579 -0.197265 255 0 255
0.154892 -0.342052 -0.183664 255 0 255
0.000877946 -0.186323 -0.201287 255 0 255
0.087604 -0.273153 -0.1916 255 0 255
0.160412 -0.180208 -0.189997 255 0 255
-0.0319496 -0.0212632 -0.200951 255 0 255
0.0932211 -0.37813 -0.182866 255 0 255
0.294438 -0.300584 -0.178315 255 0 255
-0.199781 -0.202893 -0.215795 255 0 255
0.14125 -0.221371 -0.189608 255 0 255
0.167587 -0.236906 -0.188341 255 0 255
-0.061127 -0.146577 -0.205234 255 0 255
0.0553222 -0.107126 -0.197566 255 0 255
0.171429 -0.319619 -0.184661 255 0 255
-0.0435934 -0.248265 -0.204193 255 0 255
0.22294 0.00867653 -0.198306 255 0 255
0.0751676 -0.0870939 -0.197001 255 0 255
0.097342 -0.0472379 -0.197151 255 0 255
0.265838 -0.107442 -0.19125 255 0 255
-0.103194 -0.397619 -0.198222 255 0 255
0.0711267 -0.0635589 -0.198074 255 0 255
-0.15406 -0.328553 -0.215453 255 0 255
-0.147411 -0.206756 -0.21135 255 0 255
-0.108876 -0.189165 -0.207171 255 0 255
-0.0013213 -0.0940444 -0.202196 255 0 255
-0.0134243 -0.398504 -0.189053 255 0 255
-0.16451 -0.046021 -0.200553 255 0 255
0.0515159 -0.177936 -0.196268 255 0 255
0.0415901 -0.0639689 -0.199731 255 0 255
-0.026583 -0.0187785 -0.20095 255 0 255
0.135209 -0.21555 -0.189903 255 0 255
0.105111 -0.339661 -0.185273 255 0 255
0.0337674 -0.389455 -0.18633 255 0 255
-0.00045879 -0.286819 -0.198721 255 0 255
0.00540066 -0.0160655 -0.201493 255 0 255
0.0161691 -0.364612 -0.190018 255 0 255
0.183276 -0.182742 -0.189412 255 0 255
-0.224697 -0.101368 -0.206897 255 0 255
-0.0899313 -0.0983113 -0.202714 255 0 255
0.244326 -0.0481477 -0.194631 255 0 255
0.0424271 -0.143769 -0.197387 255 0 255
0.296594 -0.221225 -0.184075 255 0 255
0.210592 -0.345653 -0.181232 255 0 255
0.185279 -0.294034 -0.185453 255 0 255
0.0913596 -0.207015 -0.193054 255 0 255
-0.0205202 -0.00646465 -0.200727 255 0 255
0.144425 -0.382517 -0.180163 255 0 255
0.143814 -0.304889 -0.186109 255 0 255
0.207952 -0.0602519 -0.193907 255 0 255
0.0313653 -0.179664 -0.198097 255 0 255
0.251998 -0.288234 -0.182691 255 0 255
0.225379 -0.0916047 -0.19239 255 0 255
-0.0622855 -0.188711 -0.206386 255 0 255
-0.1459 -0.387883 -0.206459 255 0 255
0.0836594 -0.132353 -0.19508 255 0 255
0.232621 -0.218288 -0.187102 255 0 255
-0.193613 -0.0546507 -0.203173 255 0 255
0.181903 -0.0875881 -0.193 255 0 255
0.181807 -0.214435 -0.188625 255 0 255
0.0945864 -0.350035 -0.184922 255 0 255
-0.0995266 -0.291833 -0.208481 255 0 255
0.0957189 -0.0413676 -0.197435 255 0 255
0.244082 -0.337913 -0.17999 255 0 255
0.112958 -0.150215 -0.1928 255 0 255
-0.0228635 -0.372736 -0.192359 255 0 255
-0.169809 -0.0575845 -0.202066 255 0 255
0.115483 0.00106576 -0.198563 255 0 255
0.0689935 -0.216781 -0.194918 255 0 255
0.153766 -0.331367 -0.184573 255 0 255
0.0163752 -0.249536 -0.19911 255 0 255
0.115919 -0.150809 -0.192626 255 0 255
0.266492 -0.188212 -0.187717 255 0 255
0.203829 -0.0175137 -0.196332 255 0 255
0.244492 -0.0959321 -0.192088 255 0 255
0.141308 -0.341671 -0.184015 255 0 255
0.309757 -0.337527 -0.175082 255 0 255
0.214009 0.0142099 -0.198511 255 0 255
0.145547 -0.303644 -0.186126 255 0 255
0.19473 0.0104324 -0.197958 255 0 255
0.122735 -0.213637 -0.190542 255 0 255
0.176514 -0.140286 -0.190694 255 0 255
0.15594 -0.347554 -0.183105 255 0 255
-0.0235775 -0.109249 -0.20336 255 0 255
0.106171 -0.28606 -0.189257 255 0 255
0.0848835 -0.0940227 -0.196221 255 0 255
-0.0935172 -0.341638 -0.20304 255 0 255
-0.0404518 -0.178998 -0.205067 255 0 255
0.226171 -0.366001 -0.178699 255 0 255
0.180194 -0.141931 -0.19049 255 0 255
-0.0359277 -0.342735 -0.196101 255 0 255
0.303224 -0.344143 -0.175442 255 0 255
0.265745 -0.09975 -0.191694 255 0 255
-0.0910548 -0.364381 -0.200565 255 0 255
