ply
format ascii 1.0
comment Created by Open3D
element vertex 1164
property double x
property double y
property double z
property uchar red
property uchar green
property uchar blue
end_header
0.280532 -0.478555 -0.0571817 128 254 179
0.425457 -0.175289 0.396259 128 254 179
0.419664 -0.412123 0.380843 128 254 179
0.414767 -0.29062 0.144015 128 254 179
0.39648 -0.482593 0.219173 128 254 179
0.419842 -0.318551 0.304519 128 254 179
0.41654 -0.195393 0.449949 128 254 179
0.378101 -0.482969 0.439101 128 254 179
0.417185 -0.197821 0.222233 128 254 179
0.417729 -0.290423 0.21393 128 254 179
0.42002 -0.277918 0.262575 128 254 179
0.462 -0.470059 -0.0769509 128 254 179
0.415624 -0.185339 0.201182 128 254 179
0.408043 -0.401262 0.209357 128 254 179
0.267997 -0.483699 0.476232 128 254 179
0.280007 -0.483629 0.29505 128 254 179
0.421722 -0.154661 0.266676 128 254 179
0.425056 -0.354127 0.440372 128 254 179
0.415682 -0.480404 0.0372672 128 254 179
0.415423 -0.174123 0.205958 128 254 179
0.415423 -0.433335 0.31579 128 254 179
0.355714 -0.483847 0.466982 128 254 179
0.421567 -0.379032 0.408234 128 254 179
0.448857 -0.468454 0.0497647 128 254 179
0.421963 -0.456723 0.439114 128 254 179
0.419904 -0.319987 0.334081 128 254 179
0.42743 -0.162851 0.369696 128 254 179
0.414242 -0.345317 0.239049 128 254 179
0.418087 -0.450753 0.415074 128 254 179
0.414469 -0.323162 0.167339 128 254 179
0.429196 -0.379409 0.470947 128 254 179
0.425459 -0.110961 0.318646 128 254 179
0.409707 -0.409802 0.239606 128 254 179
0.412725 -0.441211 0.260869 128 254 179
0.45747 -0.473583 0.0115464 128 254 179
0.41985 -0.354997 0.385417 128 254 179
0.387051 -0.482782 0.316606 128 254 179
0.448315 -0.45568 0.0466294 128 254 179
0.420239 -0.315522 0.306735 128 254 179
0.377824 -0.480161 0.0271507 128 254 179
0.41374 -0.442953 0.200365 128 254 179
0.0988464 -0.48278 0.260569 128 254 179
0.419488 -0.312386 0.348142 128 254 179
0.418369 -0.147175 0.454013 128 254 179
0.422637 -0.129475 0.282154 128 254 179
0.427392 -0.124098 0.340968 128 254 179
0.405578 -0.469586 0.209737 128 254 179
0.42687 -0.101374 0.342484 128 254 179
0.422771 -0.157665 0.277831 128 254 179
0.416446 -0.272341 0.188396 128 254 179
0.425107 -0.250274 0.355741 128 254 179
0.425484 -0.100728 0.396259 128 254 179
0.420314 -0.236372 0.404813 128 254 179
0.416672 -0.337694 0.286621 128 254 179
0.406598 -0.390401 0.21175 128 254 179
0.414279 -0.473889 0.351382 128 254 179
0.405079 -0.481658 0.438946 128 254 179
0.424312 -0.355927 0.452831 128 254 179
0.425304 -0.248517 0.355059 128 254 179
0.4247 -0.101999 0.314192 128 254 179
0.40056 -0.482473 0.437808 128 254 179
0.423376 -0.154826 0.421823 128 254 179
0.417239 -0.386893 0.354108 128 254 179
0.198789 -0.483525 0.463749 128 254 179
0.423389 -0.289611 0.447237 128 254 179
0.419221 -0.293924 0.260245 128 254 179
0.411952 -0.237235 0.119896 128 254 179
0.381083 -0.482662 0.229614 128 254 179
0.415405 -0.43244 0.315751 128 254 179
0.427398 -0.111532 0.353426 128 254 179
0.408819 -0.357833 0.152811 128 254 179
0.417968 -0.295268 0.22257 128 254 179
0.426709 -0.0861064 0.364242 128 254 179
0.408786 -0.40394 0.231564 128 254 179
0.415207 -0.231654 0.201803 128 254 179
0.427717 -0.428738 0.468783 128 254 179
0.0877301 -0.484382 0.389684 128 254 179
0.423546 -0.302548 0.439793 128 254 179
0.411852 -0.242878 0.108518 128 254 179
0.411538 -0.212457 0.135617 128 254 179
0.415688 -0.455292 0.172507 128 254 179
0.371588 -0.480765 0.31469 128 254 179
0.425789 -0.139815 0.397694 128 254 179
0.42025 -0.452685 0.429642 128 254 179
0.409807 -0.210357 0.104898 128 254 179
0.425431 -0.134974 0.403101 128 254 179
0.413041 -0.334262 0.188821 128 254 179
0.435607 -0.461748 0.113844 128 254 179
0.420189 -0.249323 0.396648 128 254 179
0.38615 -0.481513 0.126617 128 254 179
0.416423 -0.451716 0.369498 128 254 179
0.418885 -0.249069 0.410028 128 254 179
0.424792 -0.378748 0.459933 128 254 179
0.414514 -0.160466 0.208395 128 254 179
0.386732 -0.483466 0.453931 128 254 179
-0.0434539 -0.483686 0.443965 128 254 179
0.426412 -0.478599 0.167399 128 254 179
0.422817 -0.282606 0.349063 128 254 179
0.411078 -0.276426 0.0597713 128 254 179
0.419425 -0.316591 0.291149 128 254 179
0.427166 -0.160696 0.330631 128 254 179
-0.358752 -0.477775 -0.109627 160 249 161
-0.402924 -0.478272 0.226123 160 249 161
-0.214848 -0.423086 -0.337012 160 249 161
-0.351004 -0.408157 0.186424 160 249 161
-0.326357 -0.485399 0.214619 160 249 161
-0.422554 -0.271384 0.25894 160 249 161
-0.425435 -0.327475 0.303254 160 249 161
0.0222751 -0.494308 -0.192993 160 249 161
0.114912 -0.50183 -0.100761 160 249 161
-0.402009 -0.461608 0.154404 160 249 161
-0.37142 -0.480826 0.241107 160 249 161
-0.292075 -0.479508 -0.184226 160 249 161
-0.263674 -0.48167 -0.121336 160 249 161
-0.421059 -0.359879 0.277845 160 249 161
-0.412988 -0.33139 0.210352 160 249 161
-0.418953 -0.385399 0.307256 160 249 161
-0.318478 -0.481814 -0.101204 160 249 161
-0.426593 -0.413001 0.234112 160 249 161
-0.171796 -0.4881 0.298052 160 249 161
-0.392094 -0.470786 0.308408 160 249 161
-0.416634 -0.327502 0.224409 160 249 161
-0.315639 -0.485776 0.258989 160 249 161
-0.0670716 -0.488876 0.228542 160 249 161
-0.421808 -0.288006 0.251335 160 249 161
-0.00957238 -0.491319 0.118754 160 249 161
0.0718535 -0.493785 0.0920267 160 249 161
-0.426338 -0.463806 0.272473 160 249 161
-0.26612 -0.483807 0.0595489 160 249 161
0.120153 -0.493268 0.203378 160 249 161
0.127487 -0.502288 -0.0766483 160 249 161
-0.418788 -0.285946 0.238981 160 249 161
-0.279123 -0.467658 -0.32197 160 249 161
-0.254398 -0.486832 0.31604 160 249 161
-0.250704 -0.486091 0.186206 160 249 161
-0.415918 -0.475188 0.232347 160 249 161
0.140772 -0.491356 0.328154 160 249 161
-0.0683963 -0.491091 -0.0168234 160 249 161
-0.343856 -0.477693 0.350461 160 249 161
-0.36115 -0.477027 0.0554557 160 249 161
-0.259467 -0.483502 -0.0489261 160 249 161
-0.400964 -0.476088 0.178083 160 249 161
0.0914476 -0.4957 0.0603026 160 249 161
-0.208231 -0.488353 0.0602724 160 249 161
0.125537 -0.498288 0.0485618 160 249 161
-0.321136 -0.465304 0.132339 160 249 161
-0.424108 -0.438718 0.220188 160 249 161
-0.416431 -0.186269 0.285001 160 249 161
-0.389144 -0.475558 0.283024 160 249 161
-0.257609 -0.486734 0.283167 160 249 161
-0.16184 -0.48898 0.0358879 160 249 161
-0.36811 -0.336271 0.178922 160 249 161
-0.0458357 -0.48822 0.263304 160 249 161
-0.374415 -0.481586 0.133494 160 249 161
-0.426504 -0.462578 0.228424 160 249 161
-0.2431 -0.483866 0.0147884 160 249 161
-0.405376 -0.396879 0.182933 160 249 161
-0.374988 -0.367112 0.179667 160 249 161
-0.333216 -0.456887 0.153247 160 249 161
-0.371918 -0.479004 0.0265775 160 249 161
0.154783 -0.503622 -0.0858586 160 249 161
0.128577 -0.503559 -0.166214 160 249 161
-0.39989 -0.45814 0.342532 160 249 161
-0.339211 -0.48333 0.272783 160 249 161
-0.279865 -0.473839 -0.323709 160 249 161
-0.274866 -0.486785 0.307806 160 249 161
-0.411359 -0.47662 0.21388 160 249 161
-0.423966 -0.333916 0.285493 160 249 161
-0.375449 -0.476598 0.0129686 160 249 161
0.0886614 -0.490173 0.317408 160 249 161
0.0965517 -0.493116 0.167026 160 249 161
-0.353345 -0.473732 0.36023 160 249 161
-0.178621 -0.488873 -0.0887516 160 249 161
-0.208638 -0.484331 -0.215487 160 249 161
-0.293423 -0.475918 -0.295288 160 249 161
-0.431747 -0.458754 0.259072 160 249 161
-0.282584 -0.483998 0.0105018 160 249 161
-0.428583 -0.440726 0.277645 160 249 161
0.10564 -0.498214 0.00463872 160 249 161
-0.258904 -0.486298 0.189393 160 249 161
0.213592 -0.50245 0.0875131 160 249 161
-0.356983 -0.482077 0.209022 160 249 161
-0.413268 -0.206599 0.253625 160 249 161
-0.355934 -0.478368 -0.101488 160 249 161
-0.242882 -0.483998 0.0305097 160 249 161
-0.384053 -0.478679 0.0839488 160 249 161
-0.341518 -0.484574 0.0695462 160 249 161
-0.391039 -0.479759 0.117986 160 249 161
-0.0605703 -0.49064 0.0977719 160 249 161
-0.184799 -0.48863 0.1653 160 249 161
-0.420047 -0.335014 0.240116 160 249 161
0.057526 -0.494586 0.0100007 160 249 161
-0.370758 -0.477711 -0.0312021 160 249 161
-0.419166 -0.373471 0.228314 160 249 161
-0.398841 -0.240176 0.192238 160 249 161
-0.217408 -0.433153 -0.34801 160 249 161
-0.304548 -0.486248 0.162066 160 249 161
-0.263983 -0.478462 -0.247666 160 249 161
-0.219633 -0.481781 -0.241446 160 249 161
-0.227628 -0.483592 -0.175679 160 249 161
-0.245245 -0.484688 0.102567 160 249 161
-0.10624 -0.487805 0.25727 160 249 161
-0.346197 -0.482811 0.208329 160 249 161
-0.420848 -0.217626 0.286895 160 249 161
-0.39141 -0.296387 0.173982 160 249 161
-0.407534 -0.26919 0.209231 160 249 161
-0.379531 -0.481263 0.132252 160 249 161
0.0908403 -0.495529 0.0651776 160 249 161
-0.352522 -0.482398 0.204695 160 249 161
-0.401256 -0.306708 0.182941 160 249 161
-0.0913099 -0.490586 0.015043 160 249 161
-0.210564 -0.488336 0.239796 160 249 161
-0.16008 -0.488987 -0.0896689 160 249 161
-0.270664 -0.486804 0.234706 160 249 161
-0.405896 -0.264351 0.205713 160 249 161
0.00990799 -0.487767 0.313558 160 249 161
-0.380243 -0.468727 0.136294 160 249 161
0.0918816 -0.50107 -0.166495 160 249 161
-0.422549 -0.342757 0.273803 160 249 161
-0.402788 -0.404379 0.173076 160 249 161
-0.232598 -0.484038 0.0510314 160 249 161
-0.335995 -0.476849 -0.226812 160 249 161
-0.319735 -0.481378 -0.116812 160 249 161
-0.181005 -0.485064 0.326996 160 249 161
-0.325216 -0.454578 0.159911 160 249 161
-0.310815 -0.477841 -0.25955 160 249 161
-0.420301 -0.379146 0.296995 160 249 161
-0.407238 -0.368979 0.189842 160 249 161
-0.431075 -0.435117 0.264761 160 249 161
-0.422792 -0.334301 0.266701 160 249 161
-0.280883 -0.486193 0.165251 160 249 161
-0.289475 -0.486814 0.254405 160 249 161
-0.177799 -0.488642 0.159044 160 249 161
-0.420876 -0.364996 0.283956 160 249 161
-0.212865 -0.488788 0.217397 160 249 161
-0.416032 -0.385164 0.212576 160 249 161
-0.253868 -0.458306 -0.339693 160 249 161
-0.419243 -0.378362 0.225808 160 249 161
-0.147552 -0.489139 -0.0959983 160 249 161
-0.334642 -0.482375 -0.0589935 160 249 161
-0.292096 -0.48486 0.09877 160 249 161
-0.303502 -0.474932 -0.29928 160 249 161
-0.422225 -0.228517 0.288831 160 249 161
-0.355883 -0.410867 0.184431 160 249 161
-0.411859 -0.181484 0.264566 160 249 161
-0.380914 -0.480538 0.143944 160 249 161
-0.366415 -0.477253 0.0276852 160 249 161
-0.153536 -0.488815 0.151948 160 249 161
-0.353149 -0.480644 0.310851 160 249 161
-0.429798 -0.46433 0.247345 160 249 161
-0.39616 -0.273455 0.177179 160 249 161
-0.416923 -0.211429 0.266674 160 249 161
-0.422727 -0.382306 0.278439 160 249 161
-0.384119 -0.475331 0.0883708 160 249 161
-0.0909178 -0.489884 -0.172605 160 249 161
-0.369076 -0.477988 -0.0359807 160 249 161
-0.211947 -0.488725 0.206374 160 249 161
0.160623 -0.501276 0.0448048 160 249 161
-0.401586 -0.475404 0.16132 160 249 161
-0.401603 -0.211786 0.210784 160 249 161
-0.410723 -0.203437 0.245124 160 249 161
-0.192634 -0.4859 -0.250411 160 249 161
-0.333724 -0.484187 0.198243 160 249 161
-0.299948 -0.473293 -0.30697 160 249 161
-0.387039 -0.46925 0.32869 160 249 161
-0.411931 -0.379994 0.202174 160 249 161
0.0324384 -0.488794 0.309414 160 249 161
-0.414303 -0.450193 0.198859 160 249 161
-0.432271 -0.450433 0.250427 160 249 161
0.121911 -0.498431 0.0349397 160 249 161
-0.404637 -0.477894 0.203895 160 249 161
-0.415026 -0.230774 0.244612 160 249 161
-0.415006 -0.214879 0.25563 160 249 161
-0.405325 -0.308147 0.194466 160 249 161
-0.339497 -0.478547 -0.184603 160 249 161
-0.336825 -0.48467 0.0611224 160 249 161
-0.205897 -0.488529 0.248068 160 249 161
0.148247 -0.503287 -0.0830015 160 249 161
-0.422051 -0.309511 0.251499 160 249 161
-0.351614 -0.483607 0.0618966 160 249 161
-0.409218 -0.349902 0.197322 160 249 161
-0.345503 -0.484771 0.111884 160 249 161
0.0840261 -0.492392 0.184533 160 249 161
-0.376882 -0.482761 0.122896 160 249 161
-0.314009 -0.484416 0.334153 160 249 161
-0.408446 -0.184292 0.249066 160 249 161
-0.376368 -0.415166 0.169271 160 249 161
-0.380933 -0.480288 0.232464 160 249 161
-0.421002 -0.356978 0.261015 160 249 161
-0.37138 -0.481157 0.22019 160 249 161
-0.159081 -0.48909 0.113492 160 249 161
-0.408768 -0.467091 0.190344 160 249 161
-0.2367 -0.483885 -0.0908435 160 249 161
-0.399166 -0.292348 0.179837 160 249 161
-0.423905 -0.280414 0.265234 160 249 161
-0.287764 -0.473847 -0.32152 160 249 161
-0.155922 -0.487224 0.318381 160 249 161
-0.0448073 -0.490877 -0.191707 160 249 161
0.053174 -0.494229 0.0147155 160 249 161
-0.183712 -0.488734 0.248283 160 249 161
-0.393073 -0.477857 0.162787 160 249 161
-0.418725 -0.391058 0.218382 160 249 161
-0.383078 -0.318276 0.1737 160 249 161
-0.214237 -0.488399 0.0766205 160 249 161
-0.420924 -0.342898 0.248288 160 249 161
-0.330494 -0.391414 0.193498 160 249 161
-0.414612 -0.180584 0.27862 160 249 161
-0.386654 -0.264332 0.172067 160 249 161
0.206811 -0.50539 -0.056363 160 249 161
-0.329774 -0.484465 0.170336 160 249 161
-0.418706 -0.375457 0.225574 160 249 161
-0.39862 -0.470794 0.139894 160 249 161
-0.4095 -0.453749 0.328999 160 249 161
-0.237705 -0.483846 -0.0614713 160 249 161
-0.290112 -0.477629 0.0659294 160 249 161
-0.323764 -0.478525 -0.201414 160 249 161
-0.336698 -0.484087 0.172773 160 249 161
-0.37113 -0.476877 0.0417109 160 249 161
0.168393 -0.505242 -0.148478 160 249 161
-0.400328 -0.47542 0.269955 160 249 161
-0.327194 -0.484569 0.270578 160 249 161
-0.419626 -0.470799 0.268525 160 249 161
-0.431071 -0.460056 0.261436 160 249 161
-0.369252 -0.48052 0.272531 160 249 161
-0.342228 -0.478992 -0.134993 160 249 161
-0.394251 -0.28084 0.173213 160 249 161
0.0756131 -0.491159 0.285836 160 249 161
-0.343324 -0.48475 0.135189 160 249 161
-0.331222 -0.479122 0.356082 160 249 161
-0.267193 -0.486531 0.19389 160 249 161
-0.396036 -0.479211 0.196219 160 249 161
-0.190618 -0.489102 -0.218409 160 249 161
-0.233865 -0.4517 -0.291968 160 249 161
-0.328895 -0.485079 0.216499 160 249 161
-0.410206 -0.219938 0.234782 160 249 161
-0.425621 -0.285273 0.28081 160 249 161
-0.427404 -0.279286 0.30369 160 249 161
0.181329 -0.500608 0.0994557 160 249 161
-0.298525 -0.484601 0.348509 160 249 161
-0.424496 -0.465839 0.224537 160 249 161
-0.358336 -0.481508 0.263192 160 249 161
-0.23477 -0.486045 0.206929 160 249 161
-0.192449 -0.488366 -0.000701444 160 249 161
0.276747 -0.50758 -0.0601382 160 249 161
-0.408204 -0.209877 0.233293 160 249 161
-0.319591 -0.485009 0.066491 160 249 161
-0.360361 -0.48163 0.221662 160 249 161
-0.255462 -0.459761 -0.302489 160 249 161
-0.340096 -0.476945 -0.212475 160 249 161
-0.153568 -0.488539 0.211179 160 249 161
-0.210485 -0.485918 0.362528 160 249 161
-0.16696 -0.488499 0.303087 160 249 161
-0.423657 -0.291056 0.261447 160 249 161
0.101241 -0.492571 0.206256 160 249 161
-0.144746 -0.489392 0.0777446 160 249 161
-0.38891 -0.472273 0.304851 160 249 161
-0.196911 -0.488212 0.263963 160 249 161
-0.403624 -0.351031 0.181576 160 249 161
-0.406111 -0.475344 0.264595 160 249 161
-0.315302 -0.490065 -0.011994 160 249 161
-0.305404 -0.485738 0.121685 160 249 161
-0.0835164 -0.490266 -0.120023 160 249 161
-0.0585597 -0.487701 0.264415 160 249 161
-0.349485 -0.477877 -0.147647 160 249 161
-0.286381 -0.499864 -0.140933 160 249 161
-0.0489626 -0.490637 -0.210952 160 249 161
-0.424615 -0.307735 0.268685 160 249 161
0.198559 -0.501803 0.0889164 160 249 161
-0.305597 -0.478748 -0.231203 160 249 161
-0.314121 -0.484473 0.055633 160 249 161
-0.399793 -0.47448 0.145322 160 249 161
-0.419573 -0.232052 0.265292 160 249 161
-0.4246 -0.432895 0.222025 160 249 161
-0.399902 -0.308223 0.179676 160 249 161
-0.257452 -0.486109 0.34492 160 249 161
0.0499223 -0.492399 0.136631 160 249 161
-0.429247 -0.461766 0.266505 160 249 161
0.215188 -0.50377 0.0402925 160 249 161
-0.416635 -0.450442 0.317088 160 249 161
-0.415175 -0.434731 0.334247 160 249 161
-0.413213 -0.294649 0.220529 160 249 161
-0.390376 -0.479288 0.170086 160 249 161
0.0311788 -0.494947 -0.161307 160 249 161
0.231459 -0.504233 0.0477083 160 249 161
-0.425381 -0.294796 0.277254 160 249 161
-0.220147 -0.488736 0.212047 160 249 161
-0.22105 -0.485653 0.371305 160 249 161
-0.293128 -0.485178 0.115993 160 249 161
-0.420867 -0.35033 0.252756 160 249 161
-0.243192 -0.486211 0.214751 160 249 161
-0.406476 -0.475636 0.192696 160 249 161
-0.399227 -0.474007 0.142143 160 249 161
-0.0126647 -0.492326 -0.127626 160 249 161
-0.423772 -0.472526 0.248545 160 249 161
-0.165771 -0.489009 0.0807024 160 249 161
-0.427307 -0.405754 0.263039 160 249 161
-0.281964 -0.493032 -0.0350281 160 249 161
0.136727 -0.500303 0.0132322 160 249 161
-0.260826 -0.48131 -0.135764 160 249 161
-0.331385 -0.484677 0.208774 160 249 161
-0.312807 -0.478777 -0.229743 160 249 161
-0.345084 -0.484396 0.149082 160 249 161
0.190303 -0.493173 0.308516 160 249 161
-0.381355 -0.470763 0.330141 160 249 161
-0.362263 -0.415131 0.179966 160 249 161
-0.400605 -0.342121 0.175297 160 249 161
-0.303274 -0.480131 -0.155348 160 249 161
-0.231268 -0.43823 -0.337572 160 249 161
-0.397022 -0.46199 0.141616 160 249 161
-0.263592 -0.484704 0.106498 160 249 161
-0.266126 -0.486771 0.243262 160 249 161
-0.249123 -0.454416 -0.305492 160 249 161
-0.0388838 -0.491043 0.096411 160 249 161
0.222588 -0.503439 0.0650007 160 249 161
0.0169124 -0.490557 0.247191 160 249 161
-0.288103 -0.487007 0.225396 160 249 161
-0.401681 -0.209425 0.212375 160 249 161
-0.317725 -0.485754 0.178232 160 249 161
-0.33602 -0.477661 -0.190746 160 249 161
-0.293694 -0.48595 0.146172 160 249 161
-0.326855 -0.397882 0.193546 160 249 161
-0.374567 -0.479346 0.278959 160 249 161
-0.362082 -0.479538 0.305005 160 249 161
-0.416324 -0.414152 0.205136 160 249 161
-0.311119 -0.486271 0.218319 160 249 161
-0.205152 -0.485791 0.310998 160 249 161
-0.403055 -0.473074 0.176802 160 249 161
-0.376934 -0.482377 0.125038 160 249 161
-0.032564 -0.491702 0.0385836 160 249 161
-0.092431 -0.490383 0.04564 160 249 161
-0.382062 -0.471196 0.326153 160 249 161
-0.293345 -0.486312 0.165008 160 249 161
-0.419704 -0.254918 0.249124 160 249 161
-0.239109 -0.483759 -0.0157585 160 249 161
0.203961 -0.505443 -0.0665251 160 249 161
-0.331015 -0.485485 0.13574 160 249 161
-0.411582 -0.282528 0.217947 160 249 161
-0.0772099 -0.487336 -0.237427 160 249 161
-0.180425 -0.488524 0.286011 160 249 161
0.0805565 -0.496352 0.00178565 160 249 161
-0.408648 -0.323013 0.200842 160 249 161
-0.110505 -0.489798 -0.100798 160 249 161
-0.352372 -0.483613 0.0660701 160 249 161
0.0344924 -0.495209 -0.196188 160 249 161
0.0265469 -0.494593 -0.143274 160 249 161
-0.39154 -0.472666 0.297321 160 249 161
-0.27436 -0.483918 0.0658721 160 249 161
-0.337666 -0.483977 0.221717 160 249 161
-0.121183 -0.489526 -0.106684 160 249 161
-0.358168 -0.483451 0.133906 160 249 161
0.133009 -0.502521 -0.0762323 160 249 161
-0.131835 -0.489399 -0.142245 160 249 161
-0.372867 -0.265167 0.173151 160 249 161
-0.188352 -0.488404 -0.00774913 160 249 161
-0.423079 -0.252715 0.271669 160 249 161
-0.348123 -0.478571 -0.11427 160 249 161
-0.410574 -0.36141 0.199978 160 249 161
-0.423319 -0.343821 0.301299 160 249 161
-0.431696 -0.447629 0.267793 160 249 161
0.059249 -0.497898 -0.181063 160 249 161
0.0331263 -0.491366 0.179084 160 249 161
-0.397977 -0.313675 0.176093 160 249 161
0.00786925 -0.493423 -0.127901 160 249 161
-0.297624 -0.486394 0.17128 160 249 161
-0.166802 -0.488914 -0.0857628 160 249 161
-0.417346 -0.292496 0.233362 160 249 161
-0.404144 -0.20334 0.224058 160 249 161
-0.412127 -0.454022 0.193883 160 249 161
-0.421877 -0.369576 0.249635 160 249 161
-0.422836 -0.343658 0.28459 160 249 161
-0.424219 -0.3167 0.266534 160 249 161
0.109048 -0.500721 -0.076288 160 249 161
-0.397374 -0.461528 0.142147 160 249 161
-0.342218 -0.478956 -0.117136 160 249 161
-0.333356 -0.455417 0.156908 160 249 161
-0.392988 -0.479458 0.212807 160 249 161
-0.00716421 -0.492611 -0.138768 160 249 161
-0.414804 -0.314679 0.222634 160 249 161
0.236302 -0.50603 -0.0405683 160 249 161
0.177059 -0.498134 0.154698 160 249 161
-0.419267 -0.35126 0.242313 160 249 161
0.198769 -0.506091 -0.122254 160 249 161
-0.282295 -0.47458 -0.315398 160 249 161
-0.370096 -0.465931 0.133235 160 249 161
-0.421026 -0.357638 0.265546 160 249 161
-0.404298 -0.47713 0.254795 160 249 161
-0.331115 -0.476736 -0.240854 160 249 161
-0.183223 -0.488795 0.277354 160 249 161
-0.14021 -0.488544 0.186071 160 249 161
-0.417523 -0.386003 0.216704 160 249 161
-0.374769 -0.354957 0.17878 160 249 161
-0.353001 -0.390709 0.188226 160 249 161
-0.189319 -0.489243 -0.213055 160 249 161
0.134029 -0.495897 0.143214 160 249 161
-0.396035 -0.321016 0.175441 160 249 161
-0.398011 -0.462903 0.142214 160 249 161
-0.315465 -0.486021 0.148954 160 249 161
-0.418201 -0.329898 0.230086 160 249 161
-0.215593 -0.488642 0.186465 160 249 161
-0.393239 -0.237312 0.180302 160 249 161
0.143893 -0.504313 -0.168759 160 249 161
0.00890725 -0.493477 -0.175604 160 249 161
-0.411349 -0.188311 0.257281 160 249 161
-0.407808 -0.472566 0.275371 160 249 161
-0.24482 -0.486528 0.333699 160 249 161
-0.274659 -0.484503 0.109283 160 249 161
-0.217114 -0.48542 0.0167517 160 249 161
-0.380536 -0.480402 0.223973 160 249 161
-0.416072 -0.407741 0.330219 160 249 161
-0.415072 -0.282223 0.228182 160 249 161
-0.35888 -0.477901 -0.103344 160 249 161
-0.274182 -0.486911 0.24669 160 249 161
-0.20213 -0.488102 0.256578 160 249 161
-0.41669 -0.346435 0.222411 160 249 161
-0.418618 -0.452724 0.308168 160 249 161
0.0362049 -0.494483 -0.0574673 160 249 161
-0.423964 -0.464582 0.276543 160 249 161
-0.0924627 -0.488401 0.215539 160 249 161
-0.207026 -0.480202 -0.262686 160 249 161
-0.33709 -0.476878 -0.223295 160 249 161
0.147682 -0.495516 0.175008 160 249 161
-0.375168 -0.413019 0.171208 160 249 161
-0.329148 -0.477654 -0.208754 160 249 161
-0.163712 -0.489101 -0.126033 160 249 161
-0.413265 -0.457852 0.312703 160 249 161
-0.30368 -0.486263 0.290457 160 249 161
0.108879 -0.500776 -0.0793184 160 249 161
-0.400761 -0.195987 0.218032 160 249 161
-0.287237 -0.500095 -0.161885 160 249 161
0.131424 -0.492299 0.272162 160 249 161
-0.364901 -0.482454 0.170799 160 249 161
0.108589 -0.493807 0.16347 160 249 161
-0.411764 -0.462694 0.305741 160 249 161
-0.366872 -0.478408 -0.0341311 160 249 161
0.106609 -0.497992 0.0137183 160 249 161
-0.272105 -0.465714 -0.31583 160 249 161
-0.310971 -0.486126 0.152064 160 249 161
-0.419106 -0.333768 0.233639 160 249 161
-0.42453 -0.390713 0.243595 160 249 161
0.252494 -0.506253 -0.0228819 160 249 161
-0.330859 -0.480349 0.3475 160 249 161
-0.200566 -0.413857 -0.342958 160 249 161
-0.318738 -0.481208 0.354998 160 249 161
-0.401068 -0.446077 0.154026 160 249 161
-0.277933 -0.484407 0.103923 160 249 161
-0.38851 -0.479852 0.141982 160 249 161
-0.25345 -0.472017 -0.336514 160 249 161
-0.238364 -0.486886 0.156565 160 249 161
-0.276381 -0.486784 0.213369 160 249 161
-0.367053 -0.470514 0.110503 160 249 161
-0.0033522 -0.492669 -0.0883827 160 249 161
-0.304196 -0.485926 0.315647 160 249 161
-0.420326 -0.280914 0.245257 160 249 161
0.149808 -0.50409 -0.132976 160 249 161
-0.0691341 -0.490685 -0.112798 160 249 161
0.113131 -0.502823 -0.167647 160 249 161
-0.244643 -0.483804 -0.0163296 160 249 161
-0.158727 -0.488394 0.240841 160 249 161
-0.402815 -0.440998 0.161752 160 249 161
-0.168038 -0.488601 0.299967 160 249 161
-0.335906 -0.477642 -0.191605 160 249 161
-0.397805 -0.285106 0.178177 160 249 161
-0.401272 -0.475748 0.160288 160 249 161
-0.334729 -0.478527 -0.210854 160 249 161
-0.400488 -0.229789 0.199827 160 249 161
-0.361363 -0.482511 0.184755 160 249 161
0.136162 -0.497227 0.107244 160 249 161
-0.415259 -0.178969 0.284784 160 249 161
0.0409157 -0.489229 0.306061 160 249 161
-0.314489 -0.485178 0.316285 160 249 161
-0.331719 -0.484106 0.269308 160 249 161
-0.258216 -0.483681 0.0120477 160 249 161
-0.373457 -0.471693 0.337581 160 249 161
0.0934261 -0.491606 0.272731 160 249 161
-0.309045 -0.485263 0.0649769 160 249 161
-0.398338 -0.333142 0.175457 160 249 161
-0.343725 -0.396594 0.189991 160 249 161
-0.0403504 -0.490646 0.142106 160 249 161
-0.426978 -0.304612 0.299642 160 249 161
-0.367354 -0.478412 -0.0313713 160 249 161
-0.424659 -0.471724 0.246248 160 249 161
-0.420882 -0.384306 0.293879 160 249 161
-0.422505 -0.352532 0.318021 160 249 161
-0.402155 -0.376571 0.173097 160 249 161
-0.420775 -0.232919 0.271569 160 249 161
-0.373669 -0.474275 0.320985 160 249 161
-0.417766 -0.474294 0.25493 160 249 161
-0.363879 -0.482363 0.18319 160 249 161
-0.390836 -0.466864 0.334682 160 249 161
-0.270139 -0.46769 -0.285379 160 249 161
-0.140234 -0.489328 -0.0733231 160 249 161
-0.324375 -0.485226 0.186841 160 249 161
-0.411029 -0.223583 0.235574 160 249 161
-0.32724 -0.484529 0.278362 160 249 161
0.0378391 -0.495609 -0.142965 160 249 161
-0.343684 -0.479081 -0.0735761 160 249 161
-0.290532 -0.486882 0.202176 160 249 161
-0.306435 -0.48624 0.161075 160 249 161
-0.411633 -0.270581 0.220878 160 249 161
-0.188722 -0.488601 0.140349 160 249 161
-0.425965 -0.265719 0.293518 160 249 161
-0.424489 -0.330338 0.288196 160 249 161
0.115353 -0.501029 -0.0657474 160 249 161
-0.314262 -0.492024 -0.0450894 160 249 161
-0.415513 -0.210418 0.261094 160 249 161
-0.359533 -0.478001 -0.0387633 160 249 161
0.259419 -0.507203 -0.0709708 160 249 161
-0.0136721 -0.48952 0.257015 160 249 161
-0.405434 -0.315451 0.194734 160 249 161
-0.231134 -0.48689 0.103109 160 249 161
-0.300907 -0.480005 -0.159582 160 249 161
-0.399382 -0.473073 0.142369 160 249 161
-0.0944673 -0.489819 -0.140417 160 249 161
0.0307142 -0.353953 -0.320085 192 234 140
0.167223 -0.482584 -0.298668 192 234 140
0.134931 -0.479359 -0.340868 192 234 140
0.287924 -0.473243 -0.257525 192 234 140
0.244807 -0.308714 -0.232509 192 234 140
0.280013 -0.482949 -0.13234 192 234 140
-0.0653925 -0.479179 -0.248651 192 234 140
0.110201 -0.483585 -0.291413 192 234 140
0.418108 -0.300807 -0.0268607 192 234 140
0.339386 -0.481956 -0.223812 192 234 140
0.161943 -0.479794 -0.338122 192 234 140
0.143378 -0.483105 -0.241543 192 234 140
-0.0593042 -0.479691 -0.264242 192 234 140
0.0837692 -0.353477 -0.318314 192 234 140
0.12471 -0.435934 -0.347553 192 234 140
0.172615 -0.324876 -0.271869 192 234 140
0.395781 -0.482616 -0.162753 192 234 140
0.252469 -0.45332 -0.272809 192 234 140
-0.0469895 -0.478363 -0.212774 192 234 140
0.16793 -0.483004 -0.245747 192 234 140
0.411613 -0.320213 -0.0545502 192 234 140
0.184989 -0.482777 -0.231772 192 234 140
0.407728 -0.302412 -0.0744332 192 234 140
0.202951 -0.470851 -0.322657 192 234 140
0.19187 -0.318273 -0.261644 192 234 140
0.113689 -0.339319 -0.290896 192 234 140
0.36191 -0.422471 -0.178349 192 234 140
0.367235 -0.317666 -0.162622 192 234 140
0.222423 -0.482929 -0.306527 192 234 140
0.271463 -0.274608 -0.21892 192 234 140
0.247271 -0.350106 -0.240507 192 234 140
0.236498 -0.482504 -0.184192 192 234 140
-0.113997 -0.475994 -0.2157 192 234 140
0.143744 -0.475741 -0.350568 192 234 140
0.0357414 -0.477162 -0.103686 192 234 140
0.33525 -0.485203 -0.226712 192 234 140
0.415508 -0.44462 -0.0801182 192 234 140
0.249372 -0.382994 -0.240597 192 234 140
0.298099 -0.485785 -0.220278 192 234 140
0.417967 -0.288646 -0.0320689 192 234 140
0.339795 -0.485078 -0.19762 192 234 140
0.207436 -0.480746 -0.0933625 192 234 140
0.119727 -0.479829 -0.340955 192 234 140
0.075144 -0.354279 -0.321672 192 234 140
0.42652 -0.480976 -0.0713617 192 234 140
0.339762 -0.482675 -0.223775 192 234 140
0.16159 -0.358596 -0.299348 192 234 140
0.31653 -0.485318 -0.139333 192 234 140
0.205628 -0.376215 -0.270282 192 234 140
0.414353 -0.355371 -0.029132 192 234 140
0.198684 -0.482001 -0.32177 192 234 140
0.157816 -0.373237 -0.311527 192 234 140
0.145939 -0.31884 -0.265722 192 234 140
0.426514 -0.47057 -0.0795591 192 234 140
0.14432 -0.476479 -0.351032 192 234 140
-0.172793 -0.46243 -0.0380925 192 234 140
0.0358783 -0.430789 -0.369921 192 234 140
0.14927 -0.323519 -0.279853 192 234 140
0.0595613 -0.375498 -0.343776 192 234 140
0.290464 -0.277588 -0.206485 192 234 140
-0.0803753 -0.467129 -0.0276797 192 234 140
0.0791428 -0.483917 -0.28256 192 234 140
0.174657 -0.449629 -0.330816 192 234 140
0.143709 -0.483212 -0.28399 192 234 140
0.40229 -0.231652 -0.10856 192 234 140
0.173695 -0.482775 -0.2665 192 234 140
0.0642357 -0.3542 -0.302187 192 234 140
0.282288 -0.450861 -0.245607 192 234 140
0.415286 -0.228786 -0.046809 192 234 140
0.0741562 -0.363406 -0.33281 192 234 140
0.236035 -0.397565 -0.250468 192 234 140
0.415594 -0.419072 -0.0572615 192 234 140
0.360548 -0.455625 -0.18883 192 234 140
0.0761442 -0.348677 -0.297835 192 234 140
-0.0194449 -0.479375 -0.209569 192 234 140
0.358882 -0.486195 -0.106841 192 234 140
0.00496136 -0.481323 -0.309863 192 234 140
0.207684 -0.480626 -0.0769533 192 234 140
0.185861 -0.480834 -0.136963 192 234 140
0.144468 -0.38985 -0.33147 192 234 140
0.223755 -0.485464 -0.300534 192 234 140
0.186348 -0.482815 -0.287189 192 234 140
0.00845259 -0.402741 -0.364579 192 234 140
0.295803 -0.298524 -0.202417 192 234 140
0.314291 -0.431985 -0.214907 192 234 140
0.298178 -0.347676 -0.211537 192 234 140
0.171677 -0.318815 -0.269721 192 234 140
-0.0511621 -0.471393 -0.082763 192 234 140
-0.00474143 -0.480588 -0.31001 192 234 140
0.157277 -0.481779 -0.313177 192 234 140
0.0231823 -0.421777 -0.370973 192 234 140
0.144718 -0.341602 -0.291031 192 234 140
0.173074 -0.481963 -0.315305 192 234 140
0.192393 -0.402769 -0.287231 192 234 140
0.430468 -0.475303 -0.0568021 192 234 140
0.409171 -0.417526 -0.0851592 192 234 140
0.129168 -0.360177 -0.317411 192 234 140
0.0492812 -0.376106 -0.343498 192 234 140
0.382769 -0.297697 -0.144255 192 234 140
0.122343 -0.3538 -0.313955 192 234 140
0.206967 -0.318602 -0.25255 192 234 140
0.361222 -0.486151 -0.0980958 192 234 140
0.0370391 -0.481367 -0.322206 192 234 140
0.431362 -0.457682 -0.0484452 192 234 140
0.096137 -0.480384 -0.130387 192 234 140
0.372229 -0.439067 -0.1727 192 234 140
0.0903981 -0.475854 -0.359492 192 234 140
0.197876 -0.378609 -0.278043 192 234 140
0.224153 -0.362008 -0.257055 192 234 140
0.353023 -0.331986 -0.174818 192 234 140
-0.00169398 -0.453469 -0.380325 192 234 140
0.401255 -0.244839 -0.111732 192 234 140
0.168389 -0.340756 -0.282563 192 234 140
0.0568774 -0.458771 -0.3737 192 234 140
0.112585 -0.383895 -0.3436 192 234 140
-0.14733 -0.473986 -0.201908 192 234 140
0.0462422 -0.473458 -0.35982 192 234 140
0.422689 -0.482277 -0.0866775 192 234 140
0.0774992 -0.360571 -0.328722 192 234 140
0.147908 -0.473271 -0.345061 192 234 140
0.192451 -0.320511 -0.263 192 234 140
0.00998587 -0.465129 -0.363299 192 234 140
0.131041 -0.326367 -0.279878 192 234 140
0.0532462 -0.459478 -0.375489 192 234 140
0.116107 -0.345152 -0.297196 192 234 140
0.40936 -0.235538 -0.0875068 192 234 140
0.372207 -0.29666 -0.153404 192 234 140
0.256337 -0.337617 -0.234736 192 234 140
0.103578 -0.478745 -0.350061 192 234 140
0.138694 -0.472218 -0.348781 192 234 140
0.297313 -0.47962 -0.25467 192 234 140
0.211927 -0.292239 -0.237628 192 234 140
0.381871 -0.485261 0.0112726 192 234 140
0.119897 -0.376767 -0.336634 192 234 140
0.170911 -0.480507 -0.125825 192 234 140
0.401398 -0.187057 -0.10814 192 234 140
0.0148752 -0.444013 -0.39011 192 234 140
0.304616 -0.390365 -0.206845 192 234 140
0.409035 -0.169981 -0.050859 192 234 140
0.437649 -0.443 -0.00687314 192 234 140
0.221599 -0.480889 -0.30678 192 234 140
0.273671 -0.362968 -0.227226 192 234 140
0.175833 -0.357129 -0.289827 192 234 140
0.0505348 -0.354127 -0.318808 192 234 140
0.0436272 -0.390627 -0.353707 192 234 140
0.298562 -0.48442 -0.143023 192 234 140
0.347921 -0.465062 -0.203201 192 234 140
0.239125 -0.300527 -0.232229 192 234 140
0.0413648 -0.394826 -0.355743 192 234 140
0.413406 -0.391759 -0.0349631 192 234 140
0.400636 -0.270852 -0.118403 192 234 140
0.374164 -0.405552 -0.158175 192 234 140
0.0611126 -0.412185 -0.358346 192 234 140
0.408801 -0.21726 -0.0894577 192 234 140
0.409246 -0.484008 -0.135641 192 234 140
0.154071 -0.349633 -0.294924 192 234 140
0.269892 -0.305153 -0.218014 192 234 140
0.0742599 -0.356128 -0.32349 192 234 140
0.410775 -0.372418 -0.0374281 192 234 140
0.175119 -0.354853 -0.288647 192 234 140
0.208475 -0.381417 -0.268512 192 234 140
0.134622 -0.333622 -0.288464 192 234 140
-0.0583095 -0.475245 -0.161848 192 234 140
0.101377 -0.47862 -0.0846457 192 234 140
0.268978 -0.364211 -0.229939 192 234 140
0.392118 -0.374324 -0.117157 192 234 140
0.262373 -0.284032 -0.22267 192 234 140
-0.117013 -0.476164 -0.222049 192 234 140
0.150597 -0.375861 -0.318881 192 234 140
0.319495 -0.48577 -0.185707 192 234 140
0.06668 -0.475481 -0.359522 192 234 140
0.396491 -0.406545 -0.116687 192 234 140
0.194211 -0.45134 -0.320227 192 234 140
-0.0174265 -0.474775 -0.116363 192 234 140
0.381437 -0.382805 -0.140548 192 234 140
0.202358 -0.481745 -0.167247 192 234 140
0.0569551 -0.380907 -0.348644 192 234 140
0.30513 -0.483463 -0.0968805 192 234 140
-0.0195221 -0.47042 -0.0297451 192 234 140
0.112883 -0.470774 -0.358237 192 234 140
0.0252127 -0.363201 -0.331511 192 234 140
0.289273 -0.482226 -0.0448867 192 234 140
0.250092 -0.406138 -0.24413 192 234 140
0.204297 -0.307433 -0.246246 192 234 140
0.0939074 -0.366834 -0.334063 192 234 140
0.407134 -0.271817 -0.0879733 192 234 140
-0.0447972 -0.477788 -0.198309 192 234 140
0.394588 -0.484953 -0.130609 192 234 140
0.389568 -0.251206 -0.135646 192 234 140
0.0476515 -0.352188 -0.296421 192 234 140
0.317316 -0.29689 -0.188443 192 234 140
0.396175 -0.388934 -0.103757 192 234 140
0.107383 -0.482338 -0.190616 192 234 140
0.386488 -0.485109 0.047368 192 234 140
-0.0584658 -0.473725 -0.133974 192 234 140
0.0664619 -0.343942 -0.272655 192 234 140
-0.123062 -0.469002 -0.1006 192 234 140
0.11989 -0.351239 -0.307632 192 234 140
0.349332 -0.481126 -0.214813 192 234 140
0.198793 -0.453008 -0.317273 192 234 140
-0.0144556 -0.478223 -0.176258 192 234 140
0.177023 -0.482532 -0.280845 192 234 140
0.425997 -0.462635 -0.0788651 192 234 140
0.399209 -0.48404 -0.154986 192 234 140
0.263223 -0.482971 -0.28011 192 234 140
0.409283 -0.45172 -0.112033 192 234 140
0.292948 -0.478566 -0.25763 192 234 140
0.213434 -0.481698 -0.154087 192 234 140
0.0751698 -0.483826 -0.268646 192 234 140
0.0912603 -0.354526 -0.305098 192 234 140
0.261135 -0.473702 -0.279838 192 234 140
0.120049 -0.420026 -0.346503 192 234 140
0.0591365 -0.360365 -0.329857 192 234 140
0.144047 -0.421298 -0.335368 192 234 140
0.170062 -0.481622 -0.182012 192 234 140
0.156988 -0.472743 -0.339844 192 234 140
0.0736846 -0.381098 -0.348513 192 234 140
0.236479 -0.48571 -0.288787 192 234 140
0.200681 -0.304714 -0.24747 192 234 140
0.234882 -0.365904 -0.2512 192 234 140
0.428224 -0.448871 -0.0502001 192 234 140
0.187569 -0.483482 -0.298849 192 234 140
0.38883 -0.485624 -0.111757 192 234 140
0.322441 -0.459405 -0.220153 192 234 140
0.408499 -0.384959 -0.0485005 192 234 140
0.41146 -0.333724 -0.0470629 192 234 140
0.200786 -0.480358 -0.066725 192 234 140
0.0618278 -0.349009 -0.287874 192 234 140
0.261119 -0.377322 -0.23331 192 234 140
0.324951 -0.483526 -0.046935 192 234 140
0.357649 -0.484517 -0.207202 192 234 140
0.424051 -0.468881 -0.0944286 192 234 140
0.433373 -0.45953 -0.0384644 192 234 140
-0.145679 -0.468018 -0.103204 192 234 140
0.15174 -0.43219 -0.335306 192 234 140
0.294367 -0.279894 -0.203218 192 234 140
0.423197 -0.426828 -0.038035 192 234 140
0.325193 -0.452119 -0.215054 192 234 140
0.409951 -0.485084 -0.0901189 192 234 140
0.142689 -0.483281 -0.259574 192 234 140
0.0908576 -0.483656 -0.265233 192 234 140
0.408261 -0.24132 -0.0898308 192 234 140
0.103304 -0.344728 -0.297996 192 234 140
0.22749 -0.477539 -0.305868 192 234 140
0.40013 -0.200448 -0.112368 192 234 140
0.402796 -0.485211 0.0437861 192 234 140
0.047509 -0.48328 -0.303967 192 234 140
0.204618 -0.482162 -0.187031 192 234 140
0.15105 -0.341031 -0.288732 192 234 140
0.0815257 -0.362603 -0.330816 192 234 140
0.437369 -0.468943 -0.0100991 192 234 140
0.180024 -0.337307 -0.276992 192 234 140
0.042334 -0.456888 -0.377895 192 234 140
0.355264 -0.484854 -0.169244 192 234 140
0.382123 -0.484995 0.038401 192 234 140
0.286092 -0.387018 -0.217727 192 234 140
0.145491 -0.440408 -0.341127 192 234 140
0.198604 -0.351473 -0.271963 192 234 140
0.169362 -0.482968 -0.235335 192 234 140
0.429603 -0.481098 0.0445423 192 234 140
0.424789 -0.48175 -0.0771396 192 234 140
0.252226 -0.485799 -0.264783 192 234 140
0.388769 -0.299583 -0.137531 192 234 140
0.408399 -0.189078 -0.0819383 192 234 140
0.201446 -0.482061 -0.320565 192 234 140
0.400826 -0.377602 -0.0807659 192 234 140
0.142029 -0.478584 -0.0471078 192 234 140
0.26893 -0.307927 -0.219647 192 234 140
0.39599 -0.404152 -0.116652 192 234 140
0.246502 -0.370057 -0.242977 192 234 140
0.322084 -0.3151 -0.191943 192 234 140
0.409216 -0.407043 -0.0732965 192 234 140
0.41342 -0.457858 -0.0988474 192 234 140
-0.173877 -0.462629 -0.0430757 192 234 140
0.305404 -0.332819 -0.20593 192 234 140
0.0386045 -0.35581 -0.324346 192 234 140
0.315848 -0.485657 -0.153526 192 234 140
0.428183 -0.481697 -0.0338449 192 234 140
0.138997 -0.342845 -0.293172 192 234 140
0.191352 -0.483482 -0.306779 192 234 140
0.288446 -0.271184 -0.208821 192 234 140
0.198169 -0.307809 -0.251221 192 234 140
0.222975 -0.482022 -0.161134 192 234 140
0.172027 -0.480201 -0.337749 192 234 140
0.430728 -0.480772 0.0214103 192 234 140
0.183118 -0.48206 -0.320812 192 234 140
-0.00537244 -0.481065 -0.237962 192 234 140
0.0735501 -0.435325 -0.362071 192 234 140
0.311761 -0.48461 -0.124226 192 234 140
0.0891861 -0.354013 -0.310589 192 234 140
0.0556664 -0.348908 -0.283569 192 234 140
-0.0800956 -0.477351 -0.217782 192 234 140
0.126969 -0.478078 -0.349092 192 234 140
0.41752 -0.484486 -0.0303979 192 234 140
0.212599 -0.482664 -0.211243 192 234 140
0.260876 -0.445354 -0.258485 192 234 140
0.146138 -0.451214 -0.343531 192 234 140
0.109556 -0.357563 -0.320956 192 234 140
0.134856 -0.482361 -0.217126 192 234 140
0.399048 -0.186997 -0.113042 192 234 140
0.158191 -0.3529 -0.297476 192 234 140
0.223023 -0.4831 -0.306034 192 234 140
0.413316 -0.26945 -0.0692414 192 234 140
0.411809 -0.484313 -0.115931 192 234 140
0.240662 -0.459332 -0.28728 192 234 140
0.156296 -0.482983 -0.282964 192 234 140
0.0586574 -0.440378 -0.367239 192 234 140
0.0788817 -0.447771 -0.363708 192 234 140
-0.0538698 -0.479829 -0.283849 192 234 140
0.39337 -0.452852 -0.147787 192 234 140
0.383751 -0.422847 -0.151783 192 234 140
0.132643 -0.350057 -0.306794 192 234 140
0.137574 -0.322565 -0.272716 192 234 140
0.166673 -0.313044 -0.263692 192 234 140
0.138408 -0.329587 -0.28547 192 234 140
0.0281548 -0.478065 -0.336568 192 234 140
0.0659952 -0.355485 -0.30991 192 234 140
-0.0909527 -0.474037 -0.163812 192 234 140
0.293362 -0.261629 -0.206554 192 234 140
0.404371 -0.363022 -0.0693086 192 234 140
0.393285 -0.422575 -0.13146 192 234 140
0.108609 -0.372904 -0.33705 192 234 140
0.254958 -0.296792 -0.224961 192 234 140
0.0433901 -0.481473 -0.184423 192 234 140
-0.0690121 -0.475124 -0.167942 192 234 140
0.117273 -0.417627 -0.347066 192 234 140
0.0719224 -0.374656 -0.343566 192 234 140
0.103727 -0.478791 -0.349783 192 234 140
-0.0955911 -0.469894 -0.0936224 192 234 140
0.122768 -0.442005 -0.347994 192 234 140
0.145162 -0.477414 -0.0100996 192 234 140
0.261982 -0.452076 -0.263027 192 234 140
0.425635 -0.467474 -0.0860879 192 234 140
0.310577 -0.485582 -0.230092 192 234 140
0.338077 -0.37254 -0.186378 192 234 140
0.22601 -0.422329 -0.26921 192 234 140
0.111975 -0.385361 -0.344395 192 234 140
0.178067 -0.480969 -0.333245 192 234 140
0.341681 -0.479779 -0.221022 192 234 140
0.060173 -0.379705 -0.347577 192 234 140
0.0141492 -0.407757 -0.365171 192 234 140
0.196458 -0.31766 -0.258232 192 234 140
0.184608 -0.317585 -0.265489 192 234 140
0.157371 -0.479517 -0.338939 192 234 140
0.244596 -0.360299 -0.243868 192 234 140
0.253987 -0.364212 -0.238354 192 234 140
0.220643 -0.48544 -0.297983 192 234 140
0.284597 -0.418345 -0.228055 192 234 140
0.148572 -0.483249 -0.259793 192 234 140
0.418346 -0.303631 -0.0243732 192 234 140
0.239567 -0.484696 -0.296216 192 234 140
-0.0793313 -0.467636 -0.0366238 192 234 140
0.37732 -0.452833 -0.169255 192 234 140
0.401467 -0.246574 -0.11082 192 234 140
0.211364 -0.484211 -0.27952 192 234 140
0.083951 -0.345124 -0.2887 192 234 140
0.404038 -0.443608 -0.121405 192 234 140
0.409142 -0.270802 -0.0814013 192 234 140
0.20006 -0.307059 -0.249215 192 234 140
0.267239 -0.485556 -0.274925 192 234 140
0.294194 -0.482421 -0.0653566 192 234 140
0.340286 -0.235882 -0.170353 192 234 140
0.384753 -0.358818 -0.142313 192 234 140
0.00493477 -0.468186 -0.356174 192 234 140
0.300935 -0.483421 -0.253864 192 234 140
0.389204 -0.439283 -0.146962 192 234 140
0.0956553 -0.353396 -0.311014 192 234 140
0.105807 -0.335303 -0.281681 192 234 140
0.417047 -0.484611 -0.027098 192 234 140
0.134666 -0.483329 -0.284084 192 234 140
0.172573 -0.433523 -0.325116 192 234 140
0.142815 -0.330446 -0.284597 192 234 140
0.190452 -0.482885 -0.28338 192 234 140
0.417189 -0.291191 -0.0369478 192 234 140
0.261382 -0.418877 -0.243252 192 234 140
0.201396 -0.337077 -0.265505 192 234 140
0.0742573 -0.473691 -0.363762 192 234 140
0.303962 -0.477426 -0.248162 192 234 140
0.184333 -0.482771 -0.226884 192 234 140
0.0273059 -0.425353 -0.371684 192 234 140
0.103248 -0.352158 -0.31508 192 234 140
0.340518 -0.485216 -0.214902 192 234 140
0.418082 -0.261755 -0.0325024 192 234 140
0.115122 -0.481541 -0.161165 192 234 140
0.140913 -0.362856 -0.314294 192 234 140
0.269454 -0.484073 -0.184667 192 234 140
0.397574 -0.307358 -0.11726 192 234 140
0.426439 -0.481905 -0.0570153 192 234 140
0.244723 -0.485786 -0.284147 192 234 140
-0.138581 -0.473065 -0.179961 192 234 140
0.31043 -0.47757 -0.242627 192 234 140
0.160686 -0.482681 -0.222959 192 234 140
0.229562 -0.460828 -0.295992 192 234 140
0.0871387 -0.482941 -0.210432 192 234 140
0.125787 -0.367827 -0.325258 192 234 140
0.415118 -0.484108 -0.104877 192 234 140
0.223527 -0.48212 -0.166129 192 234 140
0.108602 -0.479796 -0.106902 192 234 140
-0.0725517 -0.469739 -0.0702024 192 234 140
0.102071 -0.471303 -0.363481 192 234 140
0.0334046 -0.439441 -0.37356 192 234 140
0.0980914 -0.453912 -0.359171 192 234 140
0.137774 -0.350592 -0.299447 192 234 140
0.00438495 -0.472374 -0.0398109 192 234 140
0.209534 -0.458051 -0.309902 192 234 140
-0.147811 -0.472529 -0.17781 192 234 140
0.0435336 -0.476564 -0.348528 192 234 140
0.165602 -0.448999 -0.335056 192 234 140
0.146755 -0.322586 -0.278151 192 234 140
0.286123 -0.317868 -0.215689 192 234 140
0.398124 -0.378475 -0.0919398 192 234 140
0.409314 -0.475066 -0.136723 192 234 140
0.32443 -0.289371 -0.183259 192 234 140
0.152404 -0.36922 -0.311998 192 234 140
0.270219 -0.482222 -0.106202 192 234 140
0.04401 -0.377751 -0.344816 192 234 140
0.406202 -0.419259 -0.0960402 192 234 140
0.179433 -0.482185 -0.315572 192 234 140
0.323433 -0.482796 -0.0129952 192 234 140
0.255476 -0.482454 -0.157403 192 234 140
0.181014 -0.470535 -0.333124 192 234 140
0.0486632 -0.470693 -0.365972 192 234 140
0.0725736 -0.476051 -0.0415418 192 234 140
0.403342 -0.325466 -0.0848027 192 234 140
0.114858 -0.426658 -0.349402 192 234 140
-0.0431171 -0.47051 -0.0585923 192 234 140
0.167243 -0.481673 -0.184852 192 234 140
0.343 -0.485438 -0.0860902 192 234 140
0.396581 -0.401337 -0.113457 192 234 140
0.235366 -0.43935 -0.274931 192 234 140
0.1171 -0.476092 -0.357727 192 234 140
-0.11079 -0.472729 -0.155337 192 234 140
0.413644 -0.322331 -0.0440648 192 234 140
0.14467 -0.477781 -0.0211754 192 234 140
0.422062 -0.462682 -0.0878127 192 234 140
0.28847 -0.449649 -0.240742 192 234 140
0.347317 -0.254083 -0.166931 192 234 140
0.396232 -0.385085 -0.0997266 192 234 140
-0.0210013 -0.474712 -0.118608 192 234 140
0.352087 -0.485051 -0.0461437 192 234 140
0.0442712 -0.36357 -0.333548 192 234 140
0.357065 -0.485807 -0.141781 192 234 140
0.165303 -0.480677 -0.146506 192 234 140
0.147594 -0.319115 -0.268546 192 234 140
0.415728 -0.329905 -0.0281223 192 234 140
0.39277 -0.211601 -0.130223 192 234 140
0.00120505 -0.48215 -0.283371 192 234 140
0.0600304 -0.474128 -0.362084 192 234 140
0.208578 -0.430699 -0.288381 192 234 140
-0.0532695 -0.472689 -0.109356 192 234 140
0.0337555 -0.359535 -0.329323 192 234 140
0.290606 -0.47397 -0.25588 192 234 140
-0.0544738 -0.479647 -0.252269 192 234 140
0.384548 -0.255154 -0.140516 192 234 140
0.357749 -0.484962 -0.201061 192 234 140
0.332488 -0.483406 -0.0111249 192 234 140
0.132356 -0.323688 -0.273819 192 234 140
0.422789 -0.436735 -0.0504234 192 234 140
0.169112 -0.482998 -0.248948 192 234 140
0.0858853 -0.384583 -0.349729 192 234 140
0.0524569 -0.418502 -0.361227 192 234 140
0.279865 -0.380569 -0.221668 192 234 140
0.396157 -0.484932 -0.129511 192 234 140
0.0928169 -0.354385 -0.305184 192 234 140
0.277918 -0.373878 -0.223571 192 234 140
0.378092 -0.414329 -0.15661 192 234 140
0.100445 -0.464518 -0.360071 192 234 140
0.199744 -0.30402 -0.247829 192 234 140
0.403261 -0.474047 -0.144583 192 234 140
0.194278 -0.480417 -0.0832813 192 234 140
0.399366 -0.291984 -0.110699 192 234 140
0.133567 -0.480435 -0.122878 192 234 140
0.415564 -0.288025 -0.0479886 192 234 140
0.311888 -0.404101 -0.2057 192 234 140
0.345736 -0.292357 -0.170121 192 234 140
0.0889623 -0.483349 -0.237777 192 234 140
0.436037 -0.473223 0.00143746 192 234 140
0.419144 -0.479622 -0.114657 192 234 140
0.207281 -0.443032 -0.302245 192 234 140
0.426696 -0.482242 -0.00855201 192 234 140
0.111186 -0.470231 -0.358727 192 234 140
0.174723 -0.482888 -0.228508 192 234 140
0.00692368 -0.467476 -0.357913 192 234 140
0.222137 -0.484995 -0.276088 192 234 140
0.396954 -0.27029 -0.125896 192 234 140
0.431603 -0.476766 -0.0448042 192 234 140
0.424064 -0.402144 -0.013935 192 234 140
0.414087 -0.219017 -0.0540108 192 234 140
0.161231 -0.371846 -0.30825 192 234 140
0.406426 -0.375272 -0.0550614 192 234 140
0.200279 -0.317723 -0.255638 192 234 140
0.131634 -0.466258 -0.347907 192 234 140
0.133699 -0.319443 -0.258377 192 234 140
0.308155 -0.483865 -0.103917 192 234 140
0.252088 -0.370362 -0.239393 192 234 140
0.230235 -0.381606 -0.254155 192 234 140
0.4163 -0.476734 -0.126562 192 234 140
0.155349 -0.481526 -0.316206 192 234 140
0.402106 -0.485967 0.00854139 192 234 140
0.295826 -0.482386 -0.0133502 192 234 140
0.395461 -0.250959 -0.128074 192 234 140
0.40238 -0.241693 -0.108196 192 234 140
0.407674 -0.358841 -0.0521899 192 234 140
0.348168 -0.485066 -0.055432 192 234 140
0.397394 -0.485912 -0.0611683 192 234 140
0.135781 -0.356375 -0.311267 192 234 140
0.136238 -0.350695 -0.299721 192 234 140
0.41136 -0.214483 -0.0759647 192 234 140
0.362159 -0.484971 -0.188467 192 234 140
0.215841 -0.483512 -0.310745 192 234 140
0.378141 -0.290949 -0.146248 192 234 140
0.378155 -0.485235 0.00339171 192 234 140
-0.0546294 -0.327474 -0.256631 224 210 119
-0.122549 -0.382464 -0.321448 224 210 119
-0.074293 -0.380777 -0.321249 224 210 119
-0.0278455 -0.336393 -0.290535 224 210 119
-0.0961989 -0.308347 -0.212688 224 210 119
-0.0190663 -0.295692 -0.216363 224 210 119
-0.145502 -0.349279 -0.316792 224 210 119
-0.0672585 -0.345226 -0.321687 224 210 119
0.0713912 -0.365559 -0.305467 224 210 119
-0.218719 -0.428656 -0.276129 224 210 119
-0.172979 -0.344484 -0.303818 224 210 119
-0.0179329 -0.341029 -0.312228 224 210 119
0.087809 -0.351544 -0.305318 224 210 119
-0.200069 -0.457825 -0.299031 224 210 119
0.0167485 -0.36234 -0.352205 224 210 119
-0.137024 -0.294051 -0.183974 224 210 119
-0.158044 -0.353367 -0.224624 224 210 119
-0.252397 -0.413171 -0.24109 224 210 119
-0.0209122 -0.341353 -0.313186 224 210 119
0.0154553 -0.330993 -0.241409 224 210 119
-0.0456339 -0.38896 -0.317409 224 210 119
-0.0361387 -0.339876 -0.310581 224 210 119
-0.121648 -0.37384 -0.323312 224 210 119
-0.0836063 -0.326879 -0.274156 224 210 119
-0.0865721 -0.304811 -0.192108 224 210 119
-0.104833 -0.435318 -0.31252 224 210 119
-0.11509 -0.346991 -0.320637 224 210 119
-0.0824594 -0.302176 -0.196603 224 210 119
-0.117986 -0.392451 -0.342474 224 210 119
-0.101771 -0.30983 -0.214386 224 210 119
-0.153111 -0.324909 -0.263919 224 210 119
-0.174007 -0.357312 -0.303768 224 210 119
-0.201284 -0.391887 -0.337407 224 210 119
-0.167103 -0.316346 -0.259053 224 210 119
0.0178815 -0.295857 -0.236843 224 210 119
-0.0336801 -0.294247 -0.1978 224 210 119
-0.0842752 -0.327469 -0.176188 224 210 119
0.13859 -0.281832 -0.20019 224 210 119
-0.0648132 -0.341699 -0.317535 224 210 119
