ply
format ascii 1.0
comment Created by Open3D
element vertex 1220
property double x
property double y
property double z
property uchar red
property uchar green
property uchar blue
end_header
0.178326 -0.324889 -0.0834462 255 139 72
0.156308 -0.0722289 0.257309 255 139 72
0.165731 -0.433785 0.0342902 255 139 72
0.16712 -0.387833 0.062951 255 139 72
0.17124 -0.20087 -0.0614694 255 139 72
0.149118 -0.298683 0.294702 255 139 72
0.166926 -0.262818 0.0605157 255 139 72
0.142081 -0.327503 0.320189 255 139 72
0.161732 -0.0837114 0.141229 255 139 72
0.169146 -0.0569759 -0.0119467 255 139 72
0.164825 -0.0497742 0.103483 255 139 72
0.154731 -0.439551 0.244487 255 139 72
0.139354 -0.0860112 0.309904 255 139 72
0.168641 -0.0878466 -0.0414614 255 139 72
0.168342 -0.0868241 -0.168432 255 139 72
0.161866 -0.169323 0.145762 255 139 72
0.160544 -0.210705 0.208101 255 139 72
0.112119 -0.210699 0.322121 255 139 72
0.168734 -0.274989 0.060049 255 139 72
0.168944 -0.280653 -0.220201 255 139 72
0.168151 -0.196637 -0.268884 255 139 72
0.167398 -0.202859 -0.292399 255 139 72
0.169045 -0.0523633 -0.019321 255 139 72
0.167776 -0.240419 -0.243325 255 139 72
0.165532 -0.43352 0.00284938 255 139 72
0.163967 -0.300159 0.10039 255 139 72
0.161717 -0.320367 0.120509 255 139 72
0.158868 -0.239084 0.230248 255 139 72
0.170363 -0.130768 -0.115721 255 139 72
0.139163 -0.129623 0.258522 255 139 72
0.165053 -0.361674 -0.192685 255 139 72
0.11641 -0.127746 0.281326 255 139 72
0.105415 -0.128651 0.317882 255 139 72
0.169032 -0.112733 -0.206692 255 139 72
0.176123 -0.263711 -0.0266966 255 139 72
0.160298 -0.0945702 0.234966 255 139 72
0.157725 -0.116036 0.270707 255 139 72
0.16895 -0.097902 -0.149575 255 139 72
0.160733 -0.0951915 0.226034 255 139 72
0.162181 -0.414931 0.170219 255 139 72
0.171438 -0.180253 -0.156639 255 139 72
0.0144593 -0.181134 0.319801 255 139 72
0.171211 -0.251635 0.0264145 255 139 72
0.158176 -0.146669 0.235518 255 139 72
0.158054 -0.30481 0.232183 255 139 72
0.171461 -0.366465 -0.0886935 255 139 72
0.132289 -0.140766 0.316008 255 139 72
0.162055 -0.3865 0.154631 255 139 72
0.156901 -0.142864 0.262091 255 139 72
0.180663 -0.31397 -0.0613983 255 139 72
0.103881 -0.0752227 0.314491 255 139 72
0.148029 -0.120364 0.301566 255 139 72
0.159464 -0.283097 0.205794 255 139 72
0.158467 -0.283649 0.232355 255 139 72
0.157106 -0.125094 0.272773 255 139 72
0.169719 -0.379623 -0.0717765 255 139 72
0.171657 -0.186244 -0.102185 255 139 72
0.163738 -0.139893 0.0823898 255 139 72
0.161392 -0.36822 0.114192 255 139 72
0.156787 -0.423674 -0.199353 255 139 72
0.15635 -0.339733 0.24496 255 139 72
0.154527 -0.425862 -0.256804 255 139 72
0.171102 -0.177051 -0.0910726 255 139 72
0.151765 -0.393035 0.290578 255 139 72
0.173452 -0.271742 0.0265315 255 139 72
0.165328 -0.0471942 0.101076 255 139 72
0.148513 -0.305096 0.160525 255 139 72
0.159905 -0.102093 0.236492 255 139 72
0.162527 -0.425297 0.129766 255 139 72
0.161798 -0.148105 0.107705 255 139 72
0.165863 -0.330078 -0.25995 255 139 72
0.150369 -0.0987247 0.295041 255 139 72
0.169682 -0.286833 -0.206649 255 139 72
0.169355 -0.116865 -0.147931 255 139 72
0.167509 -0.212136 0.0334219 255 139 72
0.164729 -0.390601 0.0831248 255 139 72
0.168615 -0.105046 -0.225524 255 139 72
0.16737 -0.365395 -0.130957 255 139 72
0.160125 -0.289689 0.175106 255 139 72
0.0506632 -0.287061 0.319096 255 139 72
0.144477 -0.240906 0.308144 255 139 72
0.168664 -0.0868373 0.00753906 255 139 72
0.171216 -0.374401 -0.0708868 255 139 72
0.171192 -0.169257 -0.0329692 255 139 72
0.17626 -0.281593 -0.0869919 255 139 72
0.168095 -0.104503 -0.025978 255 139 72
0.148511 -0.442464 0.301756 255 139 72
0.170939 -0.196083 -0.00942832 255 139 72
0.171188 -0.203237 -0.0495288 255 139 72
0.162303 -0.321632 0.112453 255 139 72
0.158641 -0.451133 -0.0915124 255 139 72
0.157741 -0.448854 -0.1133 255 139 72
0.167833 -0.215256 -0.274465 255 139 72
0.165377 -0.228164 0.0574311 255 139 72
0.17879 -0.294383 -0.0728008 255 139 72
0.154157 -0.442263 0.264904 255 139 72
0.158195 -0.370638 0.204398 255 139 72
0.153794 -0.306463 0.277691 255 139 72
0.163135 -0.438469 -0.0283244 255 139 72
0.174944 -0.286702 -0.112326 255 139 72
0.174148 -0.283809 -0.131959 255 139 72
0.170463 -0.144226 -0.0314695 255 139 72
0.16099 -0.336329 0.160267 255 139 72
0.17048 -0.152089 -0.162474 255 139 72
0.139564 -0.0879279 0.310338 255 139 72
0.171738 -0.183871 -0.132903 255 139 72
0.144405 -0.323883 0.314498 255 139 72
0.162902 -0.418761 0.149828 255 139 72
0.156092 -0.385467 0.233667 255 139 72
0.0451215 -0.433318 0.315454 255 139 72
0.157741 -0.260452 0.2394 255 139 72
0.15302 -0.259677 0.28614 255 139 72
0.164031 -0.180455 0.056788 255 139 72
0.162943 -0.368793 -0.219593 255 139 72
0.16076 -0.311565 0.162771 255 139 72
0.169657 -0.0634692 0.0377001 255 139 72
-0.0205919 -0.272729 0.316705 255 139 72
0.169153 -0.19944 -0.230905 255 139 72
0.167971 -0.361885 0.0607667 255 139 72
0.177776 -0.275677 -0.010065 255 139 72
0.163628 -0.11337 0.148499 255 139 72
0.0937018 -0.28926 0.320497 255 139 72
0.162011 -0.441642 -0.0400549 255 139 72
0.169219 -0.392091 -0.00641404 255 139 72
0.168921 -0.0495716 0.0668651 255 139 72
0.156123 -0.0546096 0.201073 255 139 72
0.166542 -0.382783 -0.103358 255 139 72
0.168509 -0.0728241 0.0648397 255 139 72
0.167562 -0.10246 0.0324283 255 139 72
0.161371 -0.369184 0.113301 255 139 72
0.157156 -0.058821 0.177124 255 139 72
0.171053 -0.364001 -0.0978197 255 139 72
-0.0267014 -0.422197 0.31337 255 139 72
0.161043 -0.208639 0.202464 255 139 72
0.140239 -0.0900839 0.309976 255 139 72
0.164791 -0.403282 -0.0986203 255 139 72
0.157752 -0.120481 0.264453 255 139 72
0.179908 -0.314328 -0.074413 255 139 72
0.169078 -0.0747257 -0.0378128 255 139 72
0.156991 -0.0604017 0.217709 255 139 72
0.165238 -0.432802 -0.0105668 255 139 72
0.164935 -0.434465 0.0536748 255 139 72
0.0963753 -0.115499 0.293948 255 139 72
0.167015 -0.398271 0.0565745 255 139 72
0.168239 -0.124186 -0.00789973 255 139 72
0.177227 -0.299442 0.0277368 255 139 72
0.168473 -0.255217 0.0477188 255 139 72
0.170113 -0.206783 0.0085767 255 139 72
0.164156 -0.339619 0.09715 255 139 72
0.1657 -0.3939 -0.0967359 255 139 72
0.161067 -0.197649 0.204613 255 139 72
0.165402 -0.115582 0.0774916 255 139 72
0.146626 -0.338966 0.160885 255 139 72
0.163112 -0.340235 0.10339 255 139 72
0.168278 -0.277858 0.0658595 255 139 72
0.0685268 -0.361873 0.318118 255 139 72
0.177234 -0.294277 0.0221813 255 139 72
0.168523 -0.31937 -0.212859 255 139 72
0.174106 -0.25278 -0.0754014 255 139 72
0.166264 -0.350628 -0.192144 255 139 72
0.168823 -0.0917431 -0.0855548 255 139 72
0.162298 -0.0818242 0.175137 255 139 72
0.168072 -0.129981 0.0036471 255 139 72
0.177132 -0.271342 -0.0276261 255 139 72
0.173596 -0.355652 -0.0876596 255 139 72
0.143934 -0.343236 0.316042 255 139 72
0.169617 -0.0635921 -0.00212569 255 139 72
0.0887854 -0.330361 0.319244 255 139 72
0.156835 -0.153431 0.254818 255 139 72
0.181229 -0.309042 -0.0363321 255 139 72
0.177777 -0.300661 -0.0924128 255 139 72
0.16557 -0.392409 0.0740959 255 139 72
-0.0206953 -0.4551 0.315566 255 139 72
0.0517501 -0.122234 0.317213 255 139 72
0.00935611 -0.166825 0.319127 255 139 72
0.164609 -0.352054 -0.227601 255 139 72
0.0304923 -0.11229 0.316846 255 139 72
0.165889 -0.10489 0.0853908 255 139 72
0.161661 -0.31458 0.121733 255 139 72
0.164959 -0.429912 -0.021415 255 139 72
0.15809 -0.306883 0.230403 255 139 72
0.161315 -0.346842 0.15265 255 139 72
0.169757 -0.132499 -0.154182 255 139 72
0.163138 -0.144885 0.170713 255 139 72
0.149567 -0.389041 0.302307 255 139 72
0.178251 -0.324022 0.024183 255 139 72
0.159929 -0.286325 0.179592 255 139 72
0.149731 -0.446196 0.297588 255 139 72
0.168932 -0.0817026 -0.0900342 255 139 72
0.165692 -0.0927375 0.0988867 255 139 72
0.16742 -0.16518 -0.296636 255 139 72
0.155363 -0.241339 0.274763 255 139 72
0.168782 -0.103216 -0.0847876 255 139 72
0.165476 -0.344694 -0.226612 255 139 72
0.162568 -0.436516 -0.0452952 255 139 72
0.155603 -0.265106 0.261037 255 139 72
0.0605557 -0.19849 0.321154 255 139 72
0.178353 -0.280254 -0.0108265 255 139 72
0.156351 -0.417007 -0.227852 255 139 72
0.160206 -0.270934 0.107372 255 139 72
0.0711207 -0.261033 0.30512 255 95 48
0.0128956 -0.112919 0.315817 255 95 48
0.0445877 -0.0731349 0.313134 255 95 48
-0.0788455 -0.182049 0.314382 255 95 48
-0.127878 -0.111199 0.310709 255 95 48
0.0975326 -0.346701 0.246399 255 95 48
-0.0751338 -0.14754 0.314772 255 95 48
0.000806559 -0.0965274 0.315842 255 95 48
-0.0886206 -0.210605 0.313351 255 95 48
-0.190105 -0.191455 0.307181 255 95 48
0.0630151 -0.113159 0.310445 255 95 48
-0.0174351 -0.286037 0.306375 255 95 48
-0.19789 -0.439473 0.212782 255 95 48
0.010108 -0.171959 0.309914 255 95 48
-0.207633 -0.449229 0.138124 255 95 48
0.0468504 -0.320307 0.3117 255 95 48
-0.23444 -0.394063 0.279868 255 95 48
-0.00189095 -0.410344 0.29128 255 95 48
-0.133999 -0.394311 0.303662 255 95 48
-0.0663425 -0.272018 0.309921 255 95 48
-0.144163 -0.457777 0.0788052 255 95 48
-0.208677 -0.437141 0.294481 255 95 48
0.0259615 -0.144451 0.313525 255 95 48
-0.0768357 -0.184682 0.302994 255 95 48
0.0657779 -0.196893 0.305538 255 95 48
-0.203802 -0.222282 0.276635 255 95 48
-0.157009 -0.170396 0.31542 255 95 48
0.0536123 -0.24949 0.305765 255 95 48
0.0219083 -0.267037 0.307165 255 95 48
0.0486166 -0.449002 -0.0039498 255 95 48
0.098763 -0.0617367 0.302362 255 95 48
0.0955953 -0.0701558 0.289747 255 95 48
-0.0204027 -0.210138 0.306882 255 95 48
-0.000438098 -0.25689 0.306061 255 95 48
-0.205051 -0.235189 0.272655 255 95 48
0.0308991 -0.178913 0.307583 255 95 48
0.0234499 -0.0894089 0.313848 255 95 48
-0.12941 -0.240495 0.315526 255 95 48
0.0999086 -0.198854 0.299135 255 95 48
0.0459853 -0.280187 0.309209 255 95 48
0.0648305 -0.235755 0.305082 255 95 48
-0.207986 -0.22919 0.271026 255 95 48
0.0689634 -0.186434 0.305827 255 95 48
-0.00484105 -0.437311 0.244642 255 95 48
0.0563115 -0.393589 0.315506 255 95 48
0.00201946 -0.374826 0.309827 255 95 48
-0.13232 -0.393908 0.31042 255 95 48
-0.179059 -0.444826 0.213613 255 95 48
-0.0181581 -0.0862004 0.311393 255 95 48
-0.127174 -0.112567 0.311408 255 95 48
-0.23174 -0.401619 0.282076 255 95 48
0.00577259 -0.290267 0.306837 255 95 48
0.0594453 -0.0795915 0.299248 255 95 48
0.0275762 -0.0820692 0.305435 255 95 48
0.00348855 -0.446587 0.182625 255 95 48
-0.0963025 -0.152399 0.305897 255 95 48
-0.0712781 -0.127301 0.30399 255 95 48
-0.0692496 -0.331399 0.31076 255 95 48
-0.087926 -0.435184 0.272039 255 95 48
-0.134039 -0.131709 0.306263 255 95 48
0.00308682 -0.318301 0.307579 255 95 48
-0.220219 -0.326228 0.288231 255 95 48
0.0931437 -0.128251 0.303221 255 95 48
-0.0916 -0.288788 0.312002 255 95 48
-0.186232 -0.264733 0.305535 255 95 48
-0.00396158 -0.334867 0.307822 255 95 48
0.122944 -0.0923923 0.0435132 255 95 48
-0.041674 -0.359283 0.31101 255 95 48
0.108804 -0.0780763 0.289543 255 95 48
0.00711649 -0.20627 0.307019 255 95 48
-0.135328 -0.44077 -0.108729 255 95 48
-0.161555 -0.318653 0.277308 255 95 48
0.0364457 -0.0814015 0.312979 255 95 48
-0.0729693 -0.338013 0.311355 255 95 48
-0.00268513 -0.205809 0.296623 255 95 48
0.0439471 -0.199664 0.304693 255 95 48
-0.121283 -0.349863 0.305739 255 95 48
-0.0659324 -0.283103 0.309839 255 95 48
-0.127861 -0.200354 0.310409 255 95 48
0.0625477 -0.253926 0.305433 255 95 48
-0.137038 -0.150475 0.318279 255 95 48
-0.0572871 -0.145081 0.313965 255 95 48
-0.0266793 -0.121811 0.314066 255 95 48
-0.100247 -0.29465 0.310632 255 95 48
0.105212 -0.126224 0.185381 255 95 48
-0.122545 -0.34797 0.305955 255 95 48
0.0682158 -0.155329 0.279983 255 95 48
0.0889049 -0.398658 0.0388029 255 95 48
-0.192113 -0.283901 0.302316 255 95 48
0.0998477 -0.142318 0.181382 255 95 48
0.0603219 -0.213252 0.305249 255 95 48
-0.123091 -0.165381 0.318977 255 95 48
0.0204258 -0.313498 0.310977 255 95 48
0.0371506 -0.406683 0.317194 255 95 48
0.0141297 -0.358697 0.328194 255 95 48
-0.0387149 -0.189318 0.310672 255 95 48
-0.105617 -0.217797 0.304052 255 95 48
-0.173175 -0.394552 0.305709 255 95 48
0.077385 -0.161881 0.305677 255 95 48
0.123971 -0.101426 0.0306304 255 95 48
0.055374 -0.365423 0.313934 255 95 48
-0.161733 -0.240535 0.314788 255 95 48
0.0518256 -0.0668072 0.310239 255 95 48
-0.0974196 -0.164914 0.307061 255 95 48
0.044013 -0.439931 0.313029 255 95 48
0.122819 -0.0978632 0.107108 255 95 48
0.0334402 -0.224926 0.298758 255 95 48
0.0193282 -0.189819 0.30783 255 95 48
0.0169564 -0.22759 0.305598 255 95 48
0.00118626 -0.198854 0.30757 255 95 48
0.114741 -0.103698 0.187466 255 95 48
0.0878683 -0.147832 0.304648 255 95 48
0.0827823 -0.199888 0.304615 255 95 48
-0.00631375 -0.394487 0.309682 255 95 48
-0.212313 -0.318876 0.293367 255 95 48
-0.077471 -0.127321 0.31515 255 95 48
-0.222465 -0.260852 0.284258 255 95 48
-0.03638 -0.122319 0.303045 255 95 48
0.0470447 -0.209334 0.304957 255 95 48
-0.110969 -0.272823 0.311401 255 95 48
-0.099282 -0.0955299 0.309665 255 95 48
-0.195492 -0.20171 0.300786 255 95 48
-0.0362144 -0.316651 0.308174 255 95 48
-0.156621 -0.258532 0.314319 255 95 48
-0.131677 -0.375825 0.304709 255 95 48
-0.124662 -0.395282 0.31141 255 95 48
-0.0106528 -0.346059 0.308179 255 95 48
0.0586582 -0.107409 0.310851 255 95 48
0.0362094 -0.404131 0.317231 255 95 48
-0.0960852 -0.095117 0.309757 255 95 48
-0.11329 -0.14714 0.306543 255 95 48
-0.0800903 -0.260565 0.311301 255 95 48
-0.0973605 -0.225178 0.301531 255 95 48
0.0985518 -0.359207 0.231043 255 95 48
0.0259073 -0.218166 0.304604 255 95 48
0.0924478 -0.360167 0.151818 255 95 48
0.0486254 -0.20568 0.29278 255 95 48
0.0127391 -0.17595 0.309542 255 95 48
0.0829113 -0.0603117 0.308777 255 95 48
-0.0949765 -0.135198 0.316269 255 95 48
-0.2212 -0.308373 0.287329 255 95 48
-0.11924 -0.364291 0.305001 255 95 48
-0.172948 -0.178115 0.302445 255 95 48
-0.134252 -0.244691 0.305156 255 95 48
-0.0656513 -0.31256 0.299948 255 95 48
0.0967268 -0.335325 0.240452 255 95 48
-0.0459732 -0.263015 0.308175 255 95 48
0.0311914 -0.365831 0.315671 255 95 48
0.0718218 -0.0787457 0.292542 255 95 48
-0.0930055 -0.0939199 0.306841 255 95 48
0.0376681 -0.127448 0.292618 255 95 48
-0.0104361 -0.453208 0.0953875 255 95 48
-0.150985 -0.356715 0.308175 255 95 48
-0.0369985 -0.155224 0.313403 255 95 48
0.0973177 -0.316339 0.110937 255 95 48
0.114576 -0.113238 0.200091 255 95 48
0.0876226 -0.0912177 0.306823 255 95 48
-0.152696 -0.307124 0.310225 255 95 48
-0.156419 -0.350416 0.30865 255 95 48
0.0846361 -0.199766 0.257339 255 95 48
0.065395 -0.301385 0.305963 255 95 48
-0.236945 -0.429835 0.277254 255 95 48
0.00440236 -0.343531 0.308635 255 95 48
0.123414 -0.0933872 0.109199 255 95 48
0.0998776 -0.345093 0.208929 255 95 48
-0.0943752 -0.298419 0.311405 255 95 48
0.0359566 -0.241796 0.305928 255 95 48
-0.00931588 -0.204646 0.307022 255 95 48
-0.0963792 -0.265638 0.312476 255 95 48
-0.210952 -0.23009 0.287053 255 95 48
0.0141417 -0.114059 0.315631 255 95 48
-0.14254 -0.372187 0.306358 255 95 48
-0.193869 -0.431359 0.30142 255 95 48
0.0187249 -0.240885 0.304919 255 95 48
-0.169601 -0.445685 0.233349 255 95 48
-0.0470984 -0.353018 0.311171 255 95 48
-0.207624 -0.364553 0.295225 255 95 48
-0.12271 -0.456915 0.126396 255 95 48
0.00357217 -0.0697163 0.31317 255 95 48
-0.183372 -0.182801 0.300684 255 95 48
-0.0968523 -0.230725 0.313611 255 95 48
0.103276 -0.133971 0.295983 255 95 48
-0.0813482 -0.372373 0.311044 255 95 48
-0.201604 -0.367134 0.297575 255 95 48
0.00780891 -0.0819432 0.307366 255 95 48
-0.107174 -0.445549 -0.102775 255 95 48
-0.0434367 -0.120525 0.313369 255 95 48
0.0013464 -0.241135 0.305815 255 95 48
-0.0690245 -0.125538 0.314546 255 95 48
-0.196106 -0.42254 0.300762 255 95 48
-0.0410022 -0.257079 0.307291 255 95 48
-0.0980501 -0.314613 0.31018 255 95 48
0.0197591 -0.130291 0.314716 255 95 48
0.119514 -0.107812 0.030413 255 95 48
-0.126636 -0.179028 0.308711 255 95 48
0.108112 -0.0782668 0.227257 255 95 48
-0.195991 -0.314803 0.300162 255 95 48
-0.0662675 -0.433128 0.275728 255 95 48
-0.180761 -0.436753 0.238361 255 95 48
-0.143587 -0.212082 0.309669 255 95 48
-0.0396259 -0.0971069 0.311055 255 95 48
-0.216232 -0.237866 0.279758 255 95 48
-0.170712 -0.326797 0.270326 255 95 48
-0.143621 -0.16399 0.319515 255 95 48
-0.0898511 -0.208239 0.313942 255 95 48
0.0921116 -0.147516 0.303824 255 95 48
-0.156062 -0.306501 0.310326 255 95 48
-0.161771 -0.181911 0.306289 255 95 48
-0.0142137 -0.442996 0.244253 255 95 48
-0.118485 -0.324071 0.307548 255 95 48
-0.0784137 -0.321882 0.311329 255 95 48
0.02673 -0.343798 0.323609 255 95 48
-0.0287549 -0.11679 0.313716 255 95 48
-0.137366 -0.335569 0.308113 255 95 48
-0.138449 -0.23959 0.305033 255 95 48
0.0662485 -0.313327 0.308798 255 95 48
-0.16589 -0.205176 0.302723 255 95 48
-0.0708069 -0.215279 0.311809 255 95 48
0.0985534 -0.0674618 0.29801 255 95 48
-0.00136736 -0.0710346 0.312701 255 95 48
-0.249264 -0.414127 0.267016 255 95 48
0.107239 -0.0717231 0.271051 255 95 48
0.0456187 -0.275838 0.308739 255 95 48
0.103368 -0.0737332 0.26117 255 95 48
0.100321 -0.264044 0.100389 255 95 48
-0.0348113 -0.105063 0.311729 255 95 48
0.112185 -0.0791639 0.22408 255 95 48
0.0897454 -0.238247 0.212364 255 95 48
-0.211337 -0.375375 0.293424 255 95 48
-0.169451 -0.212834 0.313661 255 95 48
0.0102155 -0.14478 0.313765 255 95 48
-0.206765 -0.356198 0.295623 255 95 48
-0.0788741 -0.222841 0.311813 255 95 48
0.110284 -0.120374 0.151274 255 95 48
-0.00220159 -0.147344 0.312721 255 95 48
-0.135927 -0.447269 -0.0748146 255 95 48
-0.124134 -0.334486 0.307128 255 95 48
-0.161252 -0.390455 0.306612 255 95 48
-0.0855838 -0.198336 0.31428 255 95 48
0.0457575 -0.391078 0.293376 255 95 48
-0.181953 -0.188691 0.310327 255 95 48
0.0728056 -0.232865 0.304204 255 95 48
0.118181 -0.11934 0.0649973 255 95 48
-0.142476 -0.327836 0.309313 255 95 48
0.0647274 -0.138622 0.310066 255 95 48
0.0925298 -0.248719 0.178564 255 95 48
-0.0292515 -0.301314 0.307348 255 95 48
-0.0957146 -0.27322 0.312485 255 95 48
-0.168752 -0.383606 0.279526 255 95 48
0.025994 -0.284063 0.309364 255 95 48
0.070155 -0.143427 0.277502 255 95 48
-0.212525 -0.443851 0.174847 255 95 48
-0.0291488 -0.0970982 0.311489 255 95 48
-0.15595 -0.185314 0.307819 255 95 48
0.0617095 -0.185921 0.286434 255 95 48
0.0521217 -0.441684 0.0410627 255 95 48
0.049073 -0.22206 0.305263 255 95 48
-0.0718655 -0.150872 0.305845 255 95 48
-0.0617897 -0.227378 0.309994 255 95 48
0.111846 -0.0835411 0.207718 255 95 48
0.0738718 -0.145684 0.276737 255 95 48
-0.0852631 -0.246218 0.311542 255 95 48
0.0110048 -0.45295 0.0073381 255 95 48
0.0143409 -0.387553 0.314413 255 95 48
0.0477438 -0.225984 0.305392 255 95 48
-0.163734 -0.370266 0.307625 255 95 48
0.103188 -0.0693598 0.292178 255 95 48
-0.101541 -0.390905 0.314676 255 95 48
0.0900708 -0.228512 0.201338 255 95 48
0.0218945 -0.0540735 0.314269 255 95 48
0.0105966 -0.127618 0.315751 255 95 48
0.0938016 -0.281005 0.18272 255 95 48
-0.170233 -0.357586 0.307617 255 95 48
-0.0931764 -0.106275 0.312833 255 95 48
-0.112591 -0.157697 0.317882 255 95 48
0.00599928 -0.115195 0.302221 255 95 48
-0.149273 -0.456242 -0.0113821 255 95 48
-0.0988723 -0.226025 0.314388 255 95 48
-0.197991 -0.355285 0.299108 255 95 48
0.0659843 -0.0545666 0.312777 255 95 48
-0.0548738 -0.165721 0.302641 255 95 48
-0.128045 -0.129571 0.305491 255 95 48
0.0906603 -0.216665 0.30278 255 95 48
0.0929679 -0.0600876 0.306377 255 95 48
-0.112866 -0.443947 0.264285 255 95 48
0.0408407 -0.400681 0.31698 255 95 48
0.0926182 -0.357715 0.272774 255 95 48
0.0219851 -0.383087 0.315923 255 95 48
-0.00664623 -0.401535 0.310081 255 95 48
-0.21512 -0.456411 0.289551 255 95 48
-0.187555 -0.220267 0.307409 255 95 48
-0.18896 -0.420775 0.303117 255 95 48
0.00436904 -0.372407 0.31036 255 95 48
0.12006 -0.113984 0.0288981 255 95 48
-0.211342 -0.240685 0.295101 255 95 48
-0.0441973 -0.155633 0.313565 255 95 48
0.0642976 -0.106925 0.310083 255 95 48
0.0883498 -0.225387 0.302908 255 95 48
-0.131004 -0.395987 0.303993 255 95 48
-0.0435436 -0.129942 0.313433 255 95 48
-0.0981424 -0.299782 0.310788 255 95 48
-0.200209 -0.331114 0.298425 255 95 48
-0.249761 -0.453886 0.257276 255 95 48
-0.178586 -0.237937 0.309517 255 95 48
-0.0828685 -0.225382 0.3119 255 95 48
-0.0673902 -0.147492 0.314265 255 95 48
0.124031 -0.102478 0.0755112 255 95 48
0.0977135 -0.175857 0.300365 255 95 48
0.0568515 -0.312015 0.310199 255 95 48
0.102642 -0.0898966 0.297798 255 95 48
-0.102314 -0.13349 0.31633 255 95 48
0.0935877 -0.0648648 0.302465 255 95 48
0.0716766 -0.119588 0.276629 255 95 48
-0.224183 -0.443302 0.286965 255 95 48
-0.0874379 -0.125619 0.315608 255 95 48
-0.154352 -0.446706 0.229643 255 95 48
-0.021696 -0.185563 0.309529 255 95 48
-0.124157 -0.379208 0.299112 255 95 48
-0.192026 -0.203399 0.29085 255 95 48
0.0306067 -0.405166 0.317011 255 95 48
-0.0204788 -0.234309 0.305046 255 95 48
-0.0714925 -0.0913744 0.310632 255 95 48
0.0261024 -0.143497 0.313647 255 95 48
-0.0588185 -0.367446 0.312996 255 95 48
0.11254 -0.14249 0.266798 255 95 48
-0.0997977 -0.110413 0.313384 255 95 48
-0.156186 -0.238738 0.316142 255 95 48
0.0707129 -0.246388 0.304318 255 95 48
-0.0689077 -0.410742 0.308325 255 95 48
-0.244293 -0.416765 0.209108 255 95 48
0.0486539 -0.0973878 0.311658 255 95 48
0.112104 -0.0955438 0.261844 255 95 48
-0.134049 -0.454341 0.155503 255 95 48
0.124899 -0.0966136 0.072665 255 95 48
-0.0921566 -0.178663 0.314811 255 95 48
0.0896161 -0.337204 0.290563 255 95 48
-0.0168044 -0.403126 0.311094 255 95 48
0.119813 -0.114776 0.047982 255 95 48
-0.0617828 -0.232162 0.30975 255 95 48
-0.188682 -0.453506 0.114194 255 95 48
0.00256491 -0.336096 0.307956 255 95 48
0.0240495 -0.260371 0.306874 255 95 48
-0.157359 -0.35118 0.308633 255 95 48
-0.198581 -0.335207 0.298975 255 95 48
0.0301626 -0.404976 0.316979 255 95 48
0.100111 -0.179486 0.08892 255 95 48
0.0490035 -0.426098 0.315266 255 95 48
0.10304 -0.0683939 0.294504 255 95 48
-0.0493597 -0.124867 0.303425 255 95 48
0.0813054 -0.0582571 0.310529 255 95 48
-0.0486898 -0.134262 0.313676 255 95 48
-0.127821 -0.147609 0.306269 255 95 48
-0.193076 -0.21131 0.306118 255 95 48
-0.0227355 -0.246247 0.305284 255 95 48
0.040974 -0.451508 -0.00395122 255 95 48
-0.145374 -0.239721 0.316856 255 95 48
0.114316 -0.117717 0.162822 255 95 48
0.0216823 -0.359201 0.314708 255 95 48
-0.087099 -0.145534 0.316167 255 95 48
-0.133327 -0.444496 -0.0914227 255 95 48
-0.0770594 -0.0983347 0.311401 255 95 48
-0.077387 -0.120306 0.314765 255 95 48
-0.122214 -0.368538 0.304842 255 95 48
0.0199484 -0.373199 0.315111 255 95 48
-0.199869 -0.439154 0.297885 255 95 48
-0.0296974 -0.257619 0.30596 255 95 48
-0.0463393 -0.206418 0.309885 255 95 48
0.092325 -0.339733 0.101128 255 95 48
0.074825 -0.130398 0.308528 255 95 48
-0.172365 -0.343014 0.306557 255 95 48
-0.0271105 -0.116905 0.31392 255 95 48
0.0167657 -0.17782 0.309224 255 95 48
-0.0752898 -0.101451 0.305624 255 95 48
0.123025 -0.090653 0.073051 255 95 48
-0.0460146 -0.105815 0.304242 255 95 48
0.097074 -0.116798 0.301335 255 95 48
0.0861578 -0.371196 0.139619 255 95 48
-0.124179 -0.266763 0.312855 255 95 48
0.0307995 -0.181619 0.293166 255 95 48
-0.0131965 -0.0976935 0.304438 255 95 48
-0.0573146 -0.167893 0.31356 255 95 48
-0.107148 -0.115119 0.304339 255 95 48
0.111492 -0.157584 0.278172 255 95 48
-0.0368108 -0.365263 0.310974 255 95 48
0.0125588 -0.0631089 0.314308 255 95 48
-0.0274617 -0.236141 0.30562 255 95 48
-0.177213 -0.341336 0.264701 255 95 48
-0.137692 -0.458309 0.0439666 255 95 48
0.124675 -0.0970189 0.0357382 255 95 48
-0.00813022 -0.394767 0.309831 255 95 48
-0.0120164 -0.193919 0.297054 255 95 48
0.102157 -0.126978 0.217591 255 95 48
-0.133002 -0.143673 0.317777 255 95 48
-0.211935 -0.226792 0.274733 255 95 48
-0.149415 -0.232455 0.302147 255 95 48
-0.195523 -0.257497 0.270186 255 95 48
0.100189 -0.0644252 0.299356 255 95 48
-0.191719 -0.212215 0.306491 255 95 48
0.0459886 -0.208503 0.30493 255 95 48
0.0292554 -0.140768 0.313603 255 95 48
-0.239746 -0.437626 0.271651 255 95 48
0.0265989 -0.203781 0.30587 255 95 48
-0.211334 -0.238921 0.294591 255 95 48
-0.0233763 -0.234017 0.305275 255 95 48
0.0216557 -0.353386 0.314204 255 95 48
0.000275295 -0.101074 0.316157 255 95 48
-0.147452 -0.457106 0.10866 255 95 48
-0.147162 -0.179343 0.309396 255 95 48
0.078765 -0.0715364 0.309687 255 95 48
-0.173475 -0.165598 0.305679 255 95 48
0.122442 -0.0917397 0.073569 255 95 48
-0.147335 -0.457656 0.00596947 255 95 48
-0.234606 -0.458488 0.271559 255 95 48
0.0455881 -0.143067 0.311816 255 95 48
0.0207928 -0.375613 0.315325 255 95 48
0.0185595 -0.203055 0.306925 255 95 48
-0.0508008 -0.322361 0.309682 255 95 48
0.00499451 -0.369451 0.310365 255 95 48
0.120012 -0.103872 0.0578878 255 95 48
0.0789301 -0.252543 0.30385 255 95 48
-0.18925 -0.219845 0.290336 255 95 48
-0.0760045 -0.294649 0.29718 255 95 48
0.0281231 -0.191783 0.306763 255 95 48
0.0952925 -0.207369 0.301638 255 95 48
0.100199 -0.0893685 0.300605 255 95 48
0.0200511 -0.234824 0.304776 255 95 48
0.0603713 -0.297249 0.308445 255 95 48
0.100704 -0.211808 0.294322 255 95 48
-0.0110389 -0.0880324 0.306156 255 95 48
-0.02888 -0.224567 0.306618 255 95 48
-0.23522 -0.399208 0.252451 255 95 48
-0.0425463 -0.317725 0.308583 255 95 48
-0.118702 -0.237261 0.306661 255 95 48
-0.135556 -0.254711 0.314216 255 95 48
-0.018857 -0.246984 0.305426 255 95 48
0.0156417 -0.428853 0.242313 255 95 48
-0.0328995 -0.201545 0.309647 255 95 48
0.0288374 -0.131649 0.313726 255 95 48
-0.185956 -0.285648 0.266725 255 95 48
0.112948 -0.0952896 0.192698 255 95 48
0.0873095 -0.192296 0.229297 255 95 48
0.0963233 -0.132523 0.243638 255 95 48
0.0995401 -0.135218 0.299123 255 95 48
-0.225319 -0.448719 0.0403269 255 95 48
0.0216937 -0.390968 0.316244 255 95 48
0.0325519 -0.375803 0.316296 255 95 48
0.106059 -0.0651662 0.29413 255 95 48
-0.210475 -0.223011 0.274114 255 95 48
-0.152279 -0.159188 0.315613 255 95 48
-0.0247394 -0.101884 0.312439 255 95 48
0.0556988 -0.0923599 0.295761 255 95 48
-0.0234873 -0.262476 0.305772 255 95 48
-0.170254 -0.231591 0.295543 255 95 48
0.068814 -0.0516093 0.312727 255 95 48
0.0256565 -0.40252 0.316698 255 95 48
-0.120258 -0.354457 0.305417 255 95 48
-0.170156 -0.18385 0.302879 255 95 48
-0.0820391 -0.130811 0.315545 255 95 48
-0.234412 -0.436751 -0.0271888 255 95 48
-0.00673362 -0.068293 0.311025 255 95 48
-0.216991 -0.440238 0.188252 255 95 48
0.00889311 -0.0643655 0.3138 255 95 48
0.0384085 -0.0686673 0.310229 255 95 48
-0.0484677 -0.298511 0.308555 255 95 48
-0.017397 -0.1697 0.310746 255 95 48
-0.116928 -0.120432 0.313714 255 95 48
0.105068 -0.0706008 0.28347 255 95 48
0.023727 -0.0723695 0.309894 255 95 48
-0.238681 -0.349956 0.276072 255 95 48
-0.0551137 -0.100798 0.304971 255 95 48
-0.172332 -0.40737 0.305459 255 95 48
0.0467921 -0.0582067 0.312113 255 95 48
-0.179192 -0.186456 0.310782 255 95 48
0.115789 -0.085924 0.167705 255 95 48
0.0734188 -0.278239 0.291478 255 95 48
0.082615 -0.0993555 0.306661 255 95 48
-0.219961 -0.399082 0.258125 255 95 48
-0.158751 -0.406864 0.305211 255 95 48
0.0722513 -0.0543479 0.313022 255 95 48
-0.171645 -0.189561 0.301749 255 95 48
-0.0655283 -0.136605 0.31431 255 95 48
0.00701068 -0.203947 0.307196 255 95 48
0.0140076 -0.102634 0.303488 255 95 48
-0.159357 -0.136647 0.31142 255 95 48
-0.0725583 -0.455106 0.146909 255 95 48
-0.144624 -0.13637 0.313642 255 95 48
-0.149289 -0.286402 0.311633 255 95 48
-0.119155 -0.112472 0.311741 255 95 48
0.0409249 -0.193743 0.305074 255 95 48
-0.112111 -0.375685 0.305371 255 95 48
0.10319 -0.0759215 0.247193 255 95 48
-0.0560729 -0.212262 0.297635 255 95 48
-0.162938 -0.261833 0.288532 255 95 48
-0.158835 -0.389056 0.30657 255 95 48
-0.0798202 -0.187062 0.303125 255 95 48
0.00811489 -0.228626 0.305787 255 95 48
-0.0559312 -0.125122 0.313801 255 95 48
0.063051 -0.0951407 0.290659 255 95 48
-0.187515 -0.244967 0.282482 255 95 48
0.110595 -0.0805928 0.210409 255 95 48
0.0818786 -0.227533 0.303584 255 95 48
0.0140011 -0.11687 0.315633 255 95 48
-0.150313 -0.45259 0.166782 255 95 48
-0.184639 -0.277429 0.270874 255 95 48
0.119344 -0.110372 0.0252923 255 95 48
0.0296847 -0.120911 0.295287 255 95 48
0.113826 -0.0751587 0.235886 255 95 48
0.0371629 -0.193885 0.305558 255 95 48
-0.141103 -0.135797 0.306987 255 95 48
-0.0329375 -0.404688 0.309992 255 95 48
-0.00451529 -0.198753 0.296904 255 95 48
-0.0720814 -0.269853 0.310491 255 95 48
-0.0683941 -0.269106 0.293331 255 46 23
-0.0801893 -0.330661 0.300413 255 46 23
-0.203502 -0.256708 0.285241 255 46 23
-0.00836626 -0.393876 0.298871 255 46 23
-0.0689057 -0.421366 -0.0251718 255 46 23
-0.00417067 -0.361215 0.301339 255 46 23
0.0189332 -0.183523 0.317789 255 46 23
-0.108325 -0.389635 0.301 255 46 23
0.0677575 -0.304232 0.254599 255 46 23
-0.202942 -0.285451 0.284227 255 46 23
-0.0273429 -0.475907 0.297313 255 46 23
0.0641684 -0.433392 0.300307 255 46 23
-0.00974518 -0.198523 0.3101 255 46 23
0.00872352 -0.294871 0.293802 255 46 23
-0.0246153 -0.329783 0.299807 255 46 23
0.0646936 -0.454286 0.298461 255 46 23
0.0599466 -0.187439 0.317097 255 46 23
0.00455845 -0.185091 0.312869 255 46 23
0.114676 -0.245251 0.293686 255 46 23
0.0611205 -0.179529 0.315595 255 46 23
0.00174736 -0.190425 0.303761 255 46 23
-0.0557582 -0.190151 0.302106 255 46 23
0.0388327 -0.363815 0.282509 255 46 23
0.0700723 -0.394707 -0.154958 255 46 23
0.00460711 -0.357274 0.302796 255 46 23
0.0469673 -0.209008 0.307324 255 46 23
-0.102334 -0.447246 0.301309 255 46 23
-0.145493 -0.41555 0.297866 255 46 23
-0.0203431 -0.190711 0.300417 255 46 23
0.0195793 -0.390096 0.301907 255 46 23
-0.0441151 -0.39985 0.294711 255 46 23
-0.138356 -0.178297 0.301723 255 46 23
-0.0848372 -0.262535 0.303799 255 46 23
-0.0641546 -0.386415 0.30378 255 46 23
-0.000450024 -0.358769 0.302031 255 46 23
0.0910255 -0.425712 0.149021 255 46 23
0.0950454 -0.234555 0.311374 255 46 23
0.0224956 -0.278606 0.303247 255 46 23
-0.185298 -0.480539 0.286164 255 46 23
-0.162041 -0.48327 0.286503 255 46 23
0.05224 -0.326075 0.306231 255 46 23
0.0570449 -0.322198 0.306242 255 46 23
-0.0421893 -0.331154 -0.335444 255 46 23
-0.260099 -0.422956 0.132551 255 46 23
-0.207291 -0.478281 0.285127 255 46 23
0.0984635 -0.47245 0.262945 255 46 23
-0.015548 -0.266511 0.300691 255 46 23
0.0924101 -0.240633 0.310412 255 46 23
-0.0728288 -0.208067 0.303494 255 46 23
0.14183 -0.3875 0.226917 255 46 23
-0.164204 -0.365601 -0.281607 255 46 23
0.0376601 -0.454976 0.299737 255 46 23
-0.076464 -0.302148 0.303054 255 46 23
0.094916 -0.362875 0.293211 255 46 23
-0.0901412 -0.275751 0.303417 255 46 23
-0.124987 -0.451479 0.298975 255 46 23
0.021464 -0.338974 0.305402 255 46 23
-0.0459262 -0.422993 0.298391 255 46 23
-0.150627 -0.373909 -0.254145 255 46 23
-0.134687 -0.235241 0.300336 255 46 23
-0.0407885 -0.206523 0.301073 255 46 23
0.115567 -0.430581 0.204121 255 46 23
0.113765 -0.419045 0.158552 255 46 23
0.0796608 -0.263819 0.307337 255 46 23
0.0878837 -0.235318 0.30236 255 46 23
0.00545061 -0.26722 0.29821 255 46 23
0.131365 -0.252191 0.262673 255 46 23
0.0667781 -0.359071 0.305102 255 46 23
-0.0359829 -0.38865 0.294269 255 46 23
-0.20924 -0.381499 0.287039 255 46 23
-0.132275 -0.445445 0.298412 255 46 23
-0.171467 -0.324693 0.289218 255 46 23
0.06556 -0.396033 0.302585 255 46 23
0.148701 -0.351956 0.157292 255 46 23
-0.0152655 -0.371768 0.29894 255 46 23
-0.050976 -0.442573 0.304442 255 46 23
-0.0655521 -0.378771 0.303669 255 46 23
-0.0351272 -0.384688 0.289426 255 46 23
-0.114833 -0.333741 0.299803 255 46 23
0.0792816 -0.288801 0.281932 255 46 23
-0.057808 -0.269863 0.29981 255 46 23
0.0371025 -0.193408 0.319272 255 46 23
-0.116435 -0.234781 0.251303 255 46 23
0.0720329 -0.184216 0.316984 255 46 23
-0.0021636 -0.333992 0.302598 255 46 23
-0.055357 -0.178688 0.301391 255 46 23
-0.00699609 -0.184108 0.310506 255 46 23
-0.194063 -0.296253 0.285267 255 46 23
-0.0241608 -0.424649 0.0138288 255 46 23
0.0401452 -0.242658 0.304458 255 46 23
-0.0671373 -0.485866 0.301328 255 46 23
-0.123553 -0.37016 0.299404 255 46 23
-0.0443856 -0.227411 0.301541 255 46 23
-0.0955517 -0.43998 0.302192 255 46 23
-0.0877045 -0.169473 0.277395 255 46 23
0.103905 -0.209866 0.311708 255 46 23
0.0788886 -0.318353 0.306786 255 46 23
0.024767 -0.397743 0.302459 255 46 23
0.066478 -0.47185 0.296398 255 46 23
-0.0511416 -0.227625 0.302268 255 46 23
0.116897 -0.229487 0.297234 255 46 23
-0.0315409 -0.389973 -0.19171 255 46 23
-0.203272 -0.442172 0.292343 255 46 23
-0.157363 -0.464283 0.29466 255 46 23
0.112916 -0.256057 0.277486 255 46 23
0.0909712 -0.4266 0.205673 255 46 23
0.0768255 -0.298959 0.260252 255 46 23
0.0994031 -0.480635 0.258713 255 46 23
0.0209869 -0.340261 0.305328 255 46 23
-0.0211852 -0.456916 0.295764 255 46 23
0.0691931 -0.192416 0.316328 255 46 23
0.0813848 -0.268288 0.307476 255 46 23
-0.167237 -0.245558 0.291732 255 46 23
0.15001 -0.390579 0.20099 255 46 23
-0.0243053 -0.275856 0.300426 255 46 23
-0.0477855 -0.429399 0.300794 255 46 23
0.0675887 -0.193546 0.316173 255 46 23
-0.108285 -0.434379 0.0611254 255 46 23
-0.109137 -0.399749 0.301006 255 46 23
-0.156921 -0.2932 0.236692 255 46 23
-0.0935866 -0.44578 0.302293 255 46 23
-0.0376671 -0.153359 0.299129 255 46 23
0.112029 -0.275432 0.220465 255 46 23
0.0263822 -0.268895 0.303117 255 46 23
-0.146117 -0.357784 0.29693 255 46 23
-0.187998 -0.369293 0.290288 255 46 23
0.0133163 -0.242528 0.301375 255 46 23
0.0347243 -0.272668 0.304242 255 46 23
-0.0919959 -0.437371 0.0870464 255 46 23
0.133406 -0.284623 0.253962 255 46 23
0.106108 -0.250858 0.310348 255 46 23
0.0307482 -0.466766 0.298886 255 46 23
0.000476338 -0.247621 0.30085 255 46 23
-0.193546 -0.216206 0.288108 255 46 23
0.0498109 -0.182144 0.316624 255 46 23
-0.0971431 -0.250697 0.262189 255 46 23
-0.189749 -0.408315 0.293107 255 46 23
-0.176129 -0.156153 0.289465 255 46 23
-0.142227 -0.425198 0.297178 255 46 23
0.0772698 -0.401389 0.301217 255 46 23
0.0268862 -0.414227 0.285128 255 46 23
-0.226956 -0.430557 0.17206 255 46 23
0.111139 -0.299318 0.285065 255 46 23
0.0937339 -0.454493 0.27865 255 46 23
-0.147403 -0.37962 0.297319 255 46 23
0.0965055 -0.198136 0.313909 255 46 23
0.154206 -0.40283 0.0748859 255 46 23
-0.0586623 -0.234558 0.30332 255 46 23
0.057046 -0.335139 0.306216 255 46 23
0.032166 -0.355721 0.30487 255 46 23
0.0907867 -0.210586 0.314037 255 46 23
0.0977236 -0.436481 0.273028 255 46 23
0.0305347 -0.409123 0.302406 255 46 23
-0.108632 -0.403612 -0.129721 255 46 23
-0.0341866 -0.308947 0.299894 255 46 23
0.140058 -0.276372 0.238057 255 46 23
-0.0777833 -0.36955 0.303626 255 46 23
-0.00465188 -0.169348 0.30324 255 46 23
0.133294 -0.412668 0.143857 255 46 23
-0.0832555 -0.460762 0.303706 255 46 23
-0.0206483 -0.307068 0.300928 255 46 23
-0.0475702 -0.371095 0.295814 255 46 23
-0.02914 -0.44001 0.294831 255 46 23
-0.030146 -0.430111 0.0657291 255 46 23
-0.120446 -0.304217 0.299105 255 46 23
-0.0550075 -0.462746 0.306915 255 46 23
0.0902808 -0.351577 0.300909 255 46 23
-0.0255927 -0.179105 0.305179 255 46 23
-0.135326 -0.430772 0.0279588 255 46 23
0.110705 -0.332913 0.28015 255 46 23
0.109304 -0.415498 0.243096 255 46 23
-0.172009 -0.345979 0.290516 255 46 23
-0.0394114 -0.31713 0.299293 255 46 23
-0.112941 -0.241147 0.252391 255 46 23
-0.0622227 -0.361758 0.300074 255 46 23
-0.046901 -0.438052 0.301497 255 46 23
-0.241801 -0.408139 -0.0821063 255 46 23
-0.1024 -0.317614 0.301563 255 46 23
-0.0820597 -0.434256 0.293857 255 46 23
0.0620995 -0.402631 0.302297 255 46 23
0.0364459 -0.293786 0.305699 255 46 23
-0.134453 -0.270992 0.296782 255 46 23
-0.0325678 -0.200368 0.300168 255 46 23
0.0307013 -0.18071 0.316644 255 46 23
-0.0449493 -0.219326 0.301635 255 46 23
-0.0331015 -0.18716 0.299816 255 46 23
-0.237533 -0.428379 0.154641 255 46 23
-0.0345571 -0.362087 0.296509 255 46 23
0.00694024 -0.180817 0.311566 255 46 23
-0.0314887 -0.481318 0.298658 255 46 23
-0.272309 -0.420285 0.0533706 255 46 23
0.130371 -0.264631 0.263181 255 46 23
0.110963 -0.4166 0.0649891 255 46 23
-0.114158 -0.376589 0.300318 255 46 23
-0.16377 -0.173175 0.29239 255 46 23
-0.0235127 -0.375105 0.297308 255 46 23
-0.0921076 -0.143738 0.300251 255 46 23
-0.193623 -0.398938 0.29242 255 46 23
0.00950659 -0.424419 0.0414556 255 46 23
0.0708149 -0.38414 0.30319 255 46 23
0.0718621 -0.4347 0.299567 255 46 23
-0.127217 -0.343289 0.298586 255 46 23
0.0272521 -0.229261 0.30442 255 46 23
-0.167141 -0.414452 0.303979 255 46 23
0.0156761 -0.412522 0.300442 255 46 23
-0.136255 -0.40175 0.298593 255 46 23
0.122951 -0.394808 0.244902 255 46 23
-0.0564896 -0.355845 0.298435 255 46 23
-0.223871 -0.402833 -0.121585 255 46 23
-0.0428852 -0.152442 0.297854 255 46 23
-0.0234825 -0.300973 0.300529 255 46 23
-0.0841296 -0.342301 0.295989 255 46 23
0.10021 -0.480892 0.256474 255 46 23
-0.133458 -0.281848 0.296396 255 46 23
-0.0826496 -0.244893 0.304247 255 46 23
-0.0153865 -0.422793 7.78586e-05 255 46 23
0.013953 -0.34858 0.304414 255 46 23
-0.0395839 -0.446241 0.297292 255 46 23
-0.195675 -0.171748 0.286975 255 46 23
-0.126545 -0.311754 0.276937 255 46 23
0.04719 -0.182115 0.318261 255 46 23
-0.0661264 -0.268452 0.294368 255 46 23
-0.130016 -0.336756 0.298091 255 46 23
-0.0941209 -0.473973 0.302138 255 46 23
-0.272749 -0.41768 0.167521 255 46 23
0.0906021 -0.222353 0.306826 255 46 23
0.0430193 -0.422138 0.30175 255 46 23
0.100722 -0.417827 0.0523203 255 46 23
0.0876781 -0.239416 0.309859 255 46 23
0.0190585 -0.370282 0.303297 255 46 23
0.0470322 -0.239988 0.302684 255 46 23
-0.138 -0.477397 0.292703 255 46 23
-0.0504952 -0.355802 0.297515 255 46 23
0.112865 -0.272941 0.256434 255 46 23
-0.0992927 -0.125299 0.296843 255 46 23
0.0732753 -0.414551 -0.00774171 255 46 23
-0.00532653 -0.47936 0.295648 255 46 23
0.0134917 -0.196836 0.317968 255 46 23
-0.169932 -0.482983 0.286072 255 46 23
-0.00683419 -0.384433 0.299644 255 46 23
-0.0148023 -0.398494 0.29766 255 46 23
-0.173052 -0.441051 0.176869 255 46 23
0.0254124 -0.3026 0.305262 255 46 23
-0.125313 -0.384159 0.297571 255 46 23
0.0645207 -0.185482 0.311328 255 46 23
0.105232 -0.39659 0.260752 255 46 23
0.105423 -0.397576 0.267347 255 46 23
-0.116771 -0.433095 0.297843 255 46 23
-0.0886984 -0.118176 0.29197 255 46 23
0.0607494 -0.317063 0.306182 255 46 23
-0.0222811 -0.360483 0.298253 255 46 23
0.0753607 -0.181647 0.316546 255 46 23
-0.045175 -0.153387 0.297451 255 46 23
0.00647831 -0.189237 0.3154 255 46 23
-0.149884 -0.328539 0.274075 255 46 23
-0.0786321 -0.121997 0.289333 255 46 23
0.0903351 -0.426608 0.161574 255 46 23
0.00554025 -0.261881 0.301052 255 46 23
-0.0670728 -0.239456 0.303999 255 46 23
-0.0698469 -0.359997 0.301358 255 46 23
-0.11286 -0.445368 0.300383 255 46 23
-0.0883678 -0.217558 0.304179 255 46 23
0.0885189 -0.369364 0.300489 255 46 23
0.130943 -0.312717 0.21432 255 46 23
-0.216746 -0.430391 0.0571609 255 46 23
-0.054993 -0.148055 0.294933 255 46 23
-0.23155 -0.420907 0.289739 255 46 23
-0.0933637 -0.282709 0.302963 255 46 23
-0.128103 -0.201835 0.303018 255 46 23
0.140215 -0.269104 0.238635 255 46 23
-0.151081 -0.282651 0.292958 255 46 23
-0.0628775 -0.320358 0.300763 255 46 23
-0.260515 -0.418819 0.197555 255 46 23
-0.0734439 -0.170843 0.301647 255 46 23
-0.0825949 -0.129127 0.296935 255 46 23
0.0985117 -0.362954 0.288307 255 46 23
0.141614 -0.307243 0.167654 255 46 23
0.00516311 -0.217393 0.312439 255 46 23
0.145983 -0.390787 0.210236 255 46 23
0.0104159 -0.363919 0.303114 255 46 23
-0.189696 -0.343191 0.286671 255 46 23
-0.0591075 -0.44349 0.30621 255 46 23
-0.104989 -0.278106 0.302948 255 46 23
-0.0632796 -0.329772 0.300268 255 46 23
0.0160543 -0.235046 0.302012 255 46 23
-0.0870347 -0.292404 0.302397 255 46 23
-0.0763326 -0.298935 0.302334 255 46 23
-0.0345727 -0.319223 0.299363 255 46 23
-0.142375 -0.354474 0.297184 255 46 23
-0.0266862 -0.464627 0.296022 255 46 23
-0.0464552 -0.368332 0.295868 255 46 23
0.106205 -0.416172 0.245787 255 46 23
-0.159002 -0.25363 0.292586 255 46 23
0.104052 -0.417845 0.264605 255 46 23
0.10417 -0.239377 0.297217 255 46 23
-0.15636 -0.198094 0.294503 255 46 23
-0.0996336 -0.173616 0.302394 255 46 23
0.110449 -0.261149 0.298701 255 46 23
0.0497205 -0.234806 0.306964 255 46 23
-0.181292 -0.401718 -0.135004 255 46 23
-0.121441 -0.241507 0.302515 255 46 23
0.0266425 -0.185134 0.307087 255 46 23
-0.0299883 -0.408853 0.294164 255 46 23
-0.13379 -0.451063 0.298087 255 46 23
0.0405174 -0.244132 0.302068 255 46 23
0.0961976 -0.442757 0.27491 255 46 23
0.0571966 -0.435456 0.300288 255 46 23
0.0325817 -0.368885 0.303986 255 46 23
0.148381 -0.405115 0.159144 255 46 23
-0.00885427 -0.360056 0.286939 255 46 23
-0.0415452 -0.171592 0.299481 255 46 23
-0.10223 -0.126547 0.297151 255 46 23
-0.196325 -0.269646 0.286084 255 46 23
-0.0618734 -0.130387 0.296037 255 46 23
-0.231262 -0.408648 0.291529 255 46 23
-0.149912 -0.423004 0.29732 255 46 23
0.00276918 -0.203048 0.30411 255 46 23
-0.18891 -0.437504 0.29255 255 46 23
0.0778788 -0.225588 0.310551 255 46 23
-0.141515 -0.294082 0.294792 255 46 23
0.0737598 -0.368282 0.30431 255 46 23
-0.0311783 -0.231975 0.300772 255 46 23
0.0350378 -0.317083 0.306237 255 46 23
-0.139491 -0.337023 0.296488 255 46 23
-0.0379544 -0.438326 0.29518 255 46 23
-0.206675 -0.45169 0.289195 255 46 23
-0.0262827 -0.435439 0.294691 255 46 23
-0.117267 -0.20475 0.304004 255 46 23
-0.0188473 -0.410982 -0.0920942 255 46 23
-0.162225 -0.168839 0.293182 255 46 23
-0.0795256 -0.240859 0.304313 255 46 23
-0.189143 -0.392713 0.292726 255 46 23
0.0894313 -0.236643 0.310413 255 46 23
-0.0402904 -0.430813 0.295529 255 46 23
-0.0890838 -0.45978 0.302954 255 46 23
-0.122184 -0.244925 0.302332 255 46 23
-0.0314533 -0.182275 0.299763 255 46 23
-0.162144 -0.223735 0.292931 255 46 23
0.110894 -0.222381 0.302518 255 46 23
-0.0878591 -0.120506 0.29323 255 46 23
0.132316 -0.255995 0.244349 255 46 23
0.0673354 -0.304535 0.269107 255 46 23
-0.206398 -0.438773 0.24978 255 46 23
0.0756424 -0.185196 0.316894 255 46 23
0.0543764 -0.401858 0.302593 255 46 23
0.0200865 -0.249914 0.301563 255 46 23
-0.129088 -0.329944 0.298006 255 46 23
-0.126588 -0.308463 0.29789 255 46 23
0.132685 -0.411805 0.0961675 255 46 23
-0.195756 -0.4193 0.29213 255 46 23
-0.0308131 -0.481498 0.298363 255 46 23
-0.0380033 -0.36854 0.295579 255 46 23
-0.0852162 -0.381998 0.302967 255 46 23
-0.290619 -0.405797 0.143225 255 46 23
-0.0949374 -0.304338 0.30179 255 46 23
-0.177266 -0.465094 0.292203 255 46 23
-0.0059031 -0.351853 -0.297102 255 46 23
0.149646 -0.331752 0.171016 255 46 23
-0.282353 -0.41258 -0.0158554 255 46 23
0.0748075 -0.452093 0.297621 255 46 23
-0.0649303 -0.166801 0.300843 255 46 23
-0.201233 -0.287206 0.28448 255 46 23
-0.19607 -0.407449 0.292458 255 46 23
-0.00567971 -0.172064 0.302032 255 46 23
0.116024 -0.326068 0.269596 255 46 23
-0.158435 -0.247005 0.292916 255 46 23
-0.0572123 -0.351821 0.298868 255 46 23
0.0464595 -0.396145 0.303158 255 46 23
-0.176873 -0.395657 0.294943 255 46 23
0.0243326 -0.212069 0.304031 255 46 23
-0.283108 -0.40975 -0.0377494 255 46 23
0.12729 -0.273911 0.266507 255 46 23
-0.0538352 -0.309941 0.300869 255 46 23
-0.0980289 -0.357664 -0.29327 255 46 23
-0.213792 -0.385171 0.286266 255 46 23
0.082451 -0.21205 0.312911 255 46 23
-0.266587 -0.418396 0.0152994 255 46 23
-0.141079 -0.159202 0.30091 255 46 23
0.0781818 -0.299001 0.306952 255 46 23
-0.121043 -0.364143 0.299606 255 46 23
0.0210602 -0.210976 0.304043 255 46 23
-0.050553 -0.479991 0.306204 255 46 23
-0.0280218 -0.408827 0.294545 255 46 23
-0.0714192 -0.150381 0.29994 255 46 23
-0.0112717 -0.425138 0.296666 255 46 23
-0.0483407 -0.293611 0.300876 255 46 23
-0.221042 -0.432111 0.0794689 255 46 23
-0.00699704 -0.481718 0.294849 255 46 23
-0.0982032 -0.143107 0.300232 255 46 23
0.0989251 -0.361105 0.268492 255 46 23
-0.0292551 -0.360026 0.297221 255 46 23
-0.19461 -0.257739 0.286971 255 46 23
0.0867021 -0.352001 0.304509 255 46 23
-0.0428232 -0.422692 0.296205 255 46 23
-0.0241835 -0.21025 0.303954 255 46 23
0.0864011 -0.378766 0.301315 255 46 23
-0.0121682 -0.306636 0.30134 255 46 23
0.0481806 -0.199043 0.307763 255 46 23
-0.0413179 -0.25477 0.302925 255 46 23
0.0284746 -0.30439 0.305587 255 46 23
-0.178814 -0.263185 0.289429 255 46 23
0.0250902 -0.273512 0.303206 255 46 23
-0.0708927 -0.444773 0.207585 255 46 23
-0.108218 -0.289713 0.276237 255 46 23
-0.0481512 -0.459131 0.304463 255 46 23
0.0472295 -0.447939 0.29995 255 46 23
-0.17512 -0.438002 0.294191 255 46 23
-0.0457316 -0.231841 0.289232 255 46 23
-0.0210872 -0.310728 0.300897 255 46 23
-0.007646 -0.421745 0.297462 255 46 23
-0.0880064 -0.296336 0.302239 255 46 23
-0.0111895 -0.334571 0.301137 255 46 23
0.10291 -0.357042 0.2854 255 46 23
-0.115425 -0.430352 0.0288237 255 46 23
0.00372954 -0.439959 0.297592 255 46 23
0.0726458 -0.187298 0.31322 255 46 23
0.080688 -0.185633 0.315994 255 46 23
0.142792 -0.307868 0.214827 255 46 23
-0.119881 -0.137178 0.298986 255 46 23
0.14067 -0.276448 0.210574 255 46 23
0.0252715 -0.216406 0.310057 255 46 23
-0.232167 -0.426964 0.0444253 255 46 23
-0.0556914 -0.355377 0.298382 255 46 23
-0.0746659 -0.387864 0.304092 255 46 23
-0.107348 -0.30643 0.288926 255 46 23
-0.125074 -0.276735 0.299122 255 46 23
0.0161656 -0.18756 0.318026 255 46 23
-0.196698 -0.252631 0.286828 255 46 23
-0.142256 -0.160312 0.300654 255 46 23
-0.0293681 -0.224267 0.298721 255 46 23
-0.10508 -0.252823 0.257968 255 46 23
-0.0624145 -0.290983 0.302244 255 46 23
-0.118022 -0.450488 0.299688 255 46 23
-0.188565 -0.414803 0.293112 255 46 23
-0.0635988 -0.371024 0.301866 255 46 23
-0.0647091 -0.200131 0.285255 255 46 23
0.112086 -0.254885 0.296446 255 46 23
-0.0396092 -0.278054 0.300323 255 46 23
-0.273603 -0.414252 0.176559 255 46 23
0.0757655 -0.34187 0.272425 255 46 23
-0.189511 -0.373911 0.290449 255 46 23
0.119615 -0.366816 0.24609 255 46 23
0.00312733 -0.436164 0.139741 255 46 23
-0.113955 -0.154621 0.301483 255 46 23
-0.111273 -0.333324 0.300162 255 46 23
0.116552 -0.260593 0.283916 255 46 23
-0.00241268 -0.315117 0.302352 255 46 23
-0.0798495 -0.230012 0.272239 255 46 23
0.103 -0.427359 0.26401 255 46 23
-0.12336 -0.475548 0.295672 255 46 23
-0.1523 -0.338167 0.293881 255 46 23
-0.199345 -0.479247 0.285467 255 46 23
-0.00223971 -0.234965 0.30113 255 46 23
0.0060078 -0.230261 0.3017 255 46 23
-0.119181 -0.396701 0.300102 255 46 23
-0.11503 -0.243596 0.30322 255 46 23
-0.0409698 -0.397176 0.293636 255 46 23
0.152025 -0.326333 0.152827 255 46 23
-0.110553 -0.364646 0.300605 255 46 23
-0.0491683 -0.363769 0.296628 255 46 23
0.15351 -0.393012 0.188007 255 46 23
0.0101364 -0.357746 0.303438 255 46 23
-0.0716281 -0.211729 0.27981 255 46 23
-0.105371 -0.458122 0.300799 255 46 23
-0.0317829 -0.234257 0.301778 255 46 23
-0.0533569 -0.429749 0.0455025 255 46 23
0.00948327 -0.180361 0.304747 255 46 23
-0.145821 -0.382633 0.297542 255 46 23
-0.283068 -0.407633 -0.0541869 255 46 23
-0.0191677 -0.370094 0.28786 255 46 23
-0.20445 -0.344275 0.283756 255 46 23
-0.158187 -0.15854 0.295451 255 46 23
0.0955044 -0.392241 0.287183 255 46 23
-0.193644 -0.330015 0.285242 255 46 23
0.0774317 -0.257957 0.30757 255 46 23
-0.134902 -0.145278 0.300795 255 46 23
-0.191682 -0.238387 0.288278 255 46 23
-0.0508027 -0.483367 0.304669 255 46 23
0.111259 -0.450088 0.223207 255 46 23
0.0428299 -0.280765 0.305573 255 46 23
0.0781238 -0.296168 0.266354 255 46 23
-0.0563686 -0.210491 0.30271 255 46 23
-0.120524 -0.254429 0.302287 255 46 23
0.0379027 -0.218545 0.304699 255 46 23
-0.0728737 -0.440764 0.304909 255 46 23
0.103294 -0.253282 0.311068 255 46 23
-0.0283251 -0.287483 0.300191 255 46 23
0.13249 -0.285088 0.19437 255 46 23
0.112859 -0.276405 0.282202 255 46 23
-0.000124129 -0.17339 0.305832 255 46 23
0.0194661 -0.232763 0.302332 255 46 23
-0.0306722 -0.160911 0.299302 255 46 23
-0.184942 -0.318744 0.286732 255 46 23
-0.141732 -0.38168 0.297115 255 46 23
-0.240021 -0.42073 0.278752 255 46 23
0.003811 -0.45361 0.297208 255 46 23
0.0714461 -0.195326 0.31561 255 46 23
0.113342 -0.255201 0.291438 255 46 23
-0.0585978 -0.463999 0.306669 255 46 23
0.0236495 -0.300368 0.304961 255 46 23
-0.284827 -0.417981 0.0683896 255 46 23
0.0170294 -0.181405 0.316413 255 46 23
-0.0308912 -0.335831 0.298959 255 46 23
-0.0458036 -0.417844 0.297477 255 46 23
-0.131442 -0.357272 0.298416 255 46 23
-0.0110876 -0.271062 0.300694 255 46 23
0.130693 -0.407827 0.00734133 255 46 23
0.0343509 -0.265771 0.303954 255 46 23
