ply
format ascii 1.0
comment Created by Open3D
element vertex 1191
property double x
property double y
property double z
property uchar red
property uchar green
property uchar blue
end_header
0.1875 -0.260052 0.0973605 192 234 140
0.249707 -0.361153 0.102051 192 234 140
0.244939 -0.142209 0.0943035 192 234 140
0.221827 -0.26439 0.0961685 192 234 140
0.192747 -0.249843 0.0968173 192 234 140
0.155305 -0.336831 0.0992968 192 234 140
0.319925 -0.155836 0.100197 192 234 140
0.234266 -0.383856 0.104467 192 234 140
0.15176 -0.304594 0.100043 192 234 140
0.229902 -0.33715 0.0999949 192 234 140
0.348385 -0.304247 0.104769 192 234 140
0.355891 -0.323591 0.10639 192 234 140
0.213281 -0.151133 0.0948765 192 234 140
0.364731 -0.0879496 0.104897 192 234 140
0.359287 -0.283569 0.104973 192 234 140
0.316911 -0.101885 0.0979474 192 234 140
0.158591 -0.111655 0.0926383 192 234 140
0.235481 -0.284206 0.0967882 192 234 140
0.224911 -0.370253 0.101828 192 234 140
0.334491 -0.170159 0.102535 192 234 140
0.319212 -0.320879 0.103251 192 234 140
0.224385 -0.200942 0.095433 192 234 140
0.272952 -0.3465 0.102052 192 234 140
0.19002 -0.263219 0.0970237 192 234 140
0.366005 -0.242934 0.105578 192 234 140
0.202749 -0.342288 0.0990246 192 234 140
0.36024 -0.227916 0.104945 192 234 140
0.353772 -0.200313 0.104246 192 234 140
0.175816 -0.397191 0.105547 192 234 140
0.248947 -0.221171 0.0968843 192 234 140
0.176714 -0.147963 0.0950821 192 234 140
0.214546 -0.266902 0.0958666 192 234 140
0.327973 -0.327152 0.104258 192 234 140
0.216421 -0.216333 0.0955476 192 234 140
0.215342 -0.279869 0.0957902 192 234 140
0.17176 -0.386548 0.104728 192 234 140
0.301622 -0.343644 0.103457 192 234 140
0.205282 -0.271746 0.0958196 192 234 140
0.142653 -0.158648 0.0971283 192 234 140
0.325695 -0.239894 0.102093 192 234 140
0.285806 -0.174577 0.09813 192 234 140
0.113281 -0.396519 0.109865 192 234 140
0.145874 -0.182008 0.098542 192 234 140
0.13618 -0.18443 0.0994211 192 234 140
0.298036 -0.0960694 0.0956554 192 234 140
0.345771 -0.308873 0.10447 192 234 140
0.17949 -0.237167 0.0978047 192 234 140
0.350854 -0.142578 0.104041 192 234 140
0.170601 -0.350325 0.0988286 192 234 140
0.175012 -0.318013 0.0973436 192 234 140
0.273223 -0.0679444 0.0933068 192 234 140
0.357127 -0.177007 0.104537 192 234 140
0.345893 -0.210365 0.103867 192 234 140
0.101482 -0.351142 0.106713 192 234 140
0.19721 -0.20489 0.0964117 192 234 140
0.122597 -0.201208 0.101505 192 234 140
0.252588 -0.327047 0.099073 192 234 140
0.195755 -0.275125 0.0962076 192 234 140
0.35529 -0.0928247 0.104019 192 234 140
0.251495 -0.119242 0.0934471 192 234 140
0.199649 -0.351859 0.0998613 192 234 140
0.265396 -0.302354 0.0976988 192 234 140
0.112343 -0.0621043 0.0936553 192 234 140
0.257951 -0.133973 0.0942883 192 234 140
0.215714 -0.322019 0.0976177 192 234 140
0.147911 -0.192087 0.0990106 192 234 140
0.254509 -0.311581 0.097862 192 234 140
0.205358 -0.153896 0.0946634 192 234 140
0.217959 -0.290096 0.0959175 192 234 140
0.19626 -0.258557 0.0965272 192 234 140
0.149676 -0.264552 0.100276 192 234 140
0.355686 -0.202157 0.104335 192 234 140
0.21389 -0.221116 0.09563 192 234 140
0.319492 -0.141105 0.09972 192 234 140
0.149792 -0.317788 0.0998066 192 234 140
0.190338 -0.345527 0.0985256 192 234 140
0.141102 -0.2033 0.099846 192 234 140
0.289541 -0.328934 0.100891 192 234 140
0.127557 -0.154389 0.0980043 192 234 140
0.078168 -0.424513 0.117745 192 234 140
0.149167 -0.139219 0.0953987 192 234 140
0.350366 -0.278806 0.10433 192 234 140
0.133994 -0.353312 0.102894 192 234 140
0.36811 -0.301409 0.106556 192 234 140
0.36417 -0.230746 0.105164 192 234 140
0.242123 -0.205161 0.0962773 192 234 140
0.27345 -0.211415 0.098544 192 234 140
0.269917 -0.261725 0.0981386 192 234 140
0.217686 -0.219416 0.095568 192 234 140
0.307304 -0.0687856 0.0962418 192 234 140
0.227605 -0.320568 0.0983247 192 234 140
0.240304 -0.131058 0.0937321 192 234 140
0.156078 -0.0824091 0.091432 192 234 140
0.306293 -0.308883 0.101745 192 234 140
0.243385 -0.189679 0.0959435 192 234 140
0.365492 -0.325437 0.10779 192 234 140
0.270361 -0.198768 0.0981528 192 234 140
0.258221 -0.180021 0.0965073 192 234 140
0.148021 -0.348909 0.100968 192 234 140
0.351809 -0.358643 0.110528 192 234 140
0.333221 -0.261471 0.103309 192 234 140
0.16834 -0.398848 0.10627 192 234 140
0.268184 -0.264012 0.0980022 192 234 140
0.302005 -0.254807 0.100307 192 234 140
0.347074 -0.226372 0.103745 192 234 140
0.237966 -0.323775 0.0989898 192 234 140
0.270376 -0.328117 0.0993328 192 234 140
0.347683 -0.294287 0.104511 192 234 140
0.247303 -0.196601 0.0962913 192 234 140
0.158958 -0.20163 0.0988005 192 234 140
0.103586 -0.292321 0.105823 192 234 140
0.291119 -0.284707 0.0988132 192 234 140
0.285201 -0.275577 0.0984917 192 234 140
0.257472 -0.174644 0.0961599 192 234 140
0.21341 -0.376128 0.102299 192 234 140
0.196686 -0.119826 0.092861 192 234 140
0.296576 -0.256355 0.100006 192 234 140
0.147885 -0.253425 0.100585 192 234 140
0.230094 -0.218967 0.0958297 192 234 140
0.160592 -0.264379 0.0994452 192 234 140
0.197618 -0.345997 0.09908 192 234 140
0.270688 -0.181556 0.0976025 192 234 140
0.167633 -0.263095 0.0989197 192 234 140
0.173135 -0.332433 0.0974313 192 234 140
0.289269 -0.354859 0.10397 192 234 140
0.215816 -0.186626 0.0953519 192 234 140
0.308862 -0.320407 0.102323 192 234 140
0.250237 -0.251115 0.0975243 192 234 140
0.208055 -0.183587 0.0955847 192 234 140
0.169721 -0.185193 0.0977548 192 234 140
0.26413 -0.0718585 0.0926185 192 234 140
0.359051 -0.312141 0.105992 192 234 140
0.269352 -0.163712 0.096726 192 234 140
0.165579 -0.353194 0.099641 192 234 140
0.152623 -0.255554 0.100232 192 234 140
0.182917 -0.202109 0.0971603 192 234 140
0.344172 -0.183181 0.103818 192 234 140
0.199488 -0.168787 0.0954059 192 234 140
0.185048 -0.319083 0.097234 192 234 140
0.195193 -0.0772806 0.0914469 192 234 140
0.267585 -0.191535 0.097755 192 234 140
0.249248 -0.362483 0.102174 192 234 140
0.270311 -0.203047 0.0982447 192 234 140
0.254408 -0.279888 0.0971635 192 234 140
0.203631 -0.359238 0.10086 192 234 140
0.245088 -0.351541 0.10086 192 234 140
0.251091 -0.337661 0.0999665 192 234 140
0.277869 -0.259726 0.0987965 192 234 140
0.270187 -0.278954 0.0974012 192 234 140
0.250532 -0.081999 0.091945 192 234 140
0.138582 -0.357064 0.102924 192 234 140
0.109843 -0.35058 0.105677 192 234 140
0.192159 -0.111722 0.0922577 192 234 140
0.180318 -0.0776358 0.0910206 192 234 140
0.11908 -0.350748 0.104455 192 234 140
0.337259 -0.245402 0.103373 192 234 140
0.118633 -0.144241 0.0974593 192 234 140
0.316597 -0.353564 0.105227 192 234 140
0.348889 -0.336632 0.106674 192 234 140
0.134839 -0.337286 0.10177 192 234 140
0.296137 -0.130065 0.0967296 192 234 140
0.366584 -0.294151 0.106018 192 234 140
0.0992759 -0.351549 0.107044 192 234 140
0.170764 -0.347695 0.0984253 192 234 140
0.290802 -0.238635 0.0998377 192 234 140
0.182596 -0.392005 0.10443 192 234 140
0.154947 -0.389765 0.106316 192 234 140
0.306896 -0.314704 0.102047 192 234 140
0.154019 -0.259112 0.100043 192 234 140
0.136604 -0.362504 0.103844 192 234 140
0.160048 -0.265175 0.0994733 192 234 140
0.266295 -0.365931 0.104115 192 234 140
0.211653 -0.357556 0.100947 192 234 140
0.371876 -0.299608 0.106892 192 234 140
0.350427 -0.0828117 0.103214 192 234 140
0.27765 -0.332984 0.100583 192 234 140
0.190354 -0.22206 0.0967551 192 234 140
0.29046 -0.2166 0.099643 192 234 140
0.345784 -0.277323 0.10422 192 234 140
0.237124 -0.367186 0.101916 192 234 140
0.213268 -0.0711158 0.0908534 192 234 140
0.15019 -0.161406 0.0969245 192 234 140
0.330352 -0.190812 0.102248 192 234 140
0.126674 -0.331379 0.102761 192 234 140
0.143999 -0.196908 0.0994387 192 234 140
0.115309 -0.406505 0.110665 192 234 140
0.316744 -0.281341 0.101917 192 234 140
0.232195 -0.331231 0.099528 192 234 140
0.162594 -0.376977 0.104465 192 234 140
0.303656 -0.340039 0.103242 192 234 140
0.363907 -0.237671 0.105246 192 234 140
0.348501 -0.274101 0.104319 192 234 140
0.33935 -0.28729 0.103745 192 234 140
0.30989 -0.122557 0.0976399 192 234 140
0.233984 -0.235922 0.0965022 192 234 140
0.209208 -0.297184 0.0962154 192 234 140
0.288875 -0.0672881 0.0945389 192 234 140
0.138661 -0.394811 0.107977 192 234 140
0.11034 -0.35917 0.10631 192 234 140
0.156024 -0.115727 0.0929892 192 234 140
0.313474 -0.308348 0.102366 192 234 140
0.173798 -0.176541 0.0972294 192 234 140
0.355679 -0.186689 0.104413 192 234 140
0.114461 -0.270483 0.10428 192 234 140
0.346365 -0.317028 0.104799 192 234 140
0.204995 -0.197772 0.0958784 192 234 140
0.359257 -0.181802 0.104635 192 234 140
0.328949 -0.196513 0.102209 192 234 140
0.340701 -0.330853 0.105131 192 234 140
0.293021 -0.31415 0.100401 192 234 140
0.349557 -0.264277 0.10452 192 234 140
0.24969 -0.270703 0.097306 192 234 140
0.371456 -0.35102 0.111686 192 234 140
0.150175 -0.173789 0.0978305 192 234 140
0.356403 -0.140461 0.104497 192 234 140
0.153834 -0.274448 0.0999253 192 234 140
0.364176 -0.28353 0.105334 192 234 140
0.185012 -0.247073 0.097579 192 234 140
0.348132 -0.285952 0.104231 192 234 140
0.182068 -0.208505 0.0972745 192 234 140
0.274561 -0.188168 0.0980736 192 234 140
0.339427 -0.187228 0.103326 192 234 140
0.230851 -0.182909 0.0954558 192 234 140
0.140218 -0.25089 0.101261 192 234 140
0.200397 -0.264132 0.096168 192 234 140
0.18091 -0.308056 0.0972589 192 234 140
0.24179 -0.149009 0.0946248 192 234 140
0.367868 -0.191907 0.104936 192 234 140
0.29758 -0.306824 0.100339 192 234 140
0.276046 -0.209028 0.098678 192 234 140
0.324184 -0.202424 0.101767 192 234 140
0.29302 -0.309089 0.0999481 192 234 140
0.194795 -0.345368 0.0988531 192 234 140
0.16262 -0.0442809 0.0901656 192 234 140
0.172752 -0.0965498 0.0913749 192 234 140
0.313114 -0.249182 0.101004 192 234 140
0.155534 -0.349575 0.10006 192 234 140
0.203361 -0.0831 0.0914099 192 234 140
0.282754 -0.290515 0.0981591 192 234 140
0.201008 -0.308169 0.0968971 192 234 140
0.169214 -0.17153 0.097112 192 234 140
0.364765 -0.309049 0.1066 192 234 140
0.141 -0.270273 0.100906 192 234 140
0.202302 -0.386229 0.103251 192 234 140
0.302979 -0.250432 0.100347 192 234 140
0.345766 -0.260305 0.104274 192 234 140
0.168414 -0.356056 0.100001 192 234 140
0.114142 -0.114649 0.0953225 192 234 140
0.156892 -0.155103 0.0962883 192 234 140
0.240975 -0.333109 0.0996535 192 234 140
0.150953 -0.344408 0.100266 192 234 140
0.365371 -0.12626 0.10551 192 234 140
0.216677 -0.0736787 0.0909477 192 234 140
0.16765 -0.15295 0.0957846 192 234 140
0.246148 -0.217361 0.0966836 192 234 140
0.294611 -0.320096 0.101005 192 234 140
0.198815 -0.193963 0.0962414 192 234 140
0.314906 -0.153959 0.0995619 192 234 140
0.213397 -0.392034 0.104429 192 234 140
0.194889 -0.264339 0.0965413 192 234 140
0.337706 -0.0979509 0.101377 192 234 140
0.160619 -0.365011 0.102524 192 234 140
0.348499 -0.300489 0.104778 192 234 140
0.0913499 -0.397446 0.111654 192 234 140
0.234243 -0.238667 0.0965751 192 234 140
0.186842 -0.292953 0.0970465 192 234 140
0.28954 -0.285026 0.0986636 192 234 140
0.124133 -0.386954 0.108077 192 234 140
0.324918 -0.276135 0.102717 192 234 140
0.331267 -0.0846912 0.100026 192 234 140
0.30247 -0.139925 0.0977184 192 234 140
0.267046 -0.361425 0.103465 192 234 140
0.122985 -0.0474821 0.122294 224 210 119
0.0881234 -0.0518715 0.199846 224 210 119
0.100608 -0.139578 0.145075 224 210 119
0.0984673 -0.248848 0.197254 224 210 119
0.0960222 -0.306379 0.245676 224 210 119
0.181393 -0.132309 0.117306 224 210 119
0.244826 -0.271487 0.121171 224 210 119
0.098953 -0.290868 0.284194 224 210 119
0.23411 -0.272657 0.121024 224 210 119
0.156319 -0.220269 0.118313 224 210 119
0.0929814 -0.309426 0.159642 224 210 119
0.26847 -0.123025 0.115978 224 210 119
0.261574 -0.0615008 0.116603 224 210 119
0.0936266 -0.0822897 0.152624 224 210 119
0.254095 -0.0645516 0.117027 224 210 119
0.0917668 -0.0917562 0.200989 224 210 119
0.303193 -0.275272 0.119323 224 210 119
0.256189 -0.199754 0.118226 224 210 119
0.239887 -0.1281 0.116617 224 210 119
0.0911547 -0.088183 0.204338 224 210 119
0.299333 -0.166992 0.11555 224 210 119
0.0875543 -0.00514501 0.144692 224 210 119
0.256341 -0.109502 0.116376 224 210 119
0.312898 -0.146635 0.114559 224 210 119
0.272595 -0.11256 0.115957 224 210 119
0.0947229 -0.125235 0.275198 224 210 119
0.186632 -0.194723 0.116413 224 210 119
0.0932341 -0.0926812 0.19198 224 210 119
0.273935 -0.186989 0.117192 224 210 119
0.249833 -0.288306 0.121608 224 210 119
0.223766 -0.286807 0.121087 224 210 119
0.248378 -0.246709 0.120002 224 210 119
0.0895216 -0.024425 0.142863 224 210 119
0.23938 -0.101421 0.11695 224 210 119
0.0892567 -0.056193 0.191553 224 210 119
0.164996 -0.148865 0.117965 224 210 119
0.114954 -0.196696 0.129376 224 210 119
0.0879431 -0.0127411 0.181775 224 210 119
0.121621 -0.301079 0.127107 224 210 119
0.298257 -0.188719 0.116054 224 210 119
0.12354 -0.369283 0.124577 224 210 119
0.0887508 -0.0385209 0.152611 224 210 119
0.0886459 -0.0393784 0.155361 224 210 119
0.204983 -0.313041 0.121117 224 210 119
0.097889 -0.35139 0.263159 224 210 119
0.142819 -0.0813403 0.120757 224 210 119
0.0944762 -0.344365 0.135982 224 210 119
0.0899453 -0.116151 0.239833 224 210 119
0.096552 -0.197401 0.202332 224 210 119
0.0908898 -0.121524 0.217623 224 210 119
0.0886601 -0.028559 0.258748 224 210 119
0.091118 -0.0251783 0.290082 224 210 119
0.0931914 -0.21156 0.223137 224 210 119
0.0967546 -0.294257 0.257082 224 210 119
0.0866929 -0.0532721 0.223913 224 210 119
0.15013 -0.221492 0.1193 224 210 119
0.178138 -0.105131 0.118309 224 210 119
0.271616 -0.150356 0.116094 224 210 119
0.122179 -0.0618952 0.122377 224 210 119
0.124112 -0.115231 0.123955 224 210 119
0.0966866 -0.279015 0.150733 224 210 119
0.267242 -0.246384 0.120462 224 210 119
0.0940235 -0.0698976 0.33181 224 210 119
0.0872952 -0.0183956 0.149636 224 210 119
0.0970904 -0.192648 0.307895 224 210 119
0.246281 -0.24871 0.120036 224 210 119
0.121645 -0.0546432 0.122318 224 210 119
0.105112 -0.0591166 0.129746 224 210 119
0.314434 -0.0950972 0.114001 224 210 119
0.104213 -0.0226535 0.125751 224 210 119
0.100057 -0.196363 0.157457 224 210 119
0.179139 -0.200692 0.116223 224 210 119
0.136635 -0.284088 0.123852 224 210 119
0.0880727 -0.0313695 0.159167 224 210 119
0.0985223 -0.262793 0.160014 224 210 119
0.0878334 -0.0473483 0.199481 224 210 119
0.16917 -0.0569204 0.119399 224 210 119
0.304052 -0.133337 0.114951 224 210 119
0.17635 -0.121956 0.117614 224 210 119
0.137547 -0.0961815 0.121321 224 210 119
0.0955757 -0.148214 0.194527 224 210 119
0.0970546 -0.109464 0.309176 224 210 119
0.0988134 -0.224259 0.190393 224 210 119
0.0857412 -0.0365718 0.219017 224 210 119
0.168723 -0.117165 0.118437 224 210 119
0.0964659 -0.135972 0.288891 224 210 119
0.225747 -0.077132 0.118208 224 210 119
0.220128 -0.0702785 0.11888 224 210 119
0.242338 -0.00883358 0.114271 224 210 119
0.0970192 -0.119704 0.302853 224 210 119
0.182804 -0.128756 0.11742 224 210 119
0.095975 -0.299421 0.244676 224 210 119
0.0920935 -0.0362157 0.283358 224 210 119
0.0986608 -0.231343 0.178623 224 210 119
0.096093 -0.132372 0.189518 224 210 119
0.137966 -0.188079 0.122258 224 210 119
0.113697 -0.297404 0.128886 224 210 119
0.281266 -0.0239811 0.113308 224 210 119
0.206032 -0.218724 0.116854 224 210 119
0.194497 -0.107301 0.118217 224 210 119
0.094295 -0.188774 0.268731 224 210 119
0.0927774 -0.205046 0.252516 224 210 119
0.147115 -0.358669 0.121804 224 210 119
0.099053 -0.267756 0.294198 224 210 119
0.0844324 -0.00228609 0.209652 224 210 119
0.115058 -0.200484 0.129434 224 210 119
0.133671 -0.198441 0.12355 224 210 119
0.316473 -0.224599 0.115764 224 210 119
0.150142 -0.294396 0.121654 224 210 119
0.217508 -0.2483 0.11904 224 210 119
0.0983784 -0.208717 0.193988 224 210 119
0.280233 -0.161145 0.116048 224 210 119
0.0957475 -0.259172 0.261138 224 210 119
0.0952136 -0.0974896 0.161238 224 210 119
0.184688 -0.34242 0.120831 224 210 119
0.0981176 -0.267653 0.203207 224 210 119
0.152374 -0.0767333 0.120321 224 210 119
0.125343 -0.0570978 0.121963 224 210 119
0.101144 -0.220164 0.15534 224 210 119
0.261923 -0.0694949 0.116787 224 210 119
0.284258 -0.128077 0.115653 224 210 119
0.0964311 -0.0958251 0.291383 224 210 119
0.188123 -0.332898 0.12079 224 210 119
0.0930016 -0.137464 0.261014 224 210 119
0.112158 -0.101163 0.126996 224 210 119
0.143181 -0.179355 0.120919 224 210 119
0.093488 -0.0866427 0.267912 224 210 119
0.0954464 -0.110445 0.279388 224 210 119
0.0871402 -0.014261 0.187589 224 210 119
0.0942509 -0.0936678 0.270753 224 210 119
0.0949159 -0.104896 0.17468 224 210 119
0.102 -0.166267 0.143868 224 210 119
0.0939796 -0.0869847 0.158747 224 210 119
0.297893 -0.196721 0.116373 224 210 119
0.102363 -0.334148 0.315564 224 210 119
0.0960156 -0.345699 0.218436 224 210 119
0.153213 -0.341243 0.121473 224 210 119
0.0975312 -0.179535 0.174688 224 210 119
0.166694 -0.348346 0.121063 224 210 119
0.0971517 -0.276129 0.15046 224 210 119
0.283262 -0.251059 0.120759 224 210 119
0.229375 -0.329688 0.122953 224 210 119
0.099163 -0.235526 0.317952 224 210 119
0.138951 -0.13932 0.121368 224 210 119
0.0974663 -0.136698 0.32842 224 210 119
0.0956994 -0.278715 0.252751 224 210 119
0.221641 -0.186647 0.116952 224 210 119
0.158284 -0.0727347 0.120095 224 210 119
0.0905359 -0.134778 0.222388 224 210 119
0.120297 -0.111409 0.124631 224 210 119
0.14553 -0.0509122 0.120752 224 210 119
0.0936523 -0.334653 0.178118 224 210 119
0.269856 -0.200513 0.118199 224 210 119
0.183457 -0.264226 0.118408 224 210 119
0.194983 -0.0516017 0.119615 224 210 119
0.163843 -0.337325 0.121079 224 210 119
0.0961723 -0.183165 0.288356 224 210 119
0.091014 -0.052873 0.148501 224 210 119
0.308987 -0.23324 0.116908 224 210 119
0.164943 -0.134103 0.118285 224 210 119
0.109286 -0.0844701 0.128318 224 210 119
0.126143 -0.147208 0.124512 224 210 119
0.113672 -0.310829 0.128604 224 210 119
0.105731 0.00525687 0.125147 224 210 119
0.186545 -0.0944792 0.118985 224 210 119
0.275217 -0.0155104 0.113236 224 210 119
0.177829 -0.202958 0.116224 224 210 119
0.176484 -0.104909 0.118282 224 210 119
0.11823 -0.278865 0.128477 224 210 119
0.101538 -0.209486 0.146252 224 210 119
0.295296 -0.0845739 0.115081 224 210 119
0.124359 -0.136137 0.124469 224 210 119
0.0922888 -0.153923 0.252827 224 210 119
0.231611 -0.193166 0.117353 224 210 119
0.295209 -0.256576 0.119884 224 210 119
0.153037 -0.11791 0.120081 224 210 119
0.244072 -0.175766 0.117364 224 210 119
0.0896664 -0.109603 0.231259 224 210 119
0.113829 -0.201256 0.130562 224 210 119
0.128664 -0.146002 0.123867 224 210 119
0.21306 -0.189123 0.11713 224 210 119
0.2193 -0.267598 0.120119 224 210 119
0.096547 -0.142523 0.180366 224 210 119
0.12788 -0.297532 0.125693 224 210 119
0.270515 -0.205829 0.118433 224 210 119
0.299167 -0.195018 0.116219 224 210 119
0.225157 -0.114701 0.117035 224 210 119
0.0959865 -0.128509 0.175474 224 210 119
0.116742 -0.0267522 0.123152 224 210 119
0.219635 -0.27652 0.120491 224 210 119
0.0952873 -0.0714571 0.286151 224 210 119
0.0936675 -0.300485 0.167888 224 210 119
0.274114 -0.237683 0.119917 224 210 119
0.086754 -0.0386701 0.205823 224 210 119
0.0990977 -0.215058 0.180763 224 210 119
0.0890488 0.00393228 0.270695 224 210 119
0.0957558 -0.0841071 0.302771 224 210 119
0.239352 -0.20514 0.117955 224 210 119
0.309799 -0.116066 0.114854 224 210 119
0.122986 -0.0792548 0.123152 224 210 119
0.243138 -0.164148 0.117295 224 210 119
0.158676 -0.302419 0.120792 224 210 119
0.292011 -0.0397431 0.113578 224 210 119
0.0982924 -0.201532 0.182367 224 210 119
0.321486 -0.140632 0.113758 224 210 119
0.0913014 -0.0202946 0.32159 224 210 119
0.291782 -0.0111945 0.112133 224 210 119
0.135271 -0.18574 0.12286 224 210 119
0.181724 -0.139302 0.117174 224 210 119
0.293229 -0.15608 0.115462 224 210 119
0.165834 -0.066351 0.119875 224 210 119
0.220041 -0.248249 0.119191 224 210 119
0.230003 -0.334155 0.123127 224 210 119
0.309209 -0.15535 0.114913 224 210 119
0.0962576 -0.304364 0.202318 224 210 119
0.168496 -0.0244818 0.118743 224 210 119
0.0890077 -0.0285028 0.166583 224 210 119
0.0930273 -0.0475092 0.307404 224 210 119
0.0989699 -0.266496 0.293371 224 210 119
0.107663 -0.174835 0.136122 224 210 119
0.0891715 -0.0073591 0.271326 224 210 119
0.156423 -0.294828 0.121043 224 210 119
0.0937688 -0.294594 0.165419 224 210 119
0.100388 -0.202332 0.153558 224 210 119
0.0968336 -0.286694 0.263109 224 210 119
0.275661 -0.17514 0.11645 224 210 119
0.0960928 -0.298368 0.199472 224 210 119
0.093853 -0.0871198 0.175289 224 210 119
0.239101 -0.0655945 0.117785 224 210 119
0.0990945 -0.273543 0.144304 224 210 119
0.0946466 -0.17743 0.206594 224 210 119
0.0870076 -0.0311629 0.19887 224 210 119
0.265583 -0.123169 0.11604 224 210 119
0.0923389 -0.049565 0.27105 224 210 119
0.101504 -0.36933 0.129599 224 210 119
0.183566 -0.0291779 0.118648 224 210 119
0.0967434 -0.116275 0.159192 224 210 119
0.0907256 -0.358055 0.149323 224 210 119
0.320788 -0.252208 0.116341 224 210 119
0.0899054 -0.0567831 0.187298 224 210 119
0.147779 -0.356623 0.121801 224 210 119
0.323604 -0.137281 0.113543 224 210 119
0.134817 -0.16017 0.122783 224 210 119
0.0866335 -0.0507266 0.220328 224 210 119
0.240506 -0.259716 0.120514 224 210 119
0.0974799 -0.267015 0.163646 224 210 119
0.0925453 -0.0491355 0.326467 224 210 119
0.0838425 0.010758 0.200132 224 210 119
0.0929993 -0.203508 0.222516 224 210 119
0.101997 -0.151902 0.142956 224 210 119
0.169975 -0.136814 0.117707 224 210 119
0.265839 -0.290608 0.121573 224 210 119
0.093013 -0.19363 0.220304 224 210 119
0.0856545 -0.0395897 0.230843 224 210 119
0.0930723 -0.345643 0.14027 224 210 119
0.0950242 -0.332163 0.236863 224 210 119
0.0963768 -0.154396 0.288989 224 210 119
0.315786 -0.158011 0.114536 224 210 119
0.096648 -0.146856 0.175306 224 210 119
0.0907382 -0.122858 0.218953 224 210 119
0.138997 -0.230009 0.122486 224 210 119
0.173519 -0.133352 0.117438 224 210 119
0.279616 -0.0793442 0.11608 224 210 119
0.249694 -0.0874759 0.117057 224 210 119
0.19814 -0.0189368 0.117475 224 210 119
0.294084 -0.236554 0.11866 224 210 119
0.0970019 -0.116837 0.302976 224 210 119
0.129997 0.00770212 0.12154 224 210 119
0.0975307 -0.276782 0.211901 224 210 119
0.0918504 -0.0668507 0.153464 224 210 119
0.0970676 -0.111976 0.314884 224 210 119
0.261765 -0.0560045 0.116284 224 210 119
0.0994257 -0.274947 0.296041 224 210 119
0.0954013 -0.148191 0.279046 224 210 119
0.0966225 -0.105496 0.293273 224 210 119
0.0969652 -0.102752 0.319236 224 210 119
0.211092 -0.0777996 0.119303 224 210 119
0.206609 -0.279289 0.119854 224 210 119
0.145001 -0.300462 0.122213 224 210 119
0.092013 -0.0346374 0.2882 224 210 119
0.11162 -0.0462472 0.124067 224 210 119
0.189115 -0.298057 0.119901 224 210 119
0.319126 -0.175344 0.11449 224 210 119
0.0868751 -0.00450337 0.256098 224 210 119
0.0871684 -0.0140468 0.153966 224 210 119
0.0966223 -0.114253 0.154939 224 210 119
0.146433 -0.193425 0.120213 224 210 119
0.215894 -0.132742 0.117292 224 210 119
0.136153 -0.208793 0.122911 224 210 119
0.319766 -0.0249266 0.11312 224 210 119
0.0995991 -0.277949 0.297564 224 210 119
0.236503 -0.0652749 0.117889 224 210 119
0.0897732 -0.0858827 0.218486 224 210 119
0.0956952 -0.248772 0.22283 224 210 119
0.300588 -0.158878 0.115299 224 210 119
0.0890841 -0.0602833 0.196989 224 210 119
0.254074 -0.233979 0.119369 224 210 119
0.260234 -0.0697752 0.116811 224 210 119
0.303694 -0.0230081 0.1127 224 210 119
0.0947416 -0.363219 0.22888 224 210 119
0.308687 -0.115966 0.114922 224 210 119
0.138913 -0.205505 0.122153 224 210 119
0.0966159 -0.172567 0.194618 224 210 119
0.127393 -0.35302 0.124687 224 210 119
0.202368 -0.167084 0.11709 224 210 119
0.108009 -0.364829 0.128336 224 210 119
0.146133 -0.000279084 0.119506 224 210 119
0.0866613 0.00949602 0.162669 224 210 119
0.0924334 -0.0948875 0.256015 224 210 119
0.100528 -0.130882 0.143755 224 210 119
0.145821 -0.173918 0.120289 224 210 119
0.0903974 -0.0473359 0.259158 224 210 119
0.264441 -0.176445 0.116931 224 210 119
0.257005 -0.216966 0.118414 224 210 119
0.197314 -0.258919 0.118285 224 210 119
0.124006 -0.0201926 0.122554 224 210 119
0.0858147 -0.0192587 0.207865 224 210 119
0.0881982 -0.0408549 0.247469 224 210 119
0.0981071 -0.257452 0.167199 224 210 119
0.0943046 -0.252407 0.23271 224 210 119
0.0920705 -0.0685549 0.153587 224 210 119
0.172873 -0.353602 0.120974 224 210 119
0.0910733 -0.163612 0.226593 224 210 119
0.0866562 -0.00346603 0.152594 224 210 119
0.0952352 -0.333996 0.192951 224 210 119
0.0853579 0.00397047 0.244628 224 210 119
0.126302 0.0060321 0.121998 224 210 119
0.0980997 -0.151797 0.165078 224 210 119
0.0849511 -0.0240395 0.221437 224 210 119
0.0915992 -0.0647396 0.183076 224 210 119
0.227795 -0.0156062 0.115871 224 210 119
0.109905 -0.18463 0.133884 224 210 119
0.136482 -0.23864 0.123338 224 210 119
0.0868596 -0.0543472 0.220955 224 210 119
0.097095 -0.273213 0.192114 224 210 119
0.157227 -0.0845776 0.119836 224 210 119
0.0996817 -0.181013 0.15792 224 210 119
0.231699 -0.15506 0.117116 224 210 119
0.111556 -0.119417 0.128432 224 210 119
0.157147 -0.16954 0.118671 224 210 119
0.179391 -0.0374954 0.119131 224 210 119
0.095957 -0.282492 0.189908 224 210 119
0.0979176 -0.033663 0.13276 224 210 119
0.101481 -0.0703209 0.135059 224 210 119
0.248807 -0.0280189 0.115609 224 210 119
0.269119 -0.166196 0.116457 224 210 119
0.111537 -0.057647 0.12448 224 210 119
0.248928 -0.284788 0.121586 224 210 119
0.100017 -0.192086 0.155234 224 210 119
0.0898597 -0.0914141 0.229846 224 210 119
0.126506 -0.0129815 0.122168 224 210 119
0.133969 -0.341264 0.123918 224 210 119
0.305796 -0.201907 0.115763 224 210 119
0.312489 -0.262961 0.1176 224 210 119
0.0899889 -0.102407 0.221501 224 210 119
0.222088 -0.277154 0.120668 224 210 119
0.0878158 -0.0630935 0.213236 224 210 119
0.142758 -0.109804 0.121025 224 210 119
0.098845 -0.224404 0.32781 224 210 119
0.249472 -0.066839 0.117299 224 210 119
0.190492 -0.285355 0.119425 224 210 119
0.0985818 -0.286944 0.140288 224 210 119
0.0921828 -0.076465 0.19055 224 210 119
0.134159 -0.0239075 0.12158 224 210 119
0.0981309 -0.220969 0.310986 224 210 119
0.275653 -0.332917 0.121532 224 210 119
0.0903596 -0.0499501 0.174411 224 210 119
0.0934611 -0.365568 0.183787 224 210 119
0.100229 -0.285387 0.308059 224 210 119
0.0871166 -0.0306924 0.197591 224 210 119
0.0993681 -0.257955 0.158085 224 210 119
0.0875816 -0.0176582 0.186057 224 210 119
0.307835 -0.0221126 0.112784 224 210 119
0.0849983 -0.0312156 0.22988 224 210 119
0.0837702 -0.00453086 0.231424 224 210 119
0.0924089 -0.362659 0.171721 224 210 119
0.0949341 -0.255498 0.253949 224 210 119
0.0969648 -0.216171 0.20345 224 210 119
0.0984589 -0.186104 0.170624 224 210 119
0.178618 -0.242917 0.117089 224 210 119
0.0949446 -0.35703 0.226598 224 210 119
0.0980286 -0.239388 0.290682 224 210 119
0.0928362 -0.0753407 0.159753 224 210 119
0.0899613 -0.0513667 0.154173 224 210 119
0.178685 -0.0881198 0.119198 224 210 119
0.178663 -0.109283 0.118096 224 210 119
0.102112 -0.141164 0.141399 224 210 119
0.202587 -0.0831908 0.119395 224 210 119
0.328801 -0.189835 0.113803 224 210 119
0.0948653 -0.114515 0.275612 224 210 119
0.0921089 -0.326472 0.157158 224 210 119
0.0967797 -0.0753274 0.14107 224 210 119
0.0947421 -0.287477 0.174076 224 210 119
0.0910967 -0.0267146 0.337344 224 210 119
0.0975845 -0.240091 0.204447 224 210 119
0.09739 -0.176454 0.176698 224 210 119
0.228545 -0.109519 0.116962 224 210 119
0.0937055 -0.0588553 0.320311 224 210 119
0.161155 -0.190892 0.118142 224 210 119
0.26089 -0.0729178 0.116729 224 210 119
0.137209 -0.114782 0.121527 224 210 119
0.0984053 -0.21984 0.196059 224 210 119
0.0921349 -0.173309 0.221305 224 210 119
0.257203 -0.167048 0.1169 224 210 119
0.215234 -0.155582 0.117033 224 210 119
0.0970235 -0.294855 0.216016 224 210 119
0.0868931 -0.00828649 0.150807 224 210 119
0.0833372 0.0120266 0.208632 224 210 119
0.135195 -0.309749 0.123721 224 210 119
0.089796 -0.00338367 0.288438 224 210 119
0.219957 -0.0646296 0.11898 224 210 119
0.175963 -0.107447 0.118144 224 210 119
0.181505 -0.144323 0.11713 224 210 119
0.0897948 -0.0316433 0.173988 224 210 119
0.118593 -0.31714 0.127286 224 210 119
0.0941132 -0.0874277 0.154021 224 210 119
0.0966356 -0.27302 0.163985 224 210 119
0.16687 -0.164998 0.117407 224 210 119
0.0947195 -0.263709 0.233341 224 210 119
0.246292 -0.183284 0.117563 224 210 119
0.130416 -0.289075 0.12523 224 210 119
0.169467 0.00495011 0.117721 224 210 119
0.0871788 -0.0576156 0.217325 224 210 119
0.321472 -0.219642 0.115068 224 210 119
0.0955901 -0.286 0.246234 224 210 119
0.0854495 -0.0220814 0.214326 224 210 119
0.162853 -0.074256 0.119842 224 210 119
0.189952 -0.00685106 0.117204 224 210 119
0.179093 -0.345338 0.120904 224 210 119
0.0899167 -0.129847 0.239734 224 210 119
0.0881841 -0.0389123 0.192474 224 210 119
0.0899096 -0.116038 0.224835 224 210 119
0.315874 -0.127034 0.114303 224 210 119
0.247837 -0.093394 0.117104 224 210 119
0.271697 -0.0977222 0.11632 224 210 119
0.0942382 -0.0570061 0.293455 224 210 119
0.220431 -0.0262653 0.117061 224 210 119
0.285563 -0.210913 0.117728 224 210 119
0.232792 -0.105407 0.116922 224 210 119
0.0968399 -0.103462 0.149185 224 210 119
0.0891386 -0.0430101 0.15342 224 210 119
0.0885938 -0.0290439 0.257917 224 210 119
0.213124 -0.102192 0.118065 224 210 119
0.231462 -0.10044 0.117152 224 210 119
0.0953342 -0.0734367 0.294591 224 210 119
0.281801 -0.0286375 0.113518 224 210 119
0.242661 -0.0150432 0.114785 224 210 119
0.0964284 -0.106987 0.287327 224 210 119
0.0855379 -0.0222658 0.213325 224 210 119
0.306765 -0.224664 0.116543 224 210 119
0.177056 -0.143565 0.117135 224 210 119
0.129495 -0.277729 0.12578 224 210 119
0.0963428 -0.218157 0.207096 224 210 119
0.0974727 -0.180276 0.327201 224 210 119
0.0978461 -0.196894 0.327121 224 210 119
0.100206 -0.255535 0.31919 224 210 119
0.167895 -0.250591 0.117933 224 210 119
0.220531 -0.104823 0.117487 224 210 119
0.24482 -0.135253 0.116644 224 210 119
0.24641 -0.289681 0.121658 224 210 119
0.247636 -0.0293572 0.1158 224 210 119
0.10406 -0.0570206 0.130342 224 210 119
0.116931 -0.08654 0.124717 224 210 119
0.118308 -0.135125 0.125682 224 210 119
0.0946088 -0.0977712 0.168187 224 210 119
0.0870613 -0.0585034 0.226842 224 210 119
0.0926155 -0.317149 0.153344 224 210 119
0.0959483 -0.15436 0.284724 224 210 119
0.0899087 -0.0950348 0.225811 224 210 119
0.316033 -0.138392 0.114225 224 210 119
0.21644 -0.268335 0.120028 224 210 119
0.125529 -0.367819 0.124208 224 210 119
0.316541 -0.27993 0.117248 224 210 119
0.0989157 -0.173813 0.165501 224 210 119
0.101112 -0.325636 0.303975 224 210 119
0.208841 -0.346258 0.122297 224 210 119
0.205909 -0.104811 0.118275 224 210 119
0.119658 -0.237429 0.127281 224 210 119
0.0880598 -0.0504923 0.199523 224 210 119
0.0977313 -0.277594 0.206612 224 210 119
0.110569 -0.153578 0.131867 224 210 119
0.247378 -0.0588076 0.117037 224 210 119
0.0936409 -0.254567 0.238465 224 210 119
0.0895245 -0.0865432 0.236752 224 210 119
0.086146 -0.0424373 0.217633 224 210 119
0.0851288 -0.0318868 0.227962 224 210 119
0.174238 -0.194939 0.116434 224 210 119
0.096699 -0.151965 0.18775 224 210 119
0.10016 -0.291184 0.303992 224 210 119
0.0935605 -0.362491 0.183935 224 210 119
0.280382 -0.0957137 0.116052 224 210 119
0.214164 -0.256116 0.119229 224 210 119
0.0946044 -0.10937 0.191539 224 210 119
0.197708 -0.287172 0.119694 224 210 119
0.254915 -0.241181 0.119881 224 210 119
0.107409 -0.155887 0.135465 224 210 119
0.0950216 -0.11372 0.276746 224 210 119
0.315628 -0.255656 0.117103 224 210 119
0.196312 -0.0878574 0.119167 224 210 119
0.174734 -0.251338 0.117724 224 210 119
0.0953042 -0.244929 0.22359 224 210 119
0.0916274 -0.345111 0.156058 224 210 119
0.225515 -0.160771 0.117041 224 210 119
0.137283 -0.271653 0.123775 224 210 119
0.0856224 0.0103249 0.244564 224 210 119
0.0953456 -0.262106 0.228685 224 210 119
0.131657 -0.123402 0.122624 224 210 119
0.096921 -0.308847 0.209372 224 210 119
0.0935185 -0.125578 0.265964 224 210 119
0.0954647 -0.109315 0.279296 224 210 119
0.0934438 -0.197615 0.218868 224 210 119
0.307 -0.151675 0.114894 224 210 119
0.0966294 -0.183479 0.228886 255 178 96
0.0949878 -0.179368 0.145137 255 178 96
0.10314 -0.0404398 0.11439 255 178 96
0.0966241 -0.202129 0.176938 255 178 96
0.107927 -0.39737 0.151599 255 178 96
0.206096 -0.315159 0.101357 255 178 96
0.0824451 -0.203026 0.327149 255 178 96
0.100078 -0.0107606 0.176116 255 178 96
0.0955804 -0.105922 0.26963 255 178 96
0.183701 -0.358299 0.0995741 255 178 96
0.0806574 -0.128692 0.343409 255 178 96
0.0986712 -0.0514102 0.214152 255 178 96
0.099282 -0.079627 0.197734 255 178 96
0.0779456 -0.334946 0.340081 255 178 96
0.0986588 -0.400799 0.127894 255 178 96
0.0802205 -0.151445 0.363312 255 178 96
0.099558 0.0228663 0.199357 255 178 96
0.0845924 -0.246966 0.311181 255 178 96
0.0923333 -0.343539 0.274044 255 178 96
0.0821368 -0.165662 0.327069 255 178 96
0.111597 -0.316532 0.183511 255 178 96
0.100988 -0.0954481 0.169215 255 178 96
0.0871527 -0.275212 0.290317 255 178 96
0.0955489 -0.244891 0.14374 255 178 96
0.101702 -0.427181 0.113776 255 178 96
0.0917095 -0.386578 0.245857 255 178 96
0.100707 0.00451019 0.138289 255 178 96
0.0842041 -0.230142 0.351844 255 178 96
0.0843817 -0.233701 0.348693 255 178 96
0.100088 -0.0892205 0.174075 255 178 96
0.0850639 -0.226447 0.367769 255 178 96
0.086111 -0.221958 0.295771 255 178 96
0.0998728 -0.0900604 0.179011 255 178 96
0.0816398 -0.335399 0.244541 255 178 96
0.0834791 -0.321183 0.374108 255 178 96
0.0879377 -0.295844 0.314585 255 178 96
0.232043 -0.29826 0.102888 255 178 96
0.117277 -0.403128 0.132722 255 178 96
0.0968217 -0.145894 0.153303 255 178 96
0.0974652 -0.418304 0.114194 255 178 96
0.0959601 -0.32172 0.21568 255 178 96
0.091612 -0.223235 0.264312 255 178 96
0.0862034 -0.29427 0.378478 255 178 96
0.177937 -0.382788 0.109566 255 178 96
0.0789957 -0.349239 0.315757 255 178 96
0.0996495 -0.126146 0.150769 255 178 96
0.0957143 -0.159594 0.238634 255 178 96
0.0963458 -0.344216 0.240095 255 178 96
0.0889111 -0.382045 0.258229 255 178 96
0.0866872 -0.251108 0.36733 255 178 96
0.0967954 -0.189661 0.209459 255 178 96
0.116991 -0.403468 0.132248 255 178 96
0.0963859 -0.0612402 0.277666 255 178 96
0.0997838 -0.030101 0.18564 255 178 96
0.103395 -0.0694133 0.129775 255 178 96
0.192641 -0.361685 0.110316 255 178 96
0.0905622 -0.0578548 0.335235 255 178 96
0.0863499 -0.261224 0.347819 255 178 96
0.0960762 -0.206715 0.129342 255 178 96
0.0818046 -0.125032 0.338542 255 178 96
0.0980021 -0.00963017 0.234795 255 178 96
0.100803 -0.0529678 0.10056 255 178 96
0.0962003 -0.193462 0.233203 255 178 96
0.0919922 -0.228095 0.260196 255 178 96
0.0882051 -0.284803 0.371223 255 178 96
0.0863727 -0.30687 0.370706 255 178 96
0.0857134 -0.278876 0.387276 255 178 96
0.103229 -0.418435 0.107483 255 178 96
0.184806 -0.352895 0.128419 255 178 96
0.166045 -0.380359 0.0980348 255 178 96
0.100447 0.0159791 0.149681 255 178 96
0.0961022 -0.139677 0.238476 255 178 96
0.082886 -0.356632 0.311152 255 178 96
0.0863883 -0.0785372 0.339381 255 178 96
0.102114 -0.40246 0.143181 255 178 96
0.10323 -0.0772551 0.136971 255 178 96
0.089141 -0.101139 0.317677 255 178 96
0.0920983 -0.108881 0.297879 255 178 96
0.0985449 -0.0113038 0.212742 255 178 96
0.0819512 -0.37633 0.258764 255 178 96
0.093677 -0.411644 0.127333 255 178 96
0.104086 -0.371617 0.208802 255 178 96
0.0980322 -0.0942713 0.234827 255 178 96
0.0908424 -0.333762 0.292115 255 178 96
0.0990247 -0.148746 0.173426 255 178 96
0.098844 -0.388233 0.217167 255 178 96
0.0968226 -0.0402416 0.276629 255 178 96
0.0955031 -0.253221 0.145588 255 178 96
0.0890491 -0.308034 0.29848 255 178 96
0.110032 -0.33016 0.187212 255 178 96
0.0747413 -0.318839 0.330577 255 178 96
0.132885 -0.389737 0.144247 255 178 96
0.0969643 -0.107947 0.0857415 255 178 96
0.0802098 -0.0988008 0.354466 255 178 96
0.0828901 -0.219425 0.334881 255 178 96
0.0861689 -0.333039 0.35398 255 178 96
0.10018 -0.356016 0.198268 255 178 96
0.0841989 -0.349958 0.287297 255 178 96
0.0955054 -0.273554 0.148181 255 178 96
0.0848193 -0.15573 0.316286 255 178 96
0.232572 -0.304294 0.102963 255 178 96
0.0953571 -0.241844 0.156775 255 178 96
0.0959922 -0.348159 0.1477 255 178 96
0.0890827 -0.0898878 0.323403 255 178 96
0.0939004 -0.0246082 0.315516 255 178 96
0.143776 -0.402154 0.104909 255 178 96
0.168317 -0.382998 0.119768 255 178 96
0.0813511 -0.177511 0.351429 255 178 96
0.0812313 -0.122881 0.341223 255 178 96
0.0886574 -0.22519 0.393786 255 178 96
0.100317 -0.389742 0.201651 255 178 96
0.0975133 -0.377518 0.232172 255 178 96
0.095931 -0.203683 0.234471 255 178 96
0.0719061 -0.265456 0.363353 255 178 96
0.0981913 -0.145138 0.159985 255 178 96
0.0943868 -0.327889 0.252725 255 178 96
0.0947054 -0.216459 0.171492 255 178 96
0.0856742 -0.242486 0.380644 255 178 96
0.0974261 -0.39428 0.177009 255 178 96
0.0802899 -0.318754 0.3725 255 178 96
0.0873563 -0.355242 0.321323 255 178 96
0.135088 -0.406711 0.10235 255 178 96
0.119412 -0.38794 0.16072 255 178 96
0.202102 -0.3401 0.104495 255 178 96
0.205213 -0.327443 0.101794 255 178 96
0.0870634 -0.230015 0.380057 255 178 96
0.210485 -0.317812 0.10155 255 178 96
0.101381 -0.0263385 0.130895 255 178 96
0.0796708 -0.092434 0.36169 255 178 96
0.0959639 -0.361155 0.157275 255 178 96
0.0955441 -0.358315 0.133381 255 178 96
0.19159 -0.358197 0.120946 255 178 96
0.140227 -0.325218 0.163557 255 178 96
0.0969272 -0.0845657 0.0931159 255 178 96
0.102153 -0.384293 0.184474 255 178 96
0.0963627 -0.200431 0.216197 255 178 96
0.096061 -0.10131 0.267487 255 178 96
0.0976759 -0.156491 0.166434 255 178 96
0.101884 -0.0387692 0.129696 255 178 96
0.0955656 -0.222691 0.230303 255 178 96
0.0950369 -0.178973 0.247176 255 178 96
0.0998521 -0.0977026 0.183853 255 178 96
0.0959421 -0.341434 0.242591 255 178 96
0.121704 -0.386365 0.161667 255 178 96
0.178458 -0.327795 0.141494 255 178 96
0.0810104 -0.135413 0.374069 255 178 96
0.0957614 -0.273465 0.19383 255 178 96
0.0832025 -0.226424 0.321305 255 178 96
0.135625 -0.362303 0.157647 255 178 96
0.0805804 -0.12846 0.344122 255 178 96
0.0892432 -0.308656 0.295503 255 178 96
0.0993371 -0.0865841 0.196308 255 178 96
0.0862636 -0.270473 0.301517 255 178 96
0.0842084 -0.181824 0.312873 255 178 96
0.0834985 -0.218955 0.348426 255 178 96
0.0947645 -0.314135 0.169021 255 178 96
0.0946456 -0.263239 0.182815 255 178 96
0.142499 -0.385133 0.140729 255 178 96
0.097925 -0.015525 0.240313 255 178 96
0.0937469 -0.180492 0.256697 255 178 96
0.0964305 -0.0289746 0.286397 255 178 96
0.240059 -0.327577 0.103374 255 178 96
0.100958 -0.420882 0.10145 255 178 96
0.100335 -0.363311 0.203754 255 178 96
0.0693883 -0.293815 0.347939 255 178 96
0.0864634 -0.165924 0.305611 255 178 96
0.0836437 -0.208057 0.365819 255 178 96
0.0881719 -0.286757 0.291319 255 178 96
0.116928 -0.368489 0.178726 255 178 96
0.09079 -0.164831 0.397193 255 178 96
0.0985196 -0.00574511 0.213922 255 178 96
0.0948166 -0.166191 0.147522 255 178 96
0.100074 0.0354787 0.199028 255 178 96
0.0996053 -0.0608657 0.184344 255 178 96
0.0991476 -0.150117 0.172395 255 178 96
0.0882911 -0.294585 0.300847 255 178 96
0.0808822 -0.167088 0.357283 255 178 96
0.0971251 -0.213742 0.186607 255 178 96
0.0983935 -0.329932 0.204255 255 178 96
0.096997 -0.159151 0.224354 255 178 96
0.0973109 -0.170649 0.206052 255 178 96
0.130066 -0.400467 0.0962523 255 178 96
0.0886983 -0.0754301 0.332673 255 178 96
0.0804355 -0.390687 0.215898 255 178 96
0.0985492 -0.0780848 0.103946 255 178 96
0.103299 -0.409598 0.159734 255 178 96
0.0983186 -0.088482 0.228107 255 178 96
0.096967 -0.150813 0.157827 255 178 96
0.0884564 -0.306408 0.325747 255 178 96
0.0868294 -0.252248 0.369706 255 178 96
0.0971226 -0.107311 0.0864921 255 178 96
0.0969909 -0.0969808 0.256446 255 178 96
0.0899847 -0.231608 0.396344 255 178 96
0.18578 -0.371895 0.109911 255 178 96
0.100114 0.0355824 0.197638 255 178 96
0.0865987 -0.247638 0.387052 255 178 96
0.102861 -0.0273433 0.111798 255 178 96
0.0973439 -0.354359 0.236936 255 178 96
0.192115 -0.334571 0.127935 255 178 96
0.0905986 -0.26826 0.26528 255 178 96
0.0806741 -0.133082 0.347502 255 178 96
0.189399 -0.368356 0.113255 255 178 96
0.0662005 -0.250374 0.355684 255 178 96
0.0956781 -0.419489 0.118365 255 178 96
0.0968845 -0.142396 0.109904 255 178 96
0.0694966 -0.216521 0.358846 255 178 96
0.0905494 -0.18813 0.276403 255 178 96
0.083987 -0.167525 0.380074 255 178 96
0.0826793 -0.37857 0.254608 255 178 96
0.0997182 0.0107008 0.189994 255 178 96
0.101306 -0.0119992 0.128853 255 178 96
0.0797704 -0.101531 0.371694 255 178 96
0.100004 -0.0871194 0.119039 255 178 96
0.0885996 -0.312395 0.325203 255 178 96
0.0964193 -0.240739 0.195919 255 178 96
0.0960021 -0.20615 0.138397 255 178 96
0.0835596 -0.157584 0.379855 255 178 96
0.0908189 -0.227752 0.269757 255 178 96
0.0947296 -0.185594 0.160396 255 178 96
0.100102 -0.00939678 0.167476 255 178 96
0.1005 -0.120017 0.150865 255 178 96
0.0954715 -0.241348 0.155164 255 178 96
0.0883382 -0.30331 0.312901 255 178 96
0.0823291 -0.196485 0.354072 255 178 96
0.0802753 -0.117819 0.373299 255 178 96
0.09626 -0.117956 0.0876663 255 178 96
0.0801667 -0.12092 0.353569 255 178 96
0.0960497 -0.1468 0.150408 255 178 96
0.278802 -0.363915 0.125994 255 178 96
0.0906314 -0.337836 0.295436 255 178 96
0.0940686 -0.375088 0.235897 255 178 96
0.0954067 -0.376881 0.128799 255 178 96
0.0952171 -0.270986 0.188885 255 178 96
0.227354 -0.299737 0.102774 255 178 96
0.0893198 -0.107995 0.313919 255 178 96
0.093395 -0.187828 0.25764 255 178 96
0.0926512 -0.126892 0.286732 255 178 96
0.249057 -0.314018 0.103583 255 178 96
0.139996 -0.375609 0.14843 255 178 96
0.0882959 -0.299973 0.347434 255 178 96
0.0809235 -0.137558 0.344098 255 178 96
0.0965895 -0.231148 0.189898 255 178 96
0.0984187 -0.12138 0.208339 255 178 96
0.0950406 -0.162232 0.155 255 178 96
0.0822205 -0.198695 0.337659 255 178 96
0.100318 -0.0498194 0.155164 255 178 96
0.0989779 -0.0619355 0.20887 255 178 96
0.0944152 -0.308931 0.180056 255 178 96
0.0940816 -0.23643 0.175684 255 178 96
0.0991386 -0.351583 0.192757 255 178 96
0.0926405 -0.383997 0.224942 255 178 96
0.0874634 -0.272465 0.365494 255 178 96
0.182448 -0.357057 0.128814 255 178 96
0.0983725 -0.139093 0.156075 255 178 96
0.0965812 -0.117389 0.129189 255 178 96
0.102197 -0.0484484 0.130385 255 178 96
0.0990074 -0.111708 0.203964 255 178 96
0.09441 -0.2104 0.167464 255 178 96
0.087556 -0.275572 0.286588 255 178 96
0.0999052 -0.399656 0.153144 255 178 96
0.103128 -0.0343175 0.1099 255 178 96
0.0855064 -0.236635 0.297527 255 178 96
0.245936 -0.27983 0.110187 255 178 96
0.0841148 -0.235522 0.309525 255 178 96
0.0987709 -0.150168 0.167656 255 178 96
0.103885 -0.417825 0.108795 255 178 96
0.0953885 -0.150379 0.131805 255 178 96
0.0980454 -0.408708 0.120923 255 178 96
0.0969553 -0.117681 0.0967964 255 178 96
0.0822252 -0.130427 0.378514 255 178 96
0.0995474 -0.138637 0.167386 255 178 96
0.0988524 -0.15186 0.17041 255 178 96
0.0912855 -0.33564 0.286678 255 178 96
0.0800184 -0.141042 0.369878 255 178 96
0.102517 -0.0363782 0.120808 255 178 96
0.0880138 -0.286069 0.365526 255 178 96
0.0977226 -0.370298 0.232925 255 178 96
0.101079 -0.024436 0.136887 255 178 96
0.0933146 -0.252855 0.25088 255 178 96
0.0946401 -0.172741 0.154592 255 178 96
0.0986394 -0.421545 0.116141 255 178 96
0.101827 -0.406877 0.132721 255 178 96
0.0817797 -0.396054 0.198691 255 178 96
0.0924128 -0.177437 0.392645 255 178 96
0.0951098 -0.0451363 0.298995 255 178 96
0.0897906 -0.154132 0.292688 255 178 96
0.0796335 -0.105426 0.365434 255 178 96
0.0893913 -0.337703 0.319609 255 178 96
0.224288 -0.303052 0.112971 255 178 96
0.10009 -0.124409 0.152413 255 178 96
0.0986253 -0.393713 0.17663 255 178 96
0.0960421 -0.421801 0.114526 255 178 96
0.134774 -0.378826 0.149955 255 178 96
0.094231 -0.101788 0.286052 255 178 96
0.0972065 -0.182726 0.199103 255 178 96
0.103953 -0.41753 0.132279 255 178 96
0.0997682 -0.0200995 0.187864 255 178 96
0.113741 -0.411197 0.117492 255 178 96
0.233174 -0.299851 0.106305 255 178 96
0.0827288 -0.101625 0.342086 255 178 96
0.0944893 -0.243534 0.242296 255 178 96
0.0806202 -0.343563 0.332505 255 178 96
0.0991266 -0.0729394 0.103341 255 178 96
0.0968734 -0.102084 0.0948392 255 178 96
0.117743 -0.359164 0.176158 255 178 96
0.098282 -0.0369393 0.221575 255 178 96
0.0867535 -0.273989 0.294608 255 178 96
0.0952758 -0.184764 0.244784 255 178 96
0.101424 -0.402448 0.187419 255 178 96
0.0902504 -0.188174 0.399273 255 178 96
0.0993346 -0.370905 0.215513 255 178 96
0.0848775 -0.0821365 0.342981 255 178 96
0.0833151 -0.167708 0.319884 255 178 96
0.11673 -0.384733 0.171443 255 178 96
0.0961634 -0.0124273 0.290903 255 178 96
0.0963163 -0.116174 0.125756 255 178 96
0.125427 -0.406916 0.0977219 255 178 96
0.10102 -0.423181 0.120103 255 178 96
0.229009 -0.301604 0.10265 255 178 96
0.226636 -0.301977 0.102559 255 178 96
0.0875153 -0.284826 0.331717 255 178 96
0.0901847 -0.160636 0.287739 255 178 96
0.160633 -0.309078 0.157996 255 178 96
0.0945427 -0.183718 0.249812 255 178 96
0.0854527 -0.259774 0.314284 255 178 96
0.0718985 -0.2942 0.334955 255 178 96
0.10807 -0.402513 0.138196 255 178 96
0.217975 -0.297153 0.102614 255 178 96
0.0946976 -0.247719 0.235847 255 178 96
0.0864402 -0.268773 0.33311 255 178 96
0.0837009 -0.359585 0.306599 255 178 96
0.188693 -0.35036 0.100065 255 178 96
0.0884735 -0.115201 0.314788 255 178 96
0.0856071 -0.261645 0.317709 255 178 96
0.102402 -0.0116758 0.110688 255 178 96
0.0950289 -0.318924 0.2313 255 178 96
0.0832598 -0.227337 0.320314 255 178 96
0.136577 -0.362794 0.156207 255 178 96
0.0978174 -0.023135 0.253301 255 178 96
0.0990699 0.0208372 0.213633 255 178 96
0.0956677 -0.424067 0.103573 255 178 96
0.0960342 -0.134099 0.243705 255 178 96
0.0992707 -0.0613537 0.1982 255 178 96
0.0945922 -0.324374 0.248289 255 178 96
0.0796095 -0.331627 0.306552 255 178 96
0.19086 -0.365819 0.112287 255 178 96
0.0936352 -0.375576 0.237412 255 178 96
0.183906 -0.293791 0.150072 255 178 96
0.0958705 -0.276951 0.196201 255 178 96
0.0782512 -0.318468 0.369061 255 178 96
0.0984137 -0.116428 0.213202 255 178 96
0.0818672 -0.168309 0.330836 255 178 96
0.0965064 -0.173088 0.166114 255 178 96
0.0926477 -0.281272 0.253294 255 178 96
0.0953365 -0.154856 0.132915 255 178 96
0.0952026 -0.225992 0.237843 255 178 96
0.0807436 -0.138125 0.349429 255 178 96
0.0978267 -0.116621 0.229318 255 178 96
0.0992435 -0.133955 0.155719 255 178 96
0.0825761 -0.163477 0.375571 255 178 96
0.155209 -0.389508 0.123624 255 178 96
0.133183 -0.381394 0.151615 255 178 96
0.0835843 -0.200806 0.368305 255 178 96
0.0975788 -0.166026 0.201955 255 178 96
0.0972584 -0.409107 0.130492 255 178 96
0.0953023 -0.242553 0.21557 255 178 96
0.0982904 -0.161037 0.18775 255 178 96
0.0755587 -0.320133 0.359617 255 178 96
0.0830687 -0.165941 0.377025 255 178 96
0.178408 -0.382184 0.110004 255 178 96
0.10205 -0.0960994 0.140097 255 178 96
0.10064 -0.376721 0.17731 255 178 96
0.0712582 -0.29479 0.360971 255 178 96
0.0979303 0.00183159 0.258112 255 178 96
0.0868099 -0.130622 0.394242 255 178 96
0.0840513 -0.232646 0.341153 255 178 96
0.0978276 -0.104328 0.124465 255 178 96
0.100003 -0.417737 0.126239 255 178 96
0.0922941 -0.0617071 0.322281 255 178 96
0.0909813 -0.188552 0.273791 255 178 96
0.0745492 -0.307464 0.3078 255 178 96
0.0955948 -0.166413 0.241812 255 178 96
0.0802605 -0.121488 0.347198 255 178 96
0.0832624 -0.217556 0.344497 255 178 96
0.100123 -0.00322239 0.158474 255 178 96
0.080441 -0.132628 0.372372 255 178 96
0.0874091 -0.274823 0.287492 255 178 96
0.0947997 -0.274909 0.225835 255 178 96
0.0999986 -0.0916556 0.176738 255 178 96
0.0756962 -0.328385 0.344745 255 178 96
0.0862089 -0.165616 0.306807 255 178 96
0.0987282 -0.425898 0.108688 255 178 96
0.0873838 -0.274756 0.383971 255 178 96
0.095065 -0.388364 0.238334 255 178 96
0.0819918 -0.122662 0.338445 255 178 96
0.0824629 -0.139704 0.378285 255 178 96
0.0858775 -0.152219 0.388379 255 178 96
0.0977256 -0.184531 0.191898 255 178 96
0.0968177 -0.185337 0.222344 255 178 96
0.0960753 -0.121352 0.12782 255 178 96
0.128309 -0.345328 0.168697 255 178 96
0.0917088 -0.268568 0.259122 255 178 96
0.0948216 -0.163433 0.249891 255 178 96
0.0959177 -0.254831 0.208434 255 178 96
0.0888685 -0.189931 0.396969 255 178 96
0.0910911 -0.112185 0.30269 255 178 96
0.102616 -0.0642788 0.135786 255 178 96
