ply
format ascii 1.0
comment Created by Open3D
element vertex 1207
property double x
property double y
property double z
property uchar red
property uchar green
property uchar blue
end_header
0.0470841 -0.479539 0.140041 95 49 253
0.0605363 -0.323683 -0.329341 95 49 253
-0.0686967 -0.486798 -0.228826 95 49 253
-0.150516 -0.469767 0.129396 95 49 253
-0.212833 -0.477692 0.0465976 95 49 253
-0.101013 -0.33295 -0.31164 95 49 253
-0.0177108 -0.420377 -0.315102 95 49 253
-0.0790521 -0.485589 0.00676498 95 49 253
-0.172446 -0.386373 -0.307053 95 49 253
0.0398567 -0.48778 -0.251672 95 49 253
0.145278 -0.484968 0.0439178 95 49 253
-0.280328 -0.473806 0.0752521 95 49 253
0.15725 -0.482017 0.205539 95 49 253
-0.148788 -0.473048 0.102685 95 49 253
-0.0186681 -0.487259 -0.185803 95 49 253
-0.0561019 -0.475631 0.12623 95 49 253
-0.0842931 -0.389998 -0.310382 95 49 253
-0.0919553 -0.377151 -0.310378 95 49 253
0.0810702 -0.222424 -0.331037 95 49 253
0.0694895 -0.474564 0.21648 95 49 253
0.10964 -0.484063 0.109999 95 49 253
-0.0881106 -0.485531 -0.0427259 95 49 253
-0.215934 -0.470417 0.105053 95 49 253
-0.063582 -0.486591 -0.185124 95 49 253
-0.0809015 -0.468733 0.177772 95 49 253
-0.152956 -0.404259 0.239563 95 49 253
-0.191281 -0.481146 0.0233198 95 49 253
-0.0188937 -0.47655 0.132219 95 49 253
-0.191935 -0.471869 0.0966851 95 49 253
0.0125658 -0.467645 0.246905 95 49 253
0.106322 -0.486973 -0.185675 95 49 253
-0.15561 -0.466006 0.169331 95 49 253
-0.22288 -0.473689 -0.303753 95 49 253
-0.0511931 -0.314228 -0.318657 95 49 253
0.07005 -0.118687 -0.333296 95 49 253
-0.223421 -0.478952 0.0328646 95 49 253
0.104353 -0.488605 -0.276437 95 49 253
-0.178137 -0.475567 0.070995 95 49 253
-0.166428 -0.463118 0.194461 95 49 253
-0.144336 -0.485629 -0.265522 95 49 253
-0.292475 -0.480875 -0.00687802 95 49 253
-0.220016 -0.485062 -0.115932 95 49 253
-0.148212 -0.345929 0.235322 95 49 253
0.0852069 -0.487333 -0.29754 95 49 253
-0.0900608 -0.485851 -0.28092 95 49 253
-0.145649 -0.480483 0.0382363 95 49 253
-0.0466041 -0.486595 -0.268132 95 49 253
-0.0567044 -0.486898 -0.137055 95 49 253
0.0210933 -0.293926 -0.326288 95 49 253
0.0851294 -0.466698 -0.320815 95 49 253
0.0564278 -0.137703 -0.330646 95 49 253
-0.0020516 -0.470671 0.209523 95 49 253
-0.173249 -0.482913 0.00983793 95 49 253
-0.0588143 -0.486618 -0.189016 95 49 253
-0.235223 -0.485861 -0.168005 95 49 253
0.00226139 -0.144128 -0.32487 95 49 253
-0.111679 -0.381618 -0.310055 95 49 253
-0.285713 -0.482236 -0.0322674 95 49 253
0.0213304 -0.440982 -0.315026 95 49 253
0.0241627 -0.472155 0.211156 95 49 253
-0.130669 -0.467566 0.163084 95 49 253
-0.0876138 -0.254857 -0.315604 95 49 253
0.0720001 -0.103322 -0.33435 95 49 253
-0.0221309 -0.481986 0.0816777 95 49 253
-0.149824 -0.480466 -0.30292 95 49 253
-0.232973 -0.464792 0.16096 95 49 253
-0.11582 -0.474926 0.100724 95 49 253
-0.114273 -0.482098 0.0401284 95 49 253
0.0237294 -0.487517 -0.191186 95 49 253
-0.249736 -0.482474 -0.0137384 95 49 253
-0.0249167 -0.48748 -0.15817 95 49 253
0.130404 -0.487257 -0.166147 95 49 253
-0.123061 -0.475463 0.0917771 95 49 253
-0.11004 -0.47683 0.0840296 95 49 253
-0.0342505 -0.48669 -0.100396 95 49 253
-0.155226 -0.462268 0.206654 95 49 253
-0.192316 -0.422992 -0.305266 95 49 253
0.0405069 -0.371623 -0.326689 95 49 253
-0.151513 -0.457332 0.222542 95 49 253
0.10783 -0.487392 -0.206817 95 49 253
0.112537 -0.48236 0.151511 95 49 253
-0.0552887 -0.439503 -0.310203 95 49 253
0.0907342 -0.485509 0.0233297 95 49 253
-0.0359244 -0.486994 -0.194166 95 49 253
-0.188358 -0.485277 -0.117903 95 49 253
-0.168369 -0.484795 -0.0794316 95 49 253
0.0837159 -0.480155 0.158459 95 49 253
0.0169205 -0.135212 -0.326597 95 49 253
-0.0694853 -0.486011 -0.282994 95 49 253
0.109675 -0.485704 -0.0164887 95 49 253
0.0228363 -0.473581 0.191678 95 49 253
-0.0125334 -0.484782 -0.303314 95 49 253
-0.284395 -0.472121 0.0887625 95 49 253
0.0792672 -0.47284 0.253172 95 49 253
-0.224011 -0.462318 0.185317 95 49 253
0.148425 -0.486782 -0.0696787 95 49 253
-0.0355228 -0.467257 0.222749 95 49 253
0.125456 -0.487274 -0.126973 95 49 253
0.0392959 -0.308353 -0.328097 95 49 253
-0.141916 -0.470356 0.127664 95 49 253
-0.178582 -0.483687 -0.00156282 95 49 253
-0.0735115 -0.486686 -0.170041 95 49 253
-0.207995 -0.474689 0.0719985 95 49 253
-0.0663982 -0.439242 -0.310113 95 49 253
-0.0872823 -0.473784 0.127006 95 49 253
0.0891515 -0.369407 -0.329146 95 49 253
-0.0343132 -0.480051 0.0924566 95 49 253
-0.0743215 -0.463593 0.233073 95 49 253
-0.170007 -0.46362 0.188393 95 49 253
-0.218822 -0.46122 0.195735 95 49 253
-0.0313553 -0.46946 0.204254 95 49 253
-0.208157 -0.484854 -0.0994642 95 49 253
-0.14945 -0.414843 -0.308783 95 49 253
-0.152349 -0.481711 -0.301085 95 49 253
-0.21514 -0.479117 0.0323826 95 49 253
-0.0437882 -0.215079 -0.320238 95 49 253
0.155734 -0.482524 0.187873 95 49 253
-0.1195 -0.486268 -0.169439 95 49 253
0.101328 -0.485461 0.0166967 95 49 253
0.0963956 -0.487378 -0.214754 95 49 253
0.0757246 -0.48812 -0.280364 95 49 253
-0.177688 -0.381019 0.232414 95 49 253
-0.152405 -0.484215 0.00134687 95 49 253
-0.0990538 -0.378268 0.247845 95 49 253
0.0543134 -0.421732 -0.323073 95 49 253
0.072875 -0.487426 -0.202189 95 49 253
0.0975957 -0.487511 -0.149296 95 49 253
-0.218155 -0.486098 -0.202717 95 49 253
-0.119231 -0.48512 -0.0879744 95 49 253
-0.155926 -0.482798 0.0176079 95 49 253
-0.199659 -0.484661 -0.0568224 95 49 253
0.061415 -0.197011 -0.329884 95 49 253
-0.0280351 -0.481728 0.0813176 95 49 253
-0.0946006 -0.486359 -0.241601 95 49 253
-0.045278 -0.485599 0.0298623 95 49 253
0.139221 -0.485398 -0.011698 95 49 253
-0.232529 -0.474555 0.0700751 95 49 253
-0.0210629 -0.450804 0.256802 95 49 253
0.0393675 -0.171527 -0.327591 95 49 253
0.108714 -0.477954 0.217785 95 49 253
-0.155499 -0.485555 -0.130945 95 49 253
0.00122809 -0.262734 -0.324998 95 49 253
0.127301 -0.487227 -0.187943 95 49 253
-0.160664 -0.474474 0.0866455 95 49 253
0.0456684 -0.48753 -0.190876 95 49 253
0.0329962 -0.470686 0.23239 95 49 253
0.00291085 -0.196018 -0.325341 95 49 253
0.0769894 -0.14399 -0.332817 95 49 253
0.158972 -0.486635 -0.0573546 95 49 253
-0.233319 -0.467135 0.13391 95 49 253
-0.0165558 -0.276987 -0.323094 95 49 253
-0.162936 -0.484774 -0.0887725 95 49 253
0.1252 -0.482581 0.155231 95 49 253
0.141141 -0.484212 0.105598 95 49 253
0.00581891 -0.47336 0.185664 95 49 253
-0.0228796 -0.483261 0.0701378 95 49 253
0.099108 -0.482822 0.132796 95 49 253
0.0347149 -0.310365 -0.327571 95 49 253
-0.111991 -0.474509 0.106829 95 49 253
0.0607721 -0.482153 0.120063 95 49 253
-0.024495 -0.233087 -0.322156 95 49 253
-0.178565 -0.485973 -0.172763 95 49 253
0.151836 -0.484398 0.092571 95 49 253
-0.287026 -0.479919 0.0119653 95 49 253
-0.190907 -0.421033 0.232032 95 49 253
0.029913 -0.477366 0.149931 95 49 253
0.0270452 -0.469619 0.236883 95 49 253
0.16016 -0.483987 0.0825909 95 49 253
0.0654969 -0.473758 0.225882 95 49 253
-0.151888 -0.464796 0.183428 95 49 253
0.115476 -0.48468 0.0708024 95 49 253
0.101459 -0.486319 -0.0589438 95 49 253
0.0242905 -0.282551 -0.326704 95 49 253
-0.12142 -0.468013 0.162725 95 49 253
-0.031033 -0.487034 -0.190561 95 49 253
0.0207716 -0.471699 0.213531 95 49 253
-0.0152145 -0.261424 -0.323371 95 49 253
-0.256255 -0.473409 0.0779256 95 49 253
0.0724333 -0.484097 -0.309202 95 49 253
0.0620422 -0.12423 -0.332107 95 49 253
-0.229787 -0.409346 -0.304139 95 49 253
-0.21127 -0.462328 -0.306336 95 49 253
-0.101324 -0.469426 0.158171 95 49 253
0.0266425 -0.268335 -0.326978 95 49 253
0.0395114 -0.402414 -0.324242 95 49 253
-0.101881 -0.483773 0.0285745 95 49 253
0.0447434 -0.176183 -0.328134 95 49 253
-0.102325 -0.485659 -0.290032 95 49 253
-0.224217 -0.484784 -0.101078 95 49 253
-0.164933 -0.459172 -0.30656 95 49 253
-0.036186 -0.484581 0.0486229 95 49 253
-0.21881 -0.480502 0.0218653 95 49 253
-0.119709 -0.486167 -0.157507 95 49 253
-0.306189 -0.479389 0.0174761 95 49 253
-0.1832 -0.374288 -0.30567 95 49 253
-0.017141 -0.455689 -0.312025 95 49 253
-0.178728 -0.344648 -0.305216 95 49 253
-0.125817 -0.480248 0.0473039 95 49 253
0.0674268 -0.164037 -0.330942 95 49 253
0.071639 -0.114546 -0.333705 95 49 253
0.144428 -0.485061 0.0250313 95 49 253
0.000596307 -0.12285 -0.324784 95 49 253
-0.0432215 -0.272098 -0.319998 95 49 253
-0.242514 -0.486349 -0.190112 95 49 253
0.0556732 -0.479341 0.147632 95 49 253
-0.0434498 -0.450786 0.250637 95 49 253
0.0441587 -0.231898 -0.328522 95 49 253
-0.162636 -0.475594 0.0753679 95 49 253
-0.0628463 -0.485381 0.0258386 95 49 253
0.00431824 -0.237512 -0.32547 95 49 253
0.089362 -0.479275 0.174516 95 49 253
-0.123053 -0.481329 0.0411743 95 49 253
0.0329323 -0.398401 -0.32414 95 49 253
-0.201633 -0.479892 -0.304156 95 49 253
0.0536363 -0.487717 -0.270797 95 49 253
0.119289 -0.487604 -0.215541 95 49 253
-0.259535 -0.467964 0.123837 95 49 253
0.0763371 -0.167627 -0.331975 95 49 253
-0.0755649 -0.341231 -0.314323 95 49 253
-0.272902 -0.474204 0.0717876 95 49 253
-0.0398945 -0.403586 -0.315806 95 49 253
-0.156341 -0.484869 -0.0799482 95 49 253
0.0492836 -0.478874 0.148243 95 49 253
-0.236931 -0.483962 -0.0427755 95 49 253
-0.115574 -0.485796 -0.26737 95 49 253
-0.151863 -0.485498 -0.273985 95 49 253
0.148575 -0.486626 -0.0641199 95 49 253
-0.0135265 -0.487413 -0.254957 95 49 253
0.0369474 -0.397847 -0.324659 95 49 253
-0.0550712 -0.465499 0.225581 95 49 253
-0.0338341 -0.487261 -0.130236 95 49 253
-0.0983998 -0.472726 0.128546 95 49 253
0.12115 -0.482836 0.146758 95 49 253
0.0550971 -0.486215 -0.0363516 95 49 253
-0.257381 -0.485733 -0.166053 95 49 253
-0.0737325 -0.485783 -0.0756676 95 49 253
-0.125876 -0.48602 -0.238682 95 49 253
-0.0977126 -0.484784 -0.301922 95 49 253
-0.0792091 -0.450233 -0.311628 95 49 253
-0.210656 -0.461225 0.197371 95 49 253
0.129831 -0.486097 -0.0527166 95 49 253
0.146681 -0.487183 -0.097104 95 49 253
0.0480313 -0.472397 -0.315836 95 49 253
0.0536471 -0.486731 -0.0694099 95 49 253
0.0970144 -0.101712 -0.336372 95 49 253
-0.109015 -0.333708 -0.311044 95 49 253
-0.141529 -0.473501 0.102377 95 49 253
-0.00574056 -0.485832 -0.0362013 95 49 253
0.051435 -0.476982 0.171665 95 49 253
-0.0788128 -0.348167 -0.31344 95 49 253
0.0511474 -0.244733 -0.329172 95 49 253
0.0884425 -0.475054 0.232008 95 49 253
-0.257712 -0.484604 -0.110446 95 49 253
-0.0680045 -0.202251 -0.318371 95 49 253
0.0720673 -0.487932 -0.247196 95 49 253
-0.170614 -0.484914 -0.0500734 95 49 253
0.153938 -0.484472 0.0643978 95 49 253
-0.0459851 -0.469925 0.191769 95 49 253
0.0532748 -0.485755 0.0130285 95 49 253
-0.297965 -0.480668 -0.00478266 95 49 253
-0.167333 -0.425474 -0.307313 95 49 253
-0.115725 -0.383393 0.245104 95 49 253
-0.101236 -0.484793 0.0151564 95 49 253
-0.178583 -0.467969 0.13565 95 49 253
0.0259378 -0.436339 -0.31656 95 49 253
-0.193309 -0.48603 -0.174934 95 49 253
-0.187686 -0.48524 -0.113809 95 49 253
-0.228193 -0.484158 -0.0890637 95 49 253
0.0398173 -0.478326 0.147449 95 49 253
0.145702 -0.484863 0.0538665 95 49 253
-0.226832 -0.484196 -0.290251 95 49 253
-0.284674 -0.480824 -0.00256305 95 49 253
-0.190368 -0.484728 -0.0601462 95 49 253
0.0467172 -0.485894 -0.018821 95 49 253
-0.146056 -0.480175 0.0402042 95 49 253
-0.175457 -0.398006 -0.306747 95 49 253
-0.0513713 -0.477748 0.105234 95 49 253
-0.102412 -0.476764 0.0889258 95 49 253
0.112996 -0.48495 0.0509905 95 49 253
-0.291692 -0.482516 -0.0492357 95 49 253
0.0402152 -0.476903 0.162935 95 49 253
-0.0135559 -0.236034 -0.323508 95 49 253
0.0308342 -0.337117 -0.326754 95 49 253
0.0433326 -0.229121 -0.328451 95 49 253
-0.0160663 -0.487689 -0.233751 95 49 253
-0.169166 -0.467089 0.150044 95 49 253
-0.173856 -0.471638 0.103536 95 49 253
-0.173855 -0.466256 0.158469 95 49 253
-0.245959 -0.483857 -0.0713853 95 49 253
-0.0522704 -0.238003 -0.319542 95 49 253
-0.083033 -0.37109 -0.311631 95 49 253
-0.116529 -0.485153 -0.0876352 95 49 253
-0.113676 -0.242091 -0.312345 95 49 253
-0.102401 -0.473109 0.12331 95 49 253
-0.242327 -0.468569 0.119271 95 49 253
-0.228771 -0.485565 -0.250545 95 49 253
0.0557475 -0.462683 -0.318269 95 49 253
0.0914924 -0.255471 -0.331362 95 49 253
0.0679622 -0.400686 -0.326287 95 49 253
0.0621518 -0.413605 -0.324463 95 49 253
0.00625282 -0.479441 0.118025 95 49 253
0.158831 -0.486105 -0.034969 95 49 253
-0.0752876 -0.215992 -0.317521 95 49 253
0.0434244 -0.472105 0.228444 95 49 253
0.15567 -0.485342 0.000166999 95 49 253
0.0789447 -0.480436 -0.317269 95 49 253
-0.104858 -0.465592 0.195098 95 49 253
-0.246012 -0.462498 0.180551 95 49 253
-0.0754605 -0.486119 -0.100278 95 49 253
-0.198297 -0.476642 0.0575238 95 49 253
-0.136865 -0.477801 -0.306146 95 49 253
-0.188613 -0.485392 -0.255276 95 49 253
-0.120564 -0.483003 0.029829 95 49 253
-0.243434 -0.486543 -0.202985 95 49 253
0.101838 -0.488492 -0.26012 95 49 253
-0.056151 -0.479579 0.0869962 95 49 253
-0.0904998 -0.21833 -0.31585 95 49 253
-0.0633014 -0.431981 -0.309322 95 49 253
-0.238469 -0.464414 0.164259 95 49 253
-0.147468 -0.436192 0.234014 95 49 253
0.118677 -0.482683 0.148659 95 49 253
0.158017 -0.486923 -0.0738724 95 49 253
-0.0587343 -0.486855 -0.133982 95 49 253
-0.253921 -0.484214 -0.0981234 95 49 253
0.0483896 -0.181101 -0.328534 95 49 253
0.00472968 -0.487728 -0.144195 95 49 253
-0.0272262 -0.320962 -0.321409 95 49 253
-0.11511 -0.472632 -0.309208 95 49 253
-0.0242559 -0.437656 -0.311611 95 49 253
-0.138651 -0.451175 -0.3091 95 49 253
-0.217475 -0.485808 -0.21817 95 49 253
-0.236042 -0.484121 -0.0708087 95 49 253
-0.123171 -0.29279 -0.31035 95 49 253
-0.104097 -0.416324 -0.309914 95 49 253
-0.0336771 -0.486997 -0.191611 95 49 253
-0.0835168 -0.467762 0.18597 95 49 253
-0.184595 -0.484797 -0.0548613 95 49 253
0.162369 -0.483865 0.0824236 95 49 253
0.0277125 -0.211873 -0.326974 95 49 253
-0.102454 -0.390576 0.248081 95 49 253
-0.0263861 -0.330915 -0.32137 95 49 253
-0.0776622 -0.482903 0.0515772 95 49 253
-0.0644609 -0.473066 -0.310687 95 49 253
0.0240362 -0.486746 -0.0749008 95 49 253
0.0458739 -0.221694 -0.328684 95 49 253
0.0295529 -0.478797 0.136449 95 49 253
-0.040558 -0.483461 0.0612636 95 49 253
0.00384659 -0.470814 0.211839 95 49 253
-0.170524 -0.344873 -0.305685 95 49 253
0.0161569 -0.467647 0.249271 95 49 253
0.0166114 -0.254483 -0.326429 95 49 253
-0.27188 -0.483513 -0.0941671 95 49 253
-0.211219 -0.485978 -0.205653 95 49 253
-0.0962284 -0.486211 -0.200987 95 49 253
-0.1834 -0.485454 -0.234936 95 49 253
-0.0882427 -0.485551 -0.0118242 95 49 253
0.034885 -0.481173 0.116028 95 49 253
-0.123791 -0.485979 -0.14015 95 49 253
-0.176283 -0.485311 -0.117808 95 49 253
-0.188421 -0.361628 -0.30474 95 49 253
0.00804733 -0.442171 -0.313545 95 49 253
-0.151035 -0.48579 -0.212645 95 49 253
-0.219699 -0.469477 0.112432 95 49 253
0.102925 -0.488497 -0.257493 95 49 253
0.00526788 -0.479301 0.118867 95 49 253
0.0736492 -0.162185 -0.331846 95 49 253
0.00565524 -0.113272 -0.326738 95 49 253
-0.00883618 -0.487095 -0.272397 95 49 253
-0.0947089 -0.468337 0.173086 95 49 253
-0.0282763 -0.486339 -0.0688172 95 49 253
-0.274875 -0.4818 -0.013819 95 49 253
-0.0708127 -0.295049 -0.316775 95 49 253
0.150165 -0.234264 -0.283566 63 97 250
0.13981 -0.348769 -0.254823 63 97 250
0.148756 -0.358411 -0.247856 63 97 250
0.144542 -0.234818 -0.230118 63 97 250
0.153137 -0.197049 -0.323103 63 97 250
-0.295695 -0.446989 0.110802 63 97 250
0.0135879 -0.415263 -0.241267 63 97 250
-0.317849 -0.395514 -0.144195 63 97 250
0.142577 -0.357696 -0.268098 63 97 250
0.154378 -0.378845 0.0731125 63 97 250
-0.0873261 -0.418808 -0.23968 63 97 250
-0.222227 -0.468612 -0.0566292 63 97 250
-0.326752 -0.38284 0.156934 63 97 250
0.140435 -0.159926 0.038599 63 97 250
-0.214413 -0.389917 0.00899524 63 97 250
0.144249 -0.172375 0.0208112 63 97 250
-0.278576 -0.367902 -0.054063 63 97 250
0.147271 -0.129037 -0.197797 63 97 250
0.153786 -0.170008 -0.320994 63 97 250
-0.204309 -0.397785 -0.164399 63 97 250
-0.229429 -0.454008 -0.107427 63 97 250
0.119591 -0.42055 0.065927 63 97 250
0.151672 -0.231593 -0.298644 63 97 250
0.147901 -0.169529 0.00288273 63 97 250
-0.243554 -0.380313 0.119493 63 97 250
0.148354 -0.376149 -0.254113 63 97 250
0.152995 -0.284677 -0.123096 63 97 250
0.0244249 -0.444214 -0.29841 63 97 250
-0.297172 -0.370099 0.111906 63 97 250
0.143097 -0.264531 -0.220331 63 97 250
-0.231028 -0.372813 0.0730829 63 97 250
-0.283713 -0.405175 0.0177008 63 97 250
-0.19931 -0.404283 -0.164769 63 97 250
0.13967 -0.42924 -0.317679 63 97 250
0.153233 -0.116487 -0.271618 63 97 250
0.138633 -0.286732 -0.19429 63 97 250
-0.253636 -0.373946 -0.09053 63 97 250
-0.260363 -0.364469 0.0998152 63 97 250
-0.127819 -0.424294 0.163631 63 97 250
0.141807 -0.442294 -0.335648 63 97 250
0.153456 -0.295349 -0.0110531 63 97 250
-0.289415 -0.37733 0.180272 63 97 250
-0.311676 -0.374685 0.128277 63 97 250
-0.160618 -0.434912 0.14761 63 97 250
-0.216364 -0.389808 0.00826401 63 97 250
0.14259 -0.166737 -0.149458 63 97 250
-0.320875 -0.385443 0.184638 63 97 250
0.0083202 -0.43934 -0.29156 63 97 250
-0.243641 -0.367473 0.164172 63 97 250
0.154938 -0.112125 -0.28876 63 97 250
-0.323822 -0.376475 0.112096 63 97 250
0.148741 -0.151103 0.0151699 63 97 250
0.151937 -0.40083 -0.225676 63 97 250
0.13912 -0.253737 0.0227154 63 97 250
0.154663 -0.329935 -0.0179648 63 97 250
-0.0795364 -0.423683 -0.228669 63 97 250
0.155175 -0.333813 -0.146417 63 97 250
-0.290799 -0.369188 -0.0266496 63 97 250
0.097822 -0.406198 -0.24277 63 97 250
-0.304116 -0.368634 0.0268375 63 97 250
0.139077 -0.309891 -0.196421 63 97 250
-0.203766 -0.375969 0.0733303 63 97 250
-0.316032 -0.372254 -0.100952 63 97 250
-0.186582 -0.4375 -0.292654 63 97 250
-0.330341 -0.4187 0.16842 63 97 250
0.14002 -0.223722 0.0214371 63 97 250
0.140967 -0.218555 -0.142974 63 97 250
0.15533 -0.432523 -0.336441 63 97 250
-0.190704 -0.45373 0.118963 63 97 250
-0.082578 -0.446214 -0.303172 63 97 250
0.1423 -0.263156 -0.165088 63 97 250
0.0444296 -0.446109 -0.302292 63 97 250
0.0953126 -0.402417 -0.264346 63 97 250
0.138299 -0.33135 -0.203027 63 97 250
0.0862863 -0.352154 0.259795 63 97 250
-0.234045 -0.466018 0.102162 63 97 250
-0.209516 -0.381008 -0.0754725 63 97 250
-0.211844 -0.385557 -0.134172 63 97 250
-0.176931 -0.380107 0.158202 63 97 250
-0.325836 -0.37351 -0.0896965 63 97 250
-0.311247 -0.367876 -0.0326569 63 97 250
0.157377 -0.390105 -0.31934 63 97 250
0.152179 -0.200892 -0.31602 63 97 250
-0.292093 -0.398519 0.0662452 63 97 250
-0.343406 -0.38599 -0.0706229 63 97 250
-0.174857 -0.367113 0.0923138 63 97 250
0.146769 -0.372816 -0.295032 63 97 250
0.15825 -0.296951 -0.298315 63 97 250
-0.190113 -0.361602 0.135274 63 97 250
0.15664 -0.29078 -0.288626 63 97 250
0.146249 -0.175569 -0.238406 63 97 250
-0.325172 -0.399658 -0.135719 63 97 250
0.0702012 -0.450133 -0.314608 63 97 250
-0.03422 -0.448982 0.101754 63 97 250
0.152378 -0.104433 -0.251293 63 97 250
0.150625 -0.242812 -0.102801 63 97 250
-0.375642 -0.402067 0.2128 63 97 250
-0.33971 -0.380258 0.0728075 63 97 250
0.144275 -0.144227 -0.123352 63 97 250
-0.246709 -0.379066 -0.0333303 63 97 250
-0.186859 -0.361043 0.148434 63 97 250
-0.164908 -0.375334 0.14375 63 97 250
0.117793 -0.394055 -0.264977 63 97 250
-0.105935 -0.465593 -0.112231 63 97 250
0.129521 -0.423353 -0.30586 63 97 250
-0.224926 -0.380613 -0.0504758 63 97 250
0.147208 -0.128821 -0.196393 63 97 250
0.140696 -0.24626 -0.16672 63 97 250
0.142588 -0.163589 -0.161551 63 97 250
0.165089 -0.380325 -0.334056 63 97 250
-0.0461359 -0.422002 0.127819 63 97 250
0.156364 -0.267563 -0.0362688 63 97 250
0.146905 -0.33228 -0.17237 63 97 250
0.122607 -0.28413 0.121667 63 97 250
0.142005 -0.31693 0.00214604 63 97 250
-0.244968 -0.466671 0.00502957 63 97 250
-0.261142 -0.364446 0.152256 63 97 250
-0.148566 -0.409603 -0.23285 63 97 250
0.0988819 -0.238389 0.164443 63 97 250
-0.233806 -0.380701 -0.0442821 63 97 250
-0.210189 -0.400882 -0.238881 63 97 250
0.146134 -0.167503 0.0173267 63 97 250
-0.207915 -0.365829 0.147673 63 97 250
0.0816591 -0.330366 0.275474 63 97 250
-0.241819 -0.452722 -0.0863163 63 97 250
0.144201 -0.271878 -0.154321 63 97 250
0.171979 -0.406249 -0.174594 63 97 250
0.149277 -0.245877 -0.122037 63 97 250
0.144645 -0.243574 -0.23304 63 97 250
0.151679 -0.281135 -0.256793 63 97 250
-0.205031 -0.375514 0.0759439 63 97 250
-0.0979861 -0.424766 -0.262916 63 97 250
0.107949 -0.408277 -0.231465 63 97 250
0.161227 -0.298644 -0.322286 63 97 250
0.139394 -0.330144 0.104196 63 97 250
0.049235 -0.458174 -0.341529 63 97 250
0.160584 -0.39962 0.062076 63 97 250
-0.229931 -0.385673 -0.00317771 63 97 250
0.125021 -0.204302 0.0837724 63 97 250
0.153628 -0.421561 -0.321599 63 97 250
0.0318783 -0.43075 -0.282104 63 97 250
-0.241478 -0.373699 -0.0557665 63 97 250
0.122011 -0.401177 -0.24459 63 97 250
0.154517 -0.378399 -0.240575 63 97 250
0.148446 -0.249449 -0.00904004 63 97 250
0.15879 -0.293501 -0.30575 63 97 250
0.142246 -0.168098 -0.164022 63 97 250
0.138684 -0.161874 0.042941 63 97 250
-0.172186 -0.46796 0.0979058 63 97 250
-0.0146861 -0.424922 -0.269447 63 97 250
0.157424 -0.37899 -0.313167 63 97 250
0.0933812 -0.444284 -0.0441516 63 97 250
0.156632 -0.331485 -0.288532 63 97 250
-0.11075 -0.405489 0.20325 63 97 250
0.0808506 -0.226033 0.20636 63 97 250
0.147827 -0.245308 -0.256588 63 97 250
0.0980327 -0.407238 -0.271854 63 97 250
-0.301717 -0.421881 0.18341 63 97 250
0.13556 -0.324374 -0.224332 63 97 250
0.158992 -0.320549 -0.297428 63 97 250
0.143962 -0.215134 -0.225281 63 97 250
-0.266455 -0.454066 0.0266074 63 97 250
0.155012 -0.240636 -0.316565 63 97 250
-0.252527 -0.457257 0.114893 63 97 250
-0.220759 -0.371848 0.0841746 63 97 250
-0.230052 -0.370225 0.087544 63 97 250
0.142955 -0.223594 0.0120168 63 97 250
0.127026 -0.291792 0.0850798 63 97 250
-0.330588 -0.368974 -0.0252609 63 97 250
-0.0620869 -0.420545 -0.258171 63 97 250
-0.201941 -0.366602 0.178693 63 97 250
0.120697 -0.302271 0.153794 63 97 250
-0.216701 -0.388725 -0.136796 63 97 250
-0.331657 -0.371192 0.0176584 63 97 250
-0.250597 -0.42355 -0.271076 63 97 250
-0.133104 -0.42246 -0.215495 63 97 250
-0.258454 -0.463665 -0.0270905 63 97 250
-0.263897 -0.464333 0.0988994 63 97 250
-0.29738 -0.368427 -0.0081471 63 97 250
0.146479 -0.168828 -0.234672 63 97 250
-0.0343062 -0.423236 -0.265372 63 97 250
-0.183062 -0.39691 -0.23055 63 97 250
0.154184 -0.31258 -0.266646 63 97 250
0.159778 -0.361917 -0.308838 63 97 250
0.123128 -0.395272 -0.269682 63 97 250
-0.313113 -0.383283 0.183344 63 97 250
-0.332983 -0.370792 -0.00411018 63 97 250
0.150336 -0.137859 -0.252213 63 97 250
-0.138055 -0.431842 -0.196826 63 97 250
-0.330458 -0.367801 -0.0393581 63 97 250
0.153676 -0.118758 -0.27938 63 97 250
0.141318 -0.236873 -0.204854 63 97 250
-0.284331 -0.406783 -0.223003 63 97 250
-0.178833 -0.459557 0.111666 63 97 250
0.157756 -0.402207 -0.320109 63 97 250
0.154217 -0.362225 -0.300386 63 97 250
-0.244061 -0.380676 -0.0219158 63 97 250
0.0368413 -0.424994 -0.211664 63 97 250
0.146832 -0.161916 -0.0142703 63 97 250
0.15261 -0.262717 -0.281091 63 97 250
-0.230526 -0.379342 -0.157411 63 97 250
0.151403 -0.283536 -0.129537 63 97 250
0.116583 -0.403899 -0.276382 63 97 250
0.150876 -0.175142 -0.290648 63 97 250
0.157444 -0.307001 -0.0234834 63 97 250
0.145756 -0.134681 -0.177278 63 97 250
-0.0799355 -0.454372 -0.332943 63 97 250
-0.227551 -0.394411 -0.231678 63 97 250
0.142471 -0.416304 -0.182644 63 97 250
0.0481211 -0.448101 -0.133539 63 97 250
-0.139577 -0.415329 -0.249359 63 97 250
0.147962 -0.29778 -0.232385 63 97 250
-0.19217 -0.402142 -0.18131 63 97 250
-0.173713 -0.465324 -0.101578 63 97 250
0.100356 -0.414674 -0.215457 63 97 250
-0.243812 -0.380735 -0.0210048 63 97 250
0.143525 -0.390096 -0.275881 63 97 250
-0.303597 -0.38142 0.184107 63 97 250
0.156512 -0.369883 -0.234417 63 97 250
0.151658 -0.20793 -0.311017 63 97 250
-0.266541 -0.438867 -0.0530624 63 97 250
0.150263 -0.399889 -0.304534 63 97 250
0.146659 -0.246318 -0.247713 63 97 250
0.147457 -0.257699 -0.24417 63 97 250
0.101575 -0.408382 -0.274511 63 97 250
0.156589 -0.291938 -0.287356 63 97 250
0.132393 -0.354506 0.148833 63 97 250
-0.304254 -0.367828 -0.0996038 63 97 250
0.148133 -0.289398 -0.232451 63 97 250
0.139085 -0.345775 -0.257801 63 97 250
-0.206768 -0.383102 0.047201 63 97 250
-0.272196 -0.395382 0.0239564 63 97 250
0.14181 -0.429807 -0.320289 63 97 250
0.148684 -0.377144 -0.274304 63 97 250
0.112415 -0.350891 0.180278 63 97 250
0.123626 -0.285793 0.108346 63 97 250
-0.23631 -0.369918 0.170674 63 97 250
-0.253652 -0.371539 -0.0578634 63 97 250
0.127865 -0.207911 0.07127 63 97 250
-0.0152911 -0.413835 -0.254562 63 97 250
-0.217462 -0.426241 0.188369 63 97 250
0.158164 -0.267705 -0.325797 63 97 250
-0.0678463 -0.41809 -0.243574 63 97 250
0.103031 -0.430513 -0.297514 63 97 250
0.137096 -0.317746 -0.21275 63 97 250
-0.0255271 -0.453428 -0.325636 63 97 250
-0.147801 -0.410011 -0.235702 63 97 250
-0.0292081 -0.383739 0.208037 63 97 250
0.151942 -0.135696 -0.269949 63 97 250
-0.194435 -0.471237 -0.0429155 63 97 250
0.142522 -0.281265 0.0134833 63 97 250
0.141607 -0.309869 -0.174795 63 97 250
-0.339269 -0.372472 -0.0437381 63 97 250
0.0747698 -0.453201 -0.325384 63 97 250
-0.355924 -0.406732 0.191818 63 97 250
-0.284489 -0.424075 0.00776979 63 97 250
0.150802 -0.346187 -0.283331 63 97 250
-0.188306 -0.361618 0.163066 63 97 250
-0.347402 -0.382936 0.0579839 63 97 250
0.12075 -0.394438 -0.25275 63 97 250
-0.2808 -0.36733 0.141936 63 97 250
0.147498 -0.295924 0.000937972 63 97 250
-0.276016 -0.37097 -0.0169372 63 97 250
-0.180765 -0.422649 -0.266871 63 97 250
-0.238312 -0.380142 -0.0411857 63 97 250
-0.205816 -0.382132 0.051818 63 97 250
0.151854 -0.367393 -0.298958 63 97 250
0.147018 -0.189216 -0.255905 63 97 250
-0.267974 -0.370587 -0.0504082 63 97 250
-0.255419 -0.381115 0.108013 63 97 250
-0.2077 -0.471401 0.0896478 63 97 250
-0.246429 -0.366735 0.0942878 63 97 250
-0.232137 -0.364917 0.11773 63 97 250
0.140253 -0.256535 -0.194076 63 97 250
0.164624 -0.34167 -0.0964803 63 97 250
-0.234861 -0.368487 0.160087 63 97 250
-0.125816 -0.42716 -0.208322 63 97 250
-0.0880805 -0.422735 -0.260981 63 97 250
0.15736 -0.372888 -0.310215 63 97 250
0.150975 -0.23559 -0.289577 63 97 250
0.0901319 -0.452688 -0.326384 63 97 250
-0.247368 -0.371515 0.066337 63 97 250
-0.170089 -0.36524 0.147692 63 97 250
-0.243111 -0.364175 0.132194 63 97 250
0.153612 -0.105313 -0.267027 63 97 250
-0.283632 -0.417506 0.0105429 63 97 250
0.15637 -0.26188 -0.313566 63 97 250
0.125658 -0.230751 0.0771702 63 97 250
-0.273345 -0.401261 0.00946277 63 97 250
0.143509 -0.172955 -0.19388 63 97 250
0.155272 -0.235905 -0.322516 63 97 250
-0.325439 -0.378221 0.124429 63 97 250
0.0755793 -0.270949 0.254148 63 97 250
-0.3065 -0.371392 0.0969318 63 97 250
0.0468408 -0.448024 -0.144595 63 97 250
-0.146497 -0.430721 -0.194367 63 97 250
-0.151859 -0.402471 0.232275 63 97 250
-0.237785 -0.369101 0.0883292 63 97 250
-0.188966 -0.434032 -0.172157 63 97 250
-0.271591 -0.364992 0.143899 63 97 250
0.143186 -0.197454 -0.220471 63 97 250
0.14293 -0.160917 -0.0427264 63 97 250
-0.237104 -0.44295 0.1259 63 97 250
0.144429 -0.272409 -0.15387 63 97 250
-0.166481 -0.367913 0.150164 63 97 250
-0.287985 -0.431188 0.1537 63 97 250
0.0360657 -0.438845 -0.29294 63 97 250
0.108263 -0.456594 -0.34371 63 97 250
0.1458 -0.282657 -0.224553 63 97 250
-0.344063 -0.377289 -0.0139114 63 97 250
0.124011 -0.25198 0.0761467 63 97 250
0.125647 -0.200613 0.0820697 63 97 250
-0.019762 -0.379324 0.212861 63 97 250
-0.340149 -0.381057 0.0752568 63 97 250
-0.261173 -0.422398 0.195817 63 97 250
0.151279 -0.171363 -0.292369 63 97 250
0.15478 -0.278372 -0.284825 63 97 250
-0.299114 -0.371301 0.127236 63 97 250
-0.244204 -0.372668 0.185762 63 97 250
-0.206089 -0.364311 0.128511 63 97 250
0.0398373 -0.443999 -0.299287 63 97 250
-0.332713 -0.367538 -0.0574979 63 97 250
0.147659 -0.217459 -0.26125 63 97 250
-0.337569 -0.374988 -0.0680439 63 97 250
0.135781 -0.324298 -0.227032 63 97 250
0.152682 -0.187371 -0.320328 63 97 250
-0.293538 -0.386415 0.131065 63 97 250
-0.209646 -0.464942 -0.0862772 63 97 250
-0.232583 -0.38358 0.0509162 63 97 250
0.0923093 -0.342612 0.267059 63 97 250
-0.236186 -0.376842 -0.0854358 63 97 250
0.159318 -0.344075 -0.303063 63 97 250
-0.218422 -0.392014 -0.0137978 63 97 250
-0.295302 -0.393629 0.0757588 63 97 250
-0.217491 -0.382958 0.0524075 63 97 250
0.143397 -0.165208 -0.0612343 63 97 250
0.15144 -0.16385 -0.287019 63 97 250
0.155329 -0.254094 -0.311217 63 97 250
0.1469 -0.260115 -0.239849 63 97 250
0.0160783 -0.425592 -0.217789 63 97 250
0.142986 -0.237772 -0.142424 63 97 250
0.155391 -0.336417 -0.287481 63 97 250
0.151144 -0.180133 -0.297692 63 97 250
-0.230594 -0.397027 -0.0857826 63 97 250
0.14952 -0.209368 -0.297893 63 97 250
-0.288522 -0.452406 0.0873 63 97 250
-0.309764 -0.369007 0.0365148 63 97 250
0.149544 -0.362266 -0.253007 63 97 250
-0.250927 -0.38414 -0.205964 63 97 250
-0.32004 -0.395658 0.126024 63 97 250
0.144726 -0.138807 -0.0849734 63 97 250
0.137194 -0.324554 -0.206879 63 97 250
-0.328125 -0.383094 0.154915 63 97 250
-0.261039 -0.376073 -0.14044 63 97 250
-0.230714 -0.379377 -0.124395 63 97 250
-0.195551 -0.415729 0.217627 63 97 250
-0.00344353 -0.414833 -0.257852 63 97 250
-0.193734 -0.364793 0.101946 63 97 250
-0.334223 -0.392874 0.160057 63 97 250
0.158653 -0.283158 -0.0446429 63 97 250
-0.289422 -0.396864 -0.196867 63 97 250
0.0884016 -0.350158 0.259346 63 97 250
-0.214718 -0.381394 0.0514244 63 97 250
-0.333975 -0.375004 0.0647721 63 97 250
-0.349778 -0.383788 0.0096946 63 97 250
0.153017 -0.097129 -0.253927 63 97 250
-0.286341 -0.436057 0.00547567 63 97 250
0.167922 -0.403576 -0.335374 63 97 250
0.116767 -0.329295 0.17413 63 97 250
-0.257562 -0.46123 0.00842806 63 97 250
-0.291935 -0.366489 -0.0547241 63 97 250
0.0243973 -0.413911 -0.2619 63 97 250
0.135476 -0.400888 -0.287056 63 97 250
0.140464 -0.329657 -0.244971 63 97 250
0.0953576 -0.195537 0.169746 63 97 250
-0.0469718 -0.431932 -0.275681 63 97 250
-0.114285 -0.416075 -0.23855 63 97 250
-0.305945 -0.375749 0.154162 63 97 250
-0.339086 -0.388028 -0.0865995 63 97 250
-0.345396 -0.377012 0.0192875 63 97 250
0.153469 -0.225384 -0.315546 63 97 250
0.0661509 -0.406446 -0.261183 63 97 250
-0.310279 -0.367235 -0.0905131 63 97 250
-0.255384 -0.416218 0.215232 63 97 250
0.159048 -0.300944 -0.302657 63 97 250
-0.344831 -0.37823 -0.00535705 63 97 250
0.0234515 -0.449286 -0.305918 63 97 250
-0.271312 -0.462221 0.0961226 63 97 250
0.0234653 -0.427641 -0.277269 63 97 250
-0.321338 -0.369909 -0.00390717 63 97 250
0.143726 -0.153127 -0.0636652 63 97 250
0.154346 -0.297597 -0.267324 63 97 250
0.144357 -0.170454 -0.02831 63 97 250
0.149566 -0.258181 -0.260408 63 97 250
0.148649 -0.301347 -0.144133 63 97 250
0.153182 -0.279207 -0.119967 63 97 250
-0.274006 -0.445474 -0.0361485 63 97 250
-0.21962 -0.384438 -0.046698 63 97 250
0.151191 -0.288756 -0.132065 63 97 250
-0.293444 -0.367493 0.0852909 63 97 250
0.169731 -0.413467 -0.338741 63 97 250
0.150674 -0.252416 -0.272936 63 97 250
0.145593 -0.129823 -0.170582 63 97 250
0.155029 -0.257672 -0.0481364 63 97 250
-0.21374 -0.430585 -0.281882 63 97 250
-0.308484 -0.377892 0.166657 63 97 250
0.152232 -0.262901 -0.09745 63 97 250
-0.184158 -0.404316 -0.192388 63 97 250
0.147685 -0.383226 -0.248686 63 97 250
0.0852565 -0.300245 0.254379 63 97 250
-0.284044 -0.430306 0.164854 63 97 250
0.141442 -0.184348 -0.175042 63 97 250
-0.211133 -0.373757 0.0819165 63 97 250
0.154992 -0.151062 -0.320006 63 97 250
0.105777 -0.409646 -0.277792 63 97 250
0.14096 -0.234962 -0.151143 63 97 250
0.157101 -0.287903 -0.297508 63 97 250
0.15285 -0.13827 -0.286495 63 97 250
0.0148999 -0.399906 0.136852 63 97 250
0.147624 -0.128552 -0.203357 63 97 250
-0.212632 -0.366882 0.148382 63 97 250
0.153258 -0.264357 -0.286025 63 97 250
0.126456 -0.202294 0.0784457 63 97 250
-0.268181 -0.371287 -0.0458575 63 97 250
-0.287445 -0.409635 -0.224778 63 97 250
0.13334 -0.325768 0.131922 63 97 250
0.08934 -0.348004 0.262848 63 97 250
0.140761 -0.210317 -0.145422 63 97 250
0.143953 -0.150928 -0.0963493 63 97 250
0.14821 -0.363621 -0.290905 63 97 250
-0.127728 -0.464905 0.0981529 63 97 250
0.142008 -0.17183 -0.160571 63 97 250
0.148557 -0.212532 -0.27618 63 97 250
-0.233549 -0.369833 0.16756 63 97 250
-0.251287 -0.363042 0.143702 63 97 250
-0.0889489 -0.416856 -0.243061 63 97 250
-0.323317 -0.370411 0.0363565 63 97 250
0.151881 -0.2268 -0.304545 63 97 250
0.15105 -0.239511 -0.0877115 63 97 250
-0.234203 -0.399023 -0.0827093 63 97 250
-0.313939 -0.379056 0.161477 63 97 250
-0.219811 -0.375146 0.0729035 63 97 250
-0.319087 -0.377335 0.133218 63 97 250
0.153854 -0.113845 -0.277903 63 97 250
-0.229933 -0.376224 0.055868 63 97 250
-0.263814 -0.37238 0.00809277 63 97 250
-0.10797 -0.471709 0.0708407 63 97 250
0.0745318 -0.321446 0.283086 63 97 250
0.155396 -0.309506 -0.123123 63 97 250
-0.261054 -0.37408 -0.0212233 63 97 250
0.131887 -0.394443 -0.248098 63 97 250
-0.195891 -0.405313 -0.243351 63 97 250
0.109837 -0.396048 -0.254958 63 97 250
-0.246438 -0.379033 -0.00417004 63 97 250
-0.0416449 -0.418162 -0.241707 63 97 250
0.143467 -0.225535 -0.128266 63 97 250
-0.314095 -0.369121 0.0488569 63 97 250
-0.132866 -0.44345 -0.184275 63 97 250
0.0821579 -0.291162 0.249494 63 97 250
-0.134953 -0.403221 0.221839 63 97 250
0.14698 -0.167051 -0.239304 63 97 250
-0.192457 -0.362068 0.132962 63 97 250
-0.279455 -0.382926 0.11272 63 97 250
-0.235483 -0.36834 0.159657 63 97 250
-0.240618 -0.377947 -0.112207 63 97 250
0.0476787 -0.410687 -0.244799 63 97 250
-0.323209 -0.370393 0.0162279 63 97 250
-0.255975 -0.375558 -0.00767146 63 97 250
0.132042 -0.406316 -0.291648 63 97 250
-0.253114 -0.384986 -0.208275 63 97 250
-0.22389 -0.379811 -0.16119 63 97 250
0.0564191 -0.453144 -0.322398 63 97 250
-0.240522 -0.390708 -0.226703 63 97 250
0.154356 -0.370626 -0.304974 63 97 250
-0.22563 -0.382475 -0.0456901 63 97 250
-0.339715 -0.376239 -0.0633478 63 97 250
-0.309731 -0.397061 -0.1634 63 97 250
0.106472 -0.451906 0.00742344 63 97 250
-0.329839 -0.384591 0.156311 63 97 250
-0.0425766 -0.457807 -0.343705 63 97 250
0.146009 -0.347446 -0.223637 63 97 250
0.0374212 -0.455609 -0.330487 63 97 250
-0.182956 -0.367792 0.0895963 63 97 250
-0.256227 -0.376625 -0.135655 63 97 250
-0.244891 -0.464162 0.019255 63 97 250
-0.242723 -0.37645 0.0338374 63 97 250
-0.241473 -0.37826 0.0248294 63 97 250
0.157868 -0.289821 -0.301545 63 97 250
-0.329972 -0.371069 0.0404815 63 97 250
-0.088744 -0.447949 -0.311199 63 97 250
0.151588 -0.151975 -0.280511 63 97 250
-0.30758 -0.373223 0.123638 63 97 250
-0.196632 -0.383893 0.168891 63 97 250
-0.267893 -0.371681 -0.0417157 63 97 250
0.157216 -0.410187 -0.184975 63 97 250
0.137177 -0.318105 -0.21067 63 97 250
0.0987455 -0.453812 0.0125668 63 97 250
-0.263834 -0.372615 -0.0953928 63 97 250
-0.293659 -0.410437 -0.219591 63 97 250
0.141347 -0.214796 -0.19131 63 97 250
0.0977799 -0.301163 0.202589 63 97 250
-0.0721258 -0.457028 -0.3405 63 97 250
0.141228 -0.421602 -0.31163 63 97 250
-0.225643 -0.420722 0.206123 63 97 250
-0.324377 -0.373627 0.0697694 63 97 250
0.144114 -0.160029 -0.184137 63 97 250
0.143422 -0.155293 -0.0595856 63 97 250
-0.130161 -0.420779 -0.223129 63 97 250
0.125464 -0.286969 0.0725528 63 97 250
0.148558 -0.216873 -0.275977 63 97 250
0.141113 -0.215283 -0.154707 63 97 250
-0.264317 -0.380733 -0.175828 63 97 250
0.0474924 -0.457574 0.300299 31 142 243
0.110686 -0.37666 0.305165 31 142 243
-0.0384783 -0.291211 0.296676 31 142 243
0.164568 -0.0757742 -0.314937 31 142 243
0.155389 -0.338474 -0.136683 31 142 243
0.169548 -0.09095 -0.0108207 31 142 243
0.182312 -0.0992717 0.0854724 31 142 243
-0.00481965 -0.299155 0.300358 31 142 243
0.168545 -0.0550101 -0.243411 31 142 243
0.0372306 -0.250351 -0.321003 31 142 243
0.151656 -0.0678147 -0.345062 31 142 243
0.162093 -0.253319 -0.306734 31 142 243
0.118924 -0.452068 0.295422 31 142 243
0.138195 -0.406253 0.256236 31 142 243
0.164248 -0.290221 -0.295074 31 142 243
-0.0148819 -0.406797 0.299477 31 142 243
-0.0264299 -0.365085 0.290839 31 142 243
0.157893 -0.0759063 -0.330682 31 142 243
0.168498 -0.0866762 -0.265937 31 142 243
0.16789 -0.0459278 -0.180399 31 142 243
0.17167 -0.413851 -0.184525 31 142 243
0.172452 -0.0510158 0.000295304 31 142 243
0.166564 -0.231319 0.238562 31 142 243
0.180756 -0.10569 0.0635649 31 142 243
0.18253 -0.132077 0.139639 31 142 243
0.124246 -0.090761 -0.310889 31 142 243
0.185547 -0.300454 0.283123 31 142 243
0.110963 -0.348979 -0.312702 31 142 243
0.161092 -0.357746 0.0852664 31 142 243
-0.0287042 -0.39184 0.294399 31 142 243
0.170366 -0.292914 -0.12167 31 142 243
-0.107167 -0.413006 0.295286 31 142 243
0.154769 -0.0664567 -0.340104 31 142 243
0.163958 -0.135995 -0.210791 31 142 243
0.0986217 -0.288174 -0.310766 31 142 243
0.15083 -0.447752 0.15017 31 142 243
-0.203901 -0.411551 0.283264 31 142 243
0.167345 -0.471314 0.105528 31 142 243
0.10322 -0.43318 -0.0577923 31 142 243
0.172211 -0.474254 0.10283 31 142 243
0.132584 -0.481802 -0.0595592 31 142 243
0.0739382 -0.274695 0.302148 31 142 243
0.166813 -0.389458 -0.219785 31 142 243
0.049805 -0.4818 0.118595 31 142 243
0.176945 -0.355239 0.178114 31 142 243
0.10209 -0.125744 -0.317456 31 142 243
0.168598 -0.390345 0.270223 31 142 243
0.0680273 -0.294872 -0.31847 31 142 243
0.163334 -0.164994 -0.201206 31 142 243
0.168894 -0.289827 -0.221951 31 142 243
-0.111765 -0.337871 0.286012 31 142 243
0.20674 -0.44976 0.235366 31 142 243
-0.104099 -0.385257 0.292075 31 142 243
0.0604714 -0.348101 -0.329908 31 142 243
0.169925 -0.123635 -0.22826 31 142 243
0.143518 -0.346593 -0.215798 31 142 243
0.185874 -0.414747 -0.066552 31 142 243
0.1658 -0.049066 -0.0767608 31 142 243
0.158902 -0.231782 -0.318095 31 142 243
0.0687741 -0.48379 0.0815148 31 142 243
0.193905 -0.341029 0.11833 31 142 243
0.156949 -0.113247 -0.328172 31 142 243
0.159634 -0.0831879 -0.237934 31 142 243
0.170252 -0.275627 -0.121476 31 142 243
0.167074 -0.0717042 -0.296905 31 142 243
0.161135 -0.127717 -0.233311 31 142 243
0.171822 -0.315052 -0.118714 31 142 243
0.168547 -0.317441 -0.218891 31 142 243
0.170507 -0.310253 -0.154105 31 142 243
0.0519827 -0.289546 -0.313565 31 142 243
0.154954 -0.240999 -0.327445 31 142 243
0.17962 -0.203194 0.259842 31 142 243
0.20585 -0.451418 0.215326 31 142 243
0.154776 -0.453168 0.174602 31 142 243
0.141447 -0.478316 -0.00655904 31 142 243
0.129589 -0.45355 0.292924 31 142 243
0.164512 -0.042966 -0.144311 31 142 243
0.124232 -0.127499 -0.293486 31 142 243
-0.0164244 -0.452644 0.304358 31 142 243
-0.158601 -0.407552 0.287253 31 142 243
0.145799 -0.342108 -0.20553 31 142 243
0.194447 -0.437524 0.088648 31 142 243
0.041675 -0.486339 -0.0424347 31 142 243
0.14488 -0.361353 -0.200737 31 142 243
0.1698 -0.153938 -0.148642 31 142 243
0.175169 -0.0972307 0.172008 31 142 243
0.0169413 -0.30295 -0.314061 31 142 243
0.153127 -0.249654 -0.215034 31 142 243
0.166168 -0.474111 0.0447929 31 142 243
0.156424 -0.0668212 -0.304287 31 142 243
0.12816 -0.482783 -0.0920253 31 142 243
0.138479 -0.392086 0.217039 31 142 243
0.162105 -0.254119 0.299486 31 142 243
0.0620515 -0.203091 -0.323345 31 142 243
0.170851 -0.0502491 -0.208072 31 142 243
0.165364 -0.0379032 -0.107081 31 142 243
0.168489 -0.110109 -0.273362 31 142 243
0.170457 -0.124461 -0.134751 31 142 243
0.115132 -0.422975 -0.112914 31 142 243
0.0466904 -0.284249 0.301352 31 142 243
0.166711 -0.0438224 -0.162515 31 142 243
0.104502 -0.365485 0.305052 31 142 243
0.0973653 -0.428387 -0.208015 31 142 243
0.169728 -0.255212 0.132884 31 142 243
0.182324 -0.247822 0.235288 31 142 243
0.163257 -0.116027 -0.21638 31 142 243
0.134296 -0.4525 0.289869 31 142 243
0.166614 -0.405072 -0.219184 31 142 243
0.171391 -0.0438372 -0.0199618 31 142 243
0.0103434 -0.385542 0.291659 31 142 243
0.120943 -0.14935 -0.333952 31 142 243
0.162703 -0.0618473 -0.250253 31 142 243
0.148949 -0.468606 0.215211 31 142 243
0.165698 -0.416331 -0.22752 31 142 243
0.162171 -0.0639288 -0.311978 31 142 243
0.199122 -0.408911 0.259703 31 142 243
0.0933645 -0.484906 0.0560376 31 142 243
0.0940683 -0.138581 -0.316817 31 142 243
0.133392 -0.101847 -0.292103 31 142 243
0.0985912 -0.150345 -0.307754 31 142 243
0.153795 -0.450019 -0.0385267 31 142 243
0.178689 -0.0615689 0.0817675 31 142 243
0.18324 -0.120109 0.0995793 31 142 243
0.17071 -0.266876 -0.184169 31 142 243
0.0564107 -0.450062 0.296613 31 142 243
0.164756 -0.0416234 -0.138966 31 142 243
0.071886 -0.434175 0.205293 31 142 243
0.106229 -0.430143 -0.0994261 31 142 243
0.0841321 -0.281614 0.306481 31 142 243
-0.0106621 -0.400429 0.295244 31 142 243
0.0587602 -0.384982 0.26806 31 142 243
0.109349 -0.272263 0.306308 31 142 243
0.0822119 -0.338276 -0.325195 31 142 243
0.169699 -0.136007 -0.255822 31 142 243
-0.0517823 -0.430261 0.248373 31 142 243
0.149232 -0.444256 0.117633 31 142 243
0.164764 -0.0720611 -0.315509 31 142 243
0.168274 -0.268332 -0.272179 31 142 243
0.163413 -0.346715 -0.210764 31 142 243
0.160163 -0.06519 -0.321452 31 142 243
0.16607 -0.364033 -0.246491 31 142 243
0.179902 -0.0983552 0.151172 31 142 243
0.15484 -0.278213 -0.193597 31 142 243
0.168054 -0.258103 0.0514773 31 142 243
0.0419608 -0.416196 0.292318 31 142 243
0.130867 -0.474163 0.168235 31 142 243
0.155968 -0.0875614 -0.332586 31 142 243
0.150247 -0.231315 -0.24369 31 142 243
0.165471 -0.472974 -0.0329122 31 142 243
0.155759 -0.0678779 -0.324961 31 142 243
0.182074 -0.183158 0.177079 31 142 243
0.0291654 -0.45098 0.060443 31 142 243
-0.0774459 -0.356314 0.293215 31 142 243
0.170012 -0.138305 -0.242288 31 142 243
0.13535 -0.136597 -0.336298 31 142 243
0.166195 -0.306187 0.155451 31 142 243
0.0113287 -0.311321 -0.313322 31 142 243
0.174561 -0.108222 -0.0292766 31 142 243
0.189346 -0.311131 0.206702 31 142 243
0.163608 -0.106606 -0.209732 31 142 243
0.159119 -0.453616 -0.0900336 31 142 243
0.0462859 -0.228157 -0.320139 31 142 243
0.138631 -0.328655 0.303244 31 142 243
0.163329 -0.300244 0.195153 31 142 243
0.168962 -0.182097 0.206221 31 142 243
0.125139 -0.346051 -0.297114 31 142 243
0.163515 -0.131171 -0.309624 31 142 243
0.0551502 -0.324464 -0.327952 31 142 243
0.151233 -0.0676516 -0.346521 31 142 243
0.140508 -0.369328 -0.209605 31 142 243
0.0877574 -0.254858 0.306337 31 142 243
0.00147138 -0.248881 0.302589 31 142 243
0.170282 -0.334749 -0.162483 31 142 243
0.17112 -0.053523 -0.205471 31 142 243
0.165804 -0.0382096 -0.0866588 31 142 243
-0.0636409 -0.451393 0.303372 31 142 243
0.113802 -0.107392 -0.316512 31 142 243
0.153962 -0.155841 -0.25823 31 142 243
0.169165 -0.264436 -0.234043 31 142 243
0.155877 -0.273447 -0.323959 31 142 243
0.184823 -0.188178 0.115339 31 142 243
0.169096 -0.0471057 -0.191836 31 142 243
0.180825 -0.424627 -0.115996 31 142 243
0.0823818 -0.376647 0.265995 31 142 243
0.169612 -0.131418 -0.0876667 31 142 243
0.0854496 -0.441211 0.299854 31 142 243
0.170396 -0.304126 -0.13 31 142 243
0.153269 -0.450064 0.00905306 31 142 243
0.0484742 -0.259785 -0.312344 31 142 243
0.173557 -0.0467953 -0.00134863 31 142 243
0.150755 -0.0797964 -0.347061 31 142 243
0.179708 -0.210549 0.22752 31 142 243
0.0420077 -0.264623 -0.313663 31 142 243
0.169245 -0.476678 0.0333467 31 142 243
0.15407 -0.426557 -0.134433 31 142 243
0.0724163 -0.185576 -0.313555 31 142 243
0.15882 -0.141204 -0.32255 31 142 243
0.175376 -0.147796 0.26005 31 142 243
0.126217 -0.290868 -0.282362 31 142 243
0.168019 -0.304737 -0.247054 31 142 243
0.165951 -0.0924114 -0.300476 31 142 243
0.177546 -0.0661222 0.0805891 31 142 243
0.18799 -0.353625 -0.00129698 31 142 243
0.158941 -0.067794 -0.330607 31 142 243
0.157722 -0.0663063 -0.332517 31 142 243
0.0807586 -0.486684 -0.0827416 31 142 243
0.0579501 -0.369712 0.289101 31 142 243
0.0987237 -0.135807 -0.325329 31 142 243
0.13336 -0.0918457 -0.321252 31 142 243
0.147095 -0.0960076 -0.27541 31 142 243
0.18918 -0.436052 0.272665 31 142 243
0.101654 -0.127443 -0.321679 31 142 243
0.169229 -0.349729 -0.19309 31 142 243
0.150536 -0.0688751 -0.346325 31 142 243
0.140294 -0.479553 -0.117828 31 142 243
0.139103 -0.382434 0.272309 31 142 243
0.153804 -0.377165 0.211068 31 142 243
0.164195 -0.181637 -0.304918 31 142 243
0.176181 -0.086015 0.0329967 31 142 243
-0.0111094 -0.343322 0.298584 31 142 243
0.121328 -0.267326 0.29168 31 142 243
0.138754 -0.477263 0.0441687 31 142 243
0.104985 -0.121512 -0.319051 31 142 243
0.13252 -0.462473 0.259671 31 142 243
0.154889 -0.330668 0.30042 31 142 243
0.182792 -0.424345 -0.11734 31 142 243
0.15524 -0.079777 -0.335672 31 142 243
0.0884869 -0.415562 0.226826 31 142 243
0.145159 -0.0949234 -0.281424 31 142 243
0.16645 -0.305049 -0.28381 31 142 243
0.162805 -0.0695129 -0.177076 31 142 243
0.173582 -0.0846199 -0.0189146 31 142 243
0.12687 -0.282101 -0.283114 31 142 243
0.168033 -0.476379 0.0177841 31 142 243
0.10225 -0.435115 0.0762726 31 142 243
0.161957 -0.0642213 -0.301919 31 142 243
0.164469 -0.188454 -0.156646 31 142 243
0.163989 -0.471623 0.0778394 31 142 243
0.196543 -0.382385 0.259674 31 142 243
0.179706 -0.204416 0.0252829 31 142 243
0.169289 -0.134349 -0.0788322 31 142 243
0.0581605 -0.206619 -0.316886 31 142 243
0.170529 -0.285039 -0.152343 31 142 243
0.0795547 -0.179319 -0.311003 31 142 243
0.0711375 -0.182375 -0.314834 31 142 243
0.17021 -0.33779 -0.163211 31 142 243
0.1605 -0.161688 -0.318028 31 142 243
0.169818 -0.0783657 -0.148289 31 142 243
-0.0680618 -0.416656 0.298687 31 142 243
0.169477 -0.174548 -0.098873 31 142 243
0.154563 -0.0679548 -0.335474 31 142 243
0.164063 -0.0483373 -0.184035 31 142 243
0.147437 -0.0882583 -0.329466 31 142 243
0.142646 -0.353323 -0.21776 31 142 243
0.130276 -0.13685 -0.289709 31 142 243
0.1495 -0.154487 -0.345876 31 142 243
0.073995 -0.486402 -0.00797736 31 142 243
0.0119955 -0.379764 0.291617 31 142 243
0.176235 -0.156054 0.217223 31 142 243
0.165556 -0.0400472 -0.130235 31 142 243
0.169888 -0.113312 -0.171235 31 142 243
0.159728 -0.474565 -0.102598 31 142 243
0.150616 -0.0811527 -0.347278 31 142 243
0.109779 -0.220584 0.306575 31 142 243
-0.086346 -0.293266 0.276253 31 142 243
0.153021 -0.355985 0.150493 31 142 243
0.164801 -0.0660197 -0.112595 31 142 243
0.169993 -0.0947235 -0.17565 31 142 243
0.169873 -0.111664 -0.180415 31 142 243
0.176997 -0.0751579 0.0708845 31 142 243
0.169315 -0.195143 -0.22698 31 142 243
0.151786 -0.0692345 -0.341865 31 142 243
0.153851 -0.252081 -0.329434 31 142 243
0.0926083 -0.417468 0.291799 31 142 243
0.140264 -0.374813 -0.194925 31 142 243
0.0989696 -0.16255 -0.33101 31 142 243
0.0386889 -0.486183 -0.0381252 31 142 243
0.175683 -0.266176 -0.0391159 31 142 243
0.16455 -0.24734 -0.294768 31 142 243
0.160424 -0.228211 -0.175533 31 142 243
0.168188 -0.19509 -0.267925 31 142 243
0.164512 -0.423301 -0.237821 31 142 243
0.164066 -0.111968 -0.308293 31 142 243
0.105268 -0.221301 0.306634 31 142 243
0.168838 -0.0489619 -0.20486 31 142 243
0.182478 -0.0987803 0.0921401 31 142 243
0.161308 -0.133081 -0.316506 31 142 243
0.144178 -0.463005 0.268074 31 142 243
0.157041 -0.130208 -0.327511 31 142 243
0.168484 -0.0707897 -0.258087 31 142 243
0.0165782 -0.445194 0.189655 31 142 243
-0.0119881 -0.435685 0.237692 31 142 243
0.168835 -0.257169 -0.259694 31 142 243
0.147247 -0.476635 0.0092587 31 142 243
0.14189 -0.214225 0.302894 31 142 243
-0.02435 -0.260335 0.299423 31 142 243
0.126386 -0.261847 -0.287729 31 142 243
0.170289 -0.105965 -0.00783269 31 142 243
0.0387384 -0.27343 -0.313281 31 142 243
0.183015 -0.173158 0.0704593 31 142 243
0.16716 -0.241748 -0.0687409 31 142 243
0.167557 -0.0611649 -0.120476 31 142 243
-0.233097 -0.397462 0.277563 31 142 243
0.105513 -0.161827 -0.332983 31 142 243
0.161899 -0.164508 -0.314247 31 142 243
-0.0166774 -0.440642 0.30257 31 142 243
0.165697 -0.0377329 -0.10315 31 142 243
0.165677 -0.0371314 -0.0846759 31 142 243
0.152802 -0.256076 -0.331846 31 142 243
0.0786438 -0.369689 0.286947 31 142 243
0.170007 -0.144209 -0.211965 31 142 243
-0.0551562 -0.311943 0.280271 31 142 243
0.168539 -0.264573 -0.26739 31 142 243
-0.0464677 -0.390533 0.297405 31 142 243
0.167013 -0.0619538 -0.0347823 31 142 243
0.164537 -0.167453 -0.305386 31 142 243
0.180455 -0.413653 -0.128988 31 142 243
0.0647959 -0.444487 0.0888224 31 142 243
0.188062 -0.277579 0.165808 31 142 243
0.169484 -0.0933015 -0.229676 31 142 243
0.169481 -0.175984 -0.106614 31 142 243
0.124889 -0.128022 -0.292918 31 142 243
0.168845 -0.0899111 -0.100896 31 142 243
