ply
format ascii 1.0
comment Created by Open3D
element vertex 1178
property double x
property double y
property double z
property uchar red
property uchar green
property uchar blue
end_header
-0.254655 0.0747848 -0.266006 31 142 243
-0.135568 0.0744586 -0.277638 31 142 243
-0.190648 -0.0565857 -0.197613 31 142 243
-0.0735874 0.0741179 -0.224696 31 142 243
0.114592 -0.0938224 -0.190418 31 142 243
-0.284212 0.0631154 -0.333236 31 142 243
0.0394466 0.0719478 -0.214788 31 142 243
0.0535378 0.0728598 -0.251171 31 142 243
-0.103633 0.0743503 -0.2519 31 142 243
-0.284689 -0.0367094 -0.334721 31 142 243
-0.00176642 0.053867 -0.193944 31 142 243
-0.0962382 0.0739539 -0.282217 31 142 243
-0.201301 0.0749636 -0.293068 31 142 243
0.144176 -0.037076 -0.195661 31 142 243
-0.124239 0.0746283 -0.22592 31 142 243
-0.134421 0.0741954 -0.3025 31 142 243
0.0819368 0.026899 -0.192541 31 142 243
-0.203938 0.0207211 -0.192543 31 142 243
-0.115563 0.0739877 -0.311814 31 142 243
-0.167283 0.0748957 -0.226881 31 142 243
-0.26689 0.0695891 -0.21144 31 142 243
-0.261063 0.0742695 -0.316795 31 142 243
0.0275373 0.041353 -0.19184 31 142 243
-0.196903 0.0446847 -0.19413 31 142 243
-0.0945695 0.0741011 -0.26607 31 142 243
-0.27718 0.0687504 -0.245946 31 142 243
0.0845988 0.0694614 -0.215479 31 142 243
-0.0399642 0.0735511 -0.252298 31 142 243
0.00689244 0.0441144 -0.192116 31 142 243
-0.0748458 0.0741471 -0.217758 31 142 243
-0.0843699 0.0515613 -0.193632 31 142 243
-0.096385 0.0623056 -0.195994 31 142 243
-0.274261 0.0486444 -0.220051 31 142 243
-0.162248 0.0743144 -0.325808 31 142 243
-0.27663 -0.0974984 -0.28316 31 142 243
-0.273222 0.0483308 -0.205849 31 142 243
-0.283575 0.00218442 -0.345556 31 142 243
-0.105987 0.0608296 -0.195275 31 142 243
-0.198014 0.0747849 -0.210371 31 142 243
-0.278632 0.0698503 -0.3274 31 142 243
-0.271945 0.0726403 -0.312118 31 142 243
-0.271143 0.04142 -0.213602 31 142 243
-0.278702 0.0211001 -0.234751 31 142 243
-0.228834 0.0748916 -0.312892 31 142 243
-0.167308 0.0743381 -0.329271 31 142 243
-0.157452 0.0747506 -0.269493 31 142 243
0.149464 -0.139713 -0.192264 31 142 243
-0.0685969 0.0740899 -0.216187 31 142 243
-0.0702973 0.0739869 -0.203503 31 142 243
-0.274677 0.0696693 -0.224321 31 142 243
0.0200123 0.073159 -0.239 31 142 243
-0.278981 -0.146988 -0.325558 31 142 243
0.136446 0.0206465 -0.200638 31 142 243
-0.11145 0.0746111 -0.200963 31 142 243
-0.251714 0.0747218 -0.313668 31 142 243
-0.278553 -0.073232 -0.291715 31 142 243
-0.220313 0.0329874 -0.193839 31 142 243
-0.0347555 0.0587466 -0.195748 31 142 243
-0.280549 -0.131418 -0.330444 31 142 243
-0.27404 0.0383087 -0.207282 31 142 243
0.0952316 0.00490195 -0.193852 31 142 243
0.0662061 0.0528679 -0.197867 31 142 243
-0.270258 0.0705986 -0.216922 31 142 243
-0.233535 0.0749069 -0.221891 31 142 243
-0.19177 -0.0143009 -0.194146 31 142 243
-0.0311705 -0.0254734 -0.191445 31 142 243
-0.0841618 0.0738624 -0.277549 31 142 243
0.0147896 0.071151 -0.205131 31 142 243
-0.132362 0.0746659 -0.233946 31 142 243
-0.185408 0.074806 -0.30374 31 142 243
-0.282004 0.0307153 -0.275095 31 142 243
0.0529135 -0.0696571 -0.191571 31 142 243
0.116227 -0.157385 -0.191256 31 142 243
-0.0982023 0.0742166 -0.26057 31 142 243
-0.286914 0.0127833 -0.31559 31 142 243
-0.105381 0.0229643 -0.192302 31 142 243
-0.0674597 0.0741165 -0.208902 31 142 243
-0.205168 0.0749973 -0.246256 31 142 243
0.0187151 0.070832 -0.203221 31 142 243
-0.271084 0.0491236 -0.213803 31 142 243
-0.266339 0.0743787 -0.233457 31 142 243
0.0637318 0.070714 -0.212259 31 142 243
-0.115774 -0.0498754 -0.195725 31 142 243
0.0738267 0.0722687 -0.230597 31 142 243
-0.278215 0.0214401 -0.246907 31 142 243
-0.0119079 0.0260001 -0.189852 31 142 243
-0.208982 0.0749482 -0.232111 31 142 243
-0.123423 0.0635694 -0.195751 31 142 243
-0.2785 -0.00981437 -0.232264 31 142 243
-0.189348 0.0746954 -0.203472 31 142 243
-0.065483 0.0211515 -0.190293 31 142 243
-0.195675 0.0749306 -0.230327 31 142 243
0.0462028 0.0730267 -0.236283 31 142 243
0.135134 -0.257318 -0.190288 31 142 243
-0.158924 0.0748607 -0.222156 31 142 243
-0.27853 -0.143939 -0.321603 31 142 243
-0.082807 0.0743058 -0.201992 31 142 243
-0.142155 0.074667 -0.258396 31 142 243
0.108429 -0.0722624 -0.190732 31 142 243
-0.1574 0.0743495 -0.313101 31 142 243
-0.275916 0.0716802 -0.258024 31 142 243
-0.27098 0.0597022 -0.208497 31 142 243
-0.272941 0.0737429 -0.262297 31 142 243
-0.056265 0.0737434 -0.25664 31 142 243
-0.206225 -0.0196109 -0.195183 31 142 243
0.125741 -0.160326 -0.18998 31 142 243
-0.137726 0.0746288 -0.258807 31 142 243
0.0556859 -0.212297 -0.203841 31 142 243
0.00271217 0.0730231 -0.282183 31 142 243
0.0113061 0.0206878 -0.18882 31 142 243
0.160148 -0.271967 -0.188471 31 142 243
-0.252044 0.074824 -0.250514 31 142 243
0.020579 -0.0194481 -0.189268 31 142 243
0.00716721 0.0592525 -0.196165 31 142 243
-0.23129 0.0749723 -0.230994 31 142 243
-0.106241 0.0740505 -0.283995 31 142 243
-0.110768 0.0739705 -0.306133 31 142 243
-0.201293 0.0746948 -0.333206 31 142 243
0.100438 0.00527001 -0.194575 31 142 243
-0.282614 0.0134959 -0.348819 31 142 243
-0.0707109 0.0736364 -0.298532 31 142 243
-0.122952 -0.00610912 -0.191499 31 142 243
-0.00997468 -0.0616211 -0.19416 31 142 243
-0.262979 -0.00903018 -0.19762 31 142 243
-0.154221 0.074693 -0.276927 31 142 243
-0.0430651 -0.165615 -0.203628 31 142 243
-0.167242 0.0748654 -0.257094 31 142 243
-0.23873 0.0685409 -0.203313 31 142 243
-0.147338 0.0747703 -0.210919 31 142 243
-0.0716681 0.0741845 -0.204535 31 142 243
-0.0266282 0.0731929 -0.287497 31 142 243
0.0292111 -0.0516991 -0.191371 31 142 243
-0.262653 0.0744962 -0.23384 31 142 243
-0.286603 0.0420517 -0.327928 31 142 243
-0.118828 0.0741591 -0.287327 31 142 243
-0.0274852 0.0686829 -0.199876 31 142 243
-0.268324 0.043773 -0.196048 31 142 243
-0.134314 -0.136138 -0.202534 31 142 243
-0.166368 0.0748469 -0.261338 31 142 243
-0.235032 -0.103991 -0.199753 31 142 243
0.0971416 -0.0959059 -0.191006 31 142 243
0.00172225 -0.0571053 -0.192884 31 142 243
-0.109671 0.0740829 -0.285093 31 142 243
-0.285466 0.0184933 -0.33702 31 142 243
-0.282424 0.0527124 -0.269163 31 142 243
-0.0402584 0.0733158 -0.283693 31 142 243
-0.196499 0.0747594 -0.208046 31 142 243
-0.269936 0.0737901 -0.29944 31 142 243
-0.281473 -0.0759865 -0.311667 31 142 243
-0.0191477 0.0733146 -0.255984 31 142 243
0.116505 -0.23023 -0.195514 31 142 243
-0.270243 0.0742285 -0.285117 31 142 243
0.0169466 -0.0646046 -0.193392 31 142 243
-0.00242622 0.0734263 -0.225434 31 142 243
-0.276559 -0.0851042 -0.273445 31 142 243
0.0197186 -0.0268378 -0.189528 31 142 243
-0.170134 0.0745868 -0.306608 31 142 243
-0.276665 -0.0606829 -0.253442 31 142 243
-0.0574857 0.0737711 -0.256505 31 142 243
0.0704835 0.0619811 -0.201767 31 142 243
-0.179881 0.0520273 -0.194895 31 142 243
-0.218233 -0.0100894 -0.195071 31 142 243
-0.193285 0.0745904 -0.332345 31 142 243
-0.225938 0.0747946 -0.335371 31 142 243
-0.0258225 0.0578993 -0.195355 31 142 243
-0.278311 -0.0632852 -0.286185 31 142 243
-0.277002 -0.192153 -0.306961 31 142 243
-0.0475396 0.073874 -0.217927 31 142 243
-0.252712 0.0747337 -0.308724 31 142 243
-0.270985 0.0723885 -0.222756 31 142 243
-0.0992174 0.0744553 -0.205132 31 142 243
0.0842068 0.0679648 -0.208477 31 142 243
-0.15289 -0.00194496 -0.191899 31 142 243
-0.229076 0.0748594 -0.217707 31 142 243
-0.229028 0.0749817 -0.2817 31 142 243
-0.0470841 0.0734726 -0.264835 31 142 243
-0.0375026 0.0682624 -0.19959 31 142 243
-0.196423 0.0492915 -0.194782 31 142 243
-0.276579 -0.0886254 -0.280554 31 142 243
-0.0459685 0.073785 -0.23469 31 142 243
-0.0597396 -0.0635624 -0.197299 31 142 243
-0.278178 0.0553373 -0.233769 31 142 243
-0.217035 0.0727414 -0.203285 31 142 243
-0.266883 0.0108049 -0.196997 31 142 243
-0.274981 0.0382613 -0.19641 31 142 243
-0.0803043 0.0740085 -0.259576 31 142 243
-0.243458 0.0746288 -0.214641 31 142 243
-0.223477 0.0748284 -0.329093 31 142 243
-0.130207 0.074689 -0.222009 31 142 243
-0.144236 0.0642861 -0.195757 31 142 243
-0.251292 -0.0839999 -0.199148 31 142 243
0.00884879 0.0712271 -0.203557 31 142 243
0.00214749 0.0733632 -0.219091 31 142 243
-0.17025 0.0748901 -0.225964 31 142 243
-0.255937 0.0702572 -0.354852 31 142 243
-0.21101 0.0749887 -0.276215 31 142 243
-0.0279005 -0.0293481 -0.191655 31 142 243
-0.139169 -0.0628946 -0.197128 31 142 243
-0.276523 -0.106433 -0.270861 31 142 243
-0.179865 0.0748443 -0.287185 31 142 243
-0.274345 0.0322541 -0.207527 31 142 243
0.0294148 0.0216428 -0.189141 31 142 243
0.00433348 0.0729929 -0.286148 31 142 243
-0.257092 0.0445567 -0.196729 31 142 243
0.0530963 0.070979 -0.210979 31 142 243
-0.0929682 0.0738879 -0.290766 31 142 243
-0.277248 -0.19248 -0.312755 31 142 243
-0.0947454 0.00909052 -0.191475 31 142 243
-0.272654 0.0156914 -0.212483 31 142 243
0.0904292 0.0674531 -0.20988 31 142 243
-0.108919 0.0743768 -0.25796 31 142 243
-0.258682 0.0746952 -0.283045 31 142 243
-0.0887272 -0.0681539 -0.197892 31 142 243
0.0343679 0.0729886 -0.24862 31 142 243
-0.250614 -0.0148902 -0.239057 0 180 235
-0.215128 -0.275263 -0.210873 0 180 235
0.0731231 -0.120657 -0.213845 0 180 235
-0.223581 -0.0803126 -0.211828 0 180 235
-0.142005 -0.101823 -0.206117 0 180 235
-0.257365 0.0289584 -0.243807 0 180 235
-0.0309554 -0.179386 -0.213853 0 180 235
-0.183026 -0.134573 -0.207897 0 180 235
-0.215398 -0.0588304 -0.20968 0 180 235
-0.0819947 -0.0928322 -0.208514 0 180 235
-0.18351 -0.0134799 -0.203343 0 180 235
-0.24674 -0.0545046 -0.231935 0 180 235
-0.245613 -0.0640271 -0.229657 0 180 235
0.0975545 -0.05006 -0.214779 0 180 235
-0.206176 0.0365641 -0.194481 0 180 235
-0.230848 -0.365479 -0.22361 0 180 235
0.0379407 -0.186306 -0.212031 0 180 235
0.269656 -0.150412 -0.220262 0 180 235
-0.00819886 0.0198943 -0.198538 0 180 235
-0.01371 -0.0349859 -0.207913 0 180 235
-0.212219 -0.0834296 -0.209896 0 180 235
-0.0529098 0.0279501 -0.193697 0 180 235
-0.14971 -0.105418 -0.20649 0 180 235
0.080128 -0.250165 -0.211856 0 180 235
-0.199801 -0.134812 -0.208886 0 180 235
-0.188722 -0.31257 -0.206581 0 180 235
-0.125719 0.0351169 -0.190235 0 180 235
0.169347 0.00360197 -0.213197 0 180 235
0.206588 -0.168981 -0.217069 0 180 235
0.15065 -0.145809 -0.21605 0 180 235
0.10228 -0.000549152 -0.211219 0 180 235
0.0772317 -0.0703985 -0.214449 0 180 235
-0.0824041 -0.0994015 -0.208394 0 180 235
-0.0194284 -0.316908 -0.212775 0 180 235
-0.158753 -0.00912442 -0.201267 0 180 235
0.0128302 -0.0022691 -0.204083 0 180 235
0.215542 -0.219652 -0.217539 0 180 235
0.0407852 -0.219486 -0.212129 0 180 235
-0.127179 -0.112828 -0.206388 0 180 235
-0.216566 -0.330974 -0.218423 0 180 235
0.0249287 -0.138499 -0.213698 0 180 235
-0.0101302 -0.249807 -0.214428 0 180 235
0.174344 -0.0499316 -0.217001 0 180 235
-0.0208236 -0.200154 -0.215146 0 180 235
0.157804 -0.0258865 -0.215933 0 180 235
-0.224656 -0.155606 -0.208958 0 180 235
0.107486 -0.16163 -0.213619 0 180 235
-0.21655 -0.0467533 -0.209345 0 180 235
-0.0621018 -0.185084 -0.211558 0 180 235
0.141859 -0.272477 -0.212925 0 180 235
-0.0809139 -0.0272492 -0.20316 0 180 235
0.0437244 -0.131968 -0.213432 0 180 235
0.207041 -0.169494 -0.217107 0 180 235
-0.152861 -0.163473 -0.207305 0 180 235
-0.221241 -0.248659 -0.21142 0 180 235
0.00650452 -0.0608039 -0.211152 0 180 235
-0.179021 -0.0394346 -0.204878 0 180 235
-0.214315 -0.327344 -0.21741 0 180 235
-0.0463323 -0.0974278 -0.211525 0 180 235
0.110603 -0.354704 -0.216276 0 180 235
-0.213328 -0.0586701 -0.209356 0 180 235
-0.032171 -0.288496 -0.212506 0 180 235
0.210287 -0.114688 -0.216973 0 180 235
-0.0305717 -0.0924113 -0.212571 0 180 235
-0.111688 -0.247569 -0.207604 0 180 235
0.268313 -0.217434 -0.21895 0 180 235
0.138945 -0.325211 -0.215511 0 180 235
-0.108769 -0.30209 -0.204081 0 180 235
-0.0460034 -0.0366929 -0.20674 0 180 235
-0.107055 -0.178888 -0.209126 0 180 235
0.178636 -0.00129782 -0.214169 0 180 235
-0.234571 0.0411201 -0.199809 0 180 235
0.0101872 -0.068319 -0.21171 0 180 235
-0.212367 -0.0800275 -0.209872 0 180 235
0.074117 -0.0963973 -0.214552 0 180 235
-0.218727 -0.182013 -0.207252 0 180 235
-0.237397 -0.345895 -0.225207 0 180 235
-0.0884087 -0.331194 -0.201484 0 180 235
0.00452896 -0.283194 -0.214677 0 180 235
-0.0243969 -0.34328 -0.210725 0 180 235
-0.0437575 -0.285503 -0.212097 0 180 235
0.0320801 0.00173798 -0.204395 0 180 235
-0.0355303 -0.120162 -0.213079 0 180 235
0.264 -0.103242 -0.218698 0 180 235
-0.0140904 -0.221447 -0.215159 0 180 235
-0.169665 -0.215194 -0.205066 0 180 235
0.159151 -0.126074 -0.216629 0 180 235
0.170206 -0.337723 -0.217052 0 180 235
-0.00645415 -0.199714 -0.215595 0 180 235
0.0869811 -0.0723284 -0.214761 0 180 235
-0.205275 -0.365536 -0.218749 0 180 235
-0.235312 -0.00376975 -0.214792 0 180 235
-0.0948278 -0.0683274 -0.206664 0 180 235
0.0422998 -0.346161 -0.216263 0 180 235
-0.124251 -0.223631 -0.207735 0 180 235
-0.225762 0.0135213 -0.206016 0 180 235
-0.201337 -0.138058 -0.208922 0 180 235
0.157256 -0.271822 -0.213949 0 180 235
-0.097447 -0.227511 -0.209395 0 180 235
-0.209319 0.018631 -0.201748 0 180 235
0.25409 -0.358967 -0.21867 0 180 235
0.229616 -0.155599 -0.218577 0 180 235
-0.196863 -0.285237 -0.206667 0 180 235
-0.00100291 -0.245443 -0.214519 0 180 235
-0.0908347 -0.171403 -0.210156 0 180 235
-0.183211 0.0262729 -0.196491 0 180 235
-0.250316 0.0349057 -0.224765 0 180 235
0.252151 -0.300681 -0.21886 0 180 235
0.0531171 -0.0100824 -0.207614 0 180 235
-0.132744 0.00221581 -0.198449 0 180 235
0.0648309 -0.161496 -0.211871 0 180 235
0.133388 -0.140991 -0.21527 0 180 235
0.196167 -0.0738699 -0.217379 0 180 235
0.0144702 -0.329967 -0.216138 0 180 235
-0.170493 0.0357533 -0.191447 0 180 235
0.167918 -0.0385707 -0.216554 0 180 235
-0.131118 0.0268435 -0.192838 0 180 235
0.23457 -0.161648 -0.218963 0 180 235
-0.155267 -0.310872 -0.202863 0 180 235
-0.210658 -0.036613 -0.207709 0 180 235
0.12501 -0.0908879 -0.215185 0 180 235
-0.260835 -0.00524043 -0.254751 0 180 235
-0.0991528 -0.111591 -0.207399 0 180 235
-0.131678 -0.0207733 -0.201574 0 180 235
0.194431 -0.373517 -0.220216 0 180 235
0.13161 -0.0708298 -0.215755 0 180 235
-0.246014 -0.17218 -0.220116 0 180 235
-0.109916 -0.311707 -0.203363 0 180 235
-0.201173 -0.146249 -0.208699 0 180 235
-0.0370144 -0.263287 -0.213639 0 180 235
0.245997 -0.351149 -0.219218 0 180 235
-0.0472797 -0.266878 -0.212081 0 180 235
0.0531682 -0.0666426 -0.213736 0 180 235
0.147744 -0.122064 -0.216288 0 180 235
-0.189631 -0.292789 -0.205928 0 180 235
0.128079 -0.0982807 -0.21532 0 180 235
-0.142052 0.0234014 -0.193725 0 180 235
0.0479424 -0.00710323 -0.206809 0 180 235
-0.258465 0.0192363 -0.249858 0 180 235
0.0308448 -0.0698277 -0.212628 0 180 235
-0.212126 -0.334948 -0.217577 0 180 235
-0.0866609 -0.15851 -0.209862 0 180 235
-0.251599 -0.0404291 -0.240786 0 180 235
-0.227105 -0.176143 -0.208904 0 180 235
-0.253478 0.0350439 -0.231526 0 180 235
0.0109639 0.0234839 -0.198223 0 180 235
0.264024 -0.0896858 -0.218349 0 180 235
0.0341454 -0.121762 -0.213517 0 180 235
-0.0341193 -0.15011 -0.213579 0 180 235
0.223148 -0.164423 -0.218267 0 180 235
-0.138851 -0.0641397 -0.204468 0 180 235
0.0180901 -0.128608 -0.213666 0 180 235
-0.144074 0.0323134 -0.191324 0 180 235
-0.245945 -0.04591 -0.230985 0 180 235
0.100616 -0.151032 -0.213211 0 180 235
0.0553184 -0.000362053 -0.206629 0 180 235
0.1482 -0.0200549 -0.215645 0 180 235
-0.237856 -0.0389319 -0.218798 0 180 235
-0.218229 -0.0290085 -0.208726 0 180 235
-0.231808 0.0437116 -0.197885 0 180 235
0.199116 -0.0140442 -0.216142 0 180 235
-0.0693836 -0.293323 -0.208666 0 180 235
-0.0395199 -0.147527 -0.213082 0 180 235
-0.177293 0.0297965 -0.194553 0 180 235
-0.00838211 -0.269027 -0.213847 0 180 235
-0.00385159 0.00404877 -0.20194 0 180 235
-0.213063 -0.294059 -0.211535 0 180 235
-0.140818 -0.0230788 -0.201758 0 180 235
-0.0649308 -0.303044 -0.20857 0 180 235
-0.175686 -0.353762 -0.207961 0 180 235
0.0875776 -0.037899 -0.213816 0 180 235
-0.165102 0.039496 -0.189229 0 180 235
-0.145504 -0.082875 -0.205863 0 180 235
0.290573 -0.332845 -0.219184 0 180 235
-0.0756065 -0.0440431 -0.205336 0 180 235
0.119632 -0.0108364 -0.213558 0 180 235
-0.0666038 -0.323999 -0.205877 0 180 235
-0.182696 -0.0331441 -0.204667 0 180 235
-0.251463 -0.0786255 -0.234617 0 180 235
-0.132289 -0.191099 -0.208068 0 180 235
0.0251716 -0.305343 -0.215474 0 180 235
-0.150534 0.0284636 -0.192305 0 180 235
-0.157835 -0.131208 -0.207252 0 180 235
-0.122881 -0.0133693 -0.200807 0 180 235
-0.151841 0.0176955 -0.196207 0 180 235
-0.136 -0.077412 -0.204965 0 180 235
-0.217674 -0.0952548 -0.210798 0 180 235
0.248651 -0.0938716 -0.21775 0 180 235
-0.167622 -0.198907 -0.206152 0 180 235
-0.205388 0.0321435 -0.196197 0 180 235
0.194511 -0.226919 -0.215624 0 180 235
-0.026893 -0.2177 -0.214514 0 180 235
0.0247733 -0.151102 -0.213735 0 180 235
0.157597 -0.32832 -0.216314 0 180 235
0.186127 -0.138128 -0.217205 0 180 235
-0.164518 0.0251348 -0.194539 0 180 235
0.0212904 -0.255913 -0.213847 0 180 235
0.156173 -0.158785 -0.215973 0 180 235
-0.072453 -0.148654 -0.210169 0 180 235
-0.196563 -0.231615 -0.205558 0 180 235
-0.250354 -0.082252 -0.232291 0 180 235
-0.0830131 -0.08559 -0.208229 0 180 235
-0.220773 -0.10308 -0.211186 0 180 235
0.00145822 0.00296958 -0.202404 0 180 235
-0.091231 0.0212024 -0.19549 0 180 235
-0.0809676 -0.252258 -0.209616 0 180 235
-0.199418 -0.136593 -0.208803 0 180 235
0.230308 -0.216849 -0.218284 0 180 235
-0.232244 -0.142204 -0.211454 0 180 235
-0.0317212 -0.321933 -0.211058 0 180 235
-0.156059 0.0209073 -0.195371 0 180 235
-0.12084 0.0116155 -0.196942 0 180 235
-0.0161485 -0.190023 -0.215335 0 180 235
0.217736 -0.0875737 -0.217279 0 180 235
-0.144692 -0.14678 -0.207259 0 180 235
-0.102885 0.032554 -0.191527 0 180 235
0.00418556 -0.0231694 -0.208103 0 180 235
-0.262236 0.0427994 -0.24418 0 180 235
-0.242934 -0.240814 -0.222901 0 180 235
-0.13139 -0.13256 -0.207517 0 180 235
-0.226693 0.0210578 -0.205007 0 180 235
-0.237443 -0.202766 -0.216264 0 180 235
0.17681 -0.288819 -0.215846 0 180 235
-0.138682 -0.254588 -0.205155 0 180 235
0.112663 -0.372214 -0.218008 0 180 235
-0.256402 0.0422144 -0.232366 0 180 235
-0.178963 -0.117154 -0.208168 0 180 235
-0.242518 -0.174537 -0.218455 0 180 235
0.0887395 -0.0229793 -0.211836 0 180 235
-0.244513 -0.104899 -0.221624 0 180 235
-0.0726313 0.00190906 -0.201012 0 180 235
-0.0643018 -0.205856 -0.211478 0 180 235
-0.0788209 0.0134183 -0.19824 0 180 235
-0.106802 -0.161147 -0.209009 0 180 235
-0.0383077 -0.00542246 -0.20304 0 180 235
-0.166796 -0.100991 -0.207227 0 180 235
0.0849729 -0.0829482 -0.214731 0 180 235
-0.238305 -0.0175072 -0.219443 0 180 235
-0.168838 -0.221278 -0.204813 0 180 235
-0.16402 -0.0185603 -0.202667 0 180 235
-0.191142 -0.0870787 -0.208285 0 180 235
0.222122 -0.0767603 -0.217193 0 180 235
-0.167788 -0.323845 -0.204076 0 180 235
-0.198807 -0.00166097 -0.203299 0 180 235
0.151317 -0.212825 -0.213797 0 180 235
-0.0602442 -0.0197147 -0.204309 0 180 235
-0.193877 -0.322896 -0.209031 0 180 235
-0.0857739 0.0163273 -0.197272 0 180 235
-0.257764 0.0464886 -0.231887 0 180 235
-0.238349 0.0348966 -0.205084 0 180 235
-0.205282 -0.0557607 -0.20803 0 180 235
-0.117594 -0.0941282 -0.20625 0 180 235
0.00791205 -0.0665811 -0.211563 0 180 235
0.0317272 -0.00240695 -0.205143 0 180 235
-0.0329209 0.0192691 -0.197296 0 180 235
-0.2351 0.0287811 -0.204889 0 180 235
-0.260239 0.0465351 -0.237031 0 180 235
0.0290319 -0.0147746 -0.208045 0 180 235
0.225143 -0.069443 -0.217442 0 180 235
-0.114488 -0.278739 -0.205801 0 180 235
-0.142494 -0.301442 -0.202854 0 180 235
-0.20263 -0.228555 -0.206012 0 180 235
-0.0159624 -0.301327 -0.213425 0 180 235
0.247129 -0.372249 -0.217656 0 180 235
-0.0521728 -0.0453836 -0.20762 0 180 235
-0.236801 -0.287577 -0.222637 0 180 235
-0.182529 0.00923926 -0.200761 0 180 235
0.251266 -0.216424 -0.218858 0 180 235
-0.0837627 -0.180871 -0.210563 0 180 235
0.115325 -0.056482 -0.215368 0 180 235
-0.0632173 -0.279284 -0.209966 0 180 235
-0.140734 0.0158075 -0.196352 0 180 235
-0.187306 -0.0106148 -0.203366 0 180 235
-0.00536534 -0.284485 -0.214205 0 180 235
0.0581617 -0.00595745 -0.207477 0 180 235
-0.23015 -0.290076 -0.219783 0 180 235
-0.0413702 -0.268361 -0.212914 0 180 235
-0.145165 -0.0270518 -0.202211 0 180 235
-0.23105 -0.153663 -0.210191 0 180 235
0.0260871 -0.327403 -0.216397 0 180 235
-0.0568093 -0.331318 -0.206464 0 180 235
-0.249207 -0.0637196 -0.23468 0 180 235
-0.253003 0.0349415 -0.23053 0 180 235
-0.0405415 -0.0486975 -0.20833 0 180 235
-0.168766 -0.135836 -0.207869 0 180 235
0.0851059 -0.0126244 -0.210887 0 180 235
0.159721 -0.123006 -0.216657 0 180 235
0.269595 -0.334871 -0.219407 0 180 235
0.00627984 -0.285153 -0.214833 0 180 235
0.247878 -0.125255 -0.21862 0 180 235
-0.221813 -0.336782 -0.220592 0 180 235
-0.217524 -0.054865 -0.209875 0 180 235
-0.0251353 -0.349984 -0.210382 0 180 235
0.237419 -0.35225 -0.219309 0 180 235
-0.165371 -0.0826861 -0.206786 0 180 235
-0.0149829 -0.191639 -0.215449 0 180 235
0.251752 -0.228607 -0.218544 0 180 235
-0.0521971 0.0289584 -0.193382 0 180 235
0.115895 -0.0146879 -0.213513 0 180 235
-0.155011 -0.0602569 -0.205348 0 180 235
0.0235874 -0.00851737 -0.206213 0 180 235
-0.155064 -0.217965 -0.205726 0 180 235
-0.0690922 -0.214086 -0.210853 0 180 235
-0.0109114 0.0208494 -0.198118 0 180 235
-0.203811 0.0189467 -0.200863 0 180 235
0.13657 -0.0103358 -0.214589 0 180 235
-0.083203 -0.123301 -0.208647 0 180 235
0.259746 -0.193017 -0.219443 0 180 235
-0.160707 -0.276041 -0.20351 0 180 235
0.25072 -0.12036 -0.218583 0 180 235
0.0953371 -0.11532 -0.2146 0 180 235
-0.212871 0.00140396 -0.204986 0 180 235
-0.17327 -0.26909 -0.204142 0 180 235
-0.175399 0.0379815 -0.191273 0 180 235
-0.123122 -0.340242 -0.201337 0 180 235
0.130386 -0.195398 -0.214167 0 180 235
-0.0737965 -0.0757844 -0.208221 0 180 235
-0.0979537 -0.292641 -0.205681 0 180 235
-0.207341 0.0210137 -0.200874 0 180 235
-0.168069 0.0221334 -0.196258 0 180 235
0.257628 -0.075321 -0.217938 0 180 235
-0.191588 -0.293563 -0.2062 0 180 235
-0.0852289 -0.122093 -0.208494 0 180 235
-0.241089 0.0325634 -0.210552 0 180 235
0.149329 -0.0319026 -0.215884 0 180 235
-0.0691814 -0.0784029 -0.208733 0 180 235
-0.22475 -0.158209 -0.208787 0 180 235
-0.108736 -0.112324 -0.206916 0 180 235
-0.204305 -0.201242 -0.20612 0 180 235
-0.243448 -0.126012 -0.218271 0 180 235
0.145107 -0.284171 -0.213774 0 180 235
-0.146903 -0.246497 -0.204886 0 180 235
-0.160109 -0.00814832 -0.201243 0 180 235
-0.226961 -0.0624075 -0.212553 0 180 235
0.0279876 -0.274594 -0.214213 0 180 235
-0.231871 -0.0505846 -0.213002 0 180 235
0.139433 -0.166829 -0.215051 0 180 235
0.0519519 -0.0418791 -0.212847 0 180 235
-0.192783 -0.357183 -0.21301 0 180 235
0.124845 -0.314882 -0.214081 0 180 235
-0.0307592 -0.27627 -0.213464 0 180 235
-0.108085 -0.320852 -0.202965 0 180 235
0.13316 -0.0962908 -0.215609 0 180 235
-0.105102 -0.274192 -0.206845 0 180 235
-0.249385 -0.074114 -0.232833 0 180 235
-0.122772 -0.074229 -0.205364 0 180 235
-0.209107 0.0127573 -0.202804 0 180 235
-0.214181 -0.189627 -0.206846 0 180 235
0.142108 -0.265291 -0.212538 0 180 235
0.233609 -0.229107 -0.21805 0 180 235
-0.0218905 -0.299987 -0.212896 0 180 235
-0.232392 -0.156642 -0.210927 0 180 235
-0.217449 0.0385721 -0.196507 0 180 235
0.00279779 -0.259141 -0.214444 0 180 235
-0.211911 -0.200108 -0.206668 0 180 235
-0.0150468 -0.126912 -0.213791 0 180 235
0.164848 -0.0784222 -0.216938 0 180 235
-0.207406 0.0165878 -0.201728 0 180 235
-0.106772 -0.304628 -0.204048 0 180 235
0.0316571 -0.127205 -0.213568 0 180 235
0.116222 0.00256678 -0.212111 0 180 235
-0.23472 -0.0726424 -0.214141 0 180 235
0.0096486 -0.351588 -0.215671 0 180 235
0.107566 -0.0437752 -0.214871 0 180 235
-0.0871962 -0.0710828 -0.207162 0 180 235
0.217062 -0.212289 -0.217669 0 180 235
0.196986 -0.284813 -0.216709 0 180 235
-0.0026363 -0.151654 -0.214287 0 180 235
0.0368854 -0.137387 -0.213503 0 180 235
-0.00624798 -0.120635 -0.213645 0 180 235
-0.22173 -0.00107957 -0.207044 0 180 235
0.250494 -0.0965798 -0.217903 0 180 235
0.0730373 -0.28471 -0.212772 0 180 235
0.107262 -0.0705196 -0.215106 0 180 235
-0.0161817 -0.22083 -0.215163 0 180 235
0.0103676 -0.0116767 -0.206301 0 180 235
-0.0761532 -0.357418 -0.200967 0 180 235
-0.196383 -0.0310959 -0.205323 0 180 235
-0.198799 0.0223044 -0.199432 0 180 235
0.0251503 -0.0354157 -0.210737 0 180 235
-0.030398 0.0180876 -0.197731 0 180 235
-0.245524 -0.198303 -0.220824 0 180 235
-0.0930512 -0.32799 -0.201998 0 180 235
0.158334 -0.0646568 -0.21679 0 180 235
-0.0803794 -0.26024 -0.209396 0 180 235
0.059321 -0.151692 -0.212807 0 180 235
-0.257991 -0.0624815 -0.247328 0 180 235
-0.0717819 -0.0296935 -0.204213 0 180 235
-0.118797 -0.353609 -0.199377 0 180 235
-0.130336 -0.258142 -0.205644 0 180 235
0.168148 -0.076014 -0.216998 0 180 235
-0.220367 -0.349228 -0.220681 0 180 235
-0.0633443 -0.0400303 -0.206149 0 180 235
-0.233454 -0.169901 -0.211829 0 180 235
-0.0694384 -0.131575 -0.209907 0 180 235
0.1524 -0.2189 -0.213246 0 180 235
-0.207289 -0.0125603 -0.205469 0 180 235
0.103509 -0.0316273 -0.213249 0 180 235
-0.218944 0.0117255 -0.204982 0 180 235
0.117141 0.00929838 -0.210762 0 180 235
-0.208322 -0.262579 -0.207915 0 180 235
0.133843 -0.0152534 -0.214744 0 180 235
-0.0442512 -0.11286 -0.212003 0 180 235
-0.0250603 0.0201881 -0.197466 0 180 235
-0.0350363 -0.232258 -0.214061 0 180 235
-0.242738 -0.0367523 -0.225902 0 180 235
-0.187609 0.0304024 -0.194878 0 180 235
-0.220749 -0.0307742 -0.209512 0 180 235
-0.031334 -0.227061 -0.21431 0 180 235
-0.229509 -0.0177126 -0.210912 0 180 235
-0.0846117 0.0236483 -0.194574 0 180 235
0.188126 -0.0310138 -0.217009 0 180 235
0.188034 -0.120463 -0.217067 0 180 235
0.0315357 -0.0578551 -0.212327 0 180 235
-0.0877352 -0.250455 -0.209429 0 180 235
-0.152268 -0.292859 -0.203137 0 180 235
-0.236993 -0.0560849 -0.217288 0 180 235
0.0837763 -0.0247895 -0.21166 0 180 235
0.12286 -0.123272 -0.215075 0 180 235
-0.112018 -0.0438915 -0.203793 0 180 235
0.161255 -0.262583 -0.213823 0 180 235
-0.215961 0.00374159 -0.20538 0 180 235
-0.241087 -0.132689 -0.216175 0 180 235
0.0589081 -0.151316 -0.212842 0 180 235
-0.226533 0.0378125 -0.199236 0 180 235
0.254958 -0.21705 -0.218928 0 180 235
-0.214667 -0.242001 -0.208908 0 180 235
0.0114902 -0.0356982 -0.20976 0 180 235
-0.234383 0.0238648 -0.207109 0 180 235
0.245728 -0.121156 -0.218318 0 180 235
0.166556 -0.107443 -0.216771 0 180 235
0.022945 -0.0202926 -0.209108 0 180 235
-0.096653 -0.0299425 -0.202788 0 180 235
-0.231849 -0.114746 -0.212809 0 180 235
-0.174182 -0.0120192 -0.202771 0 180 235
0.183141 -0.0667284 -0.217182 0 180 235
-0.107382 -0.305074 -0.203975 0 180 235
-0.232826 -0.306479 -0.222214 0 180 235
-0.180766 0.0268572 -0.196044 0 180 235
-0.235508 -0.0954412 -0.213894 0 180 235
0.0164514 0.00611569 -0.202698 0 180 235
-0.123793 -0.247349 -0.206745 0 180 235
0.019692 -0.0140374 -0.207375 0 180 235
0.0105113 -0.21597 -0.21428 0 180 235
-0.01957 0.00569942 -0.200956 0 180 235
-0.163943 -0.161494 -0.207528 0 180 235
-0.151672 -0.124464 -0.206877 0 180 235
-0.150226 -0.195461 -0.207467 0 180 235
0.230127 -0.0460784 -0.217294 0 180 235
0.092402 -0.0180094 -0.212048 0 180 235
-0.232304 -0.314608 -0.222685 0 180 235
-0.10727 -0.363763 -0.197632 0 180 235
-0.164435 -0.00731992 -0.201537 0 180 235
-0.193828 -0.229587 -0.205373 0 180 235
0.124256 -0.0217062 -0.214318 0 180 235
-0.215697 -0.0036897 -0.20613 0 180 235
-0.0909711 -0.0627521 -0.20633 0 180 235
-0.135774 -0.36279 -0.200545 0 180 235
0.20699 -0.374828 -0.219493 0 180 235
0.0382379 -0.147792 -0.213506 0 180 235
-0.0426762 -0.317886 -0.209604 0 180 235
0.244569 -0.073683 -0.217674 0 180 235
-0.137515 -0.0640811 -0.204456 0 180 235
-0.0122751 -0.106267 -0.21345 0 180 235
0.00180522 -0.355038 -0.214587 0 180 235
-0.0110984 -0.0472336 -0.209155 0 180 235
-0.0211433 -0.154406 -0.214595 0 180 235
0.121301 -0.0742483 -0.215239 0 180 235
-0.0414973 -0.0544379 -0.208905 0 180 235
0.181246 -0.289096 -0.216084 0 180 235
-0.132889 -0.094764 -0.205661 0 180 235
0.137749 -0.345519 -0.216655 0 180 235
-0.0382188 0.0286412 -0.194076 0 180 235
0.0367737 0.0173168 -0.202064 0 180 235
-0.224846 -0.323345 -0.220315 0 180 235
-0.0196387 -0.21963 -0.215146 0 180 235
0.214759 -0.0482516 -0.217433 0 180 235
0.219582 -0.306107 -0.218215 0 180 235
0.21185 -0.313549 -0.218088 0 180 235
0.0316897 -0.26651 -0.21365 0 180 235
-0.217314 -0.000873118 -0.20616 0 180 235
0.111563 -0.14337 -0.214023 0 180 235
-0.231599 -0.316027 -0.222504 0 180 235
0.0528903 -0.111645 -0.213659 0 180 235
0.0702071 0.00794409 -0.206896 0 180 235
0.209719 -0.0873872 -0.217347 0 180 235
0.154207 -0.00362507 -0.214739 0 180 235
-0.260741 0.0063707 -0.254437 0 180 235
0.0675618 -0.0142987 -0.209043 0 180 235
-0.0554023 -0.291374 -0.210319 0 180 235
0.0253012 -0.111211 -0.21359 0 180 235
0.0435898 -0.0562782 -0.212909 0 180 235
-0.099841 -0.319301 -0.203269 0 180 235
-0.0955695 -0.029602 -0.20279 0 180 235
0.101852 -0.0322003 -0.213238 0 180 235
0.261342 -0.334304 -0.219363 0 180 235
-0.090436 0.026114 -0.193777 0 180 235
-0.207527 -0.190975 -0.206441 0 180 235
-0.25328 -0.0954512 -0.23379 0 180 235
0.210234 -0.0148063 -0.215639 0 180 235
0.13456 -0.00785547 -0.214335 0 180 235
-0.201392 0.00742674 -0.202576 0 180 235
-0.0632669 -0.255569 -0.21076 0 180 235
-0.0246213 -0.0226691 -0.205958 0 180 235
-0.128919 -0.0159266 -0.201162 0 180 235
-0.169719 -0.146128 -0.207785 0 180 235
-0.234618 -0.0266275 -0.215056 0 180 235
-0.248061 -0.0708947 -0.231788 0 180 235
-0.0679303 0.0266835 -0.193607 0 180 235
-0.21844 -0.029081 -0.208776 0 180 235
-0.136307 0.0356843 -0.190151 0 180 235
0.111588 -0.00479692 -0.212552 0 180 235
-0.181504 -0.345678 -0.195717 32 212 224
-0.0435433 -0.325198 -0.200725 32 212 224
-0.102857 -0.418661 -0.197731 32 212 224
-0.26746 -0.220767 -0.201307 32 212 224
-0.151718 -0.30845 -0.197942 32 212 224
0.147779 -0.0410846 -0.196592 32 212 224
-0.238798 -0.372221 -0.194241 32 212 224
0.217835 -0.148266 -0.193741 32 212 224
0.241797 -0.150235 -0.192901 32 212 224
-0.194712 -0.115325 -0.201974 32 212 224
-0.036124 -0.422192 -0.200788 32 212 224
-0.302241 -0.0488513 -0.205549 32 212 224
0.162059 -0.223272 -0.197526 32 212 224
0.164202 -0.137359 -0.197732 32 212 224
0.259646 -0.30059 -0.201215 32 212 224
-0.194208 -0.0140164 -0.209337 32 212 224
-0.104311 -0.077672 -0.20481 32 212 224
-0.237837 -0.358778 -0.19403 32 212 224
0.0587752 -0.200216 -0.198906 32 212 224
-0.139702 -0.217762 -0.198659 32 212 224
-0.031638 -0.137835 -0.199329 32 212 224
0.158559 -0.310002 -0.200746 32 212 224
-0.110899 -0.428449 -0.20025 32 212 224
-0.0532473 -0.30435 -0.198772 32 212 224
-0.141961 -0.127089 -0.200519 32 212 224
0.0543559 -0.296905 -0.200817 32 212 224
-0.250636 -0.178953 -0.199029 32 212 224
-0.209339 -0.373482 -0.19354 32 212 224
-0.210913 -0.161424 -0.198996 32 212 224
0.235262 -0.202947 -0.193646 32 212 224
-0.171083 -0.158488 -0.198726 32 212 224
-0.258567 -0.178468 -0.20041 32 212 224
-0.260025 -0.353177 -0.197888 32 212 224
-0.249827 -0.101878 -0.206696 32 212 224
0.19992 -0.299076 -0.199405 32 212 224
-0.022905 -0.141406 -0.198754 32 212 224
-0.265255 -0.355495 -0.199072 32 212 224
-0.225301 0.00866317 -0.213323 32 212 224
-0.236623 -0.0896055 -0.207089 32 212 224
-0.227796 -0.11389 -0.204339 32 212 224
-0.204305 -0.135354 -0.200812 32 212 224
-0.239038 0.0108372 -0.214379 32 212 224
0.217311 -0.264923 -0.19723 32 212 224
0.0763442 -0.293243 -0.200005 32 212 224
0.221993 -0.197916 -0.194612 32 212 224
-0.104308 -0.0128479 -0.209603 32 212 224
-0.282579 -0.277591 -0.206283 32 212 224
-0.277081 -0.243324 -0.20386 32 212 224
0.0884589 -0.130007 -0.197252 32 212 224
0.244755 -0.243758 -0.194568 32 212 224
0.191151 -0.265887 -0.198263 32 212 224
-0.138545 -0.0684509 -0.204867 32 212 224
0.190733 -0.110445 -0.196589 32 212 224
-0.298877 0.0121565 -0.222385 32 212 224
0.210255 -0.301835 -0.199767 32 212 224
0.154671 -0.264234 -0.19723 32 212 224
-0.124432 -0.354892 -0.198362 32 212 224
0.240414 -0.199953 -0.193285 32 212 224
-0.249374 -0.374114 -0.194719 32 212 224
-0.221171 -0.179322 -0.19761 32 212 224
-0.243872 -0.375078 -0.194158 32 212 224
0.207961 -0.126061 -0.195844 32 212 224
-0.230507 -0.413835 -0.193653 32 212 224
-0.0348824 -0.300252 -0.199994 32 212 224
-0.275124 -0.0870022 -0.210054 32 212 224
0.249273 -0.204456 -0.19257 32 212 224
0.238308 -0.283092 -0.199115 32 212 224
-0.218108 -0.00169271 -0.211845 32 212 224
-0.231743 -0.194335 -0.196491 32 212 224
-0.221513 -0.366884 -0.193286 32 212 224
0.0724565 -0.406642 -0.205119 32 212 224
-0.188513 -0.33779 -0.195566 32 212 224
-0.100305 -0.369165 -0.199186 32 212 224
-0.126922 -0.434462 -0.193643 32 212 224
0.100031 -0.0267508 -0.197473 32 212 224
-0.286211 -0.110996 -0.202792 32 212 224
-0.00394681 -0.261323 -0.199908 32 212 224
-0.267899 -0.140749 -0.204783 32 212 224
-0.167242 -0.295938 -0.197716 32 212 224
-0.295715 -0.0781007 -0.203866 32 212 224
-0.227177 -0.335071 -0.193812 32 212 224
0.137574 -0.0340818 -0.196802 32 212 224
0.0323154 -0.410984 -0.207389 32 212 224
-0.182452 -0.40933 -0.194008 32 212 224
-0.17157 -0.339464 -0.196553 32 212 224
0.186553 -0.326524 -0.202631 32 212 224
-0.25072 -0.347955 -0.195263 32 212 224
-0.23685 -0.217954 -0.196208 32 212 224
-0.255566 -0.109035 -0.206456 32 212 224
0.0247865 -0.335885 -0.204482 32 212 224
-0.295754 -0.0016109 -0.212177 32 212 224
-0.186617 -0.192858 -0.19698 32 212 224
-0.18992 -0.23538 -0.196581 32 212 224
-0.178434 -0.173236 -0.198004 32 212 224
-0.16017 -0.313954 -0.197641 32 212 224
0.26622 -0.317777 -0.203175 32 212 224
0.11571 -0.0180369 -0.196867 32 212 224
0.192394 -0.270346 -0.197785 32 212 224
-0.00482343 -0.0637786 -0.202364 32 212 224
-0.0190421 -0.367315 -0.2037 32 212 224
-0.0886381 -0.412768 -0.198638 32 212 224
0.1284 -0.360167 -0.204897 32 212 224
-0.194235 -0.147923 -0.199178 32 212 224
-0.0840003 -0.404175 -0.199502 32 212 224
-0.250128 -0.0502985 -0.21101 32 212 224
-0.244834 -0.17322 -0.19886 32 212 224
-0.018318 -0.163333 -0.198227 32 212 224
-0.26265 -0.317404 -0.198889 32 212 224
-0.139884 -0.391289 -0.196665 32 212 224
-0.0675901 -0.407884 -0.200059 32 212 224
-0.0543706 -0.384435 -0.20023 32 212 224
-0.256553 -0.300052 -0.197253 32 212 224
-0.245994 -0.201699 -0.197436 32 212 224
-0.289354 -0.0727871 -0.216158 32 212 224
-0.301829 -0.03124 -0.207712 32 212 224
-0.218534 -0.111911 -0.203721 32 212 224
-0.150416 -0.406457 -0.194603 32 212 224
0.207671 -0.160475 -0.194591 32 212 224
-0.247894 -0.216825 -0.197503 32 212 224
-0.119624 -0.375502 -0.198534 32 212 224
-0.235481 -0.218073 -0.196112 32 212 224
0.104603 -0.345011 -0.202631 32 212 224
-0.244662 -0.109735 -0.205658 32 212 224
-0.0124757 -0.0205136 -0.205413 32 212 224
-0.190482 -0.247701 -0.19643 32 212 224
-0.204033 -0.10451 -0.203306 32 212 224
0.021352 -0.344319 -0.205221 32 212 224
-0.220631 -0.223045 -0.195712 32 212 224
0.0447459 -0.359967 -0.204532 32 212 224
-0.174243 -0.380316 -0.194773 32 212 224
0.0275215 -0.347751 -0.20505 32 212 224
-0.226265 -0.386972 -0.193673 32 212 224
-0.227953 -0.0699114 -0.207758 32 212 224
-0.233482 -0.0644507 -0.208701 32 212 224
-0.233378 -0.327258 -0.194089 32 212 224
-0.0908473 -0.202143 -0.198814 32 212 224
-0.134897 -0.406357 -0.196145 32 212 224
0.0528731 -0.304114 -0.2013 32 212 224
-0.175996 -0.307228 -0.196979 32 212 224
0.0197712 -0.423606 -0.204933 32 212 224
0.0252637 -0.167082 -0.198268 32 212 224
-0.107564 -0.115642 -0.201615 32 212 224
-0.134702 -0.432889 -0.193667 32 212 224
-0.288908 -0.100284 -0.214363 32 212 224
-0.00682768 -0.16262 -0.198485 32 212 224
0.17391 -0.190705 -0.196737 32 212 224
-0.0240585 -0.150649 -0.198055 32 212 224
-0.134218 -0.39428 -0.197096 32 212 224
0.0153178 -0.0512233 -0.200766 32 212 224
0.0118298 -0.0786519 -0.199485 32 212 224
-0.116769 -0.134525 -0.200388 32 212 224
-0.0576494 -0.0197905 -0.208705 32 212 224
-0.257332 -0.0571673 -0.210935 32 212 224
-0.123099 -0.428847 -0.198793 32 212 224
-0.105278 -0.151216 -0.199789 32 212 224
0.119565 -0.222094 -0.198527 32 212 224
-0.268294 -0.0646895 -0.21077 32 212 224
-0.137287 -0.185945 -0.199382 32 212 224
-0.256775 -0.341566 -0.197053 32 212 224
-0.142403 -0.143663 -0.199816 32 212 224
-0.122415 -0.426041 -0.194282 32 212 224
0.16722 -0.181683 -0.196918 32 212 224
-0.248026 -0.12656 -0.204025 32 212 224
0.177714 -0.187566 -0.196603 32 212 224
-0.15223 -0.429742 -0.194056 32 212 224
-0.220356 -0.420538 -0.193658 32 212 224
0.0325254 -0.152231 -0.198035 32 212 224
-0.296311 -0.0239469 -0.214821 32 212 224
-0.101461 -0.427122 -0.201838 32 212 224
-0.281601 -0.230055 -0.205596 32 212 224
-0.067828 -0.0210812 -0.208785 32 212 224
0.0288186 -0.160349 -0.198143 32 212 224
-0.0071022 -0.0526843 -0.203202 32 212 224
0.240543 -0.269262 -0.197677 32 212 224
-0.194078 -0.429231 -0.194488 32 212 224
-0.0747689 -0.401664 -0.199977 32 212 224
-0.0207771 -0.382863 -0.203537 32 212 224
-0.210264 -0.282792 -0.195404 32 212 224
-0.303938 -0.0388383 -0.206244 32 212 224
-0.0188079 -0.427734 -0.201668 32 212 224
0.199118 -0.267986 -0.197902 32 212 224
-0.290826 -0.0924719 -0.208009 32 212 224
-0.249399 -0.146006 -0.202065 32 212 224
0.172103 -0.324212 -0.202614 32 212 224
0.0466165 -0.198874 -0.199065 32 212 224
-0.196326 -0.355077 -0.194904 32 212 224
-0.210731 -0.186906 -0.196585 32 212 224
0.0371201 -0.123107 -0.197725 32 212 224
-0.161685 -0.424979 -0.19446 32 212 224
0.0576811 -0.396979 -0.205425 32 212 224
-0.247237 -0.0673551 -0.209753 32 212 224
-0.147859 -0.233529 -0.198479 32 212 224
-0.237083 -0.416571 -0.193308 32 212 224
-0.142525 -0.352523 -0.197368 32 212 224
-0.0267398 -0.221599 -0.197939 32 212 224
-0.0302775 -0.414584 -0.201849 32 212 224
-0.230422 -0.407808 -0.19388 32 212 224
0.0866869 -0.367676 -0.203507 32 212 224
0.260267 -0.317648 -0.202885 32 212 224
-0.123158 -0.421543 -0.205688 32 212 224
-0.255631 -0.32712 -0.196866 32 212 224
-0.233205 -0.0778161 -0.207675 32 212 224
0.240244 -0.314337 -0.201607 32 212 224
-0.0849042 -0.189823 -0.198954 32 212 224
0.150505 -0.264805 -0.197028 32 212 224
-0.0633303 -0.0569775 -0.206114 32 212 224
0.224703 -0.16421 -0.193678 32 212 224
0.185306 -0.134996 -0.197333 32 212 224
-0.300046 -0.0956298 -0.218329 32 212 224
0.0188207 -0.337801 -0.204972 32 212 224
0.0371044 -0.0914461 -0.198461 32 212 224
-0.22808 -0.167613 -0.198987 32 212 224
0.0475421 -0.328549 -0.20277 32 212 224
-0.15446 -0.00365944 -0.209717 32 212 224
0.0962748 -0.360422 -0.203601 32 212 224
-0.14046 -0.428076 -0.198625 32 212 224
-0.246507 -0.365052 -0.194284 32 212 224
0.0529455 -0.0653764 -0.198533 32 212 224
-0.234368 -0.0403418 -0.210521 32 212 224
-0.0362963 -0.146072 -0.198815 32 212 224
-0.229692 -0.180666 -0.19768 32 212 224
-0.0474479 -0.428397 -0.19893 32 212 224
0.186714 -0.0769303 -0.195698 32 212 224
-0.198931 -0.427575 -0.194096 32 212 224
0.0788566 -0.371711 -0.203163 32 212 224
-0.0803641 -0.0467692 -0.20706 32 212 224
0.0775124 -0.334739 -0.201291 32 212 224
0.0438803 -0.35884 -0.204516 32 212 224
0.146424 -0.0504283 -0.196943 32 212 224
-0.112252 -0.0892291 -0.203716 32 212 224
-0.0912015 0.00656163 -0.210503 32 212 224
-0.051591 -0.379419 -0.20051 32 212 224
0.139303 -0.221675 -0.198205 32 212 224
0.0682545 -0.137451 -0.197494 32 212 224
-0.0074587 -0.266 -0.199982 32 212 224
-0.264421 -0.0493677 -0.21186 32 212 224
-0.260337 -0.179602 -0.200499 32 212 224
0.0532291 -0.093242 -0.197931 32 212 224
0.14633 -0.160068 -0.197353 32 212 224
-0.240772 -0.246643 -0.195946 32 212 224
0.0796909 -0.15929 -0.19769 32 212 224
-0.10153 -0.369305 -0.199161 32 212 224
-0.0231391 -0.375537 -0.203346 32 212 224
-0.00755692 0.000233948 -0.205386 32 212 224
0.0331041 -0.287802 -0.201532 32 212 224
-0.215737 0.00493972 -0.212358 32 212 224
-0.12365 -0.137056 -0.200233 32 212 224
-0.20475 -0.124821 -0.201697 32 212 224
-0.244081 -0.0539663 -0.210498 32 212 224
0.109716 -0.321864 -0.201132 32 212 224
0.020602 -0.354056 -0.205906 32 212 224
0.0129154 -0.0558647 -0.200791 32 212 224
-0.171355 -0.180649 -0.198255 32 212 224
0.0217163 -0.414524 -0.206482 32 212 224
0.208862 -0.12208 -0.195875 32 212 224
-0.118658 -0.295796 -0.198106 32 212 224
-0.216775 -0.391585 -0.193489 32 212 224
-0.190256 -0.0166198 -0.20887 32 212 224
-0.234155 -0.384085 -0.194048 32 212 224
-0.252319 0.0107994 -0.21569 32 212 224
-0.212024 -0.0566239 -0.207302 32 212 224
-0.118821 -0.349579 -0.198711 32 212 224
-0.157082 -0.115246 -0.201206 32 212 224
-0.186661 -0.417175 -0.194171 32 212 224
-0.139474 -0.393999 -0.196578 32 212 224
-0.279266 -0.18214 -0.206224 32 212 224
-0.101425 -0.428995 -0.195677 32 212 224
-0.121296 -0.4203 -0.207615 32 212 224
-0.0719616 -0.229703 -0.197082 32 212 224
-0.100251 -0.431454 -0.194956 32 212 224
-0.118388 -0.159772 -0.199565 32 212 224
0.0278496 -0.22334 -0.200499 32 212 224
-0.156573 -0.233893 -0.198209 32 212 224
-0.235088 -0.395949 -0.194073 32 212 224
-0.135779 -0.413897 -0.214543 32 212 224
0.0370643 -0.0062673 -0.200353 32 212 224
-0.0794159 -0.0726882 -0.205589 32 212 224
0.233982 -0.268115 -0.197435 32 212 224
-0.118334 -0.419906 -0.196065 32 212 224
-0.300258 -0.00924729 -0.218407 32 212 224
-0.202977 -0.21871 -0.196446 32 212 224
0.117931 -0.284173 -0.197861 32 212 224
-0.232844 -0.118428 -0.204126 32 212 224
-0.0713249 -0.410157 -0.199783 32 212 224
-0.00465557 -0.0663217 -0.202201 32 212 224
-0.11033 -0.36645 -0.199001 32 212 224
0.188896 -0.131762 -0.197189 32 212 224
-0.226148 -0.285518 -0.194987 32 212 224
0.0587508 -0.398968 -0.205429 32 212 224
-0.14739 -0.413659 -0.194374 32 212 224
0.173413 -0.172738 -0.196921 32 212 224
-0.00150982 -0.250328 -0.199471 32 212 224
0.030597 -0.329876 -0.203858 32 212 224
-0.0536772 -0.399349 -0.200609 32 212 224
-0.294447 -0.103171 -0.216603 32 212 224
-0.21027 -0.244832 -0.195961 32 212 224
0.204968 -0.165889 -0.194803 32 212 224
0.209455 -0.0940274 -0.195731 32 212 224
-0.287974 -0.0985038 -0.203797 32 212 224
-0.0744323 -0.364984 -0.199187 32 212 224
-0.233927 -0.0474334 -0.210004 32 212 224
-0.28352 -0.277691 -0.207454 32 212 224
-0.0394423 -0.290432 -0.199083 32 212 224
-0.297547 -0.0151942 -0.220984 32 212 224
0.0151349 -0.160978 -0.198691 32 212 224
-0.0340934 -0.324761 -0.2016 32 212 224
-0.12759 -0.427261 -0.199926 32 212 224
-0.232331 -0.109378 -0.204958 32 212 224
0.187542 -0.229215 -0.19659 32 212 224
-0.217718 -0.148435 -0.200574 32 212 224
0.0880437 -0.245427 -0.199315 32 212 224
0.104331 -0.353487 -0.203322 32 212 224
-0.112985 -0.436163 -0.193431 32 212 224
-0.12807 -0.227897 -0.198896 32 212 224
-0.26617 -0.110115 -0.207025 32 212 224
-0.243091 -0.158031 -0.200259 32 212 224
-0.227304 -0.373323 -0.193455 32 212 224
0.161412 -0.252558 -0.197577 32 212 224
-0.0424265 -0.365535 -0.201285 32 212 224
0.0623298 -0.279393 -0.200177 32 212 224
-0.21492 -0.355646 -0.193582 32 212 224
-0.244756 -0.352817 -0.194347 32 212 224
0.124405 -0.314406 -0.200431 32 212 224
-0.12295 -0.200751 -0.199252 32 212 224
-0.264588 -0.235107 -0.20026 32 212 224
-0.016413 -0.272431 -0.199892 32 212 224
-0.102848 -0.398775 -0.198986 32 212 224
0.0483688 -0.241324 -0.20046 32 212 224
-0.156752 -0.421006 -0.203974 32 212 224
0.0048569 -0.187984 -0.198949 32 212 224
-0.302633 -0.0299358 -0.220841 32 212 224
0.187239 -0.289421 -0.198603 32 212 224
0.00605898 -0.374038 -0.205858 32 212 224
-0.0982307 -0.327588 -0.198628 32 212 224
0.173854 -0.160745 -0.197212 32 212 224
0.181143 -0.115985 -0.197057 32 212 224
-0.283256 -0.238902 -0.205988 32 212 224
-0.189051 -0.022833 -0.20829 32 212 224
-0.0648312 0.00338085 -0.210033 32 212 224
-0.263883 -0.0134327 -0.214909 32 212 224
-0.288491 -0.153398 -0.211185 32 212 224
-0.117234 -0.351083 -0.198816 32 212 224
-0.262777 -0.201817 -0.20032 32 212 224
0.110932 -0.131154 -0.197131 32 212 224
-0.0461353 -0.306866 -0.199429 32 212 224
0.134553 -0.292116 -0.198181 32 212 224
-0.113723 -0.179175 -0.199473 32 212 224
-0.222318 -0.255183 -0.195328 32 212 224
-0.0861443 -0.407732 -0.199208 32 212 224
-0.0886815 -0.43062 -0.196215 32 212 224
-0.202324 -0.331004 -0.194985 32 212 224
-0.215336 -0.377642 -0.193321 32 212 224
-0.239433 -0.406625 -0.193961 32 212 224
-0.15871 -0.380517 -0.195208 32 212 224
0.0384523 -0.0933648 -0.19836 32 212 224
-0.240986 -0.351339 -0.194099 32 212 224
-0.18139 -0.410355 -0.194066 32 212 224
-0.258147 -0.00201776 -0.21522 32 212 224
0.0554067 -0.149773 -0.197749 32 212 224
-0.270288 -0.171642 -0.202619 32 212 224
0.129242 -0.257477 -0.197924 32 212 224
-0.231322 -0.189827 -0.196682 32 212 224
-0.283873 -0.117757 -0.211229 32 212 224
-0.03275 -0.182804 -0.19806 32 212 224
-0.0321467 -0.419543 -0.201379 32 212 224
-0.254884 -0.150316 -0.202327 32 212 224
0.117388 -0.180137 -0.197621 32 212 224
-0.153851 -0.0565312 -0.205466 32 212 224
0.0537447 -0.404536 -0.206083 32 212 224
-0.260051 -0.110184 -0.206702 32 212 224
-0.183636 -0.0765239 -0.204148 32 212 224
-0.143069 -0.428813 -0.197876 32 212 224
0.0342996 -0.393902 -0.20733 32 212 224
0.0892783 -0.123568 -0.197164 32 212 224
-0.218151 -0.228852 -0.195827 32 212 224
0.142732 -0.298781 -0.199016 32 212 224
0.136082 -0.253006 -0.197935 32 212 224
0.0412356 -0.202466 -0.199365 32 212 224
-0.0666652 -0.0876497 -0.204452 32 212 224
-0.0388242 -0.332013 -0.20129 32 212 224
-0.213152 -0.300544 -0.195065 32 212 224
0.00142616 -0.40535 -0.205233 32 212 224
0.246278 -0.221938 -0.193141 32 212 224
-0.290762 -0.164666 -0.212013 32 212 224
0.187125 -0.0768709 -0.195688 32 212 224
0.030142 -0.256639 -0.200649 32 212 224
-0.0118746 -0.128878 -0.199231 32 212 224
0.0777733 -0.173168 -0.197819 32 212 224
-0.230611 -0.12336 -0.203513 32 212 224
0.111761 -0.155247 -0.197343 32 212 224
-0.105569 0.00600054 -0.210606 32 212 224
-0.143573 -0.0649766 -0.204993 32 212 224
0.142502 -0.198347 -0.197821 32 212 224
-0.0475809 -0.36787 -0.200813 32 212 224
0.0313958 -0.290165 -0.201616 32 212 224
-0.285238 -0.0981843 -0.213034 32 212 224
-0.292137 -0.119358 -0.214374 32 212 224
0.0210239 -0.358085 -0.206057 32 212 224
0.054537 -0.143986 -0.197652 32 212 224
-0.194888 -0.0167055 -0.209116 32 212 224
-0.144328 -0.197692 -0.198964 32 212 224
0.0393278 -0.0479168 -0.19907 32 212 224
-0.0803588 -0.236729 -0.197557 32 212 224
-0.230026 -0.40548 -0.193935 32 212 224
-0.225021 -0.0825744 -0.206516 32 212 224
-0.203402 -0.155401 -0.199074 32 212 224
0.141427 -0.31659 -0.200954 32 212 224
0.168404 -0.179913 -0.196899 32 212 224
-0.201698 -0.010189 -0.210138 32 212 224
-0.0349463 -0.351985 -0.201893 32 212 224
-0.24017 -0.23097 -0.196202 32 212 224
-0.0575043 -0.130122 -0.200771 32 212 224
-0.0241238 -0.306883 -0.201283 32 212 224
-0.21605 -0.282344 -0.195194 32 212 224
0.0544663 -0.27448 -0.200586 32 212 224
-0.188044 -0.400628 -0.193721 32 212 224
-0.290685 -0.164834 -0.211854 32 212 224
-0.257912 -0.354419 -0.197193 32 212 224
0.0151711 -0.115002 -0.198701 32 212 224
-0.258774 -0.115894 -0.206065 32 212 224
-0.281358 -0.112153 -0.21051 32 212 224
-0.291799 -0.167166 -0.213312 32 212 224
0.0377678 -0.212888 -0.199959 32 212 224
-0.0782294 -0.383531 -0.199721 32 212 224
0.216809 -0.106654 -0.195512 32 212 224
-0.235018 -0.416279 -0.193431 32 212 224
0.211337 -0.297593 -0.199493 32 212 224
-0.0496423 -0.398367 -0.200778 32 212 224
0.00534168 -0.132275 -0.199066 32 212 224
-0.102969 -0.414678 -0.198098 32 212 224
-0.0787598 -0.155993 -0.199703 32 212 224
-0.0605229 -0.181351 -0.198289 32 212 224
0.149702 -0.0867724 -0.196869 32 212 224
-0.163867 -0.320542 -0.197405 32 212 224
-0.0968598 0.00109786 -0.210304 32 212 224
0.157716 -0.0792423 -0.196776 32 212 224
0.00326051 -0.341478 -0.205427 32 212 224
-0.237957 -0.172446 -0.198667 32 212 224
0.239005 -0.229421 -0.193975 32 212 224
-0.0473629 -0.140989 -0.199638 32 212 224
0.107063 -0.344346 -0.20264 32 212 224
0.0793334 -0.378717 -0.203834 32 212 224
0.148907 -0.220993 -0.197978 32 212 224
0.0579517 -0.407255 -0.205865 32 212 224
-0.286196 -0.226326 -0.207653 32 212 224
-0.12512 -0.354299 -0.198327 32 212 224
-0.221954 -0.317323 -0.19447 32 212 224
-0.197588 -0.165569 -0.197852 32 212 224
-0.0854613 -0.369661 -0.199303 32 212 224
-0.226504 -0.0523298 -0.208845 32 212 224
-0.167804 -0.0772539 -0.203866 32 212 224
-0.102197 -0.436923 -0.193667 32 212 224
