ply
format ascii 1.0
comment Created by Open3D
element vertex 1198
property double x
property double y
property double z
property uchar red
property uchar green
property uchar blue
end_header
-0.328356 -0.163697 0.0542971 255 178 96
-0.327249 -0.188279 0.0488016 255 178 96
-0.329549 -0.0771961 0.0382376 255 178 96
-0.336208 -0.0833611 0.176591 255 178 96
-0.23496 -0.37427 0.324117 255 178 96
-0.176621 -0.313967 0.315356 255 178 96
-0.121815 -0.468006 -0.00420123 255 178 96
-0.330986 -0.200324 0.121042 255 178 96
-0.32858 -0.262258 0.124244 255 178 96
-0.325727 -0.269057 -0.0411564 255 178 96
-0.264721 -0.475588 -0.0442436 255 178 96
-0.333963 -0.0720389 0.111317 255 178 96
-0.331364 -0.220534 0.140272 255 178 96
-0.3331 -0.198677 0.149369 255 178 96
-0.325933 -0.224431 -0.0773763 255 178 96
-0.329576 -0.23216 0.266165 255 178 96
-0.324383 -0.36797 0.300079 255 178 96
-0.333562 -0.00327336 0.210355 255 178 96
-0.281198 -0.096749 0.315557 255 178 96
-0.32764 -0.193583 0.0619497 255 178 96
-0.303488 -0.0637083 0.313013 255 178 96
-0.330938 -0.129398 0.0750543 255 178 96
-0.190179 -0.23603 0.316247 255 178 96
-0.332683 -0.0335453 0.231464 255 178 96
-0.330923 -0.483603 0.262249 255 178 96
-0.325373 -0.349827 0.0702655 255 178 96
-0.334214 -0.160256 0.164849 255 178 96
-0.291174 -0.472112 0.327181 255 178 96
-0.327722 -0.410625 -0.0264683 255 178 96
-0.327598 -0.298819 0.260836 255 178 96
-0.331893 -0.186248 0.253248 255 178 96
-0.34374 -0.472618 0.0866129 255 178 96
-0.307184 -0.359835 0.322371 255 178 96
-0.330035 -0.0171149 0.268485 255 178 96
-0.334068 -0.0770813 0.114529 255 178 96
-0.333626 -0.0179735 0.212871 255 178 96
-0.324246 -0.11684 -0.154766 255 178 96
-0.32686 -0.143731 -0.00400473 255 178 96
-0.326378 -0.0747087 -0.0216821 255 178 96
-0.166669 -0.47464 0.057628 255 178 96
-0.325803 -0.0942393 -0.0340184 255 178 96
-0.326999 -0.200904 0.0470135 255 178 96
-0.324259 -0.35207 0.294664 255 178 96
-0.328253 -0.135395 0.0266935 255 178 96
-0.326876 -0.299529 0.0545598 255 178 96
-0.331178 -0.188524 0.263165 255 178 96
-0.331289 -0.394967 0.14655 255 178 96
-0.334581 -0.0250077 0.123968 255 178 96
-0.335176 -0.0274897 0.168026 255 178 96
-0.328787 -0.387229 0.236058 255 178 96
-0.13558 -0.459061 -0.158915 255 178 96
-0.335967 -0.08111 0.156701 255 178 96
-0.153123 -0.167081 0.316057 255 178 96
-0.329695 -0.287256 0.222828 255 178 96
-0.325043 -0.358124 0.0258826 255 178 96
-0.303285 -0.367561 0.323106 255 178 96
-0.334805 -0.090898 0.134908 255 178 96
-0.323035 -0.32914 -0.0459057 255 178 96
-0.321351 -0.413793 0.317599 255 178 96
-0.328727 -0.0184847 0.0197272 255 178 96
-0.331027 -0.247296 0.149741 255 178 96
-0.330006 -0.272687 0.150077 255 178 96
-0.329935 -0.0470817 0.0390859 255 178 96
-0.0709037 -0.0940276 0.313432 255 178 96
-0.32744 -0.315618 0.224703 255 178 96
-0.32877 -0.229222 0.275138 255 178 96
-0.328575 -0.185572 0.0763577 255 178 96
-0.331946 -0.206281 0.137863 255 178 96
-0.323488 -0.273387 -0.130206 255 178 96
-0.325887 -0.117094 -0.0290351 255 178 96
-0.299643 -0.319698 0.317667 255 178 96
-0.270273 -0.214192 0.314414 255 178 96
-0.332172 -0.0278495 0.078195 255 178 96
-0.325014 -0.378047 0.285784 255 178 96
-0.109175 -0.132483 0.311816 255 178 96
-0.240084 -0.15029 0.317478 255 178 96
-0.331977 -0.229054 0.154293 255 178 96
-0.20875 -0.403751 0.325654 255 178 96
-0.076228 -0.0978562 0.313194 255 178 96
-0.329693 -0.179228 0.283714 255 178 96
-0.332899 -0.00673034 0.223944 255 178 96
-0.331782 -0.0447321 0.070388 255 178 96
-0.321241 -0.302339 0.305586 255 178 96
-0.330451 -0.134507 0.0704967 255 178 96
-0.328162 -0.483449 0.288099 255 178 96
-0.324533 -0.08782 -0.065806 255 178 96
-0.33546 -0.050766 0.14215 255 178 96
-0.188621 -0.284936 0.315387 255 178 96
-0.332674 -0.00107676 0.0902582 255 178 96
-0.325169 -0.352378 0.0373494 255 178 96
-0.336054 -0.0972522 0.164451 255 178 96
-0.326367 -0.0513862 -0.0157807 255 178 96
-0.134669 -0.228979 0.313878 255 178 96
-0.159976 -0.163715 0.31644 255 178 96
-0.269881 -0.396778 0.32717 255 178 96
-0.328372 -0.436953 -0.0355583 255 178 96
-0.200273 -0.184661 0.317272 255 178 96
-0.241331 -0.0790282 0.317093 255 178 96
-0.331143 -0.270582 0.206385 255 178 96
-0.134468 -0.208921 0.313797 255 178 96
-0.327805 -0.348648 0.175145 255 178 96
-0.191642 -0.266977 0.315649 255 178 96
-0.327604 -0.2845 0.0572277 255 178 96
-0.328904 -0.295961 0.16322 255 178 96
-0.331004 -0.225158 0.248604 255 178 96
-0.103212 -0.294489 0.310562 255 178 96
-0.0967553 -0.174488 0.311718 255 178 96
-0.330549 -0.24503 0.140241 255 178 96
-0.317707 -0.197558 0.310381 255 178 96
-0.327567 -0.241593 0.0497683 255 178 96
-0.335425 -0.0903531 0.19623 255 178 96
-0.328394 -0.318882 0.17204 255 178 96
-0.330043 -0.290803 0.194827 255 178 96
-0.271546 -0.115699 0.316506 255 178 96
-0.33018 -0.0440569 0.270693 255 178 96
-0.329579 -0.17763 0.0861575 255 178 96
-0.222429 -0.199146 0.316633 255 178 96
-0.327448 -0.340376 0.122548 255 178 96
-0.333256 -0.0802274 0.103082 255 178 96
-0.334507 -0.114864 0.140517 255 178 96
-0.334645 -0.122923 0.146268 255 178 96
-0.0621845 -0.26975 0.312733 255 178 96
-0.333813 0.00281083 0.204432 255 178 96
-0.330676 -0.116067 0.279651 255 178 96
-0.327676 -0.0438537 0.00444858 255 178 96
-0.33463 -0.0171826 0.193031 255 178 96
-0.123607 -0.471198 0.337643 255 178 96
-0.304969 -0.150724 0.314011 255 178 96
-0.260496 -0.47665 0.0621318 255 178 96
-0.325884 -0.390786 -0.0396428 255 178 96
-0.332804 -0.0099467 0.0885871 255 178 96
-0.199779 -0.17343 0.317467 255 178 96
-0.327942 -0.342218 0.15891 255 178 96
-0.320795 -0.439759 0.317426 255 178 96
-0.323057 -0.288829 0.299577 255 178 96
-0.327396 -0.230585 0.0464046 255 178 96
-0.327345 -0.401649 -0.0183268 255 178 96
-0.276125 -0.0616486 0.315083 255 178 96
-0.0232748 -0.465316 0.0348178 255 178 96
-0.333913 -0.455866 0.0278599 255 178 96
-0.325569 -0.110183 -0.0927728 255 178 96
-0.324384 -0.0828564 -0.070146 255 178 96
-0.28902 -0.16726 0.315096 255 178 96
-0.325491 -0.3523 0.0567851 255 178 96
-0.333144 -0.450999 0.0322281 255 178 96
-0.252607 -0.436385 0.33505 255 178 96
-0.328884 -0.300918 0.208525 255 178 96
-0.335592 -0.0654589 0.145851 255 178 96
-0.325049 -0.359392 0.0258063 255 178 96
-0.206586 -0.297974 0.316704 255 178 96
-0.182352 -0.37659 0.319399 255 178 96
-0.331241 -0.186763 0.116871 255 178 96
-0.329377 -0.300426 0.195252 255 178 96
-0.237662 -0.424188 0.33251 255 178 96
-0.329326 -0.414746 0.0189367 255 178 96
-0.325901 -0.171218 0.300345 255 178 96
-0.32286 -0.402919 0.310026 255 178 96
-0.324038 -0.377027 0.308184 255 178 96
-0.200692 -0.104017 0.318591 255 178 96
-0.327022 -0.459259 0.284482 255 178 96
-0.310106 -0.168058 0.313827 255 178 96
-0.0698317 -0.28122 0.312261 255 178 96
-0.327392 -0.416654 -0.0513481 255 178 96
-0.323687 -0.308371 0.297098 255 178 96
-0.185596 -0.443832 0.335914 255 178 96
-0.33259 -0.0652377 0.236545 255 178 96
-0.328122 -0.196333 0.0734695 255 178 96
-0.193774 -0.334709 0.317175 255 178 96
-0.330889 -0.210125 0.126489 255 178 96
-0.260827 -0.425972 0.333742 255 178 96
-0.325117 -0.360465 0.2819 255 178 96
-0.335333 -0.0365725 0.141929 255 178 96
-0.329769 -0.421214 0.0227045 255 178 96
-0.32503 -0.36411 0.0208972 255 178 96
-0.141041 -0.339591 0.31235 255 178 96
-0.327086 -0.189172 -0.0163279 255 178 96
-0.330031 -0.442264 0.0128454 255 178 96
-0.33513 -0.0360199 0.134402 255 178 96
-0.146961 -0.24879 0.314989 255 178 96
-0.327114 -0.220219 -0.000234276 255 178 96
-0.28576 -0.0499025 0.314222 255 178 96
-0.138592 -0.188046 0.314405 255 178 96
-0.0642842 -0.141551 0.31332 255 178 96
-0.20951 -0.477832 0.20242 255 178 96
-0.268677 -0.298058 0.316812 255 178 96
-0.128138 -0.298095 0.311636 255 178 96
-0.325623 -0.122685 -0.203321 255 178 96
-0.327477 -0.412004 -0.0384673 255 178 96
-0.335227 -0.131292 0.201963 255 178 96
-0.327466 -0.130484 0.00659783 255 178 96
-0.329377 -0.0350344 0.0288894 255 178 96
-0.327649 -0.137064 0.0125343 255 178 96
-0.328179 -0.402318 0.255722 255 178 96
-0.0858538 -0.131509 0.312652 255 178 96
-0.28485 -0.0501808 0.314287 255 178 96
-0.323162 -0.392018 0.312762 255 178 96
-0.326997 -0.277046 0.0159556 255 178 96
-0.333767 -0.187518 0.162341 255 178 96
-0.331251 -0.405881 0.103368 255 178 96
-0.329631 -0.16742 0.0794259 255 178 96
-0.327138 -0.297759 0.060115 255 178 96
-0.236384 -0.45777 0.338949 255 178 96
-0.278939 -0.480731 0.323527 255 178 96
-0.334625 -0.0622424 0.121064 255 178 96
-0.263135 -0.377132 0.325115 255 178 96
-0.300406 -0.278723 0.314444 255 178 96
-0.330562 -0.262717 0.243917 255 178 96
-0.257148 -0.128696 0.31739 255 178 96
-0.325153 -0.15322 -0.111306 255 178 96
-0.327964 -0.339416 0.150715 255 178 96
-0.333058 -0.109404 0.108377 255 178 96
-0.330617 -0.403777 0.207097 255 178 96
-0.18167 -0.179905 0.317134 255 178 96
-0.330528 -0.222271 0.129109 255 178 96
-0.333791 -0.143313 0.135027 255 178 96
-0.291768 -0.146472 0.315341 255 178 96
-0.324518 -0.354743 -0.0588579 255 178 96
-0.331381 -0.257617 0.162883 255 178 96
-0.331101 -0.171703 0.106226 255 178 96
-0.328311 -0.265003 0.0994925 255 178 96
-0.193127 -0.35668 0.318294 255 178 96
-0.323773 -0.345005 -0.0391294 255 178 96
-0.123502 -0.474571 0.337528 255 178 96
-0.325582 -0.414837 0.287504 255 178 96
-0.315325 -0.136535 0.312457 255 178 96
-0.330334 -0.152632 0.080034 255 178 96
-0.330793 -0.194171 0.266687 255 178 96
-0.2192 -0.405028 0.326719 255 178 96
0.190013 -0.451568 0.139431 255 139 72
0.149957 -0.450565 0.169214 255 139 72
-0.00791044 -0.309176 0.321748 255 139 72
0.0549558 -0.401867 -0.145136 255 139 72
0.350796 -0.412385 -0.0189428 255 139 72
0.332452 -0.404422 -0.0149774 255 139 72
0.176061 -0.39466 -0.0806469 255 139 72
-0.00873332 -0.394276 -0.117459 255 139 72
-0.223125 -0.463614 0.179642 255 139 72
-0.114158 -0.475074 -0.279767 255 139 72
0.218538 -0.393128 -0.14193 255 139 72
0.328377 -0.393628 -0.127685 255 139 72
0.265806 -0.393025 -0.137192 255 139 72
0.36541 -0.394611 -0.181798 255 139 72
-0.0479 -0.325549 0.294408 255 139 72
0.199254 -0.395021 -0.0547071 255 139 72
-0.00540907 -0.392566 -0.0436659 255 139 72
0.190613 -0.399257 -0.181904 255 139 72
-0.05479 -0.417262 0.111921 255 139 72
0.194899 -0.402119 0.0320164 255 139 72
0.287646 -0.417801 0.0594629 255 139 72
0.0235004 -0.437052 0.1667 255 139 72
-0.0269106 -0.429668 0.136768 255 139 72
-0.0993337 -0.279862 0.304874 255 139 72
0.286778 -0.392334 -0.147441 255 139 72
0.114244 -0.389711 -0.131956 255 139 72
-0.0670249 -0.256185 0.326856 255 139 72
0.259783 -0.387406 -0.212798 255 139 72
-0.248231 -0.441334 0.259551 255 139 72
0.176664 -0.47527 -0.222919 255 139 72
-0.172686 -0.196507 0.316581 255 139 72
0.0303513 -0.41527 -0.131643 255 139 72
-0.0450853 -0.353496 0.31451 255 139 72
0.000517532 -0.450461 0.157545 255 139 72
-0.106514 -0.34145 0.250609 255 139 72
0.284263 -0.398593 -0.0792367 255 139 72
0.205393 -0.403967 0.0413271 255 139 72
0.0498558 -0.382973 0.279117 255 139 72
0.267552 -0.398456 -0.0756631 255 139 72
0.0551406 -0.400276 -0.161904 255 139 72
0.0277729 -0.41132 0.216635 255 139 72
0.0662495 -0.460354 -0.23382 255 139 72
0.0314767 -0.371433 0.278871 255 139 72
0.121134 -0.450609 0.203273 255 139 72
0.00171751 -0.395964 0.242707 255 139 72
-0.22233 -0.472856 -0.258375 255 139 72
0.0252197 -0.405029 -0.21542 255 139 72
0.188485 -0.394673 -0.114901 255 139 72
0.319235 -0.420132 0.0176282 255 139 72
0.0656679 -0.419935 -0.0784486 255 139 72
0.0886003 -0.434036 0.0850709 255 139 72
-0.159553 -0.30441 0.262744 255 139 72
0.208102 -0.394088 -0.0991262 255 139 72
0.357477 -0.397398 -0.106889 255 139 72
0.383072 -0.405343 -0.163251 255 139 72
0.259833 -0.390016 -0.245777 255 139 72
0.24158 -0.400618 -0.0106636 255 139 72
0.167281 -0.397745 -0.11813 255 139 72
-0.199134 -0.478168 -0.224951 255 139 72
0.331066 -0.402069 -0.0298956 255 139 72
-0.0142288 -0.373137 0.309057 255 139 72
-0.279179 -0.448911 -0.156351 255 139 72
0.294191 -0.440702 0.0519798 255 139 72
0.286894 -0.402007 -0.0289801 255 139 72
-0.0955085 -0.300762 0.319424 255 139 72
0.183614 -0.399475 -0.158618 255 139 72
0.236366 -0.463834 0.102493 255 139 72
0.316678 -0.433537 0.0173153 255 139 72
-0.278967 -0.452227 0.233656 255 139 72
-0.130248 -0.377893 0.145932 255 139 72
0.199831 -0.404199 0.0418032 255 139 72
-0.152892 -0.398593 0.290129 255 139 72
0.217726 -0.393351 -0.166652 255 139 72
-0.0143584 -0.382669 0.306705 255 139 72
-0.250838 -0.170698 0.33099 255 139 72
0.102122 -0.438112 0.279146 255 139 72
0.0332617 -0.395328 -0.0583134 255 139 72
0.383213 -0.414595 -0.137662 255 139 72
-0.12501 -0.32047 0.314952 255 139 72
0.361406 -0.394232 -0.17944 255 139 72
-0.1379 -0.407678 0.311736 255 139 72
0.197697 -0.475489 -0.169824 255 139 72
-0.322402 -0.460695 0.131899 255 139 72
0.368567 -0.397597 -0.162366 255 139 72
-0.0710392 -0.475999 0.0343191 255 139 72
0.0226734 -0.473321 0.032142 255 139 72
0.371994 -0.402755 -0.13779 255 139 72
0.362185 -0.411868 -0.0394612 255 139 72
0.170256 -0.48474 0.179536 255 139 72
-0.174947 -0.349639 0.311599 255 139 72
0.347365 -0.406383 -0.0221299 255 139 72
0.0595684 -0.413819 0.0404727 255 139 72
0.0660558 -0.40585 0.26912 255 139 72
0.0966151 -0.464661 -0.2488 255 139 72
0.0307099 -0.403557 -0.131435 255 139 72
0.0300261 -0.41177 0.169874 255 139 72
0.300298 -0.389066 -0.18583 255 139 72
0.166808 -0.400414 0.0223056 255 139 72
0.0940414 -0.396744 -0.131766 255 139 72
0.179955 -0.433174 0.128865 255 139 72
0.221954 -0.379515 -0.272254 255 139 72
-0.0870103 -0.468837 0.081815 255 139 72
0.0316435 -0.400357 -0.0899065 255 139 72
0.318997 -0.394405 -0.116656 255 139 72
-0.0299102 -0.424853 0.113894 255 139 72
-0.124695 -0.368504 0.19602 255 139 72
0.229116 -0.420865 0.0836862 255 139 72
-0.172661 -0.170833 0.321805 255 139 72
0.338777 -0.41894 -0.00550346 255 139 72
-0.150182 -0.479222 -0.185249 255 139 72
-0.118306 -0.264267 0.319771 255 139 72
0.265829 -0.404134 0.0464598 255 139 72
0.170291 -0.390973 -0.279997 255 139 72
-0.0103312 -0.390849 0.247826 255 139 72
0.218721 -0.379973 -0.261948 255 139 72
-0.254299 -0.431173 0.272672 255 139 72
0.0415273 -0.403404 -0.135842 255 139 72
0.187599 -0.394417 -0.0792522 255 139 72
-0.204351 -0.463835 0.186831 255 139 72
-0.281965 -0.347268 0.329869 255 139 72
0.168052 -0.400859 0.0256661 255 139 72
-0.212976 -0.465973 0.162265 255 139 72
0.2213 -0.472659 0.120608 255 139 72
0.0619867 -0.423454 0.192209 255 139 72
0.317512 -0.392206 -0.147355 255 139 72
0.173747 -0.467425 -0.160153 255 139 72
0.370148 -0.402122 -0.130155 255 139 72
0.157862 -0.401222 0.0236837 255 139 72
0.381438 -0.42572 -0.137046 255 139 72
0.0182814 -0.469357 -0.277254 255 139 72
0.285632 -0.409925 0.0585479 255 139 72
-0.191991 -0.321672 0.319042 255 139 72
-0.130383 -0.352677 0.217897 255 139 72
0.107963 -0.434969 0.132337 255 139 72
0.366191 -0.416731 -0.0514084 255 139 72
0.0654441 -0.399333 -0.16807 255 139 72
-0.0249763 -0.376701 0.308542 255 139 72
0.0161113 -0.393079 -0.0454225 255 139 72
-0.174198 -0.240316 0.305424 255 139 72
-0.0118773 -0.393671 -0.0933592 255 139 72
0.10283 -0.445865 0.247043 255 139 72
-0.0463926 -0.292356 0.314305 255 139 72
0.287107 -0.386096 -0.190462 255 139 72
0.329653 -0.398368 -0.075043 255 139 72
0.203133 -0.394203 -0.135197 255 139 72
0.197522 -0.395114 -0.0503369 255 139 72
-0.197199 -0.301871 0.319872 255 139 72
-0.00410717 -0.395239 0.181647 255 139 72
0.207203 -0.468061 -0.141104 255 139 72
0.165189 -0.480833 0.175417 255 139 72
-0.0119479 -0.396157 -0.126915 255 139 72
0.0674531 -0.394657 -0.0563267 255 139 72
0.300872 -0.399653 -0.0701824 255 139 72
0.369447 -0.400355 -0.143233 255 139 72
0.091961 -0.398482 -0.150523 255 139 72
-0.199094 -0.258574 0.321436 255 139 72
-0.236072 -0.470965 0.0918451 255 139 72
-0.0493774 -0.413059 0.306811 255 139 72
-0.0379706 -0.387148 0.141038 255 139 72
0.0775452 -0.430564 0.291322 255 139 72
-0.277582 -0.449722 -0.161418 255 139 72
0.10433 -0.426365 0.0708272 255 139 72
-0.0362942 -0.396786 -0.0292117 255 139 72
0.173994 -0.395 -0.190118 255 139 72
0.216803 -0.474186 0.125584 255 139 72
0.24038 -0.399626 -0.021287 255 139 72
0.178086 -0.436976 0.137487 255 139 72
-0.0436234 -0.368192 0.204133 255 139 72
-0.0189604 -0.298576 0.323814 255 139 72
0.368209 -0.407635 -0.0586131 255 139 72
0.245236 -0.381998 -0.25862 255 139 72
-0.149051 -0.294517 0.268029 255 139 72
0.250221 -0.390791 -0.156777 255 139 72
0.202791 -0.394338 -0.101476 255 139 72
0.162048 -0.442972 0.155521 255 139 72
0.10578 -0.412655 0.0403906 255 139 72
0.188311 -0.470143 -0.111086 255 139 72
0.329131 -0.393615 -0.129402 255 139 72
0.235027 -0.393529 -0.215498 255 139 72
0.337397 -0.39809 -0.0789352 255 139 72
0.296854 -0.40212 0.0138932 255 139 72
0.245743 -0.422385 0.080552 255 139 72
0.142165 -0.398102 -0.0423488 255 139 72
-0.148324 -0.38529 0.31231 255 139 72
-0.0166594 -0.427622 0.161458 255 139 72
-0.0588155 -0.477878 -0.19744 255 139 72
0.254276 -0.392988 -0.133597 255 139 72
0.0579986 -0.471181 -0.255858 255 139 72
-0.156254 -0.382352 0.312025 255 139 72
0.306527 -0.402282 -0.0346393 255 139 72
-0.305785 -0.444865 -0.0395986 255 139 72
0.0878621 -0.398438 -0.15951 255 139 72
0.10429 -0.40147 -0.0406063 255 139 72
-0.195894 -0.323255 0.319759 255 139 72
0.0279851 -0.400413 0.0326567 255 139 72
0.00932961 -0.409943 -0.149718 255 139 72
-0.0110988 -0.394093 -0.10353 255 139 72
0.0897088 -0.400136 -0.0352876 255 139 72
0.132992 -0.399761 -0.00810609 255 139 72
-0.0156065 -0.398705 0.231331 255 139 72
0.0309797 -0.399009 -0.0787825 255 139 72
-0.121911 -0.213359 0.319383 255 139 72
-0.11739 -0.44094 0.213657 255 139 72
-0.294458 -0.437033 -0.152637 255 139 72
0.25178 -0.389578 -0.245926 255 139 72
0.140812 -0.39575 -0.201133 255 139 72
-0.145607 -0.323895 0.229464 255 139 72
0.0743582 -0.400605 -0.010229 255 139 72
0.369657 -0.421316 -0.0672317 255 139 72
0.00347167 -0.395701 -0.116443 255 139 72
0.26783 -0.388149 -0.1841 255 139 72
0.253587 -0.465564 0.0874377 255 139 72
0.369241 -0.396624 -0.16894 255 139 72
0.143715 -0.412677 0.0482622 255 139 72
-0.0567603 -0.38136 0.241303 255 139 72
0.251432 -0.398032 -0.068862 255 139 72
0.100468 -0.430252 0.0822816 255 139 72
0.0206985 -0.409899 0.296838 255 139 72
0.273629 -0.396924 -0.0908421 255 139 72
-0.121421 -0.433235 0.237776 255 139 72
-0.010687 -0.419569 0.182288 255 139 72
0.125134 -0.400577 -0.0140382 255 139 72
-0.0117079 -0.392782 -0.0440285 255 139 72
0.200055 -0.440916 0.125832 255 139 72
-0.2357 -0.475498 -0.0853443 255 139 72
0.213992 -0.39185 -0.22787 255 139 72
0.362406 -0.39964 -0.0926913 255 139 72
-0.249171 -0.433877 0.268422 255 139 72
0.174512 -0.468473 -0.096298 255 139 72
0.0633194 -0.409201 0.249406 255 139 72
0.219271 -0.39359 -0.123999 255 139 72
0.241404 -0.403605 0.0295693 255 139 72
-0.00432872 -0.470737 0.0544898 255 139 72
-0.0702625 -0.349753 0.269481 255 139 72
0.274977 -0.402549 0.0198336 255 139 72
0.289724 -0.401994 -0.00862246 255 139 72
0.167539 -0.395556 -0.0165161 255 139 72
-0.0950112 -0.400254 0.14094 255 139 72
-0.244066 -0.222821 0.325908 255 139 72
0.26157 -0.399924 -0.0493365 255 139 72
-0.059504 -0.36124 0.311696 255 139 72
-0.0200422 -0.393043 -0.00553488 255 139 72
0.105905 -0.397459 -0.172201 255 139 72
0.110032 -0.395403 -0.160684 255 139 72
0.0290558 -0.367136 0.282814 255 139 72
0.159349 -0.481723 0.184882 255 139 72
-0.029574 -0.301586 0.3257 255 139 72
0.252692 -0.383688 -0.255826 255 139 72
-0.0060927 -0.397463 -0.121455 255 139 72
0.278223 -0.387689 -0.183471 255 139 72
0.0955124 -0.475032 -0.219139 255 139 72
0.325346 -0.395022 -0.110119 255 139 72
0.127873 -0.397151 -0.0970282 255 139 72
-0.140765 -0.317969 0.258554 255 139 72
0.10593 -0.475661 -0.143818 255 139 72
0.228007 -0.394931 -0.103002 255 139 72
-0.00500741 -0.432882 0.140467 255 139 72
-0.143441 -0.253117 0.316441 255 139 72
-0.180027 -0.324195 0.214669 255 139 72
0.105406 -0.449286 0.243297 255 139 72
0.178336 -0.394478 -0.0767146 255 139 72
0.170696 -0.391074 -0.282998 255 139 72
0.132019 -0.467236 -0.240591 255 139 72
0.221776 -0.431227 0.101894 255 139 72
-0.177938 -0.308948 0.311735 255 139 72
0.362 -0.404264 -0.0566159 255 139 72
0.178864 -0.394363 -0.0723201 255 139 72
0.233398 -0.393099 -0.205854 255 139 72
0.13792 -0.476179 -0.100478 255 139 72
0.254149 -0.397165 -0.0810584 255 139 72
0.341736 -0.395127 -0.134171 255 139 72
-0.0192813 -0.43053 0.118896 255 139 72
0.0594587 -0.47188 -0.209718 255 139 72
-0.152068 -0.367942 0.164673 255 139 72
-0.0284573 -0.393892 -0.031463 255 139 72
0.265226 -0.398508 -0.073522 255 139 72
-0.000268877 -0.360951 0.283609 255 139 72
0.0140962 -0.470833 -0.263232 255 139 72
0.0367321 -0.401213 -0.154949 255 139 72
0.340615 -0.395057 -0.12332 255 139 72
-0.0143871 -0.433141 0.14224 255 139 72
0.0317873 -0.416693 -0.13474 255 139 72
-0.137094 -0.379075 0.312649 255 139 72
0.317728 -0.386466 -0.212645 255 139 72
0.376608 -0.410299 -0.101831 255 139 72
-0.160922 -0.296175 0.271011 255 139 72
-0.14706 -0.344939 0.217935 255 139 72
0.0454954 -0.414298 0.083911 255 139 72
-0.154351 -0.35097 0.313069 255 139 72
-0.0834977 -0.401272 0.0873362 255 139 72
-0.0314299 -0.388251 0.247198 255 139 72
-0.15994 -0.477418 -0.258164 255 139 72
0.272519 -0.39477 -0.110836 255 139 72
0.330789 -0.39375 -0.140516 255 139 72
0.157393 -0.398836 0.00547384 255 139 72
-0.237669 -0.135447 0.323488 255 139 72
-0.0456739 -0.396475 -0.00766754 255 139 72
-0.0850236 -0.390985 0.09961 255 139 72
0.214292 -0.395901 -0.0707057 255 139 72
-0.154814 -0.267742 0.293501 255 139 72
-0.263946 -0.327911 0.327681 255 139 72
0.284008 -0.398827 -0.077238 255 139 72
0.319515 -0.410471 0.0190375 255 139 72
0.201491 -0.474531 0.139803 255 139 72
-0.0299057 -0.291472 0.3228 255 139 72
0.25526 -0.440579 0.0806344 255 139 72
-0.115485 -0.393735 0.112927 255 139 72
0.177946 -0.395718 -0.113142 255 139 72
0.105781 -0.458095 -0.171703 255 139 72
0.228158 -0.39692 -0.0677709 255 139 72
0.0339835 -0.418655 0.0639216 255 139 72
-0.0281121 -0.327683 0.301228 255 139 72
0.242785 -0.408134 0.0608088 255 139 72
0.086482 -0.431171 0.183007 255 139 72
0.0208678 -0.394344 0.301496 255 139 72
0.220952 -0.396681 -0.0602484 255 139 72
0.270763 -0.396861 -0.0910424 255 139 72
0.0569299 -0.408131 -0.242801 255 139 72
0.0574089 -0.47089 -0.274493 255 139 72
0.0645436 -0.442888 0.131977 255 139 72
-0.146228 -0.429364 0.24947 255 139 72
0.357611 -0.39973 -0.0727854 255 139 72
-0.105463 -0.334949 0.259819 255 139 72
0.380516 -0.420904 -0.128901 255 139 72
0.186997 -0.458679 0.145341 255 139 72
0.155977 -0.46914 -0.229411 255 139 72
0.276469 -0.386339 -0.240538 255 139 72
0.0580393 -0.399905 -0.0956276 255 139 72
0.251528 -0.391468 -0.241343 255 139 72
-0.177783 -0.288997 0.264423 255 139 72
0.228079 -0.403634 0.0470058 255 139 72
-0.133187 -0.387986 0.128469 255 139 72
-0.105842 -0.478773 -0.193795 255 139 72
-0.145192 -0.425592 0.257608 255 139 72
-0.277617 -0.470058 0.0685402 255 139 72
0.327297 -0.392978 -0.158904 255 139 72
-0.251144 -0.458449 -0.233183 255 139 72
0.232031 -0.394974 -0.226079 255 139 72
0.066326 -0.437399 0.134166 255 139 72
-0.276736 -0.455933 -0.11445 255 139 72
0.068692 -0.418208 0.0461934 255 139 72
0.0344532 -0.390056 -0.0310852 255 139 72
0.153564 -0.475304 -0.107879 255 139 72
0.0559382 -0.407392 0.239128 255 139 72
0.147504 -0.457721 -0.0910614 255 139 72
0.307654 -0.433947 0.0309918 255 139 72
0.00784274 -0.404509 -0.213439 255 139 72
-0.216322 -0.468889 0.128827 255 139 72
-0.198202 -0.477617 -0.114755 255 139 72
-0.093391 -0.401499 0.310253 255 139 72
0.340617 -0.393389 -0.185015 255 139 72
-0.0546195 -0.297579 0.307436 255 139 72
-0.140151 -0.197615 0.321789 255 139 72
-0.137644 -0.37098 0.312989 255 139 72
0.000611246 -0.393669 0.0170726 255 139 72
0.181544 -0.473426 0.154374 255 139 72
-0.246819 -0.467182 -0.197989 255 139 72
0.0584565 -0.420722 0.293487 255 139 72
0.299935 -0.402063 -0.0437647 255 139 72
0.132307 -0.457685 -0.14177 255 139 72
-0.0350164 -0.422317 0.10709 255 139 72
0.247916 -0.393585 -0.127038 255 139 72
-0.0387896 -0.395291 0.0264818 255 139 72
0.223172 -0.392469 -0.169767 255 139 72
0.105958 -0.39432 -0.102162 255 139 72
0.166454 -0.399547 0.0166371 255 139 72
0.274595 -0.421596 0.0713222 255 139 72
-0.140839 -0.309898 0.269214 255 139 72
0.375789 -0.402476 -0.147731 255 139 72
0.201045 -0.402377 0.0205374 255 139 72
-0.277104 -0.464212 0.135285 255 139 72
0.12384 -0.399631 -0.078762 255 139 72
-0.0389333 -0.421765 0.160706 255 139 72
0.106698 -0.453407 0.232883 255 139 72
0.333256 -0.400591 -0.0553557 255 139 72
0.165675 -0.469972 -0.0744954 255 139 72
0.117666 -0.441562 0.192123 255 139 72
0.248197 -0.395613 -0.103468 255 139 72
0.168149 -0.398929 0.0126056 255 139 72
0.192621 -0.427429 0.0981049 255 139 72
0.0310974 -0.408119 -0.0889877 255 139 72
0.0896915 -0.464096 -0.249514 255 139 72
0.205767 -0.383584 -0.284263 255 139 72
-0.0868893 -0.399623 0.155423 255 139 72
0.288513 -0.383559 -0.224212 255 139 72
-0.173709 -0.219107 0.312403 255 139 72
0.33128 -0.396183 -0.0982464 255 139 72
0.0952142 -0.412602 0.0379999 255 139 72
0.27818 -0.384828 -0.229588 255 139 72
0.17344 -0.41919 0.0651397 255 139 72
-0.0369068 -0.400434 0.0512834 255 139 72
0.237288 -0.403844 0.0351243 255 139 72
0.00629476 -0.408188 -0.214594 255 139 72
0.307085 -0.383889 -0.224085 255 139 72
0.267006 -0.401987 0.00252722 255 139 72
-0.0922637 -0.479996 0.0373645 255 139 72
-0.0426125 -0.416536 0.179205 255 139 72
-0.187488 -0.152746 0.326723 255 139 72
0.305524 -0.392949 -0.135211 255 139 72
-0.111292 -0.394343 0.0876762 255 139 72
-0.1466 -0.479066 -0.20711 255 139 72
0.0940705 -0.403283 -0.247336 255 139 72
-0.0678091 -0.326943 0.318181 255 139 72
-0.0826536 -0.337373 0.232835 255 139 72
0.293968 -0.4021 -0.0143392 255 139 72
0.316345 -0.386246 -0.212585 255 139 72
-0.195255 -0.165051 0.321086 255 139 72
-0.102624 -0.431758 0.239609 255 139 72
-0.297873 -0.466692 0.0596984 255 139 72
-0.108814 -0.372492 0.312419 255 139 72
0.199266 -0.395367 -0.0481938 255 139 72
-0.12513 -0.478463 -0.215241 255 139 72
0.0303126 -0.439716 -0.223008 255 139 72
0.0901747 -0.395877 -0.107822 255 139 72
0.324825 -0.399445 -0.0675916 255 139 72
-0.129039 -0.475851 -0.274591 255 139 72
0.142291 -0.476301 -0.197955 255 139 72
0.174764 -0.471585 -0.106332 255 139 72
0.13485 -0.399644 -0.00758736 255 139 72
0.369886 -0.406779 -0.0717201 255 139 72
-0.13137 -0.340902 0.313895 255 139 72
0.352459 -0.396931 -0.102455 255 139 72
0.27306 -0.400363 -0.0554799 255 139 72
0.334466 -0.394404 -0.118357 255 139 72
-0.171007 -0.282767 0.312513 255 139 72
0.374948 -0.414417 -0.0904174 255 139 72
0.0948605 -0.428384 0.0749229 255 139 72
0.164094 -0.394739 -0.0798759 255 139 72
0.286592 -0.420651 0.0621213 255 139 72
0.239315 -0.39069 -0.167918 255 139 72
0.311471 -0.385922 -0.210303 255 139 72
0.043523 -0.431659 0.0798555 255 139 72
0.10791 -0.452646 0.239462 255 139 72
0.0389715 -0.425136 -0.151687 255 139 72
0.085546 -0.429723 0.290603 255 139 72
-0.195416 -0.478042 -0.201081 255 139 72
0.301781 -0.384082 -0.220375 255 139 72
0.350796 -0.411131 -0.0194797 255 139 72
0.295556 -0.384323 -0.215742 255 139 72
0.239659 -0.391428 -0.152244 255 139 72
0.217474 -0.410768 0.0585859 255 139 72
-0.155629 -0.175281 0.322055 255 139 72
-0.0105013 -0.398474 -0.145613 255 139 72
-0.00803982 -0.392866 -0.10185 255 139 72
0.0780919 -0.434088 0.290805 255 139 72
0.264964 -0.404755 0.0628527 255 139 72
0.0219826 -0.399482 -0.0842726 255 139 72
-0.129256 -0.477898 -0.230827 255 139 72
0.0544806 -0.398419 0.0117693 255 139 72
0.306059 -0.390572 -0.173728 255 139 72
0.108929 -0.451529 0.244312 255 139 72
0.140115 -0.452959 -0.0289022 255 139 72
0.245135 -0.425773 0.082695 255 139 72
0.227211 -0.395597 -0.0876298 255 139 72
0.315367 -0.407018 0.0236379 255 139 72
-0.295972 -0.45343 -0.0283115 255 139 72
-0.238774 -0.214875 0.326685 255 139 72
-0.27784 -0.37846 0.323611 255 139 72
0.22788 -0.408616 0.0579547 255 139 72
0.335794 -0.401313 -0.0451978 255 139 72
0.264682 -0.40065 -0.0389123 255 139 72
-0.224199 -0.137904 0.323887 255 139 72
0.0457157 -0.364864 0.297908 255 139 72
-0.0407947 -0.392303 0.306768 255 139 72
0.0756169 -0.401493 -0.194054 255 139 72
-0.0257193 -0.395236 0.108131 255 139 72
0.0341425 -0.42883 0.163384 255 139 72
0.384251 -0.422189 -0.148601 255 139 72
-0.100808 -0.3137 0.316374 255 139 72
0.260755 -0.460995 0.0798379 255 139 72
0.362481 -0.414098 -0.0398239 255 139 72
0.11974 -0.394796 -0.167317 255 139 72
0.264165 -0.399873 -0.0534797 255 139 72
-0.154729 -0.479415 -0.112494 255 139 72
0.113306 -0.47535 -0.0708738 255 139 72
0.0230871 -0.434329 0.108816 255 139 72
0.251947 -0.403926 0.0465732 255 139 72
-0.125376 -0.479612 -0.169464 255 139 72
0.234549 -0.395193 -0.103728 255 139 72
-0.131379 -0.336168 0.215284 255 139 72
-0.0160614 -0.415756 0.0676868 255 139 72
-0.188965 -0.190324 0.32084 255 139 72
0.23703 -0.397369 -0.0664279 255 139 72
-0.18635 -0.187804 0.320873 255 139 72
0.252699 -0.401294 -0.0111958 255 139 72
0.359282 -0.403236 -0.057747 255 139 72
0.0496976 -0.383121 0.278621 255 139 72
0.169496 -0.461219 0.158143 255 139 72
0.269862 -0.4019 -0.000675268 255 139 72
0.107885 -0.402708 -0.00544059 255 139 72
0.0431087 -0.449755 -0.225039 255 139 72
0.273464 -0.402286 0.0116826 255 139 72
0.295043 -0.396239 -0.0950653 255 139 72
0.0317658 -0.39896 0.0242359 255 139 72
0.219081 -0.410734 0.0589375 255 139 72
-0.0472126 -0.330657 0.292048 255 139 72
-0.0958364 -0.401101 0.136908 255 139 72
-0.0279377 -0.407851 0.0601449 255 139 72
0.159773 -0.403272 0.0330731 255 139 72
-0.114175 -0.480064 -0.145604 255 139 72
0.0607962 -0.397345 0.297238 255 139 72
0.0621184 -0.436753 0.107851 255 139 72
0.134677 -0.418145 0.0556269 255 139 72
0.302841 -0.383874 -0.223242 255 139 72
0.0832159 -0.418981 0.277641 255 139 72
-0.0232972 -0.417833 0.215152 255 139 72
0.152934 -0.460839 -0.0660115 255 139 72
-0.100302 -0.460055 0.129602 255 139 72
0.169434 -0.446618 0.153426 255 139 72
0.0346741 -0.397542 0.0160844 255 139 72
0.15747 -0.397035 -0.0119454 255 139 72
0.331901 -0.423711 0.00047785 255 139 72
-0.122118 -0.0130367 0.320744 255 95 48
-0.135274 0.0445816 0.317912 255 95 48
-0.193458 0.0775181 0.303237 255 95 48
0.0407036 -0.0066627 0.320618 255 95 48
-0.14191 0.0769708 0.255263 255 95 48
-0.291452 -0.333068 0.28518 255 95 48
-0.0366525 -0.222025 0.321975 255 95 48
-0.182544 -0.0436906 0.319347 255 95 48
-0.0937214 -0.0530443 0.323888 255 95 48
-0.313073 -0.227645 0.285771 255 95 48
-0.320979 -0.233386 0.239856 255 95 48
-0.111394 0.0646197 0.325217 255 95 48
-0.279625 0.0742976 0.040133 255 95 48
-0.301006 -0.333314 0.259556 255 95 48
-0.185339 0.0320576 0.314399 255 95 48
-0.238569 0.0761647 0.278853 255 95 48
-0.278222 0.0749308 -0.113067 255 95 48
-0.270484 -0.0152988 0.312157 255 95 48
-0.31872 -0.170348 0.272528 255 95 48
-0.23247 -0.12921 0.317707 255 95 48
-0.305028 0.0740242 0.237772 255 95 48
0.00915031 -0.0653673 0.325445 255 95 48
-0.0208822 -0.0739183 0.322972 255 95 48
-0.309261 -0.281573 0.281675 255 95 48
-0.218996 0.00703039 0.314123 255 95 48
-0.115768 0.0768971 0.056567 255 95 48
-0.206982 0.0730673 0.315937 255 95 48
0.0748004 -0.0708062 0.319254 255 95 48
-0.308609 -0.206768 0.294562 255 95 48
-0.305085 -0.292079 0.285909 255 95 48
-0.29492 -0.35744 0.257002 255 95 48
-0.211817 0.0781383 0.102051 255 95 48
-0.265565 0.0751302 0.00184867 255 95 48
-0.30764 0.0564638 0.117092 255 95 48
-0.0460018 -0.281731 0.318681 255 95 48
-0.102384 0.0504733 0.304125 255 95 48
-0.30896 0.066442 -0.186076 255 95 48
-0.199893 -0.131298 0.318805 255 95 48
-0.29563 0.075235 -0.0433456 255 95 48
-0.234539 -0.0203338 0.31431 255 95 48
-0.22648 -0.0269977 0.315558 255 95 48
-0.0601964 -0.129952 0.318736 255 95 48
-0.241822 -0.0263296 0.314436 255 95 48
-0.0701213 -0.240465 0.316582 255 95 48
-0.172713 0.0782057 0.213146 255 95 48
-0.154646 0.00818451 0.317741 255 95 48
0.00257152 -0.150457 0.326258 255 95 48
-0.273435 -0.0846746 0.317487 255 95 48
-0.203299 -0.0319765 0.317452 255 95 48
-0.0693616 0.0395299 0.119671 255 95 48
-0.0585845 -0.200425 0.317598 255 95 48
-0.147151 0.0306041 0.317676 255 95 48
-0.0101374 -0.243681 0.32091 255 95 48
-0.021017 -0.264944 0.320288 255 95 48
-0.251809 -0.203783 0.310995 255 95 48
-0.200935 0.0782066 0.164436 255 95 48
-0.21037 -0.0843548 0.321763 255 95 48
-0.0244868 -0.1287 0.322087 255 95 48
-0.0732543 0.0186521 0.288742 255 95 48
-0.119126 -0.186056 0.315834 255 95 48
-0.263025 0.0747846 0.0429328 255 95 48
0.0164679 -0.0432391 0.329022 255 95 48
-0.137631 -0.0834352 0.320028 255 95 48
-0.308108 0.065726 -0.169943 255 95 48
-0.0151291 -0.0493011 0.328729 255 95 48
-0.31904 -0.255022 0.259969 255 95 48
-0.152476 0.0776809 0.166054 255 95 48
-0.172152 0.0762665 0.0419401 255 95 48
-0.267849 0.0753456 0.186431 255 95 48
-0.307238 0.0397147 -0.0626556 255 95 48
-0.130992 -0.0289286 0.321525 255 95 48
0.0264403 -0.00277978 0.322424 255 95 48
-0.320432 -0.0833912 0.219426 255 95 48
-0.194098 0.0784546 0.23856 255 95 48
-0.194 0.0139642 0.314758 255 95 48
-0.256098 -0.109241 0.319552 255 95 48
-0.246571 -0.294145 0.300525 255 95 48
-0.2045 0.0780127 0.125259 255 95 48
-0.187605 0.0780034 0.175077 255 95 48
-0.16226 0.0777552 0.308039 255 95 48
-0.189018 0.00746346 0.315296 255 95 48
-0.202138 0.0776886 0.291341 255 95 48
-0.248835 0.0306461 0.31283 255 95 48
-0.180419 -0.129813 0.319402 255 95 48
-0.140449 -0.171981 0.316727 255 95 48
-0.141381 0.0764168 0.0899494 255 95 48
-0.315102 0.0303961 0.218015 255 95 48
-0.110836 0.0525623 0.236197 255 95 48
-0.293566 0.0752674 -0.0856169 255 95 48
-0.295602 -0.389737 0.197123 255 95 48
-0.162006 -0.190182 0.314148 255 95 48
-0.112297 0.0592883 0.30073 255 95 48
-0.251964 -0.142541 0.317177 255 95 48
0.0431803 -0.0896176 0.325238 255 95 48
-0.170914 -0.144615 0.317811 255 95 48
-0.321714 -0.144539 0.243086 255 95 48
-0.322502 -0.111048 0.268881 255 95 48
-0.0445896 0.00357982 0.323342 255 95 48
-0.242732 -0.321301 0.298524 255 95 48
-0.304743 0.0649198 -0.070198 255 95 48
-0.297603 0.0734254 0.0822936 255 95 48
-0.311829 0.066484 0.200908 255 95 48
-0.195015 -0.137653 0.317967 255 95 48
-0.303769 0.0127291 0.312704 255 95 48
-0.276419 -0.332406 0.292496 255 95 48
-0.0731557 -0.00209513 0.323044 255 95 48
-0.285573 -0.220439 0.306582 255 95 48
-0.213606 -0.263045 0.30489 255 95 48
-0.10917 0.0624032 0.326225 255 95 48
-0.193989 -0.125601 0.319867 255 95 48
0.0722913 -0.0511352 0.31956 255 95 48
-0.0380666 -0.238418 0.321052 255 95 48
-0.178537 0.0788425 0.283306 255 95 48
-0.311885 0.0353546 0.170177 255 95 48
-0.137854 0.0763388 0.0730613 255 95 48
-0.130014 0.0425485 0.318327 255 95 48
-0.0789474 -0.269765 0.316031 255 95 48
-0.233638 -0.17404 0.313343 255 95 48
-0.310515 0.00578702 0.0436035 255 95 48
-0.321571 -0.104575 0.23462 255 95 48
-0.314178 0.0475942 0.227534 255 95 48
-0.299089 0.0732945 0.106315 255 95 48
-0.099441 -0.0295382 0.323936 255 95 48
-0.321496 -0.00655281 0.269756 255 95 48
0.00720587 -0.0441687 0.329139 255 95 48
-0.146303 -0.0838483 0.320161 255 95 48
-0.316674 -0.188567 0.282089 255 95 48
-0.227322 -0.299432 0.301292 255 95 48
-0.271425 0.0731942 0.310457 255 95 48
-0.173791 0.0787139 0.306784 255 95 48
-0.312312 0.0337381 0.174694 255 95 48
-0.252019 -0.129024 0.318427 255 95 48
-0.30791 -0.225808 0.292343 255 95 48
-0.0604743 -0.063954 0.322997 255 95 48
-0.276452 0.0753694 0.275088 255 95 48
-0.0914838 0.038706 0.302185 255 95 48
-0.313848 -0.0400806 0.0663825 255 95 48
-0.0658774 0.0318007 0.339171 255 95 48
-0.147099 -0.000390314 0.318469 255 95 48
0.0162798 -0.120234 0.325986 255 95 48
-0.311913 -0.305835 0.212653 255 95 48
-0.248637 -0.239737 0.306868 255 95 48
-0.123343 0.0770697 0.0947266 255 95 48
-0.198416 0.0783518 0.208326 255 95 48
-0.0172942 -0.139305 0.324122 255 95 48
-0.226338 -0.0524746 0.318916 255 95 48
-0.292594 -0.0726384 0.310969 255 95 48
-0.153001 -0.078503 0.320644 255 95 48
-0.188243 -0.0113832 0.317158 255 95 48
-0.063409 0.0105657 0.294721 255 95 48
-0.251682 -0.266638 0.303207 255 95 48
-0.25283 0.0756498 0.117512 255 95 48
-0.215932 0.0782852 0.158466 255 95 48
-0.243902 -0.227059 0.308148 255 95 48
-0.320154 -0.151847 0.263885 255 95 48
0.0222253 -0.0131466 0.325651 255 95 48
-0.0567295 -0.0387015 0.327059 255 95 48
-0.277856 0.0746926 0.138624 255 95 48
-0.0380481 -0.0880093 0.320525 255 95 48
-0.220514 0.0770375 0.27762 255 95 48
-0.232966 -0.0102898 0.313569 255 95 48
-0.0317816 -0.189402 0.323164 255 95 48
-0.307479 -0.275961 0.284826 255 95 48
-0.191032 -0.0165926 0.3177 255 95 48
-0.176725 -0.263452 0.308836 255 95 48
-0.303704 0.0684494 -0.0974289 255 95 48
-0.311771 -0.253991 0.283181 255 95 48
-0.0160353 -0.19717 0.324202 255 95 48
-0.306752 0.0765589 -0.196151 255 95 48
-0.0964141 -0.0611259 0.322497 255 95 48
-0.112466 0.0562138 0.216263 255 95 48
-0.323517 -0.0941708 0.266184 255 95 48
-0.18133 -0.0183646 0.318504 255 95 48
-0.0748876 0.0390169 0.146273 255 95 48
-0.159133 0.0771812 0.309512 255 95 48
-0.260523 0.0754009 -0.0101421 255 95 48
-0.287285 0.0537916 0.313177 255 95 48
-0.166392 -0.0196658 0.31932 255 95 48
-0.278503 0.00232272 0.311768 255 95 48
-0.298492 0.0457323 0.31428 255 95 48
-0.308815 -0.0853297 0.300408 255 95 48
-0.252176 0.0760453 0.215468 255 95 48
0.0376567 -0.000270866 0.320008 255 95 48
-0.283525 0.0373802 0.314589 255 95 48
-0.230059 -0.277492 0.303174 255 95 48
-0.276032 -0.253661 0.304575 255 95 48
0.0016827 -0.0510401 0.328611 255 95 48
-0.256347 -0.124121 0.318618 255 95 48
-0.305174 0.0730822 0.102389 255 95 48
-0.313667 -0.295687 0.219297 255 95 48
-0.0837353 0.054543 0.325167 255 95 48
-0.0421601 -0.0477977 0.327807 255 95 48
-0.311632 0.0314291 0.151867 255 95 48
-0.20191 -0.253082 0.30657 255 95 48
-0.0405123 0.0386444 0.322675 255 95 48
-0.1858 -0.24081 0.30926 255 95 48
-0.0499061 -0.204687 0.319721 255 95 48
-0.270916 -0.222026 0.308916 255 95 48
-0.319979 -0.0192692 0.220475 255 95 48
-0.174833 0.0787755 0.282798 255 95 48
-0.320567 -0.0275168 0.217943 255 95 48
-0.27109 -0.244181 0.306445 255 95 48
-0.257953 0.0754552 0.134698 255 95 48
-0.0927022 -0.0350931 0.325193 255 95 48
-0.0117141 -0.124885 0.324423 255 95 48
-0.31084 0.00421227 -0.0483592 255 95 48
-0.192446 0.0781386 0.185282 255 95 48
0.0604491 -0.0238343 0.318795 255 95 48
-0.317534 -0.226068 0.27564 255 95 48
-0.0914879 0.0363741 0.223065 255 95 48
-0.0919292 -0.256107 0.314589 255 95 48
-0.316358 0.0135016 0.208337 255 95 48
-0.267467 0.0684021 0.312925 255 95 48
-0.243532 0.0752944 -0.0332888 255 95 48
-0.141271 0.0751263 0.279089 255 95 48
-0.307098 0.0316923 -0.00576947 255 95 48
-0.112467 0.0620542 0.316326 255 95 48
-0.115007 0.0766569 0.0291167 255 95 48
-0.294959 -0.325246 0.282382 255 95 48
-0.308726 -0.326176 0.223289 255 95 48
-0.0333902 -0.194924 0.322948 255 95 48
-0.248772 -0.127788 0.318399 255 95 48
-0.280449 -0.156042 0.313783 255 95 48
-0.238635 -0.0309243 0.31531 255 95 48
-0.0671083 0.0184775 0.314976 255 95 48
-0.258734 -0.318566 0.296573 255 95 48
-0.242252 -0.292807 0.301052 255 95 48
-0.316594 -0.223637 0.279291 255 95 48
-0.302819 0.0736668 0.0638601 255 95 48
-0.28881 0.0750551 -0.0477903 255 95 48
-0.0678193 0.0279931 0.334734 255 95 48
-0.211899 -0.122448 0.319831 255 95 48
0.0353069 0.00535988 0.319187 255 95 48
-0.230341 -0.0497916 0.318497 255 95 48
0.0465873 -0.0767118 0.324308 255 95 48
-0.29125 -0.0860859 0.311211 255 95 48
-0.304125 -0.287037 0.287908 255 95 48
-0.231129 -0.126665 0.318058 255 95 48
-0.19438 -0.0231404 0.317891 255 95 48
-0.203202 0.0781415 0.148339 255 95 48
-0.292721 -0.341669 0.278362 255 95 48
-0.210535 -0.178345 0.312129 255 95 48
-0.304549 0.0748807 -0.150791 255 95 48
-0.237538 0.0750232 -0.0620142 255 95 48
-0.108478 0.0316443 0.320069 255 95 48
-0.141174 0.0458939 0.317419 255 95 48
-0.31517 0.0541564 0.243236 255 95 48
-0.227798 -0.108675 0.320735 255 95 48
-0.171734 0.07815 0.206257 255 95 48
-0.216997 -0.217579 0.308965 255 95 48
-0.124895 0.0768184 0.0798735 255 95 48
-0.230394 -0.0317916 0.315796 255 95 48
-0.262616 -0.286345 0.30019 255 95 48
-0.1355 0.076368 0.0707148 255 95 48
-0.316337 -0.277174 0.232319 255 95 48
-0.301186 0.0737595 0.156895 255 95 48
-0.310434 -0.314612 0.223332 255 95 48
-0.0350102 0.0349394 0.325234 255 95 48
-0.11859 -0.00212463 0.320132 255 95 48
-0.309129 0.039583 0.313508 255 95 48
0.02638 -0.049752 0.32823 255 95 48
-0.0570478 -0.122018 0.319262 255 95 48
-0.178391 0.0769441 0.0985389 255 95 48
-0.216447 -0.199093 0.310288 255 95 48
-0.242927 0.0336127 0.312997 255 95 48
-0.0478932 -0.203557 0.320179 255 95 48
-0.161083 0.0413325 0.316103 255 95 48
-0.305468 0.0444321 -0.0184391 255 95 48
-0.104282 -0.0316108 0.323771 255 95 48
-0.286313 0.0750383 -0.0857936 255 95 48
-0.0727343 0.0398831 0.338167 255 95 48
-0.29782 -0.258036 0.295832 255 95 48
-0.249937 0.0745992 -0.120848 255 95 48
-0.27321 -0.307652 0.296588 255 95 48
-0.0439198 0.0398095 0.323352 255 95 48
0.0110702 0.0195216 0.32286 255 95 48
-0.196057 0.0776359 0.0804698 255 95 48
-0.314433 -0.00834748 0.12283 255 95 48
-0.307052 0.0766985 -0.214929 255 95 48
-0.182269 0.0610556 0.313794 255 95 48
-0.183134 0.0758487 -0.0323408 255 95 48
-0.106171 -0.0765307 0.320557 255 95 48
-0.0217674 -0.00778421 0.326762 255 95 48
-0.176043 0.077539 0.151597 255 95 48
-0.317459 -0.0868087 0.12221 255 95 48
-0.154251 0.074755 0.320125 255 95 48
-0.299814 0.0307021 0.314417 255 95 48
-0.316532 0.0370667 0.24767 255 95 48
-0.132581 -0.13906 0.317634 255 95 48
-0.299848 -0.355042 0.232725 255 95 48
-0.269573 0.0741579 0.305621 255 95 48
-0.297052 -0.303033 0.291202 255 95 48
-0.102852 -0.17963 0.31577 255 95 48
-0.308924 0.0228601 0.0499374 255 95 48
-0.214717 -0.0542255 0.319286 255 95 48
-0.230692 -0.0313021 0.315723 255 95 48
-0.0173364 -0.301942 0.318284 255 95 48
-0.195917 -0.0202616 0.317595 255 95 48
-0.274449 -0.292279 0.299005 255 95 48
-0.0391001 -0.254327 0.320291 255 95 48
-0.0199542 0.0103294 0.322746 255 95 48
-0.157084 0.0758562 -0.0497079 255 95 48
-0.276739 0.0753293 0.276623 255 95 48
-0.129882 -0.0625219 0.322254 255 95 48
-0.0020421 -0.116222 0.324825 255 95 48
-0.319255 -0.0566773 0.295897 255 95 48
-0.315375 -0.0971606 0.292251 255 95 48
-0.316586 -0.16218 0.282279 255 95 48
-0.189596 -0.0523991 0.320087 255 95 48
-0.294465 -0.134662 0.310493 255 95 48
-0.314883 -0.22282 0.28363 255 95 48
-0.237526 -0.0307888 0.315332 255 95 48
-0.297207 -0.369054 0.224112 255 95 48
-0.197355 0.0784561 0.231476 255 95 48
-0.122217 0.0660751 0.292969 255 95 48
0.0336191 -0.00988438 0.3228 255 95 48
-0.195327 -0.0821681 0.321605 255 95 48
-0.2255 0.0772264 0.0940817 255 95 48
-0.251819 -0.0979488 0.320869 255 95 48
-0.0869844 0.0549806 0.327594 255 95 48
-0.0659282 -0.123915 0.318863 255 95 48
-0.144469 -0.246986 0.311518 255 95 48
-0.155584 -0.0267099 0.320173 255 95 48
-0.159411 0.0490166 0.315736 255 95 48
-0.107259 -0.0681815 0.321289 255 95 48
-0.308455 -0.0476292 0.304349 255 95 48
-0.0916852 -0.147545 0.317101 255 95 48
-0.197486 -0.148488 0.316369 255 95 48
0.0372776 -0.103564 0.325562 255 95 48
-0.23806 0.0752134 -0.0471645 255 95 48
-0.0572877 -0.0616255 0.323758 255 95 48
-0.195687 0.0765035 0.309144 255 95 48
-0.292014 -0.343119 0.279387 255 95 48
-0.106872 0.0755097 0.0672584 255 95 48
0.0124903 -0.170086 0.324256 255 95 48
-0.141258 0.0783919 0.216912 255 95 48
-0.257121 0.0751347 0.0268134 255 95 48
-0.14144 0.0759822 -0.0171854 255 95 48
-0.317405 -0.126968 0.284557 255 95 48
-0.15374 0.0607475 0.315838 255 95 48
0.0755706 -0.0739094 0.319233 255 95 48
-0.311993 -0.302668 0.236332 255 95 48
-0.313393 -0.284885 0.258949 255 95 48
-0.2972 -0.364523 0.231201 255 95 48
-0.250224 0.0752018 0.0521938 255 95 48
-0.217741 -0.147175 0.316035 255 95 48
-0.30509 -0.346197 0.210022 255 95 48
-0.0450544 -0.08461 0.32021 255 95 48
-0.236855 0.0766314 0.113866 255 95 48
-0.160077 0.0764053 0.316074 255 95 48
-0.267923 0.0756304 0.269436 255 95 48
-0.320114 -0.0578781 0.1851 255 95 48
-0.319846 -0.0583401 0.174151 255 95 48
0.052488 -0.0942034 0.325261 255 95 48
-0.223312 0.0774983 0.249222 255 95 48
-0.314723 0.0658611 0.243625 255 95 48
-0.00568485 -0.247973 0.320357 255 95 48
-0.3096 -0.316867 0.235284 255 95 48
0.0117954 -0.00762753 0.32598 255 95 48
-0.0119916 0.0282524 0.323027 255 95 48
-0.260353 -0.0801406 0.321224 255 95 48
-0.196717 0.0762116 0.00333891 255 95 48
-0.170958 -0.0474565 0.320534 255 95 48
-0.254137 0.0759073 0.190139 255 95 48
0.0218622 -0.157906 0.324238 255 95 48
-0.320063 -0.24348 0.237263 255 95 48
-0.29674 -0.00983031 0.310927 255 95 48
-0.318762 -0.0842985 0.168812 255 95 48
-0.293018 0.0748954 0.255019 255 95 48
-0.321194 -0.163843 0.250099 255 95 48
-0.0811161 -0.134859 0.317843 255 95 48
-0.293911 -0.364353 0.258892 255 95 48
-0.122763 0.0764349 0.0325802 255 95 48
-0.289585 0.0753297 -0.120296 255 95 48
-0.219773 -0.0353131 0.316869 255 95 48
-0.322042 -0.131017 0.234722 255 95 48
-0.0811291 0.0354992 0.326361 255 95 48
-0.191642 -0.114418 0.321034 255 95 48
-0.155875 -0.0668099 0.321966 255 95 48
-0.00800218 -0.0601262 0.326734 255 95 48
-0.298119 0.075331 -0.0180453 255 95 48
-0.263337 -0.093704 0.31928 255 95 48
-0.321983 -0.094735 0.241412 255 95 48
-0.289081 -0.233717 0.303382 255 95 48
-0.319197 -0.236545 0.267907 255 95 48
-0.30141 0.0754346 -0.0463381 255 95 48
-0.265961 0.0020203 0.311664 255 95 48
-0.143896 -0.113618 0.318684 255 95 48
-0.316679 -0.109002 0.288923 255 95 48
-0.264627 -0.145241 0.316486 255 95 48
-0.116549 -0.142213 0.317291 255 95 48
-0.0402235 -0.222938 0.321556 255 95 48
-0.241781 0.0765956 0.164388 255 95 48
-0.253679 0.0417506 0.314112 255 95 48
-0.172604 0.0783539 0.236 255 95 48
-0.318587 -0.163927 0.273389 255 95 48
-0.296526 0.0743225 0.184336 255 95 48
-0.135435 -0.178417 0.316248 255 95 48
-0.299741 0.0029915 0.311592 255 95 48
-0.285197 0.0740947 0.109611 255 95 48
-0.129806 0.00993851 0.319224 255 95 48
-0.318943 -0.255671 0.260452 255 95 48
-0.23363 0.0768232 0.112272 255 95 48
-0.253699 0.0759465 0.271848 255 95 48
-0.0353353 0.032512 0.330362 255 95 48
-0.294404 -0.340458 0.271905 255 95 48
-0.248091 -0.00921535 0.312669 255 95 48
-0.13629 0.0762177 0.234752 255 95 48
-0.124537 0.0762513 0.156709 255 95 48
-0.297026 -0.184267 0.304834 255 95 48
-0.124872 0.0767507 0.0740296 255 95 48
-0.285486 0.075242 -0.12643 255 95 48
-0.297355 0.0496038 0.313441 255 95 48
-0.321575 -0.0895043 0.283159 255 95 48
-0.272069 0.0750268 -0.0319801 255 95 48
-0.106516 -0.183862 0.315712 255 95 48
-0.164052 0.0780829 0.306836 255 95 48
-0.316213 0.0416599 0.247678 255 95 48
-0.0911265 -0.0407037 0.325183 255 95 48
-0.306237 0.0729677 0.12329 255 95 48
-0.215677 -0.0824678 0.321655 255 95 48
-0.274221 -0.0652452 0.318282 255 95 48
0.00359926 -0.146643 0.326368 255 95 48
0.00355408 0.0102134 0.321101 255 95 48
-0.284398 0.0752532 0.266778 255 95 48
-0.183073 0.0789039 0.282919 255 95 48
-0.292528 0.074779 0.204924 255 95 48
-0.251693 -0.297006 0.299758 255 95 48
-0.0539379 0.0248637 0.341278 255 95 48
-0.186005 0.0747903 0.316799 255 95 48
-0.0262032 -0.0739901 0.322809 255 95 48
-0.0902197 0.0525322 0.332748 255 95 48
-0.128618 0.0697596 0.324458 255 95 48
-0.203173 0.0785354 0.235201 255 95 48
-0.214672 0.0776394 0.26596 255 95 48
-0.314938 0.0261454 0.205584 255 95 48
-0.152817 0.0746487 0.32042 255 95 48
-0.302648 0.0731876 0.091066 255 95 48
-0.231723 -0.27248 0.303593 255 95 48
-0.224824 0.0257021 0.312265 255 95 48
-0.229848 0.0769237 0.260597 255 95 48
-0.0419594 -0.149954 0.319537 255 95 48
0.0256369 0.0116187 0.321194 255 95 48
0.04353 -0.0817174 0.324866 255 95 48
-0.252265 -0.28485 0.300766 255 95 48
-0.0823446 0.0545918 0.319396 255 95 48
-0.322585 -0.203644 0.233213 255 95 48
-0.228408 0.0761196 0.0486394 255 95 48
-0.1496 -0.182696 0.315606 255 95 48
-0.167935 -0.211089 0.311825 255 95 48
-0.28286 -0.297488 0.297269 255 95 48
-0.0707218 -0.0971713 0.319928 255 95 48
-0.0738975 -0.0950268 0.319741 255 95 48
-0.275889 -0.308113 0.296242 255 95 48
0.0513973 -0.107145 0.325238 255 95 48
-0.210372 0.078411 0.193992 255 95 48
-0.0285227 -0.0774514 0.321986 255 95 48
-0.0543531 0.0429706 0.321994 255 95 48
