ply
format ascii 1.0
comment Created by Open3D
element vertex 1538
property double x
property double y
property double z
property uchar red
property uchar green
property uchar blue
end_header
0.225 -0.2 0.15 73 182 255
0.15 -0.15 0.15 86 169 255
0.325 -0.4 0.025 22 233 255
-0.1625 -0.0375 0.15 115 140 255
-0.2125 -0.2125 0.125 70 185 255
0.0625 -0.4 -0.0875 22 233 255
-0.0375 -0.4 0.15 22 233 255
-0.325 -0.35 0.15 35 220 255
0.125 -0.3625 0.1625 32 223 255
0.225 -0.4125 -0.3875 19 236 255
0.325 -0.375 -0.05 28 227 255
0.25 -0.225 -0.3875 67 188 255
0.1 -0.3 0.15 48 207 255
-0.1625 -0.2625 0.1625 56 198 255
0.325 -0.3625 -0.2 32 223 255
-0.05 -0.375 0.15 28 227 255
0.325 0.0375 -0.2 134 121 255
-0.0375 -0.4875 0.1125 0 255 255
0.2 -0.2625 0.1625 56 198 255
0.2875 -0.2125 0.15 70 185 255
-0.0875 -0.1 0.15 99 156 255
-0.1125 -0.0375 0.15 115 140 255
0.1125 -0.4875 0.1 0 255 255
-0.1875 -0.0375 0.15 115 140 255
0.1875 -0.225 0.15 67 188 255
-0.025 -0.1375 0.15 89 166 255
-0.125 -0.05 0.1625 112 143 255
0.075 -0.4 -0.1375 22 233 255
0.2625 -0.3 0.15 48 207 255
0.325 -0.3125 0.1125 44 211 255
0.0125 -0.4375 -0.0875 12 243 255
-0.175 -0.05 0.125 112 143 255
0.175 -0.0125 0.15 121 134 255
-0.1375 -0.2 0.1625 73 182 255
0.2875 -0.3375 -0.3875 38 217 255
0.2125 -0.4875 0.1125 0 255 255
0.325 0.075 0.05 144 111 255
0.325 -0.2875 -0.1125 51 204 255
0.275 -0.3875 -0.2625 25 230 255
-0.1625 -0.3625 0.1625 32 223 255
0.325 -0.1 -0.1125 99 156 255
0.275 -0.4875 -0.3625 0 255 255
-0.0875 -0.4125 -0.15 19 236 255
0.325 -0.025 -0.375 118 137 255
0.3 -0.425 -0.3 16 239 255
0.3 -0.2875 0.15 51 204 255
-0.3375 -0.2 0.15 73 182 255
-0.1125 -0.1875 0.15 76 179 255
0.2375 -0.45 -0.3875 9 246 255
0.325 -0.2625 -0.3375 56 198 255
-0.2 -0.45 0.1625 9 246 255
0.275 -0.4875 0.1 0 255 255
0.075 -0.3 -0.3875 48 207 255
0.2125 0.075 0.0875 144 111 255
0.325 0.05 0.0125 137 118 255
-0.0375 -0.4 -0.2625 22 233 255
-0.0875 -0.15 0.1625 86 169 255
-0.025 -0.2625 0.1625 56 198 255
-0.1 -0.4375 -0.075 12 243 255
-0.1375 -0.1625 0.1625 83 172 255
0.0625 -0.3 0.1625 48 207 255
-0.025 -0.4 -0.3875 22 233 255
0.1125 0.05 0.15 137 118 255
0.125 -0.125 0.1625 92 163 255
0.2625 -0.35 -0.3875 35 220 255
0.3125 -0.2 0.15 73 182 255
0.1875 -0.4 0.1625 22 233 255
-0.225 -0.3125 0.15 44 211 255
0.1875 -0.1625 0.1625 83 172 255
0.2 0.075 0.0625 144 111 255
0.325 -0.1375 -0.3375 89 166 255
0.325 -0.1125 0.15 96 159 255
0.1875 -0.1 -0.3875 99 156 255
-0.075 -0.4875 -0.075 0 255 255
0.2875 -0.0625 0.1625 108 147 255
0.15 -0.4875 -0.35 0 255 255
-0.2125 -0.1875 0.1625 76 179 255
0.325 0.025 -0.0625 131 124 255
-0.0625 -0.4875 -0.2875 0 255 255
0.3125 -0.4125 -0.2875 19 236 255
0.325 0.0375 -0.3375 134 121 255
-0.15 -0.05 0.15 112 143 255
-0.325 -0.4 0.1625 22 233 255
0.325 0.0625 0.0625 140 114 255
0.0375 -0.3 -0.3875 48 207 255
0.3125 -0.3375 -0.2875 38 217 255
-0.25 -0.0625 0.15 108 147 255
-0.275 -0.125 0.15 92 163 255
0 -0.4375 -0.2125 12 243 255
-0.0625 -0.425 0.025 16 239 255
0.275 -0.2875 0.1625 51 204 255
-0.05 -0.475 -0.3125 3 252 255
0.175 -0.375 0.1625 28 227 255
0.05 -0.4 -0.1125 22 233 255
0.1125 -0.3875 0.1625 25 230 255
-0.25 -0.1 0.125 99 156 255
-0.0875 0 0.1625 124 131 255
-0.0125 -0.25 0.1625 60 195 255
0.075 -0.0875 0.1625 102 153 255
0.0125 -0.0375 0.1625 115 140 255
0.175 -0.4125 0.1625 19 236 255
0.3 -0.3375 -0.3875 38 217 255
0.1125 -0.0625 -0.3875 108 147 255
-0.05 -0.4375 -0.2625 12 243 255
0.1 -0.2 0.15 73 182 255
-0.3 -0.4 0.15 22 233 255
0.25 -0.35 0.1625 35 220 255
0.275 -0.3 0.15 48 207 255
0.325 -0.4125 -0.35 19 236 255
0.025 -0.3875 -0.3875 25 230 255
-0.3125 -0.325 0.1625 40 214 255
0.2125 -0.4875 0.1 0 255 255
-0.075 -0.4375 -0.0625 12 243 255
-0.15 -0.4875 0 0 255 255
0.025 -0.4375 -0.2375 12 243 255
0.2875 -0.3875 -0.075 25 230 255
-0.2375 -0.0125 0.1375 121 134 255
0.325 -0.325 -0.0125 40 214 255
0.1375 0.05 0.1625 137 118 255
-0.2625 -0.4625 0.1625 6 249 255
0.075 -0.4875 -0.35 0 255 255
0.325 -0.3375 -0.3125 38 217 255
-0.225 -0.35 0.1375 35 220 255
0.2 -0.0375 0.15 115 140 255
-0.0125 -0.4375 -0.05 12 243 255
-0.1 -0.4375 -0.25 12 243 255
-0.2375 -0.4 0.125 22 233 255
-0.0875 -0.4375 -0.25 12 243 255
0.3125 -0.425 -0.1375 16 239 255
-0.2375 -0.45 0.15 9 246 255
0.3125 -0.3625 -0.325 32 223 255
-0.175 -0.175 0.1375 80 175 255
0.325 -0.25 0.075 60 195 255
0.075 -0.3 0.15 48 207 255
-0.0625 0.0375 0.1625 134 121 255
0.25 0.0125 0.15 128 127 255
-0.05 -0.4375 -0.0375 12 243 255
0.3125 0.075 -0.325 144 111 255
0.325 -0.425 0.05 16 239 255
-0.025 -0.4875 -0.1375 0 255 255
-0.1375 -0.35 0.1625 35 220 255
0.05 -0.4 -0.2 22 233 255
0.1625 -0.3875 0.15 25 230 255
0.2125 -0.4 -0.175 22 233 255
0.225 -0.475 0.1625 3 252 255
-0.3125 -0.0875 0.15 102 153 255
0.1125 -0.4125 0.0125 19 236 255
0.25 -0.2125 0.15 70 185 255
-0.15 -0.4875 -0.075 0 255 255
0 -0.4 -0.175 22 233 255
0.2625 -0.425 0.0625 16 239 255
0.325 -0.1375 -0.0125 89 166 255
0.325 -0.2 -0.2875 73 182 255
0 -0.3 0.1625 48 207 255
0.325 -0.075 -0.025 105 150 255
-0.2875 -0.4375 0.15 12 243 255
0.15 0.075 -0.1625 144 111 255
0.0875 -0.1875 0.15 76 179 255
0.325 -0.025 -0.25 118 137 255
0.325 -0.25 -0.0875 60 195 255
-0.075 -0.4875 -0.25 0 255 255
-0.1 -0.475 -0.2875 3 252 255
0.1125 -0.3 0.1625 48 207 255
0.325 -0.2125 -0.3625 70 185 255
-0.125 -0.4875 -0.1 0 255 255
-0.3125 -0.425 0.15 16 239 255
0.325 -0.05 -0.2125 112 143 255
0.175 0.075 -0.2 144 111 255
0.2125 -0.2625 -0.3875 56 198 255
0.3125 -0.35 -0.0125 35 220 255
0.1625 0.075 -0.025 144 111 255
0.325 -0.075 -0.25 105 150 255
0.1875 0.075 0.0625 144 111 255
0.0375 -0.3875 0.1625 25 230 255
0.2 0.075 -0.25 144 111 255
0 -0.4375 -0.125 12 243 255
0.325 -0.0875 -0.4 102 153 255
-0.025 -0.175 0.1625 80 175 255
0.2125 -0.1125 0.15 96 159 255
0.2125 -0.225 0.1625 67 188 255
0.2125 -0.05 -0.3875 112 143 255
0.075 -0.3375 0.15 38 217 255
0.2 0.0625 0.15 140 114 255
-0.3125 -0.2125 0.1625 70 185 255
0.325 -0.1625 -0.175 83 172 255
0.325 -0.0375 0.05 115 140 255
-0.2375 -0.4875 0.1625 0 255 255
0.325 -0.225 -0.3125 67 188 255
-0.2125 -0.425 0.15 16 239 255
0.2125 -0.4 -0.0875 22 233 255
-0.05 -0.4375 0.1625 12 243 255
0.325 -0.2125 -0.2375 70 185 255
0.1625 -0.4125 -0.3875 19 236 255
-0.3 -0.075 0.125 105 150 255
-0.3 -0.125 0.15 92 163 255
0.025 -0.4875 0.1625 0 255 255
0 -0.0125 0.1625 121 134 255
-0.175 -0.3125 0.15 44 211 255
0.325 0.025 0.1625 131 124 255
0.325 -0.1625 -0.1625 83 172 255
0.0125 -0.4125 0.1625 19 236 255
0.3125 -0.0875 -0.3875 102 153 255
0.25 -0.1875 0.15 76 179 255
0.1375 0.075 0.1375 144 111 255
0.2375 -0.35 0.1625 35 220 255
0.325 -0.1 -0.2375 99 156 255
0.325 -0.3125 -0.2125 44 211 255
0.25 -0.4875 0.1125 0 255 255
-0.0875 -0.475 0.1625 3 252 255
-0.1875 0 0.125 124 131 255
-0.0625 -0.4375 -0.075 12 243 255
0.275 -0.1875 0.15 76 179 255
0.2625 -0.2125 0.1625 70 185 255
0.2875 0.075 -0.15 144 111 255
0.325 -0.05 -0.2375 112 143 255
0.325 -0.0875 0.075 102 153 255
0.3125 0.075 -0.1125 144 111 255
0.0125 -0.4375 -0.025 12 243 255
-0.2125 -0.4875 0.15 0 255 255
0.0625 -0.4125 -0.3 19 236 255
0.05 -0.3 0.1625 48 207 255
0.3 -0.35 0.15 35 220 255
-0.1875 -0.15 0.125 86 169 255
0.0375 -0.425 0.025 16 239 255
0.125 -0.25 0.15 60 195 255
0.2375 -0.475 0.1625 3 252 255
0.2125 -0.425 0.0625 16 239 255
0.0125 -0.4625 0.15 6 249 255
0.325 -0.0375 -0.2375 115 140 255
0 -0.0875 0.1625 102 153 255
0.0375 -0.0625 0.15 108 147 255
-0.0125 -0.4125 -0.3 19 236 255
0.3 -0.1 -0.3875 99 156 255
-0.3625 -0.3375 0.15 38 217 255
-0.275 -0.45 0.15 9 246 255
-0.325 -0.3125 0.1625 44 211 255
-0.3125 -0.3125 0.1625 44 211 255
0.0375 -0.0625 0.1625 108 147 255
-0.0875 -0.1125 0.1625 96 159 255
0.075 -0.1 0.1625 99 156 255
0.0125 -0.4375 -0.1875 12 243 255
0.1875 -0.075 0.1625 105 150 255
-0.225 -0.425 0.1625 16 239 255
0.1625 0.075 -0.15 144 111 255
0.2125 0.075 -0.025 144 111 255
-0.025 0.0625 0.1625 140 114 255
0.325 -0.0375 -0.275 115 140 255
0.2625 -0.4 -0.15 22 233 255
-0.0375 -0.2875 0.15 51 204 255
0.25 -0.2375 -0.3875 64 191 255
-0.25 -0.3125 0.15 44 211 255
-0.175 -0.2 0.1625 73 182 255
0.3125 0.075 -0.0125 144 111 255
-0.1 -0.3375 0.15 38 217 255
-0.0625 -0.4875 -0.2625 0 255 255
0.0125 -0.4875 -0.3625 0 255 255
-0.0375 -0.4 -0.2375 22 233 255
-0.0375 -0.4375 -0.15 12 243 255
0.2125 -0.1875 0.15 76 179 255
-0.225 -0.475 0.15 3 252 255
0.15 -0.3 -0.3875 48 207 255
0.325 -0.275 -0.2625 54 201 255
0.25 -0.275 -0.3875 54 201 255
-0.0875 -0.4375 -0.2375 12 243 255
0.0625 -0.025 0.15 118 137 255
-0.0625 -0.0875 0.15 102 153 255
0.1375 -0.1 0.15 99 156 255
0.1875 -0.275 0.1625 54 201 255
-0.0375 -0.0125 0.15 121 134 255
0.1125 -0.4 -0.1375 22 233 255
0.25 -0.3625 -0.3875 32 223 255
0.2875 -0.4125 -0.3875 19 236 255
0.3125 -0.0375 0.1625 115 140 255
-0.075 -0.125 0.1625 92 163 255
0.2625 0.075 -0.0625 144 111 255
-0.0875 -0.4375 -0.2875 12 243 255
-0.1875 -0.225 0.125 67 188 255
0.025 -0.1625 0.15 83 172 255
-0.3 -0.05 0.1375 112 143 255
-0.1875 -0.125 0.15 92 163 255
-0.075 -0.4375 -0.175 12 243 255
-0.1875 -0.4875 0.1 0 255 255
0.2375 -0.4 -0.15 22 233 255
-0.3 -0.275 0.1625 54 201 255
-0.125 -0.0375 0.1625 115 140 255
0.275 0.075 -0.2125 144 111 255
0.05 0.0125 0.1625 128 127 255
0.2375 -0.4125 -0.2875 19 236 255
-0.05 0.0375 0.15 134 121 255
0.3125 -0.35 -0.1875 35 220 255
0.2375 -0.025 0.1625 118 137 255
0.325 -0.075 -0.075 105 150 255
-0.125 -0.2375 0.1625 64 191 255
0.1 -0.4125 0.1625 19 236 255
0.2875 -0.4 -0.1625 22 233 255
-0.1 -0.475 -0.3125 3 252 255
0.2625 -0.4125 0.1375 19 236 255
0.0375 -0.4 -0.075 22 233 255
0.325 -0.275 -0.2375 54 201 255
0.1625 -0.4 -0.1625 22 233 255
0.1625 -0.1125 -0.3875 96 159 255
0.2625 -0.3875 -0.1125 25 230 255
0.15 -0.025 0.15 118 137 255
-0.0625 -0.4875 -0.3625 0 255 255
-0.0875 -0.4875 -0.25 0 255 255
-0.175 -0.1375 0.1375 89 166 255
0.2 -0.4 0 22 233 255
-0.25 -0.1125 0.1625 96 159 255
-0.3375 -0.3125 0.1625 44 211 255
-0.2 -0.075 0.15 105 150 255
0.3125 -0.275 0.1625 54 201 255
-0.275 -0.3625 0.15 32 223 255
-0.125 -0.4875 -0.0875 0 255 255
0.175 -0.4625 0.1625 6 249 255
0.3 -0.4 -0.25 22 233 255
-0.2375 -0.2125 0.1375 70 185 255
0.3125 -0.4 -0.175 22 233 255
0.0625 -0.2 -0.3875 73 182 255
-0.3125 -0.2 0.125 73 182 255
0.25 -0.3875 -0.125 25 230 255
0.25 -0.3875 -0.2125 25 230 255
0.3 -0.1625 0.1625 83 172 255
-0.2125 -0.4625 0.15 6 249 255
-0.225 -0.1 0.1625 99 156 255
-0.1875 -0.4875 0.0875 0 255 255
0.175 -0.4375 -0.325 12 243 255
0.0125 -0.2125 0.1625 70 185 255
0.0625 0.075 0.1125 144 111 255
0.275 0.075 -0.1 144 111 255
-0.025 -0.4 -0.275 22 233 255
-0.2875 -0.075 0.1625 105 150 255
0.0375 -0.4 -0.275 22 233 255
-0.125 -0.4875 0.0875 0 255 255
0.1625 -0.1 -0.3875 99 156 255
0.075 -0.375 0.15 28 227 255
0.325 -0.0625 0.075 108 147 255
0.2625 0.0125 0.15 128 127 255
0.225 0.075 -0.35 144 111 255
0.325 -0.2125 -0.3125 70 185 255
0.275 -0.375 0.1625 28 227 255
0.2 -0.4875 0.1125 0 255 255
0.325 -0.2375 0.025 64 191 255
0.05 -0.15 0.15 86 169 255
0.025 -0.4 -0.1375 22 233 255
-0.0375 -0.325 0.15 40 214 255
0.3 0.075 -0.3875 144 111 255
0.1875 -0.4 -0.0125 22 233 255
0.125 0.0125 0.1625 128 127 255
0.2625 -0.3875 -0.2625 25 230 255
-0.35 -0.2125 0.15 70 185 255
0.3125 -0.0375 -0.3 115 140 255
-0.0625 -0.4625 0.025 6 249 255
0.325 -0.275 -0.3125 54 201 255
-0.175 -0.0125 0.1625 121 134 255
-0.05 -0.025 0.1625 118 137 255
0.3125 0.075 0.0875 144 111 255
-0.2875 -0.2125 0.1375 70 185 255
0.325 -0.425 -0.35 16 239 255
0.1875 -0.1375 -0.3875 89 166 255
-0.0375 -0.4875 -0.0125 0 255 255
0.2625 -0.3875 0.1 25 230 255
0.325 -0.1875 -0.3375 76 179 255
0.0375 -0.225 0.15 67 188 255
-0.3375 -0.2875 0.1625 51 204 255
0.325 -0.45 -0.325 9 246 255
0.1625 -0.2 -0.3875 73 182 255
-0.225 -0.2 0.125 73 182 255
-0.1625 -0.2125 0.1625 70 185 255
-0.175 -0.325 0.15 40 214 255
0.325 -0.1 -0.1625 99 156 255
-0.025 -0.0875 0.15 102 153 255
-0.175 -0.1125 0.1375 96 159 255
0.0625 -0.4 -0.2625 22 233 255
-0.0125 -0.0375 0.15 115 140 255
0.325 -0.3125 -0.2 44 211 255
0.2625 -0.3875 0.125 25 230 255
0.225 -0.4375 0.15 12 243 255
0.325 -0.1125 -0.3625 96 159 255
0.05 -0.2875 0.15 51 204 255
0.0875 -0.1875 -0.3875 76 179 255
0.175 0.075 -0.2125 144 111 255
-0.15 -0.3875 0.1625 25 230 255
-0.3375 -0.1625 0.1625 83 172 255
-0.2625 -0.3375 0.1625 38 217 255
-0.1625 -0.125 0.15 92 163 255
0.0625 -0.475 0.1625 3 252 255
-0.1625 -0.4875 0 0 255 255
0.2375 -0.4375 -0.3875 12 243 255
0.325 -0.375 0.075 28 227 255
0.125 -0.425 0.1625 16 239 255
0.1 -0.1 -0.3875 99 156 255
0.2875 -0.3 0.15 48 207 255
-0.1 -0.4125 -0.275 19 236 255
0.325 -0.0875 0.05 102 153 255
-0.1 -0.425 -0.0875 16 239 255
0.0125 -0.075 0.1625 105 150 255
0.025 -0.1625 0.1625 83 172 255
0.275 -0.0875 0.1625 102 153 255
-0.25 -0.425 0.1625 16 239 255
0.2125 -0.275 -0.3875 54 201 255
0.0875 -0.175 0.1625 80 175 255
0.125 -0.2875 -0.3875 51 204 255
0.325 0 0.1375 124 131 255
0.0875 -0.2875 0.1625 51 204 255
0.025 -0.4 -0.175 22 233 255
0.3125 -0.375 -0.0625 28 227 255
0.325 0.025 -0.1875 131 124 255
0.325 -0.15 -0.1125 86 169 255
0.325 -0.0625 -0.1375 108 147 255
0.2125 -0.3125 0.15 44 211 255
0.275 -0.3375 0.15 38 217 255
0.1125 -0.325 0.1625 40 214 255
0.175 -0.4 0.15 22 233 255
-0.1 -0.4125 -0.2125 19 236 255
0.275 -0.3875 -0.075 25 230 255
0.325 -0.0125 -0.225 121 134 255
0.15 0.0625 0.15 140 114 255
-0.025 -0.4875 -0.15 0 255 255
0.325 0.0375 -0.125 134 121 255
-0.05 -0.475 0.025 3 252 255
0.325 -0.075 -0.1875 105 150 255
0.2625 -0.225 0.1625 67 188 255
0.15 -0.4 -0.225 22 233 255
0.25 0 0.15 124 131 255
0.275 0.075 -0.2625 144 111 255
-0.3125 -0.175 0.125 80 175 255
0.2125 0.075 0.075 144 111 255
-0.15 -0.4875 0.0125 0 255 255
0.325 -0.2125 -0.0375 70 185 255
0.3 -0.45 0.1625 9 246 255
0.125 -0.0375 0.15 115 140 255
-0.1625 -0.4875 0.1125 0 255 255
-0.1 -0.275 0.1625 54 201 255
0.2875 0.0625 0.1625 140 114 255
-0.125 -0.4375 0.15 12 243 255
0.325 -0.4 -0.15 22 233 255
-0.175 -0.025 0.15 118 137 255
-0.1875 -0.2625 0.125 56 198 255
-0.3125 -0.05 0.1375 112 143 255
0.3125 -0.3375 0.15 38 217 255
0.0875 -0.0375 0.15 115 140 255
0.2 -0.3375 0.15 38 217 255
0.175 -0.4 -0.3875 22 233 255
0.05 -0.025 0.1625 118 137 255
-0.025 -0.325 0.1625 40 214 255
-0.25 -0.4625 0.1625 6 249 255
0.325 -0.4 -0.225 22 233 255
-0.15 -0.0375 0.15 115 140 255
0.3 -0.4125 -0.3 19 236 255
0.2875 -0.45 0.0625 9 246 255
0.1 -0.0375 0.15 115 140 255
-0.325 -0.075 0.15 105 150 255
-0.2125 -0.25 0.1625 60 195 255
0.05 -0.125 0.15 92 163 255
0.3 -0.3375 0.1625 38 217 255
0.325 -0.3875 0.0375 25 230 255
0.175 -0.2875 0.15 51 204 255
0.325 -0.1625 -0.1875 83 172 255
-0.15 0 0.1625 124 131 255
0.1875 0.05 0.1625 137 118 255
-0.2625 -0.3 0.1625 48 207 255
0.325 -0.0125 0.0125 121 134 255
0.2625 -0.1375 0.1625 89 166 255
-0.0125 -0.4375 0.0375 12 243 255
0.3125 -0.3375 -0.2125 38 217 255
0.25 -0.4875 -0.3875 0 255 255
0.125 -0.4 -0.2625 22 233 255
0.275 -0.0375 -0.3875 115 140 255
0.175 -0.2 0.1625 73 182 255
0.3125 -0.3375 -0.1 38 217 255
0.325 -0.425 0.1625 16 239 255
0.175 -0.3 0.1625 48 207 255
0.325 0.075 -0.225 144 111 255
0.1125 -0.35 0.15 35 220 255
0.325 -0.3 0.15 48 207 255
0.0125 -0.05 0.15 112 143 255
-0.2875 -0.325 0.1625 40 214 255
-0.0125 -0.0875 0.1625 102 153 255
-0.125 -0.35 0.15 35 220 255
0.1375 -0.2375 0.1625 64 191 255
0.2625 -0.375 0.075 28 227 255
0.325 -0.2875 -0.2125 51 204 255
0.2625 -0.4875 -0.3875 0 255 255
0.125 -0.475 0.1625 3 252 255
-0.2875 -0.225 0.1625 67 188 255
0.175 -0.0625 0.1625 108 147 255
0.1875 -0.4125 0.15 19 236 255
-0.05 -0.175 0.15 80 175 255
0.0875 -0.425 0.15 16 239 255
-0.0625 -0.3 0.15 48 207 255
0.2625 -0.1125 0.1625 96 159 255
0.2375 -0.2625 0.1625 56 198 255
0.325 -0.3625 -0.3125 32 223 255
0.0125 -0.4375 -0.2625 12 243 255
0.3125 0.075 -0.1625 144 111 255
0.1375 -0.05 -0.3875 112 143 255
0.075 -0.3125 0.15 44 211 255
0.1 -0.4875 -0.425 0 255 255
0.325 -0.15 -0.1875 86 169 255
0 -0.4 -0.225 22 233 255
-0.2875 -0.1125 0.125 96 159 255
0.275 -0.275 0.1625 54 201 255
0.125 -0.4 -0.275 22 233 255
0.275 -0.425 0.0625 16 239 255
-0.025 -0.4375 -0.2625 12 243 255
0.1 -0.4125 0.0125 19 236 255
-0.15 -0.3 0.1625 48 207 255
-0.075 -0.4 -0.1125 22 233 255
0.2875 -0.425 -0.3 16 239 255
0.3125 -0.4125 -0.05 19 236 255
0.1375 -0.125 0.1625 92 163 255
0.2375 0.0125 0.1625 128 127 255
0.15 -0.075 -0.3875 105 150 255
0.2375 0.075 -0.1 144 111 255
0.075 -0.4 -0.2 22 233 255
0.2 0.075 -0.175 144 111 255
-0.1375 -0.4875 -0.1375 0 255 255
0.2875 -0.425 0.0625 16 239 255
-0.1 -0.325 0.15 40 214 255
0.275 0.075 -0.3875 144 111 255
0.2125 -0.45 0.1625 9 246 255
-0.2625 -0.0875 0.125 102 153 255
0.2375 -0.425 0.0125 16 239 255
-0.075 -0.3625 0.15 32 223 255
0.275 -0.4 0.1 22 233 255
0.325 -0.2 -0.3875 73 182 255
-0.1625 0.0125 0.15 128 127 255
-0.05 -0.4875 0.0125 0 255 255
0.075 -0.15 -0.3875 86 169 255
0.075 -0.4875 0.1375 0 255 255
0.1 -0.4 -0.05 22 233 255
-0.125 -0.4875 0 0 255 255
0.3 -0.425 0.0625 16 239 255
0.225 -0.4125 0.1125 19 236 255
-0.075 -0.2875 0.1625 51 204 255
0.3125 0.075 -0.075 144 111 255
0.2125 -0.4 -0.15 22 233 255
0.325 -0.2375 -0.35 64 191 255
0.3125 -0.3875 -0.2875 25 230 255
0.025 -0.025 0.1625 118 137 255
0.0625 0.05 0.1625 137 118 255
0.225 -0.2125 0.1625 70 185 255
-0.3 -0.4 0.1625 22 233 255
-0.275 -0.1625 0.15 83 172 255
0.325 -0.3 0.1125 48 207 255
-0.175 -0.175 0.15 80 175 255
0.1125 0.075 -0.0875 144 111 255
0.15 -0.425 0.1625 16 239 255
0.25 0.075 0.0375 144 111 255
0.275 0.075 -0.225 144 111 255
0.15 0.025 0.15 131 124 255
0.3 0.0375 0.15 134 121 255
0.175 -0.275 0.15 54 201 255
0.325 0.025 -0.2125 131 124 255
-0.2375 -0.4375 0.1625 12 243 255
0.1125 -0.4375 -0.325 12 243 255
-0.2 -0.4 0.15 22 233 255
0.325 -0.4125 0.1125 19 236 255
0.1 0 0.15 124 131 255
-0.225 -0.3375 0.1375 38 217 255
-0.075 -0.4875 0.0625 0 255 255
-0.05 -0.4 -0.1875 22 233 255
0.325 -0.1375 -0.3 89 166 255
0.0875 -0.25 0.15 60 195 255
0.0875 0.075 0.15 144 111 255
0.325 -0.2375 0.1125 64 191 255
0.325 -0.025 0.1375 118 137 255
0.325 -0.3 -0.15 48 207 255
0.325 -0.125 -0.1 92 163 255
0.325 0.0375 0.1125 134 121 255
-0.2625 -0.1375 0.125 89 166 255
0.2375 0.05 0.1625 137 118 255
0.2125 0.075 -0.3 144 111 255
0.2375 -0.0125 0.1625 121 134 255
0.025 -0.175 0.15 80 175 255
0.2 0.075 0.025 144 111 255
-0.2 -0.2 0.125 73 182 255
-0.05 -0.4875 0.1 0 255 255
0.1875 -0.4375 -0.3875 12 243 255
-0.225 -0.3625 0.1375 32 223 255
0.0125 -0.425 0.1625 16 239 255
-0.05 -0.475 0.0125 3 252 255
-0.0625 -0.1625 0.1625 83 172 255
0.325 -0.025 0.025 118 137 255
0.2625 -0.4125 0.1 19 236 255
0.225 -0.45 0.1375 9 246 255
0.2 -0.2875 0.15 51 204 255
0.2125 -0.1375 0.1625 89 166 255
0.325 -0.1625 0.0875 83 172 255
0.225 0.075 0.0375 144 111 255
0.325 -0.0875 0.1 102 153 255
-0.3375 -0.4125 0.1625 19 236 255
-0.1875 -0.0375 0.125 115 140 255
0.2875 -0.1 0.1625 99 156 255
0.325 -0.3 -0.225 48 207 255
0.325 -0.325 -0.05 40 214 255
0.325 0.0375 -0.1 134 121 255
-0.05 -0.4 -0.05 22 233 255
-0.2125 -0.325 0.15 40 214 255
0.2875 0.075 -0.1375 144 111 255
-0.2125 -0.1 0.1625 99 156 255
0.2125 -0.4375 0.1375 12 243 255
0.1625 0.0375 0.1625 134 121 255
-0.025 -0.4 -0.0375 22 233 255
-0.1 -0.45 -0.225 9 246 255
0.1625 -0.3125 0.15 44 211 255
0.2625 0.075 -0.3875 144 111 255
0.25 -0.375 0.075 28 227 255
0.225 -0.4625 -0.3875 6 249 255
0.2375 -0.425 0.0625 16 239 255
0.325 -0.275 -0.2875 54 201 255
0.075 0.05 0.15 137 118 255
-0.025 0.025 0.1625 131 124 255
0.325 -0.4125 0.0625 19 236 255
0.3 -0.0375 0.1625 115 140 255
0.325 -0.075 -0.2125 105 150 255
0.05 0.0625 0.15 140 114 255
0.1125 -0.225 -0.3875 67 188 255
0.25 -0.4375 -0.325 12 243 255
0.2625 -0.3875 -0.1 25 230 255
-0.0875 -0.4125 -0.3 19 236 255
0.25 0 0.1625 124 131 255
-0.05 0.0125 0.15 128 127 255
-0.175 -0.3875 0.1625 25 230 255
0.325 -0.275 -0.0625 54 201 255
0.325 -0.075 -0.0375 105 150 255
-0.0375 -0.4875 -0.2125 0 255 255
0.15 -0.4875 -0.4125 0 255 255
-0.0625 -0.225 0.1625 67 188 255
-0.325 -0.125 0.1625 92 163 255
-0.125 -0.4875 -0.075 0 255 255
-0.25 -0.0375 0.125 115 140 255
-0.125 -0.4875 0.025 0 255 255
0.25 0.075 0.1 144 111 255
0.0625 -0.425 -0.3875 16 239 255
0.325 -0.0125 -0.35 121 134 255
-0.1 -0.0875 0.1625 102 153 255
0.175 -0.4 0 22 233 255
0.325 -0.2 -0.3125 73 182 255
0.325 -0.425 0.1375 16 239 255
-0.2125 -0.0625 0.1625 108 147 255
0.025 0.075 0.1625 144 111 255
-0.125 -0.1875 0.1625 76 179 255
0.15 -0.475 0.15 3 252 255
-0.1 0.0125 0.1625 128 127 255
-0.05 -0.4875 0.05 0 255 255
0.125 0.075 0.05 144 111 255
0.325 -0.1375 0.125 89 166 255
-0.1 -0.4875 0.025 0 255 255
-0.0625 -0.4625 -0.3125 6 249 255
0.25 -0.375 0.1375 28 227 255
-0.1625 -0.4875 0.0125 0 255 255
-0.1125 -0.3625 0.15 32 223 255
-0.025 -0.4375 -0.125 12 243 255
0.2125 0.075 -0.2875 144 111 255
0.075 -0.4 -0.2875 22 233 255
0.2625 -0.3875 -0.05 25 230 255
0.0375 -0.325 0.1625 40 214 255
-0.1 -0.0375 0.1625 115 140 255
0.325 -0.15 0.025 86 169 255
-0.1875 -0.2125 0.15 70 185 255
-0.075 -0.4125 -0.2375 19 236 255
0.325 -0.3 -0.025 48 207 255
0.075 -0.4875 -0.3625 0 255 255
0.05 -0.4875 0.15 0 255 255
0.325 0 -0.1625 124 131 255
0.0125 -0.3625 -0.3875 32 223 255
-0.075 -0.1375 0.15 89 166 255
0.1 0.0625 0.1625 140 114 255
-0.05 -0.4375 -0.1 12 243 255
-0.175 -0.4875 -0.025 0 255 255
0.2875 -0.425 0.1625 16 239 255
0.325 -0.05 -0.1625 112 143 255
0.225 0.075 -0.2125 144 111 255
0.05 -0.075 0.15 105 150 255
0.2625 -0.45 0.1625 9 246 255
-0.1625 -0.4625 0.1625 6 249 255
0.325 0.05 -0.2 137 118 255
0.325 -0.075 0.025 105 150 255
-0.15 -0.15 0.15 86 169 255
0.3125 -0.45 -0.325 9 246 255
0.075 -0.3625 0.1625 32 223 255
-0.2375 -0.35 0.125 35 220 255
-0.1 -0.425 -0.025 16 239 255
0.05 -0.3875 0.15 25 230 255
0.325 -0.15 0.075 86 169 255
0.3125 -0.2 -0.3875 73 182 255
-0.275 -0.225 0.125 67 188 255
-0.1 -0.3125 0.1625 44 211 255
0.1125 0.075 0.1375 144 111 255
0.3125 -0.2625 -0.3875 56 198 255
0.1125 0.0375 0.15 134 121 255
-0.1375 -0.4875 0.0875 0 255 255
-0.3375 -0.0625 0.15 108 147 255
-0.1625 -0.4875 0.1375 0 255 255
0.325 -0.225 0.1125 67 188 255
0.025 -0.4875 -0.3625 0 255 255
-0.1125 -0.0625 0.15 108 147 255
0.325 -0.075 0.0625 105 150 255
0.325 -0.25 -0.1375 60 195 255
-0.1 -0.4625 0.025 6 249 255
0.325 -0.225 -0.0375 67 188 255
0.2375 -0.425 -0.3875 16 239 255
0.2875 0.05 0.15 137 118 255
0.3125 -0.35 -0.15 35 220 255
-0.1125 -0.05 0.15 112 143 255
-0.0625 -0.4 -0.075 22 233 255
0.3125 -0.3875 -0.2 25 230 255
-0.075 -0.475 -0.3125 3 252 255
-0.075 -0.4 -0.2 22 233 255
0.325 -0.0625 -0.125 108 147 255
-0.0375 -0.4375 -0.0875 12 243 255
0.1875 -0.4 -0.1 22 233 255
0.1125 -0.4 -0.075 22 233 255
0.2 -0.0125 0.1625 121 134 255
0.0875 -0.425 0.1625 16 239 255
-0.175 -0.0875 0.1375 102 153 255
-0.175 -0.425 0.1625 16 239 255
-0.3 -0.0375 0.1375 115 140 255
0.325 -0.0875 0.1375 102 153 255
0.3 -0.1125 0.15 96 159 255
-0.0875 -0.1 0.1625 99 156 255
0.025 -0.075 0.1625 105 150 255
0.1625 -0.4625 0.15 6 249 255
-0.15 -0.175 0.1625 80 175 255
-0.025 -0.1625 0.15 83 172 255
0.2625 -0.4125 0 19 236 255
0.325 -0.1625 -0.2 83 172 255
-0.0375 -0.3 0.1625 48 207 255
0.325 -0.05 -0.0625 112 143 255
0.275 -0.1125 -0.3875 96 159 255
-0.1875 -0.0875 0.1375 102 153 255
0.225 -0.45 0.0625 9 246 255
0.2875 -0.35 -0.3875 35 220 255
-0.0375 -0.275 0.1625 54 201 255
-0.2 -0.425 0.1625 16 239 255
0.325 -0.375 -0.0125 28 227 255
0.325 -0.05 0.1625 112 143 255
0.3125 -0.425 0.0375 16 239 255
0.325 -0.15 -0.125 86 169 255
0.325 -0.2625 0.125 56 198 255
0.325 -0.0875 -0.2875 102 153 255
-0.0125 -0.4 -0.1875 22 233 255
-0.0125 0.025 0.15 131 124 255
0.325 -0.3125 0.15 44 211 255
-0.1 -0.05 0.1625 112 143 255
0.125 -0.4625 0.15 6 249 255
0.275 -0.3875 0.1375 25 230 255
0.275 -0.3375 0.1 38 217 255
0.0625 -0.125 0.1625 92 163 255
0.325 0.025 -0.35 131 124 255
0.1875 -0.475 0.1625 3 252 255
0.2125 -0.4125 -0.3125 19 236 255
0.25 -0.0375 0.15 115 140 255
-0.2375 -0.3875 0.125 25 230 255
-0.0375 -0.4875 -0.125 0 255 255
0.25 0.075 0.15 144 111 255
-0.325 -0.075 0.1625 105 150 255
0.2625 0.075 -0.05 144 111 255
0.25 -0.1625 0.1625 83 172 255
0.275 -0.325 0.15 40 214 255
-0.0875 -0.45 0.0125 9 246 255
0.3125 -0.3875 0.0375 25 230 255
0.1875 -0.4 -0.175 22 233 255
-0.175 -0.125 0.1625 92 163 255
0.0625 -0.4 -0.175 22 233 255
-0.175 -0.4875 0.1625 0 255 255
-0.2875 -0.2125 0.1625 70 185 255
-0.275 -0.4 0.15 22 233 255
0.0875 0.075 0.1125 144 111 255
-0.1 0.0375 0.15 134 121 255
0.325 -0.175 -0.4 80 175 255
-0.2 -0.4125 0.1625 19 236 255
0.325 0.075 0.1375 144 111 255
0.0625 -0.3375 0.1625 38 217 255
-0.05 -0.4875 -0.225 0 255 255
-0.175 -0.225 0.15 67 188 255
0.3125 0.075 -0.375 144 111 255
0.3125 -0.3875 -0.2625 25 230 255
-0.0625 0.0375 0.15 134 121 255
0.1375 -0.4875 -0.425 0 255 255
0.2375 -0.1 0.1625 99 156 255
-0.075 -0.4 -0.1625 22 233 255
0.325 -0.3375 0.05 38 217 255
0.1 -0.3625 -0.3875 32 223 255
-0.1 -0.45 -0.0125 9 246 255
-0.2625 -0.3125 0.15 44 211 255
0.2375 0.075 -0.2 144 111 255
0.275 -0.3625 0.15 32 223 255
-0.2125 -0.4375 0.1625 12 243 255
0.0125 -0.4875 0.1625 0 255 255
0.325 -0.4 -0.2375 22 233 255
-0.0625 -0.4875 -0.3 0 255 255
0.2125 -0.25 -0.3875 60 195 255
0.0875 -0.475 -0.3875 3 252 255
-0.0875 -0.4875 -0.0375 0 255 255
-0.1 -0.4125 -0.2625 19 236 255
-0.15 -0.4875 -0.05 0 255 255
0.325 -0.2625 -0.35 56 198 255
0.15 -0.3375 0.15 38 217 255
-0.1375 -0.2625 0.1625 56 198 255
0.3125 -0.2875 0.15 51 204 255
0.25 -0.2 0.1625 73 182 255
0.3 0.075 0.125 144 111 255
0.3125 0.075 -0.125 144 111 255
0.225 -0.0125 0.15 121 134 255
0.1375 -0.175 0.1625 80 175 255
0.075 -0.4125 -0.3 19 236 255
0.125 0.075 0.1375 144 111 255
0.325 -0.325 -0.15 40 214 255
0.225 -0.0375 0.1625 115 140 255
-0.225 -0.0125 0.125 121 134 255
-0.0375 -0.4875 0.0625 0 255 255
0.0125 -0.3625 0.1625 32 223 255
0.1 -0.45 0.15 9 246 255
-0.3 -0.075 0.1625 105 150 255
0.325 -0.175 -0.125 80 175 255
0.2875 0.075 0.125 144 111 255
-0.1125 0.025 0.15 131 124 255
0.325 0.05 0.125 137 118 255
-0.05 -0.4375 -0.1375 12 243 255
0.15 -0.425 -0.3875 16 239 255
0.325 -0.175 -0.2625 80 175 255
0.1125 -0.4 -0.1 22 233 255
-0.125 -0.4875 0.1125 0 255 255
-0.2625 -0.15 0.15 86 169 255
0.3 0.075 0.1375 144 111 255
0.0125 -0.125 0.1625 92 163 255
-0.1625 -0.375 0.15 28 227 255
0.225 -0.2875 0.15 51 204 255
0.325 0.0625 -0.2125 140 114 255
0.2875 -0.1125 0.1625 96 159 255
0.15 -0.3625 0.15 32 223 255
-0.0375 -0.4375 0.1625 12 243 255
-0.05 -0.45 0.1625 9 246 255
0.325 0.05 -0.3 137 118 255
0.0125 -0.2625 0.1625 56 198 255
0.325 -0.3625 0.1625 32 223 255
-0.2 -0.3125 0.1625 44 211 255
0.05 -0.05 0.15 112 143 255
-0.15 -0.4875 0.15 0 255 255
-0.1125 -0.1125 0.1625 96 159 255
0.3 -0.275 0.15 54 201 255
-0.2 -0.4875 0.025 0 255 255
-0.2125 -0.1625 0.125 83 172 255
-0.1125 -0.4875 -0.2 0 255 255
0.1875 -0.0125 0.1625 121 134 255
0.175 -0.4 -0.1625 22 233 255
0.325 0.0625 -0.125 140 114 255
0.325 -0.4 -0.1375 22 233 255
0.325 0.025 0.1375 131 124 255
-0.2875 -0.0125 0.1625 121 134 255
0.1 -0.1875 0.1625 76 179 255
-0.25 -0.3 0.1625 48 207 255
0.075 -0.175 0.1625 80 175 255
0.1875 0.025 0.15 131 124 255
0.0375 -0.4 0.1625 22 233 255
-0.025 -0.3125 0.1625 44 211 255
-0.1875 -0.0875 0.15 102 153 255
0.2 -0.2 0.1625 73 182 255
-0.2 -0.3375 0.1375 38 217 255
-0.325 -0.4375 0.1625 12 243 255
-0.075 -0.4125 0.15 19 236 255
0.2375 -0.0625 -0.3875 108 147 255
0.325 -0.3125 0.075 44 211 255
-0.1 -0.45 -0.275 9 246 255
-0.075 -0.05 0.15 112 143 255
-0.2125 -0.1 0.125 99 156 255
-0.225 -0.375 0.15 28 227 255
-0.275 -0.375 0.15 28 227 255
0.2625 -0.45 -0.3875 9 246 255
0.025 -0.4375 -0.325 12 243 255
0.2125 -0.025 0.15 118 137 255
-0.0625 -0.4375 -0.025 12 243 255
0.3 0.075 -0.325 144 111 255
0.3125 -0.3375 -0.0875 38 217 255
0.125 -0.2125 0.15 70 185 255
-0.1 -0.4625 -0.3 6 249 255
0.3 -0.3375 0.15 38 217 255
0.2625 -0.475 0.15 3 252 255
0.1375 -0.4 -0.1625 22 233 255
-0.2125 -0.025 0.15 118 137 255
0.325 -0.25 -0.0625 60 195 255
0.325 -0.05 -0.4 112 143 255
0.325 0.025 0.0375 131 124 255
0.3 -0.425 0.1125 16 239 255
-0.325 -0.1625 0.1625 83 172 255
0.225 -0.3875 -0.0625 25 230 255
-0.1 -0.4875 -0.175 0 255 255
0.325 -0.075 0 105 150 255
0.3 -0.0625 -0.3 108 147 255
0.075 -0.0125 0.15 121 134 255
-0.2375 -0.25 0.1625 60 195 255
0.2625 0.075 -0.25 144 111 255
0.3125 -0.35 0.1125 35 220 255
0.2125 0.075 -0.3375 144 111 255
0.325 0.0375 -0.2375 134 121 255
0.2625 0.025 0.15 131 124 255
0.325 -0.075 -0.0125 105 150 255
0.075 -0.4 -0.1 22 233 255
-0.0875 -0.2875 0.1625 51 204 255
0.2375 -0.2625 -0.3875 56 198 255
0.1625 -0.45 0.15 9 246 255
-0.1625 -0.2125 0.15 70 185 255
0.2875 -0.4875 0.125 0 255 255
0.2 -0.4875 -0.375 0 255 255
0.2375 -0.0625 0.1625 108 147 255
0.325 -0.3875 -0.3375 25 230 255
0.1125 -0.4125 -0.3875 19 236 255
0.3 -0.3875 -0.1125 25 230 255
-0.3125 -0.2125 0.1375 70 185 255
-0.125 -0.125 0.1625 92 163 255
0.2875 -0.375 0.1625 28 227 255
0.275 -0.3875 0.15 25 230 255
-0.2125 -0.3375 0.125 38 217 255
0.2875 -0.0375 -0.0125 115 140 255
-0.1125 -0.0875 0.15 102 153 255
0.325 -0.3375 0.1125 38 217 255
0.325 -0.0625 0.1375 108 147 255
-0.1 -0.4375 -0.15 12 243 255
0.25 0.025 0.1625 131 124 255
0.225 0.075 0.1375 144 111 255
0.325 -0.3625 -0.2125 32 223 255
0.0375 -0.4 -0.225 22 233 255
-0.175 -0.2 0.15 73 182 255
-0.025 -0.2 0.1625 73 182 255
-0.0375 -0.4 -0.0375 22 233 255
-0.1 -0.325 0.1625 40 214 255
-0.0125 0.0375 0.1625 134 121 255
0.2375 0.075 -0.1875 144 111 255
-0.125 -0.4375 0.1625 12 243 255
-0.1875 -0.3375 0.1375 38 217 255
0.1 -0.4875 0.125 0 255 255
-0.15 -0.1875 0.1625 76 179 255
-0.175 -0.15 0.125 86 169 255
0.2875 -0.2375 0.15 64 191 255
0.325 0 -0.2625 124 131 255
-0.15 -0.4875 -0.025 0 255 255
-0.0125 0.0125 0.15 128 127 255
0.325 -0.2875 0.1625 51 204 255
-0.1125 -0.4125 0.15 19 236 255
0.2625 -0.4875 -0.4 0 255 255
0.325 -0.25 0.125 60 195 255
-0.1125 -0.275 0.15 54 201 255
0 -0.175 0.1625 80 175 255
0.325 -0.2 0.0875 73 182 255
0.15 -0.325 0.15 40 214 255
0.2125 -0.3625 -0.3875 32 223 255
0.325 -0.1 -0.3375 99 156 255
0.175 -0.4125 -0.3 19 236 255
0.325 -0.275 -0.375 54 201 255
-0.0875 -0.4375 -0.1125 12 243 255
-0.15 -0.1375 0.1625 89 166 255
0.275 0.075 0.0875 144 111 255
0.0125 -0.2375 0.1625 64 191 255
-0.0125 -0.3625 -0.3875 32 223 255
-0.0625 -0.475 -0.3125 3 252 255
-0.025 -0.4875 -0.3625 0 255 255
0.275 0.075 -0.3375 144 111 255
0.325 0.0625 0.1 140 114 255
0 -0.3625 0.1625 32 223 255
0.325 -0.125 0.125 92 163 255
-0.0875 -0.125 0.15 92 163 255
-0.0375 -0.425 0.1625 16 239 255
0.325 -0.0125 -0.0125 121 134 255
-0.175 -0.3125 0.1625 44 211 255
0.075 -0.425 0.025 16 239 255
0.325 0.075 -0.0375 144 111 255
-0.0625 -0.3625 0.1625 32 223 255
0.2375 -0.1625 -0.3875 83 172 255
0.325 -0.1875 0.15 76 179 255
-0.075 -0.4875 0.0375 0 255 255
-0.1875 -0.1125 0.125 96 159 255
0.3 0.075 0.025 144 111 255
0.3 -0.375 0.1125 28 227 255
0.175 -0.4 -0.15 22 233 255
0.0625 -0.4625 0.15 6 249 255
0.325 -0.1375 -0.1125 89 166 255
0.2125 -0.075 0.1625 105 150 255
0.1 -0.025 0.15 118 137 255
0.325 -0.425 -0.1375 16 239 255
0.175 -0.2 -0.3875 73 182 255
0.1125 -0.2 0.15 73 182 255
-0.0375 -0.375 0.1625 28 227 255
0.275 -0.4875 0.1625 0 255 255
0.2375 -0.4125 0.15 19 236 255
0 -0.2875 0.1625 51 204 255
0.2375 -0.125 0.1625 92 163 255
-0.175 -0.2375 0.1375 64 191 255
-0.0875 -0.4625 -0.3125 6 249 255
0.0875 -0.0125 0.1625 121 134 255
0.325 0.075 -0.4125 144 111 255
-0.1375 -0.4875 0.075 0 255 255
-0.075 -0.4625 0.025 6 249 255
0.0625 -0.1625 0.1625 83 172 255
-0.0375 -0.4125 0.1625 19 236 255
0.325 -0.1125 -0.275 96 159 255
-0.25 -0.075 0.1375 105 150 255
0.325 -0.2125 0.0375 70 185 255
0.325 -0.225 -0.0875 67 188 255
0.325 -0.4375 -0.375 12 243 255
0.15 -0.2 0.1625 73 182 255
0.0375 -0.3875 -0.3875 25 230 255
0.325 -0.175 0.15 80 175 255
0.2875 -0.4125 0.0625 19 236 255
0.2875 -0.2125 0.1625 70 185 255
0.1875 -0.3125 0.1625 44 211 255
0.0625 -0.2375 -0.3875 64 191 255
0.05 -0.425 0.15 16 239 255
0.325 -0.2625 -0.275 56 198 255
-0.2875 -0.0625 0.1625 108 147 255
0.275 0.0625 0.1625 140 114 255
-0.1875 -0.225 0.1625 67 188 255
0.1 0.0125 0.15 128 127 255
-0.3125 -0.1875 0.1625 76 179 255
0.3125 -0.05 0.1625 112 143 255
0.325 -0.3625 -0.025 32 223 255
0.325 0 -0.2375 124 131 255
-0.0375 -0.2375 0.15 64 191 255
-0.0375 -0.4875 -0.3875 0 255 255
0.325 -0.425 -0.3875 16 239 255
0.1 -0.1875 -0.3875 76 179 255
-0.2875 -0.2375 0.15 64 191 255
0.325 -0.125 -0.2375 92 163 255
0.3125 -0.3875 -0.3875 25 230 255
-0.0875 -0.4875 0.025 0 255 255
0.2625 -0.4 0.1 22 233 255
0.275 -0.3875 -0.0375 25 230 255
-0.0875 -0.225 0.15 67 188 255
0.1 -0.4 -0.2625 22 233 255
0.325 -0.375 -0.1625 28 227 255
-0.15 0.025 0.1625 131 124 255
0.325 -0.1375 -0.125 89 166 255
0.3125 -0.35 0.025 35 220 255
0.15 -0.4 -0.1375 22 233 255
0.0875 -0.125 0.15 92 163 255
-0.1 -0.3875 0.1625 25 230 255
0.225 -0.4 -0.2 22 233 255
0.325 -0.1625 0.1625 83 172 255
-0.2 -0.3875 0.1625 25 230 255
0.1625 0.05 0.15 137 118 255
-0.2 -0.225 0.125 67 188 255
0.075 -0.475 -0.3875 3 252 255
-0.025 -0.2125 0.1625 70 185 255
-0.0625 -0.4875 -0.3125 0 255 255
0.1875 -0.4125 -0.3125 19 236 255
-0.35 -0.25 0.1625 60 195 255
0.325 -0.225 0.125 67 188 255
0.1 -0.325 -0.3875 40 214 255
0.0625 -0.2125 0.15 70 185 255
0.1875 -0.4 -0.15 22 233 255
-0.275 -0.175 0.125 80 175 255
0.3125 -0.3625 -0.025 32 223 255
0.225 -0.05 0.15 112 143 255
0.05 -0.0125 0.15 121 134 255
-0.1 -0.45 -0.1625 9 246 255
0.1875 -0.4125 -0.3875 19 236 255
-0.1 -0.4875 -0.125 0 255 255
0.2875 -0.475 -0.3875 3 252 255
0.0625 -0.25 0.15 60 195 255
-0.1 -0.45 -0.3125 9 246 255
0.05 0.0625 0.1625 140 114 255
0.2125 0.05 0.1625 137 118 255
0 -0.125 0.15 92 163 255
0.0625 -0.175 0.1625 80 175 255
0.3125 -0.4125 -0.2375 19 236 255
0.1625 -0.4625 -0.3875 6 249 255
0.325 -0.025 0.0125 118 137 255
0.325 0.075 -0.125 144 111 255
0.3 -0.225 -0.3875 67 188 255
-0.225 -0.3 0.1625 48 207 255
0.15 -0.075 0.1625 105 150 255
-0.3 -0.05 0.125 112 143 255
-0.2375 -0.3 0.125 48 207 255
0.125 -0.4 -0.0375 22 233 255
0.1125 0.075 -0.0125 144 111 255
0.3125 -0.2375 0.15 64 191 255
0.1 -0.3625 0.15 32 223 255
0.05 -0.1125 0.1625 96 159 255
0.2625 -0.4875 -0.3625 0 255 255
0.325 -0.125 0.025 92 163 255
0.3125 -0.425 0.0125 16 239 255
-0.2125 -0.05 0.1375 112 143 255
-0.1 -0.4375 0.025 12 243 255
0.1 -0.225 -0.4 67 188 255
0.1625 0.075 0.125 144 111 255
0.325 0.025 -0.0875 131 124 255
0.075 -0.275 -0.4 54 201 255
-0.3125 -0.0625 0.1625 108 147 255
0.2 -0.25 0.15 60 195 255
-0.0875 -0.3 0.15 48 207 255
0.325 -0.4 -0.2125 22 233 255
0.325 -0.0375 0.1375 115 140 255
0.2 -0.425 0.15 16 239 255
0.325 -0.375 -0.175 28 227 255
-0.2625 -0.05 0.1625 112 143 255
0.2375 -0.4 -0.1625 22 233 255
0.2125 -0.425 -0.3125 16 239 255
-0.2125 -0.4 0.1375 22 233 255
-0.05 -0.4125 0.0125 19 236 255
0.3125 -0.3625 -0.0625 32 223 255
0.1375 0.075 -0.025 144 111 255
-0.1375 -0.075 0.1625 105 150 255
0.3125 -0.3625 -0.0125 32 223 255
0.15 0.075 0.0625 144 111 255
0.1375 -0.4875 -0.3625 0 255 255
-0.0875 -0.4375 -0.2125 12 243 255
0.225 -0.4 -0.1 22 233 255
0.325 -0.45 -0.35 9 246 255
0.15 -0.4375 -0.325 12 243 255
0.275 -0.4 -0.275 22 233 255
0.05 -0.1875 0.1625 76 179 255
-0.3125 -0.025 0.125 118 137 255
0.25 -0.1375 -0.3875 89 166 255
0 -0.4875 0.1 0 255 255
0.325 -0.175 0.075 80 175 255
0.325 -0.075 0.15 105 150 255
0.2625 -0.4 -0.1625 22 233 255
0.15 -0.4 -0.2875 22 233 255
-0.075 -0.4875 -0.0875 0 255 255
-0.1125 -0.075 0.15 105 150 255
0.325 -0.1 -0.3125 99 156 255
0.075 -0.4875 -0.4125 0 255 255
0.325 -0.4125 -0.3625 19 236 255
0.2875 -0.0375 -0.3 115 140 255
0.325 -0.3375 0.1375 38 217 255
0.1 -0.4875 0.1375 0 255 255
0.2375 0.075 -0.0125 144 111 255
0.0125 -0.1125 0.1625 96 159 255
0.275 -0.4125 0.0875 19 236 255
-0.025 -0.4375 -0.0625 12 243 255
0.2625 -0.4 0.1375 22 233 255
0.2375 0.075 -0.1625 144 111 255
0.175 -0.3875 -0.3875 25 230 255
-0.025 -0.1875 0.1625 76 179 255
0.1625 0.025 0.15 131 124 255
-0.25 -0.0125 0.1375 121 134 255
-0.0625 -0.4375 -0.0125 12 243 255
-0.1 -0.15 0.1625 86 169 255
0.1 -0.35 0.15 35 220 255
-0.1875 0 0.15 124 131 255
-0.0625 -0.25 0.1625 60 195 255
0.1875 -0.4375 -0.325 12 243 255
0 -0.2 0.1625 73 182 255
-0.0625 -0.4 -0.175 22 233 255
-0.1 -0.4875 -0.0375 0 255 255
0.0125 -0.4 -0.3875 22 233 255
0.325 -0.25 -0.2 60 195 255
0.125 -0.175 -0.3875 80 175 255
0.2875 -0.4375 -0.325 12 243 255
-0.0125 -0.4375 -0.0125 12 243 255
0.325 -0.0875 -0.3625 102 153 255
0.325 0.0625 -0.25 140 114 255
-0.05 -0.225 0.1625 67 188 255
0.325 -0.0875 0.1625 102 153 255
-0.1875 -0.375 0.125 28 227 255
0.2625 0.075 -0.1875 144 111 255
0.1625 0.075 -0.175 144 111 255
0.0875 -0.25 0.1625 60 195 255
0.1375 -0.4875 -0.3875 0 255 255
-0.225 -0.4375 0.1625 12 243 255
0.1375 -0.4125 -0.3125 19 236 255
-0.175 -0.325 0.1375 40 214 255
0.1875 -0.4 -0.1625 22 233 255
0.25 -0.125 0.1625 92 163 255
-0.175 -0.0125 0.125 121 134 255
0.325 -0.15 -0.25 86 169 255
0.325 -0.3375 -0.15 38 217 255
0.3125 -0.4125 -0.1 19 236 255
0.025 -0.275 0.1625 54 201 255
0.325 -0.025 0.0875 118 137 255
-0.1875 -0.4875 0.05 0 255 255
-0.1875 -0.4 0.1375 22 233 255
-0.3125 -0.125 0.15 92 163 255
0.1875 -0.05 -0.3875 112 143 255
0.2125 -0.3625 0.1625 32 223 255
-0.1625 -0.4875 0.075 0 255 255
0.1125 -0.1375 -0.3875 89 166 255
0.2875 -0.0875 -0.3875 102 153 255
-0.0125 -0.125 0.15 92 163 255
0.325 0 -0.3 124 131 255
-0.0625 -0.3875 0.1625 25 230 255
0.1625 -0.4375 0.1625 12 243 255
0.2375 -0.3625 0.15 32 223 255
-0.275 -0.2 0.125 73 182 255
-0.175 0 0.125 124 131 255
-0.3 -0.0125 0.125 121 134 255
-0.025 -0.475 0.1625 3 252 255
-0.1 -0.4875 -0.275 0 255 255
0.175 -0.4875 0.1 0 255 255
-0.2375 -0.25 0.15 60 195 255
0.1875 -0.4 -0.2125 22 233 255
0.3 0.075 0.0875 144 111 255
0.325 -0.1875 -0.1 76 179 255
-0.175 -0.025 0.1375 118 137 255
0.325 -0.2125 0.0875 70 185 255
0.1125 -0.4875 0.1625 0 255 255
0.075 -0.45 0.15 9 246 255
0.15 -0.475 -0.3875 3 252 255
0.325 -0.325 -0.1375 40 214 255
0.2 -0.4625 0.1625 6 249 255
0.2875 -0.35 0.1625 35 220 255
-0.2125 -0.0375 0.1375 115 140 255
0.2125 0.0625 0.15 140 114 255
0.325 0.0125 -0.275 128 127 255
0.1625 -0.3 0.1625 48 207 255
0.2125 -0.0375 -0.4 115 140 255
-0.3 -0.2125 0.125 70 185 255
0.2375 0.075 -0.0875 144 111 255
0.0125 -0.4 -0.225 22 233 255
-0.0625 -0.4875 -0.375 0 255 255
-0.0125 -0.45 -0.3125 9 246 255
-0.0625 -0.0875 0.1625 102 153 255
-0.0125 -0.4375 -0.275 12 243 255
-0.325 -0.2625 0.1625 56 198 255
0.325 -0.275 -0.3375 54 201 255
0.2875 -0.4 0.1375 22 233 255
0.175 -0.4875 -0.4 0 255 255
0.15 -0.4 -0.075 22 233 255
0.0125 -0.075 0.15 105 150 255
0.275 -0.4875 0.1125 0 255 255
0.2875 0.075 -0.075 144 111 255
0.2375 0.075 -0.15 144 111 255
-0.0875 -0.0125 0.1625 121 134 255
0.1375 -0.0625 0.1625 108 147 255
-0.125 -0.4 0.1625 22 233 255
-0.1 -0.4875 -0.1125 0 255 255
0.25 0.075 -0.1 144 111 255
0.0125 -0.4375 0.1625 12 243 255
0.2625 -0.4125 -0.3 19 236 255
-0.1375 -0.1875 0.15 76 179 255
0.325 -0.35 -0.1 35 220 255
-0.2 -0.2875 0.125 51 204 255
0.15 -0.125 0.15 92 163 255
-0.0625 -0.4875 -0.125 0 255 255
0.0875 -0.275 0.1625 54 201 255
-0.15 -0.4375 0.1625 12 243 255
0.125 -0.3875 0.1625 25 230 255
0.2625 -0.425 -0.3875 16 239 255
0.2 0.075 0 144 111 255
-0.2375 -0.225 0.15 67 188 255
0.2125 -0.2 -0.3875 73 182 255
-0.0125 -0.4375 -0.1625 12 243 255
0.325 -0.05 -0.375 112 143 255
-0.1 -0.4125 -0.225 19 236 255
-0.05 -0.0125 0.1625 121 134 255
0.15 0.0625 0.1625 140 114 255
-0.05 -0.1375 0.1625 89 166 255
0.325 -0.1 -0.0875 99 156 255
0.325 -0.3125 -0.3875 44 211 255
0.1 -0.0125 0.1625 121 134 255
-0.2375 -0.2375 0.125 64 191 255
0.325 -0.4 -0.1875 22 233 255
-0.0875 -0.4375 -0.175 12 243 255
-0.0125 -0.4375 -0.325 12 243 255
-0.325 -0.0625 0.15 108 147 255
0.325 -0.175 -0.0875 80 175 255
0.1625 -0.025 0.15 118 137 255
0.1125 -0.425 0.15 16 239 255
0.325 -0.025 -0.125 118 137 255
-0.1875 -0.4125 0.1625 19 236 255
0.3 -0.0625 -0.2875 108 147 255
0.2625 -0.3125 0.1625 44 211 255
-0.125 -0.25 0.15 60 195 255
0.1625 -0.15 0.1625 86 169 255
0.05 -0.0125 0.1625 121 134 255
-0.0875 -0.0875 0.1625 102 153 255
0.025 0.025 0.15 131 124 255
0.3 -0.4 -0.275 22 233 255
0.325 -0.025 -0.2625 118 137 255
0.325 -0.0125 -0.15 121 134 255
0.2375 -0.2125 0.15 70 185 255
-0.125 -0.025 0.15 118 137 255
-0.0875 -0.4625 0.15 6 249 255
0.2 -0.425 0.1625 16 239 255
-0.1375 -0.25 0.1625 60 195 255
-0.0375 -0.4625 -0.3 6 249 255
0.0875 -0.4 -0.1125 22 233 255
0.2625 -0.375 0.1125 28 227 255
0.0875 0.0125 0.1625 128 127 255
0.075 0.075 0.15 144 111 255
-0.2875 -0.0875 0.125 102 153 255
0.325 -0.25 -0.2875 60 195 255
0.325 -0.25 -0.325 60 195 255
0.25 -0.45 0.0625 9 246 255
0.325 -0.1375 -0.3875 89 166 255
-0.25 -0.275 0.15 54 201 255
0.275 -0.175 0.1625 80 175 255
0 -0.0375 0.15 115 140 255
-0.1 -0.1375 0.15 89 166 255
0.3125 -0.4 -0.1375 22 233 255
0.3 -0.3875 -0.05 25 230 255
0.325 -0.2625 0.05 56 198 255
0.325 0.025 -0.3375 131 124 255
-0.075 -0.4875 0.075 0 255 255
0.3 -0.4375 0.0625 12 243 255
0.2375 -0.35 0.15 35 220 255
0.325 -0.0375 -0.05 115 140 255
0.05 -0.275 0.15 54 201 255
-0.025 -0.075 0.15 105 150 255
0.175 -0.375 0.15 28 227 255
-0.175 -0.35 0.15 35 220 255
-0.15 -0.3125 0.1625 44 211 255
0.05 -0.4 -0.075 22 233 255
-0.225 -0.325 0.1375 40 214 255
-0.1375 0.025 0.15 131 124 255
0.125 -0.4 -0.175 22 233 255
0.3125 0.075 0.0625 144 111 255
-0.1 -0.45 -0.0625 9 246 255
0.05 0.05 0.1625 137 118 255
-0.0875 -0.1375 0.1625 89 166 255
0.05 0.075 0.1625 144 111 255
0.3125 -0.425 0.1625 16 239 255
0.1 -0.125 0.15 92 163 255
0.325 -0.125 -0.2625 92 163 255
0.325 -0.2875 -0.0375 51 204 255
-0.1 -0.4625 0.0375 6 249 255
-0.0625 -0.4375 -0.0375 12 243 255
0.1875 -0.35 0.15 35 220 255
0.3125 -0.35 -0.325 35 220 255
0.1625 0.075 0.1 144 111 255
0.175 0.0625 0.15 140 114 255
-0.3625 -0.3875 0.15 25 230 255
0.325 -0.4125 -0.3 19 236 255
0.075 -0.05 0.15 112 143 255
0.1625 -0.4 -0.2875 22 233 255
0.1375 -0.125 -0.4 92 163 255
0.325 -0.35 -0.125 35 220 255
-0.05 -0.1 0.15 99 156 255
0.325 -0.225 0.1 67 188 255
0.325 -0.3 -0.2 48 207 255
0.1875 -0.4 -0.1125 22 233 255
0.25 -0.475 0.1375 3 252 255
0.3125 -0.1625 0.1625 83 172 255
-0.1 -0.3875 0.15 25 230 255
0.2625 -0.3125 0.15 44 211 255
-0.075 0 0.1625 124 131 255
0.1 -0.4875 0.1125 0 255 255
0.0875 0.05 0.15 137 118 255
0.325 -0.15 -0.1375 86 169 255
-0.325 -0.35 0.1625 35 220 255
0.0375 0.0125 0.1625 128 127 255
0.1125 -0.2125 0.1625 70 185 255
-0.225 -0.35 0.1625 35 220 255
-0.05 -0.275 0.15 54 201 255
0.3125 -0.225 0.1625 67 188 255
0.325 -0.0375 -0.025 115 140 255
0.325 0 0.125 124 131 255
0.325 -0.2875 -0.075 51 204 255
0.325 -0.4 -0.2 22 233 255
0.0375 -0.4375 -0.225 12 243 255
-0.0375 -0.4875 0.1625 0 255 255
-0.1 -0.4375 0.0375 12 243 255
0.275 -0.0875 -0.3875 102 153 255
0.325 0.05 -0.425 137 118 255
-0.2 -0.425 0.15 16 239 255
0.1125 -0.2 -0.3875 73 182 255
-0.325 -0.2 0.1375 73 182 255
0.3 0.075 -0.15 144 111 255
0.325 -0.275 -0.3 54 201 255
0.1625 -0.1375 0.15 89 166 255
0.275 0.075 0.1125 144 111 255
-0.1 -0.4125 0.1625 19 236 255
-0.2875 -0.1875 0.1625 76 179 255
-0.2375 -0.0875 0.1625 102 153 255
-0.1625 -0.2 0.1625 73 182 255
0.275 -0.0125 0.1625 121 134 255
0.0125 -0.4875 -0.3875 0 255 255
0.3 -0.35 0.125 35 220 255
-0.1375 -0.4875 0.1375 0 255 255
0.05 -0.4375 0.15 12 243 255
0.175 0.075 0.0875 144 111 255
0.1875 0.075 -0.275 144 111 255
0.3 -0.0875 0.1625 102 153 255
-0.075 -0.4375 0.15 12 243 255
-0.075 -0.425 -0.325 16 239 255
-0.0625 -0.4 0 22 233 255
-0.15 0.025 0.15 131 124 255
0.3 -0.45 0.075 9 246 255
-0.15 -0.4 0.15 22 233 255
-0.075 -0.4375 0.0375 12 243 255
0.3125 -0.4 0.025 22 233 255
0.325 -0.0875 -0.2125 102 153 255
0.2875 0.0625 0.15 140 114 255
0.0375 -0.4 -0.2 22 233 255
0.2 -0.475 0.1625 3 252 255
0.1125 -0.0625 0.1625 108 147 255
-0.325 -0.025 0.125 118 137 255
-0.0375 -0.175 0.1625 80 175 255
0.325 -0.1375 -0.2125 89 166 255
0.0875 -0.35 0.15 35 220 255
-0.3 -0.45 0.15 9 246 255
0.2125 0.075 -0.3125 144 111 255
0.2875 -0.25 0.1625 60 195 255
0.325 -0.0125 -0.2125 121 134 255
0.0625 -0.4625 -0.4 6 249 255
-0.1 -0.4625 0.0125 6 249 255
-0.2 0.0125 0.15 128 127 255
0.175 -0.1375 -0.3875 89 166 255
-0.1625 -0.225 0.125 67 188 255
-0.2875 -0.1625 0.15 83 172 255
0.175 -0.4875 0.125 0 255 255
0.2625 -0.375 0.15 28 227 255
-0.0375 -0.4375 0 12 243 255
-0.1375 -0.4875 0.0625 0 255 255
0.3125 -0.425 -0.275 16 239 255
-0.1625 -0.0375 0.1625 115 140 255
0.0875 0.0375 0.15 134 121 255
0.1625 0.075 0.1375 144 111 255
0.2375 -0.025 0.15 118 137 255
0.05 -0.4 -0.05 22 233 255
0.075 -0.35 0.1625 35 220 255
-0.1875 -0.1 0.1375 99 156 255
0.0875 -0.3875 0.1625 25 230 255
0.275 0.075 -0.15 144 111 255
0.225 -0.0125 0.1625 121 134 255
-0.05 -0.0875 0.1625 102 153 255
0.05 -0.225 0.15 67 188 255
-0.1 -0.425 -0.2 16 239 255
-0.15 0.0125 0.1625 128 127 255
-0.2125 -0.3375 0.15 38 217 255
0.05 -0.325 0.15 40 214 255
0 0.0625 0.1625 140 114 255
0.325 -0.25 -0.3375 60 195 255
-0.075 -0.2375 0.1625 64 191 255
-0.1 -0.425 0.025 16 239 255
-0.0125 -0.3625 0.15 32 223 255
0.1375 0.075 -0.125 144 111 255
0.325 -0.325 -0.125 40 214 255
-0.275 -0.425 0.15 16 239 255
0.275 0.075 0.025 144 111 255
-0.025 -0.25 0.1625 60 195 255
-0.15 -0.25 0.15 60 195 255
0.325 -0.125 -0.3375 92 163 255
0.3 -0.4625 0.1375 6 249 255
0.325 -0.2 -0.25 73 182 255
0.125 -0.025 0.15 118 137 255
0.325 -0.325 -0.3625 40 214 255
0.1 0.075 -0.0375 144 111 255
0.2125 -0.1875 0.1625 76 179 255
-0.1875 -0.375 0.15 28 227 255
0.3125 -0.3875 -0.1375 25 230 255
0.275 -0.4 -0.3875 22 233 255
0.1125 -0.15 0.1625 86 169 255
0.0875 0.05 0.1625 137 118 255
0.2375 -0.3625 -0.3875 32 223 255
0.325 -0.075 -0.3375 105 150 255
0.0125 -0.3375 -0.3875 38 217 255
0.325 -0.05 0.125 112 143 255
0.275 0 0.1625 124 131 255
0.25 -0.3875 -0.075 25 230 255
0.325 -0.3 -0.1 48 207 255
0.325 -0.05 -0.35 112 143 255
-0.325 -0.425 0.1625 16 239 255
-0.0875 -0.4875 -0.1375 0 255 255
0.0375 -0.0125 0.1625 121 134 255
0.1625 0.075 0.1125 144 111 255
0.1125 -0.35 -0.3875 35 220 255
0.025 0 0.1625 124 131 255
0.2 -0.3625 -0.3875 32 223 255
0.325 -0.35 0.125 35 220 255
-0.0125 -0.2 0.15 73 182 255
0.125 -0.4 -0.25 22 233 255
-0.3125 -0.225 0.125 67 188 255
0.325 -0.425 0.025 16 239 255
-0.075 -0.2 0.1625 73 182 255
0.3125 -0.4125 -0.3875 19 236 255
-0.1125 -0.2875 0.1625 51 204 255
0.2 -0.4875 -0.3875 0 255 255
-0.1625 -0.4875 0.025 0 255 255
-0.0375 -0.4875 -0.3375 0 255 255
-0.05 -0.4375 -0.025 12 243 255
-0.0375 -0.4875 -0.35 0 255 255
-0.0625 -0.4 -0.275 22 233 255
0.25 0.075 -0.225 144 111 255
-0.125 -0.175 0.15 80 175 255
0.075 -0.1625 -0.3875 83 172 255
-0.0625 -0.45 0.15 9 246 255
-0.0875 -0.175 0.15 80 175 255
0.3125 -0.35 -0.1125 35 220 255
-0.025 -0.4875 -0.2375 0 255 255
0.325 -0.3625 -0.1375 32 223 255
-0.075 -0.4375 -0.1375 12 243 255
0.1 -0.4 -0.3875 22 233 255
0.325 -0.4125 0.025 19 236 255
-0.05 -0.425 0.1625 16 239 255
0.325 0 -0.4125 124 131 255
0.2875 -0.4375 0.1625 12 243 255
0.325 -0.3875 0.0125 25 230 255
0.1875 -0.2875 0.15 51 204 255
-0.0875 -0.4875 0.15 0 255 255
0.2125 -0.425 -0.3875 16 239 255
-0.0875 -0.2875 0.15 51 204 255
-0.0875 -0.15 0.15 86 169 255
0.1 -0.1375 0.15 89 166 255
-0.05 -0.4375 -0.05 12 243 255
-0.125 -0.4875 -0.1875 0 255 255
0.2625 0.075 -0.0125 144 111 255
-0.0125 -0.4875 0.1125 0 255 255
0.125 -0.0625 0.15 108 147 255
0.075 -0.4 0.15 22 233 255
0.325 -0.4125 -0.3125 19 236 255
-0.125 -0.3625 0.15 32 223 255
-0.1125 -0.4875 0.1375 0 255 255
0.1875 -0.4 -0.05 22 233 255
-0.2375 -0.35 0.1625 35 220 255
0.3125 -0.3625 0.0375 32 223 255
0.0125 -0.325 -0.3875 40 214 255
-0.1 -0.45 0.0125 9 246 255
0.2 0.075 -0.025 144 111 255
0.325 -0.2125 -0.25 70 185 255
0.325 -0.25 0.1625 60 195 255
0.125 -0.225 0.1625 67 188 255
-0.2375 -0.025 0.1625 118 137 255
0.1875 -0.3375 0.15 38 217 255
0.0375 -0.025 0.15 118 137 255
-0.225 -0.0875 0.1625 102 153 255
0.125 -0.1125 0.15 96 159 255
0.3125 -0.35 0.15 35 220 255
-0.2125 -0.1375 0.125 89 166 255
0.325 -0.3625 -0.125 32 223 255
-0.1625 -0.2875 0.15 51 204 255
0.275 0.075 0.0375 144 111 255
-0.0375 -0.4 0.1625 22 233 255
-0.1125 -0.025 0.1625 118 137 255
-0.1 -0.225 0.15 67 188 255
0.2 -0.3375 -0.3875 38 217 255
-0.0875 -0.3625 0.15 32 223 255
0.15 -0.2625 -0.3875 56 198 255
0.1 -0.0125 0.15 121 134 255
-0.2875 -0.3375 0.15 38 217 255
-0.0125 -0.4875 -0.4 0 255 255
0.325 -0.375 -0.1 28 227 255
0.275 -0.4375 -0.3125 12 243 255
-0.0625 -0.4875 0.0375 0 255 255
0.275 -0.3875 -0.2375 25 230 255
0.1625 -0.2125 -0.3875 70 185 255
-0.225 -0.3875 0.125 25 230 255
