ply
format ascii 1.0
comment Created by Open3D
element vertex 1505
property double x
property double y
property double z
property uchar red
property uchar green
property uchar blue
end_header
-0.35 -0.4875 0 3 252 255
-0.075 -0.3375 -0.1 40 214 255
-0.1625 -0.2875 -0.125 54 201 255
-0.325 -0.45 0.0375 12 243 255
-0.275 -0.225 0.05 70 185 255
-0.175 -0.4125 -0.275 22 233 255
-0.075 -0.2 -0.3625 76 179 255
-0.1 -0.425 -0.4125 19 236 255
-0.075 -0.1875 -0.275 80 175 255
-0.1625 -0.1625 -0.125 86 169 255
-0.2875 -0.35 0.05 38 217 255
-0.2 -0.3 0.0125 51 204 255
-0.3125 -0.2625 0.05 60 195 255
-0.2 -0.3 0.05 51 204 255
-0.225 -0.3375 0.05 40 214 255
-0.15 -0.2625 -0.125 60 195 255
-0.2 -0.45 -0.025 12 243 255
-0.375 -0.4875 0.05 3 252 255
-0.1 -0.1625 -0.125 86 169 255
-0.075 -0.1875 -0.4125 80 175 255
-0.1375 -0.3375 -0.3875 40 214 255
-0.325 -0.4375 0.05 16 239 255
-0.075 -0.45 -0.3875 12 243 255
-0.075 -0.2625 -0.475 60 195 255
-0.25 -0.475 -0.325 6 249 255
-0.3375 -0.4875 -0.0375 3 252 255
-0.075 -0.2375 -0.375 67 188 255
-0.2 -0.225 0.0125 70 185 255
-0.325 -0.4875 0.0375 3 252 255
-0.2 -0.3 0.025 51 204 255
-0.175 -0.4125 -0.325 22 233 255
-0.075 -0.2 -0.3125 76 179 255
-0.225 -0.45 -0.35 12 243 255
-0.2625 -0.4 0.05 25 230 255
-0.2 -0.45 -0.025 12 243 255
-0.3625 -0.4875 -0.0625 3 252 255
-0.2 -0.175 0.05 83 172 255
-0.075 -0.2875 -0.1125 54 201 255
-0.2 -0.175 -0.0375 83 172 255
-0.075 -0.325 -0.325 44 211 255
-0.075 -0.2875 -0.125 54 201 255
-0.075 -0.325 -0.325 44 211 255
-0.075 -0.3 -0.275 51 204 255
-0.325 -0.15 0.05 89 166 255
-0.075 -0.1625 -0.05 86 169 255
-0.3375 -0.4875 0.025 3 252 255
-0.325 -0.425 0.05 19 236 255
-0.2 -0.35 0.0375 38 217 255
-0.2875 -0.4875 -0.275 3 252 255
-0.325 -0.4875 -0.275 3 252 255
-0.2 -0.1625 0.0125 86 169 255
-0.075 -0.275 -0.2125 56 198 255
-0.225 -0.275 0.05 56 198 255
-0.1625 -0.1625 -0.0875 86 169 255
-0.1375 -0.3375 -0.175 40 214 255
-0.175 -0.3625 -0.4125 35 220 255
-0.075 -0.3125 -0.15 48 207 255
-0.075 -0.3 -0.325 51 204 255
-0.1 -0.3375 -0.2125 40 214 255
-0.125 -0.3125 -0.1625 48 207 255
-0.2625 -0.4875 -0.1 3 252 255
-0.075 -0.275 -0.2125 56 198 255
-0.075 -0.2 -0.25 76 179 255
-0.075 -0.2125 -0.15 73 182 255
-0.075 -0.35 -0.25 38 217 255
-0.075 -0.2 -0.05 76 179 255
-0.075 -0.225 -0.475 70 185 255
-0.2625 -0.4875 -0.275 3 252 255
-0.0875 -0.1625 -0.125 86 169 255
-0.3375 -0.4875 0 3 252 255
-0.075 -0.1875 -0.1625 80 175 255
-0.2625 -0.4875 -0.2125 3 252 255
-0.125 -0.3375 -0.2875 40 214 255
-0.3 -0.4 0.05 25 230 255
-0.075 -0.325 -0.25 44 211 255
-0.075 -0.275 -0.3625 56 198 255
-0.15 -0.3375 -0.4125 40 214 255
-0.075 -0.4 -0.4 25 230 255
-0.075 -0.275 -0.225 56 198 255
-0.075 -0.275 -0.1625 56 198 255
-0.3125 -0.2125 0.05 73 182 255
-0.15 -0.3375 -0.2875 40 214 255
-0.1125 -0.3 -0.175 51 204 255
-0.175 -0.425 -0.275 19 236 255
-0.3 -0.425 0.05 19 236 255
-0.15 -0.3875 -0.4125 28 227 255
-0.2 -0.2375 -0.025 67 188 255
-0.3625 -0.4875 -0.025 3 252 255
-0.075 -0.2 -0.1375 76 179 255
-0.25 -0.3125 0.05 48 207 255
-0.1875 -0.3375 -0.15 40 214 255
-0.2125 -0.25 0.05 64 191 255
-0.1625 -0.3875 -0.4125 28 227 255
-0.175 -0.3375 -0.2125 40 214 255
-0.075 -0.1875 -0.1125 80 175 255
-0.075 -0.2 -0.275 76 179 255
-0.1125 -0.325 -0.125 44 211 255
-0.25 -0.4375 -0.3125 16 239 255
-0.2 -0.4875 -0.2875 3 252 255
-0.2625 -0.4875 0.025 3 252 255
-0.2875 -0.4875 -0.1 3 252 255
-0.275 -0.225 0.05 70 185 255
-0.1625 -0.1625 -0.1125 86 169 255
-0.0875 -0.3375 -0.325 40 214 255
-0.1625 -0.3375 -0.175 40 214 255
-0.1125 -0.15 -0.0375 89 166 255
-0.2125 -0.375 -0.3125 32 223 255
-0.3125 -0.2125 0.05 73 182 255
-0.25 -0.275 0.05 56 198 255
-0.075 -0.3 -0.4125 51 204 255
-0.075 -0.1875 -0.2 80 175 255
-0.1875 -0.4125 -0.1375 22 233 255
-0.1875 -0.3375 -0.175 40 214 255
-0.1375 -0.3375 -0.225 40 214 255
-0.075 -0.1625 -0.1875 86 169 255
-0.1625 -0.1625 -0.0875 86 169 255
-0.1625 -0.1625 -0.0625 86 169 255
-0.1625 -0.1625 -0.075 86 169 255
-0.0875 -0.175 -0.2375 83 172 255
-0.0875 -0.2 -0.35 76 179 255
-0.075 -0.325 -0.225 44 211 255
-0.075 -0.3125 -0.1875 48 207 255
-0.2375 -0.325 0.05 44 211 255
-0.1875 -0.3375 -0.3375 40 214 255
-0.3375 -0.275 0.05 56 198 255
-0.275 -0.4875 -0.25 3 252 255
-0.0875 -0.3125 -0.3375 48 207 255
-0.175 -0.45 -0.3 12 243 255
-0.1125 -0.3375 -0.1375 40 214 255
-0.2625 -0.4875 -0.15 3 252 255
-0.1125 -0.15 -0.05 89 166 255
-0.075 -0.2875 -0.3625 54 201 255
-0.125 -0.3375 -0.3625 40 214 255
-0.075 -0.35 -0.25 38 217 255
-0.275 -0.4875 -0.0625 3 252 255
-0.075 -0.2875 -0.4375 54 201 255
-0.075 -0.1875 -0.2875 80 175 255
-0.075 -0.325 -0.5 44 211 255
-0.275 -0.45 0.05 12 243 255
-0.0875 -0.2375 -0.0875 67 188 255
-0.1875 -0.4125 -0.4125 22 233 255
-0.1 -0.3375 -0.15 40 214 255
-0.225 -0.4875 0.025 3 252 255
-0.325 -0.4875 -0.0625 3 252 255
-0.25 -0.4125 0.05 22 233 255
-0.0875 -0.3375 -0.3 40 214 255
-0.075 -0.1875 -0.15 80 175 255
-0.2 -0.375 -0.0125 32 223 255
-0.075 -0.3 -0.5 51 204 255
-0.2125 -0.45 0.05 12 243 255
-0.2375 -0.35 0.05 38 217 255
-0.3 -0.4875 -0.0875 3 252 255
-0.3875 -0.475 0.0375 6 249 255
-0.2 -0.3625 0.05 35 220 255
-0.2875 -0.3125 0.05 48 207 255
-0.2375 -0.275 0.05 56 198 255
-0.275 -0.4875 -0.2625 3 252 255
-0.275 -0.4875 -0.0875 3 252 255
-0.3125 -0.425 0.05 19 236 255
-0.075 -0.2625 -0.35 60 195 255
-0.175 -0.4125 -0.3125 22 233 255
-0.325 -0.25 0.05 64 191 255
-0.1875 -0.4 0.0375 25 230 255
-0.0875 -0.325 -0.2875 44 211 255
-0.075 -0.175 -0.1125 83 172 255
-0.075 -0.2875 -0.4625 54 201 255
-0.1 -0.2625 -0.175 60 195 255
-0.325 -0.4875 -0.0625 3 252 255
-0.075 -0.225 -0.4625 70 185 255
-0.125 -0.2625 -0.1375 60 195 255
-0.2875 -0.4875 -0.05 3 252 255
-0.2625 -0.3 0.05 51 204 255
-0.1375 -0.375 -0.4125 32 223 255
-0.075 -0.225 -0.15 70 185 255
-0.225 -0.25 0.05 64 191 255
-0.1875 -0.375 -0.15 32 223 255
-0.2 -0.4375 -0.0125 16 239 255
-0.2 -0.1875 0.05 80 175 255
-0.2 -0.2375 0.025 67 188 255
-0.175 -0.4375 -0.35 16 239 255
-0.075 -0.1875 -0.1625 80 175 255
-0.075 -0.35 -0.3875 38 217 255
-0.075 -0.2 -0.1125 76 179 255
-0.075 -0.1625 -0.0875 86 169 255
-0.075 -0.25 -0.15 64 191 255
-0.075 -0.15 -0.075 89 166 255
-0.075 -0.275 -0.1625 56 198 255
-0.325 -0.4875 -0.2875 3 252 255
-0.3625 -0.4875 -0.075 3 252 255
-0.075 -0.1875 -0.1 80 175 255
-0.2625 -0.4625 0.05 9 246 255
-0.075 -0.2125 -0.35 73 182 255
-0.3 -0.1625 0.05 86 169 255
-0.075 -0.325 -0.5 44 211 255
-0.2 -0.1625 0.0375 86 169 255
-0.075 -0.4625 -0.375 9 246 255
-0.1875 -0.2625 0.0375 60 195 255
-0.075 -0.225 -0.325 70 185 255
-0.1875 -0.325 -0.125 44 211 255
-0.25 -0.4875 -0.175 3 252 255
-0.125 -0.15 -0.0375 89 166 255
-0.2875 -0.4875 0.0375 3 252 255
-0.075 -0.25 -0.0625 64 191 255
-0.175 -0.3375 -0.375 40 214 255
-0.125 -0.2875 -0.15 54 201 255
-0.1875 -0.15 -0.0375 89 166 255
-0.0875 -0.1625 -0.05 86 169 255
-0.25 -0.3875 0.05 28 227 255
-0.175 -0.4625 -0.2875 9 246 255
-0.075 -0.3375 -0.2 40 214 255
-0.3 -0.175 0.05 83 172 255
-0.375 -0.4875 -0.0375 3 252 255
-0.2375 -0.2 0.05 76 179 255
-0.2 -0.375 -0.3125 32 223 255
-0.075 -0.1875 -0.125 80 175 255
-0.075 -0.225 -0.1 70 185 255
-0.075 -0.225 -0.1875 70 185 255
-0.075 -0.2 -0.4125 76 179 255
-0.375 -0.4875 -0.0125 3 252 255
-0.0875 -0.25 -0.1125 64 191 255
-0.2875 -0.4875 -0.075 3 252 255
-0.075 -0.175 -0.15 83 172 255
-0.2 -0.2875 -0.0375 54 201 255
-0.075 -0.3375 -0.175 40 214 255
-0.175 -0.4125 -0.325 22 233 255
-0.1125 -0.3375 -0.2125 40 214 255
-0.3625 -0.4875 -0.0625 3 252 255
-0.075 -0.35 -0.425 38 217 255
-0.075 -0.25 -0.4375 64 191 255
-0.275 -0.175 0.05 83 172 255
-0.175 -0.425 -0.325 19 236 255
-0.1125 -0.3375 -0.275 40 214 255
-0.2 -0.325 0.05 44 211 255
-0.075 -0.275 -0.3625 56 198 255
-0.0875 -0.175 -0.25 83 172 255
-0.1875 -0.425 -0.35 19 236 255
-0.25 -0.4875 -0.2 3 252 255
-0.1875 -0.375 -0.2625 32 223 255
-0.2625 -0.1625 0.05 86 169 255
-0.075 -0.2875 -0.35 54 201 255
-0.1125 -0.2375 -0.125 67 188 255
-0.2 -0.2125 -0.0375 73 182 255
-0.1 -0.325 -0.175 44 211 255
-0.0875 -0.2625 -0.0625 60 195 255
-0.075 -0.3625 -0.4125 35 220 255
-0.2125 -0.45 -0.35 12 243 255
-0.0875 -0.3 -0.3375 51 204 255
-0.125 -0.3375 -0.1375 40 214 255
-0.075 -0.225 -0.4125 70 185 255
-0.275 -0.175 0.05 83 172 255
-0.175 -0.425 -0.2875 19 236 255
-0.1375 -0.275 -0.125 56 198 255
-0.0875 -0.3 -0.25 51 204 255
-0.2 -0.4 0.0375 25 230 255
-0.1375 -0.35 -0.125 38 217 255
-0.2 -0.35 0.05 38 217 255
-0.175 -0.425 -0.4125 19 236 255
-0.375 -0.4875 -0.0125 3 252 255
-0.375 -0.4875 -0.05 3 252 255
-0.325 -0.4875 -0.0875 3 252 255
-0.3375 -0.4625 0.05 9 246 255
-0.0875 -0.2 -0.1 76 179 255
-0.3625 -0.4875 -0.125 3 252 255
-0.1625 -0.3625 -0.4125 35 220 255
-0.225 -0.4 0.05 25 230 255
-0.075 -0.2125 -0.0375 73 182 255
-0.2 -0.4375 -0.35 16 239 255
-0.075 -0.3125 -0.45 48 207 255
-0.225 -0.4125 -0.25 22 233 255
-0.1125 -0.35 -0.4125 38 217 255
-0.25 -0.45 -0.3 12 243 255
-0.175 -0.25 -0.125 64 191 255
-0.0875 -0.2375 -0.0875 67 188 255
-0.225 -0.4875 0.0375 3 252 255
-0.2875 -0.4875 -0.2375 3 252 255
-0.075 -0.3875 -0.4375 28 227 255
-0.3375 -0.4875 -0.1 3 252 255
-0.3125 -0.4875 -0.1625 3 252 255
-0.0875 -0.325 -0.325 44 211 255
-0.2 -0.275 -0.0125 56 198 255
-0.1125 -0.2625 -0.125 60 195 255
-0.175 -0.4125 -0.25 22 233 255
-0.2375 -0.375 -0.3375 32 223 255
-0.2 -0.1625 0.05 86 169 255
-0.2 -0.4 -0.35 25 230 255
-0.075 -0.3 -0.125 51 204 255
-0.075 -0.35 -0.275 38 217 255
-0.1375 -0.1625 -0.075 86 169 255
-0.1875 -0.1625 0.0375 86 169 255
-0.075 -0.225 -0.3125 70 185 255
-0.3375 -0.4875 -0.0625 3 252 255
-0.0875 -0.3375 -0.15 40 214 255
-0.075 -0.3625 -0.45 35 220 255
-0.075 -0.2 -0.05 76 179 255
-0.1125 -0.3375 -0.35 40 214 255
-0.075 -0.225 -0.4125 70 185 255
-0.075 -0.2625 -0.4875 60 195 255
-0.125 -0.425 -0.4125 19 236 255
-0.175 -0.4 -0.3375 25 230 255
-0.275 -0.4875 -0.05 3 252 255
-0.1875 -0.4125 -0.125 22 233 255
-0.2 -0.375 -0.275 32 223 255
-0.1125 -0.3625 -0.4125 35 220 255
-0.325 -0.4375 0.05 16 239 255
-0.125 -0.2625 -0.175 60 195 255
-0.225 -0.175 0.05 83 172 255
-0.1875 -0.2875 -0.125 54 201 255
-0.3375 -0.4875 -0.1625 3 252 255
-0.2 -0.225 -0.0375 70 185 255
-0.1875 -0.3375 -0.4 40 214 255
-0.175 -0.3375 -0.275 40 214 255
-0.275 -0.1625 0.05 86 169 255
-0.325 -0.4125 0.05 22 233 255
-0.125 -0.2125 -0.125 73 182 255
-0.2875 -0.275 0.05 56 198 255
-0.075 -0.2875 -0.4125 54 201 255
-0.1 -0.3375 -0.225 40 214 255
-0.3 -0.4 0.05 25 230 255
-0.1 -0.2375 -0.125 67 188 255
-0.35 -0.4875 -0.075 3 252 255
-0.1 -0.275 -0.125 56 198 255
-0.0875 -0.175 -0.25 83 172 255
-0.2 -0.1625 -0.0125 86 169 255
-0.1 -0.1625 -0.0875 86 169 255
-0.15 -0.3375 -0.15 40 214 255
-0.2625 -0.4875 -0.125 3 252 255
-0.1875 -0.3375 -0.1375 40 214 255
-0.15 -0.3375 -0.25 40 214 255
-0.0875 -0.3125 -0.275 48 207 255
-0.125 -0.3375 -0.225 40 214 255
-0.075 -0.3375 -0.175 40 214 255
-0.075 -0.2125 -0.5 73 182 255
-0.075 -0.375 -0.4625 32 223 255
-0.0875 -0.1625 -0.0375 86 169 255
-0.0875 -0.2125 -0.0625 73 182 255
-0.1625 -0.3375 -0.125 40 214 255
-0.1 -0.3375 -0.3125 40 214 255
-0.125 -0.3375 -0.175 40 214 255
-0.2125 -0.4875 0.05 3 252 255
-0.0875 -0.2875 -0.3375 54 201 255
-0.075 -0.3 -0.35 51 204 255
-0.2 -0.45 0.05 12 243 255
-0.075 -0.475 -0.375 6 249 255
-0.2875 -0.375 0.05 32 223 255
-0.125 -0.275 -0.1625 56 198 255
-0.15 -0.4125 -0.4125 22 233 255
-0.1875 -0.325 0.05 44 211 255
-0.075 -0.225 -0.0625 70 185 255
-0.2375 -0.1625 0.05 86 169 255
-0.2625 -0.375 0.05 32 223 255
-0.075 -0.1875 -0.4 80 175 255
-0.075 -0.325 -0.425 44 211 255
-0.075 -0.275 -0.0875 56 198 255
-0.2875 -0.25 0.05 64 191 255
-0.1625 -0.3875 -0.4125 28 227 255
-0.0875 -0.325 -0.1375 44 211 255
-0.225 -0.275 0.05 56 198 255
-0.1875 -0.3375 -0.375 40 214 255
-0.125 -0.325 -0.125 44 211 255
-0.075 -0.4 -0.3625 25 230 255
-0.3 -0.2 0.05 76 179 255
-0.125 -0.15 -0.0625 89 166 255
-0.175 -0.425 -0.3 19 236 255
-0.1625 -0.3375 -0.2625 40 214 255
-0.075 -0.2125 -0.3 73 182 255
-0.075 -0.275 -0.3 56 198 255
-0.1875 -0.15 -0.0125 89 166 255
-0.1125 -0.25 -0.125 64 191 255
-0.075 -0.2625 -0.325 60 195 255
-0.2 -0.2375 0 67 188 255
-0.275 -0.175 0.05 83 172 255
-0.075 -0.3375 -0.25 40 214 255
-0.1625 -0.3375 -0.35 40 214 255
-0.1875 -0.3375 -0.175 40 214 255
-0.075 -0.3875 -0.4375 28 227 255
-0.1875 -0.4125 -0.35 22 233 255
-0.075 -0.375 -0.4125 32 223 255
-0.125 -0.4125 -0.4125 22 233 255
-0.3125 -0.4875 -0.0125 3 252 255
-0.25 -0.175 0.05 83 172 255
-0.2625 -0.4875 -0.175 3 252 255
-0.125 -0.3375 -0.1875 40 214 255
-0.2 -0.275 0 56 198 255
-0.075 -0.2125 -0.3875 73 182 255
-0.2875 -0.4875 -0.225 3 252 255
-0.075 -0.3125 -0.2 48 207 255
-0.125 -0.325 -0.125 44 211 255
-0.2 -0.3 0.025 51 204 255
-0.3 -0.4875 -0.225 3 252 255
-0.075 -0.325 -0.175 44 211 255
-0.075 -0.2375 -0.3625 67 188 255
-0.275 -0.3125 0.05 48 207 255
-0.1125 -0.2 -0.125 76 179 255
-0.075 -0.2875 -0.5 54 201 255
-0.25 -0.4625 -0.3125 9 246 255
-0.2875 -0.225 0.05 70 185 255
-0.1 -0.2 -0.125 76 179 255
-0.2 -0.35 0.05 38 217 255
-0.325 -0.35 0.05 38 217 255
-0.075 -0.3625 -0.5 35 220 255
-0.075 -0.3125 -0.1125 48 207 255
-0.2 -0.1625 -0.0375 86 169 255
-0.0875 -0.3375 -0.25 40 214 255
-0.3625 -0.4875 -0.15 3 252 255
-0.15 -0.1625 -0.0625 86 169 255
-0.3 -0.4625 0.05 9 246 255
-0.1875 -0.3375 -0.375 40 214 255
-0.075 -0.225 -0.075 70 185 255
-0.075 -0.1875 -0.15 80 175 255
-0.2875 -0.4375 0.05 16 239 255
-0.075 -0.2875 -0.1125 54 201 255
-0.1125 -0.3375 -0.225 40 214 255
-0.1875 -0.3375 -0.3375 40 214 255
-0.075 -0.3 -0.1 51 204 255
-0.0875 -0.3375 -0.3625 40 214 255
-0.2625 -0.2125 0.05 73 182 255
-0.075 -0.2 -0.2125 76 179 255
-0.0875 -0.3375 -0.4 40 214 255
-0.075 -0.175 -0.275 83 172 255
-0.15 -0.3375 -0.2375 40 214 255
-0.075 -0.2875 -0.125 54 201 255
-0.325 -0.4875 -0.25 3 252 255
-0.1875 -0.3375 -0.4125 40 214 255
-0.075 -0.3375 -0.45 40 214 255
-0.175 -0.45 -0.2875 12 243 255
-0.0875 -0.3125 -0.3375 48 207 255
-0.2 -0.4625 -0.0125 9 246 255
-0.1875 -0.2875 0.0375 54 201 255
-0.1 -0.2375 -0.1125 67 188 255
-0.15 -0.3375 -0.15 40 214 255
-0.075 -0.2 -0.0625 76 179 255
-0.075 -0.25 -0.4625 64 191 255
-0.3375 -0.2125 0.05 73 182 255
-0.1875 -0.4125 -0.35 22 233 255
-0.125 -0.375 -0.4125 32 223 255
-0.175 -0.1875 -0.125 80 175 255
-0.2625 -0.2375 0.05 67 188 255
-0.2625 -0.4875 -0.0375 3 252 255
-0.075 -0.2125 -0.0375 73 182 255
-0.2875 -0.4875 -0.2375 3 252 255
-0.125 -0.3375 -0.3375 40 214 255
-0.175 -0.1625 -0.0625 86 169 255
-0.075 -0.1875 -0.1625 80 175 255
-0.0875 -0.2875 -0.0875 54 201 255
-0.075 -0.2625 -0.125 60 195 255
-0.1875 -0.3375 -0.3625 40 214 255
-0.075 -0.425 -0.425 19 236 255
-0.3125 -0.25 0.05 64 191 255
-0.075 -0.175 -0.1875 83 172 255
-0.175 -0.4625 -0.3375 9 246 255
-0.0875 -0.2 -0.35 76 179 255
-0.075 -0.175 -0.0875 83 172 255
-0.2 -0.275 0.05 56 198 255
-0.1375 -0.1875 -0.125 80 175 255
-0.3125 -0.425 0.05 19 236 255
-0.2875 -0.4875 -0.05 3 252 255
-0.075 -0.2125 -0.1 73 182 255
-0.2375 -0.1875 0.05 80 175 255
-0.3875 -0.4875 0 3 252 255
-0.35 -0.4875 -0.125 3 252 255
-0.075 -0.225 -0.1375 70 185 255
-0.2375 -0.4 -0.25 25 230 255
-0.3375 -0.4875 0.0375 3 252 255
-0.2 -0.4875 -0.275 3 252 255
-0.075 -0.2875 -0.2375 54 201 255
-0.075 -0.225 -0.1125 70 185 255
-0.125 -0.2875 -0.125 54 201 255
-0.075 -0.3375 -0.175 40 214 255
-0.2 -0.3375 -0.0375 40 214 255
-0.1875 -0.475 -0.35 6 249 255
-0.2625 -0.4875 0.0375 3 252 255
-0.0875 -0.2875 -0.1 54 201 255
-0.175 -0.4125 -0.275 22 233 255
-0.075 -0.2625 -0.125 60 195 255
-0.2625 -0.2125 0.05 73 182 255
-0.0875 -0.25 -0.0875 64 191 255
-0.0875 -0.275 -0.1 56 198 255
-0.2 -0.25 0.025 64 191 255
-0.125 -0.275 -0.125 56 198 255
-0.2 -0.375 -0.2875 32 223 255
-0.075 -0.3 -0.25 51 204 255
-0.0875 -0.2125 -0.125 73 182 255
-0.3375 -0.4875 -0.075 3 252 255
-0.175 -0.425 -0.4125 19 236 255
-0.2875 -0.4125 0.05 22 233 255
-0.3 -0.175 0.05 83 172 255
-0.1875 -0.1875 0.0375 80 175 255
-0.3 -0.3875 0.05 28 227 255
-0.3125 -0.25 0.05 64 191 255
-0.2 -0.4375 0.025 16 239 255
-0.0875 -0.275 -0.1 56 198 255
-0.125 -0.175 -0.125 83 172 255
-0.2625 -0.4875 -0.275 3 252 255
-0.075 -0.325 -0.3125 44 211 255
-0.325 -0.1625 0.0375 86 169 255
-0.1125 -0.375 -0.4125 32 223 255
-0.0875 -0.2625 -0.0375 60 195 255
-0.1875 -0.4125 -0.1375 22 233 255
-0.0875 -0.2 -0.1 76 179 255
-0.375 -0.4875 -0.0125 3 252 255
-0.0875 -0.3125 -0.3125 48 207 255
-0.15 -0.3375 -0.125 40 214 255
-0.2125 -0.4 -0.35 25 230 255
-0.1875 -0.3375 -0.4 40 214 255
-0.2 -0.2125 0.025 73 182 255
-0.1625 -0.15 -0.0375 89 166 255
-0.2 -0.4 -0.225 25 230 255
-0.175 -0.4125 -0.4125 22 233 255
-0.1 -0.2375 -0.15 67 188 255
-0.2375 -0.2875 0.05 54 201 255
-0.1125 -0.2625 -0.1125 60 195 255
-0.2625 -0.4875 -0.0625 3 252 255
-0.2125 -0.4875 -0.275 3 252 255
-0.325 -0.25 0.05 64 191 255
-0.1375 -0.1625 -0.0875 86 169 255
-0.075 -0.225 -0.1125 70 185 255
-0.0875 -0.15 -0.075 89 166 255
-0.1625 -0.3375 -0.225 40 214 255
-0.075 -0.2625 -0.3 60 195 255
-0.075 -0.3 -0.3125 51 204 255
-0.175 -0.425 -0.3125 19 236 255
-0.2875 -0.4875 -0.225 3 252 255
-0.2 -0.2875 0.025 54 201 255
-0.25 -0.1625 0.05 86 169 255
-0.075 -0.2125 -0.175 73 182 255
-0.075 -0.35 -0.475 38 217 255
-0.1 -0.4375 -0.4125 16 239 255
-0.1 -0.2375 -0.1375 67 188 255
-0.125 -0.3375 -0.2375 40 214 255
-0.325 -0.35 0.05 38 217 255
-0.2 -0.3625 -0.0125 35 220 255
-0.3625 -0.4875 -0.125 3 252 255
-0.075 -0.3 -0.425 51 204 255
-0.3375 -0.4875 -0.2 3 252 255
-0.35 -0.4875 -0.15 3 252 255
-0.075 -0.3125 -0.2875 48 207 255
-0.075 -0.275 -0.15 56 198 255
-0.2625 -0.3875 0.05 28 227 255
-0.2 -0.2375 -0.0375 67 188 255
-0.175 -0.1625 -0.1125 86 169 255
-0.1 -0.4 -0.4125 25 230 255
-0.2 -0.25 0 64 191 255
-0.0875 -0.275 -0.3375 56 198 255
-0.1625 -0.375 -0.4125 32 223 255
-0.075 -0.3125 -0.375 48 207 255
-0.1875 -0.375 -0.3375 32 223 255
-0.075 -0.1875 -0.15 80 175 255
-0.175 -0.3375 -0.2875 40 214 255
-0.1875 -0.2375 0.0375 67 188 255
-0.1875 -0.375 -0.275 32 223 255
-0.075 -0.2875 -0.1 54 201 255
-0.15 -0.3375 -0.4 40 214 255
-0.1125 -0.2625 -0.1375 60 195 255
-0.2 -0.2875 -0.025 54 201 255
-0.125 -0.325 -0.1625 44 211 255
-0.075 -0.275 -0.275 56 198 255
-0.1875 -0.3375 -0.2375 40 214 255
-0.25 -0.4875 0.0125 3 252 255
-0.3625 -0.4875 -0.125 3 252 255
-0.175 -0.4 -0.35 25 230 255
-0.3 -0.3 0.05 51 204 255
-0.075 -0.225 -0.1875 70 185 255
-0.075 -0.45 -0.3625 12 243 255
-0.075 -0.325 -0.3125 44 211 255
-0.3375 -0.4875 -0.2 3 252 255
-0.35 -0.4875 -0.1875 3 252 255
-0.275 -0.4625 0.05 9 246 255
-0.075 -0.3125 -0.4875 48 207 255
-0.1375 -0.3375 -0.2 40 214 255
-0.2375 -0.25 0.05 64 191 255
-0.325 -0.175 0.05 83 172 255
-0.3625 -0.4875 -0.0375 3 252 255
-0.2375 -0.4125 0.05 22 233 255
-0.125 -0.275 -0.1625 56 198 255
-0.0875 -0.3375 -0.225 40 214 255
-0.075 -0.2625 -0.45 60 195 255
-0.2 -0.275 -0.0125 56 198 255
-0.075 -0.1875 -0.2375 80 175 255
-0.2 -0.4625 0 9 246 255
-0.2125 -0.4625 0.05 9 246 255
-0.0875 -0.4 -0.4125 25 230 255
-0.2 -0.275 0.025 56 198 255
-0.1625 -0.4 -0.4125 25 230 255
-0.275 -0.4 0.05 25 230 255
-0.15 -0.3375 -0.375 40 214 255
-0.275 -0.325 0.05 44 211 255
-0.075 -0.2375 -0.5 67 188 255
-0.2625 -0.1875 0.05 80 175 255
-0.175 -0.475 -0.3375 6 249 255
-0.25 -0.475 -0.2625 6 249 255
-0.15 -0.35 -0.225 38 217 255
-0.325 -0.3875 0.05 28 227 255
-0.0875 -0.1625 -0.075 86 169 255
-0.075 -0.225 -0.375 70 185 255
-0.325 -0.3 0.0375 51 204 255
-0.075 -0.1875 -0.1125 80 175 255
-0.125 -0.3375 -0.225 40 214 255
-0.325 -0.2875 0.05 54 201 255
-0.1375 -0.35 -0.125 38 217 255
-0.325 -0.4875 -0.025 3 252 255
-0.3125 -0.4875 -0.075 3 252 255
-0.3625 -0.475 0.05 6 249 255
-0.0875 -0.1625 -0.075 86 169 255
-0.075 -0.35 -0.4 38 217 255
-0.1 -0.275 -0.175 56 198 255
-0.3125 -0.35 0.05 38 217 255
-0.3125 -0.4375 0.05 16 239 255
-0.2125 -0.375 -0.325 32 223 255
-0.325 -0.4 0.0375 25 230 255
-0.325 -0.2875 0.05 54 201 255
-0.125 -0.4375 -0.4125 16 239 255
-0.075 -0.3125 -0.2875 48 207 255
-0.3375 -0.4 0.05 25 230 255
-0.075 -0.325 -0.3625 44 211 255
-0.1875 -0.3875 -0.4125 28 227 255
-0.25 -0.475 -0.325 6 249 255
-0.2 -0.4375 -0.0125 16 239 255
-0.075 -0.2375 -0.425 67 188 255
-0.125 -0.35 -0.125 38 217 255
-0.075 -0.325 -0.225 44 211 255
-0.0875 -0.2 -0.2375 76 179 255
-0.2 -0.3375 0 40 214 255
-0.1875 -0.3375 -0.375 40 214 255
-0.075 -0.2375 -0.1875 67 188 255
-0.175 -0.45 -0.3 12 243 255
-0.0875 -0.175 -0.1125 83 172 255
-0.075 -0.3 -0.45 51 204 255
-0.225 -0.425 0.05 19 236 255
-0.1875 -0.25 0.0375 64 191 255
-0.125 -0.3 -0.15 51 204 255
-0.2375 -0.325 0.05 44 211 255
-0.075 -0.2125 -0.4 73 182 255
-0.275 -0.15 0.05 89 166 255
-0.2375 -0.375 -0.2625 32 223 255
-0.075 -0.45 -0.3875 12 243 255
-0.275 -0.4875 -0.125 3 252 255
-0.075 -0.35 -0.4 38 217 255
-0.35 -0.4875 -0.1625 3 252 255
-0.3125 -0.4875 -0.25 3 252 255
-0.2875 -0.2125 0.05 73 182 255
-0.25 -0.4875 0.05 3 252 255
-0.0875 -0.2625 -0.1125 60 195 255
-0.1875 -0.175 0.0375 83 172 255
-0.1125 -0.175 -0.125 83 172 255
-0.2875 -0.4875 -0.15 3 252 255
-0.075 -0.3125 -0.4 48 207 255
-0.2 -0.45 -0.025 12 243 255
-0.125 -0.3375 -0.25 40 214 255
-0.2 -0.2875 0.0375 54 201 255
-0.075 -0.275 -0.4375 56 198 255
-0.075 -0.175 -0.275 83 172 255
-0.075 -0.275 -0.4 56 198 255
-0.2 -0.15 0.0125 89 166 255
-0.225 -0.4625 -0.35 9 246 255
-0.075 -0.2625 -0.2 60 195 255
-0.1875 -0.4125 -0.35 22 233 255
-0.3625 -0.4875 0.0375 3 252 255
-0.3375 -0.4875 -0.05 3 252 255
-0.2 -0.2 0.0375 76 179 255
-0.2 -0.475 -0.0125 6 249 255
-0.075 -0.275 -0.45 56 198 255
-0.075 -0.25 -0.425 64 191 255
-0.075 -0.175 -0.2875 83 172 255
-0.1 -0.225 -0.15 70 185 255
-0.075 -0.3375 -0.2875 40 214 255
-0.325 -0.3625 0.0375 35 220 255
-0.0875 -0.325 -0.2625 44 211 255
-0.125 -0.3375 -0.1375 40 214 255
-0.1375 -0.2625 -0.15 60 195 255
-0.0875 -0.3375 -0.2125 40 214 255
-0.275 -0.4875 -0.0625 3 252 255
-0.2 -0.275 0 56 198 255
-0.3 -0.4 0.05 25 230 255
-0.0875 -0.2875 -0.1125 54 201 255
-0.25 -0.3875 0.05 28 227 255
-0.075 -0.4125 -0.425 22 233 255
-0.175 -0.3375 -0.3125 40 214 255
-0.2 -0.3875 -0.25 28 227 255
-0.3 -0.4875 -0.15 3 252 255
-0.325 -0.1875 0.0375 80 175 255
-0.2875 -0.375 0.05 32 223 255
-0.275 -0.4125 0.05 22 233 255
-0.0875 -0.275 -0.0875 56 198 255
-0.125 -0.3125 -0.125 48 207 255
-0.175 -0.4625 -0.35 9 246 255
-0.3125 -0.475 0.05 6 249 255
-0.3125 -0.2875 0.05 54 201 255
-0.125 -0.325 -0.125 44 211 255
-0.325 -0.1875 0.05 80 175 255
-0.075 -0.225 -0.325 70 185 255
-0.075 -0.2375 -0.5 67 188 255
-0.175 -0.45 -0.325 12 243 255
-0.075 -0.3 -0.4875 51 204 255
-0.075 -0.3125 -0.175 48 207 255
-0.2375 -0.175 0.05 83 172 255
-0.15 -0.2 -0.125 76 179 255
-0.0875 -0.2375 -0.35 67 188 255
-0.075 -0.3625 -0.35 35 220 255
-0.3 -0.2375 0.05 67 188 255
-0.2125 -0.2875 0.05 54 201 255
-0.075 -0.25 -0.175 64 191 255
-0.2125 -0.325 0.05 44 211 255
-0.075 -0.35 -0.4875 38 217 255
-0.325 -0.175 0.05 83 172 255
-0.0875 -0.325 -0.3375 44 211 255
-0.2 -0.1625 -0.025 86 169 255
-0.075 -0.2375 -0.175 67 188 255
-0.075 -0.2 -0.175 76 179 255
-0.1125 -0.15 -0.0625 89 166 255
-0.3625 -0.4875 -0.0625 3 252 255
-0.1375 -0.1625 -0.1 86 169 255
-0.1375 -0.3375 -0.35 40 214 255
-0.325 -0.4875 -0.25 3 252 255
-0.2375 -0.2 0.05 76 179 255
-0.075 -0.2125 -0.175 73 182 255
-0.1 -0.15 -0.05 89 166 255
-0.175 -0.3875 -0.3375 28 227 255
-0.15 -0.15 -0.0375 89 166 255
-0.075 -0.2375 -0.4625 67 188 255
-0.25 -0.45 0.05 12 243 255
-0.075 -0.2625 -0.425 60 195 255
-0.075 -0.1875 -0.275 80 175 255
-0.0875 -0.425 -0.4125 19 236 255
-0.2 -0.4875 -0.275 3 252 255
-0.2 -0.25 -0.0375 64 191 255
-0.2 -0.4 -0.2125 25 230 255
-0.3 -0.3875 0.05 28 227 255
-0.3125 -0.45 0.05 12 243 255
-0.075 -0.425 -0.375 19 236 255
-0.2 -0.375 -0.325 32 223 255
-0.2125 -0.2875 0.05 54 201 255
-0.075 -0.2125 -0.2 73 182 255
-0.1375 -0.15 -0.05 89 166 255
-0.1375 -0.3375 -0.3 40 214 255
-0.1875 -0.375 -0.1375 32 223 255
-0.1125 -0.2875 -0.125 54 201 255
-0.0875 -0.3125 -0.25 48 207 255
-0.1125 -0.2625 -0.1625 60 195 255
-0.075 -0.275 -0.25 56 198 255
-0.075 -0.3125 -0.4125 48 207 255
-0.25 -0.1625 0.05 86 169 255
-0.325 -0.4875 -0.15 3 252 255
-0.075 -0.225 -0.15 70 185 255
-0.2875 -0.4875 -0.025 3 252 255
-0.075 -0.175 -0.075 83 172 255
-0.075 -0.3125 -0.4625 48 207 255
-0.0875 -0.3375 -0.175 40 214 255
-0.075 -0.2375 -0.1 67 188 255
-0.075 -0.325 -0.3625 44 211 255
-0.1875 -0.4125 -0.25 22 233 255
-0.2 -0.1625 0.05 86 169 255
-0.075 -0.25 -0.075 64 191 255
-0.2125 -0.175 0.05 83 172 255
-0.2 -0.275 -0.0125 56 198 255
-0.075 -0.225 -0.275 70 185 255
-0.075 -0.3375 -0.1625 40 214 255
-0.25 -0.1875 0.05 80 175 255
-0.2625 -0.4875 -0.2375 3 252 255
-0.3125 -0.4875 0.0125 3 252 255
-0.3375 -0.4875 -0.0375 3 252 255
-0.1125 -0.1625 -0.0875 86 169 255
-0.1 -0.3375 -0.175 40 214 255
-0.2 -0.3125 -0.0125 48 207 255
-0.1 -0.3375 -0.3625 40 214 255
-0.075 -0.25 -0.225 64 191 255
-0.3125 -0.425 0.05 19 236 255
-0.075 -0.3375 -0.4625 40 214 255
-0.1875 -0.1625 -0.125 86 169 255
-0.0875 -0.3 -0.1125 51 204 255
-0.075 -0.4125 -0.45 22 233 255
-0.2 -0.3 0.0125 51 204 255
-0.075 -0.35 -0.375 38 217 255
-0.175 -0.3375 -0.125 40 214 255
-0.075 -0.2 -0.475 76 179 255
-0.2 -0.4625 0.025 9 246 255
-0.1 -0.3375 -0.25 40 214 255
-0.1375 -0.3375 -0.225 40 214 255
-0.1125 -0.4125 -0.4125 22 233 255
-0.075 -0.3 -0.2625 51 204 255
-0.075 -0.25 -0.075 64 191 255
-0.075 -0.275 -0.375 56 198 255
-0.075 -0.4125 -0.35 22 233 255
-0.0875 -0.375 -0.4125 32 223 255
-0.0875 -0.15 -0.075 89 166 255
-0.275 -0.4875 -0.2375 3 252 255
-0.2625 -0.4875 -0.2375 3 252 255
-0.15 -0.425 -0.4125 19 236 255
-0.075 -0.35 -0.125 38 217 255
-0.275 -0.4875 0.0125 3 252 255
-0.1 -0.1625 -0.1125 86 169 255
-0.075 -0.45 -0.4125 12 243 255
-0.075 -0.1875 -0.2125 80 175 255
-0.3375 -0.4875 -0.15 3 252 255
-0.3375 -0.4875 -0.2625 3 252 255
-0.1125 -0.35 -0.225 38 217 255
-0.1875 -0.4 -0.4125 25 230 255
-0.1 -0.25 -0.1625 64 191 255
-0.2 -0.1625 -0.025 86 169 255
-0.3125 -0.4875 -0.0625 3 252 255
-0.075 -0.1875 -0.1625 80 175 255
-0.075 -0.225 -0.0625 70 185 255
-0.3 -0.2625 0.05 60 195 255
-0.2 -0.325 -0.025 44 211 255
-0.075 -0.2 -0.5 76 179 255
-0.3625 -0.4875 -0.0125 3 252 255
-0.175 -0.3875 -0.35 28 227 255
-0.275 -0.4875 -0.1 3 252 255
-0.1375 -0.35 -0.225 38 217 255
-0.075 -0.325 -0.275 44 211 255
-0.1125 -0.1625 -0.125 86 169 255
-0.2625 -0.4875 -0.15 3 252 255
-0.075 -0.1875 -0.3625 80 175 255
-0.075 -0.3125 -0.225 48 207 255
-0.075 -0.3125 -0.15 48 207 255
-0.075 -0.475 -0.375 6 249 255
-0.075 -0.3375 -0.125 40 214 255
-0.075 -0.35 -0.4875 38 217 255
-0.2375 -0.425 0.05 19 236 255
-0.2 -0.4 -0.35 25 230 255
-0.075 -0.225 -0.1 70 185 255
-0.0875 -0.3 -0.1625 51 204 255
-0.1875 -0.425 -0.125 19 236 255
-0.2375 -0.4375 0.05 16 239 255
-0.2 -0.1875 0.05 80 175 255
-0.1875 -0.375 -0.4125 32 223 255
-0.275 -0.4125 0.05 22 233 255
-0.1375 -0.3375 -0.125 40 214 255
-0.075 -0.2875 -0.1625 54 201 255
-0.2 -0.2375 -0.0125 67 188 255
-0.075 -0.425 -0.3625 19 236 255
-0.075 -0.2375 -0.3625 67 188 255
-0.1 -0.25 -0.125 64 191 255
-0.25 -0.325 0.05 44 211 255
-0.0875 -0.275 -0.125 56 198 255
-0.1375 -0.1625 -0.1 86 169 255
-0.2375 -0.375 -0.3375 32 223 255
-0.0875 -0.2375 -0.2375 67 188 255
-0.075 -0.2875 -0.2625 54 201 255
-0.325 -0.4875 0.05 3 252 255
-0.075 -0.2125 -0.4 73 182 255
-0.125 -0.25 -0.125 64 191 255
-0.1375 -0.1625 -0.075 86 169 255
-0.1 -0.2875 -0.175 54 201 255
-0.1125 -0.3875 -0.4125 28 227 255
-0.2 -0.4875 -0.3125 3 252 255
-0.225 -0.3 0.05 51 204 255
-0.075 -0.3125 -0.2125 48 207 255
-0.075 -0.225 -0.225 70 185 255
-0.225 -0.1875 0.05 80 175 255
-0.2125 -0.4125 0.05 22 233 255
-0.2875 -0.425 0.05 19 236 255
-0.075 -0.275 -0.45 56 198 255
-0.0875 -0.275 -0.125 56 198 255
-0.075 -0.2875 -0.4 54 201 255
-0.075 -0.2875 -0.15 54 201 255
-0.1125 -0.3375 -0.4 40 214 255
-0.075 -0.175 -0.1125 83 172 255
-0.3375 -0.4375 0.05 16 239 255
-0.275 -0.3375 0.05 40 214 255
-0.1875 -0.3875 -0.1375 28 227 255
-0.075 -0.2625 -0.4 60 195 255
-0.0875 -0.325 -0.15 44 211 255
-0.2625 -0.4625 0.05 9 246 255
-0.2875 -0.35 0.05 38 217 255
-0.1875 -0.4125 -0.125 22 233 255
-0.15 -0.1625 -0.0625 86 169 255
-0.075 -0.375 -0.425 32 223 255
-0.1625 -0.1875 -0.125 80 175 255
-0.075 -0.375 -0.475 32 223 255
-0.2 -0.3 0.0375 51 204 255
-0.2625 -0.4875 -0.2375 3 252 255
-0.2625 -0.4125 0.05 22 233 255
-0.2 -0.3125 -0.0375 48 207 255
-0.1875 -0.2 0.0375 76 179 255
-0.075 -0.3625 -0.325 35 220 255
-0.275 -0.4875 -0.1375 3 252 255
-0.0875 -0.2375 -0.1125 67 188 255
-0.075 -0.3625 -0.4875 35 220 255
-0.125 -0.3375 -0.2 40 214 255
-0.15 -0.3625 -0.4125 35 220 255
-0.175 -0.4125 -0.3375 22 233 255
-0.3 -0.35 0.05 38 217 255
-0.0875 -0.2875 -0.25 54 201 255
-0.35 -0.4875 -0.2125 3 252 255
-0.2 -0.4 -0.025 25 230 255
-0.2 -0.25 -0.0125 64 191 255
-0.3125 -0.4875 -0.0625 3 252 255
-0.075 -0.3375 -0.325 40 214 255
-0.075 -0.2125 -0.2125 73 182 255
-0.2 -0.3 0.05 51 204 255
-0.275 -0.2375 0.05 67 188 255
-0.275 -0.4875 -0.0875 3 252 255
-0.275 -0.4875 -0.1125 3 252 255
-0.2 -0.2875 0.0375 54 201 255
-0.1125 -0.3625 -0.4125 35 220 255
-0.075 -0.2875 -0.225 54 201 255
-0.075 -0.4 -0.35 25 230 255
-0.25 -0.4375 -0.325 16 239 255
-0.075 -0.325 -0.325 44 211 255
-0.2 -0.4875 0.05 3 252 255
-0.225 -0.375 -0.325 32 223 255
-0.325 -0.4875 -0.1875 3 252 255
-0.3125 -0.2 0.05 76 179 255
-0.225 -0.375 -0.3 32 223 255
-0.1625 -0.3375 -0.3375 40 214 255
-0.2625 -0.4875 0.0125 3 252 255
-0.075 -0.2 -0.325 76 179 255
-0.3 -0.2375 0.05 67 188 255
-0.075 -0.3 -0.25 51 204 255
-0.325 -0.4875 -0.0875 3 252 255
-0.3125 -0.175 0.05 83 172 255
-0.275 -0.3 0.05 51 204 255
-0.125 -0.35 -0.225 38 217 255
-0.1 -0.3375 -0.3875 40 214 255
-0.25 -0.4625 -0.2625 9 246 255
-0.15 -0.3375 -0.2125 40 214 255
-0.075 -0.1875 -0.3875 80 175 255
-0.325 -0.2875 0.0375 54 201 255
-0.2 -0.4625 0.0375 9 246 255
-0.075 -0.25 -0.225 64 191 255
-0.0875 -0.15 -0.05 89 166 255
-0.25 -0.4625 -0.3125 9 246 255
-0.15 -0.3375 -0.4 40 214 255
-0.2 -0.4625 0.05 9 246 255
-0.175 -0.4875 -0.2875 3 252 255
-0.075 -0.35 -0.45 38 217 255
-0.35 -0.4875 -0.225 3 252 255
-0.3 -0.3625 0.05 35 220 255
-0.275 -0.2125 0.05 73 182 255
-0.3 -0.475 0.05 6 249 255
-0.0875 -0.3375 -0.125 40 214 255
-0.1 -0.3375 -0.3375 40 214 255
-0.175 -0.3375 -0.275 40 214 255
-0.3 -0.4125 0.05 22 233 255
-0.075 -0.1875 -0.3875 80 175 255
-0.0875 -0.2 -0.05 76 179 255
-0.2875 -0.1875 0.05 80 175 255
-0.1 -0.3625 -0.4125 35 220 255
-0.2125 -0.375 -0.2625 32 223 255
-0.1375 -0.3375 -0.2125 40 214 255
-0.1875 -0.3125 -0.125 48 207 255
-0.075 -0.275 -0.1 56 198 255
-0.3125 -0.4875 -0.1 3 252 255
-0.1875 -0.4875 -0.3125 3 252 255
-0.075 -0.275 -0.3375 56 198 255
-0.175 -0.4 -0.35 25 230 255
-0.2875 -0.4875 0.0375 3 252 255
-0.075 -0.275 -0.275 56 198 255
-0.2 -0.1625 0.0375 86 169 255
-0.3625 -0.4875 0.0375 3 252 255
-0.075 -0.2 -0.0625 76 179 255
-0.175 -0.3375 -0.1375 40 214 255
-0.0875 -0.275 -0.25 56 198 255
-0.25 -0.3625 0.05 35 220 255
-0.25 -0.4625 -0.2875 9 246 255
-0.275 -0.4875 -0.0625 3 252 255
-0.2 -0.1875 0.0125 80 175 255
-0.1875 -0.3375 -0.325 40 214 255
-0.2 -0.1625 0.025 86 169 255
-0.0875 -0.3375 -0.35 40 214 255
-0.1 -0.2375 -0.125 67 188 255
-0.125 -0.3375 -0.1625 40 214 255
-0.2 -0.325 -0.025 44 211 255
-0.2 -0.425 0.025 19 236 255
-0.3875 -0.4875 0.05 3 252 255
-0.1 -0.3375 -0.3625 40 214 255
-0.1375 -0.25 -0.125 64 191 255
-0.2 -0.3375 -0.4125 40 214 255
-0.1875 -0.2 -0.125 76 179 255
-0.175 -0.35 -0.225 38 217 255
-0.2 -0.35 0.05 38 217 255
-0.2 -0.3625 0.05 35 220 255
-0.3125 -0.3 0.05 51 204 255
-0.1125 -0.2875 -0.125 54 201 255
-0.2625 -0.4875 -0.0375 3 252 255
-0.075 -0.375 -0.45 32 223 255
-0.35 -0.4875 -0.1125 3 252 255
-0.2 -0.2375 0.0375 67 188 255
-0.225 -0.3125 0.05 48 207 255
-0.075 -0.275 -0.3625 56 198 255
-0.1625 -0.35 -0.125 38 217 255
-0.175 -0.2375 -0.125 67 188 255
-0.075 -0.325 -0.3625 44 211 255
-0.325 -0.15 0.0375 89 166 255
-0.125 -0.1625 -0.075 86 169 255
-0.0875 -0.3125 -0.1125 48 207 255
-0.175 -0.2375 -0.125 67 188 255
-0.1 -0.1875 -0.125 80 175 255
-0.15 -0.3375 -0.2375 40 214 255
-0.3125 -0.325 0.05 44 211 255
-0.2625 -0.4875 -0.2125 3 252 255
-0.2 -0.35 0.025 38 217 255
-0.0875 -0.2375 -0.1125 67 188 255
-0.1125 -0.1875 -0.125 80 175 255
-0.2 -0.325 -0.0375 44 211 255
-0.075 -0.175 -0.1625 83 172 255
-0.1625 -0.4125 -0.4125 22 233 255
-0.2625 -0.4875 -0.15 3 252 255
-0.275 -0.2875 0.05 54 201 255
-0.075 -0.1875 -0.0375 80 175 255
-0.0875 -0.35 -0.4125 38 217 255
-0.125 -0.425 -0.4125 19 236 255
-0.0875 -0.35 -0.125 38 217 255
-0.2 -0.25 -0.0125 64 191 255
-0.35 -0.4875 0.025 3 252 255
-0.25 -0.4625 -0.3125 9 246 255
-0.325 -0.1625 0.0375 86 169 255
-0.1125 -0.375 -0.4125 32 223 255
-0.2 -0.1875 -0.025 80 175 255
-0.35 -0.4875 -0.1625 3 252 255
-0.1875 -0.4 -0.4125 25 230 255
-0.2875 -0.275 0.05 56 198 255
-0.3125 -0.275 0.05 56 198 255
-0.2875 -0.4875 -0.0125 3 252 255
-0.075 -0.325 -0.2625 44 211 255
-0.2 -0.475 0.025 6 249 255
-0.0875 -0.3625 -0.4125 35 220 255
-0.225 -0.15 0.05 89 166 255
-0.175 -0.375 -0.4125 32 223 255
-0.2 -0.4125 0 22 233 255
-0.075 -0.35 -0.3375 38 217 255
-0.075 -0.275 -0.475 56 198 255
-0.3 -0.175 0.05 83 172 255
-0.1375 -0.375 -0.4125 32 223 255
-0.15 -0.1875 -0.125 80 175 255
-0.3125 -0.4875 -0.075 3 252 255
-0.3125 -0.4375 0.05 16 239 255
-0.2 -0.4 0.0125 25 230 255
-0.2 -0.4 0.0375 25 230 255
-0.2 -0.2625 0 60 195 255
-0.1375 -0.2875 -0.125 54 201 255
-0.0875 -0.15 -0.0625 89 166 255
-0.0875 -0.225 -0.0375 70 185 255
-0.075 -0.225 -0.3125 70 185 255
-0.0875 -0.2875 -0.2375 54 201 255
-0.0875 -0.2 -0.0625 76 179 255
-0.075 -0.325 -0.4125 44 211 255
-0.1125 -0.2625 -0.15 60 195 255
-0.15 -0.4875 -0.35 3 252 255
-0.1875 -0.1625 0.0375 86 169 255
-0.075 -0.3375 -0.2625 40 214 255
-0.1 -0.15 -0.05 89 166 255
-0.225 -0.3875 0.05 28 227 255
-0.325 -0.35 0.0375 38 217 255
-0.25 -0.2125 0.05 73 182 255
-0.325 -0.425 0.0375 19 236 255
-0.325 -0.4375 0.0375 16 239 255
-0.2375 -0.375 -0.3125 32 223 255
-0.075 -0.2 -0.15 76 179 255
-0.125 -0.35 -0.125 38 217 255
-0.075 -0.2625 -0.0375 60 195 255
-0.225 -0.4125 -0.35 22 233 255
-0.175 -0.3375 -0.1875 40 214 255
-0.1 -0.1625 -0.1125 86 169 255
-0.175 -0.2 -0.125 76 179 255
-0.1375 -0.4125 -0.4125 22 233 255
-0.2 -0.175 0 83 172 255
-0.125 -0.2625 -0.1625 60 195 255
-0.2125 -0.4 -0.35 25 230 255
-0.075 -0.275 -0.15 56 198 255
-0.3 -0.4875 0.05 3 252 255
-0.2375 -0.4125 0.05 22 233 255
-0.275 -0.4875 -0.175 3 252 255
-0.175 -0.1625 -0.075 86 169 255
-0.3 -0.4875 -0.1625 3 252 255
-0.175 -0.4 -0.325 25 230 255
-0.3125 -0.4875 -0.0125 3 252 255
-0.1625 -0.3375 -0.35 40 214 255
-0.125 -0.2875 -0.1375 54 201 255
-0.075 -0.2125 -0.4625 73 182 255
-0.1375 -0.3375 -0.1375 40 214 255
-0.2375 -0.475 0.05 6 249 255
-0.1875 -0.375 -0.2875 32 223 255
-0.3375 -0.4875 -0.2625 3 252 255
-0.1875 -0.475 -0.35 6 249 255
-0.325 -0.3 0.0375 51 204 255
-0.15 -0.4875 -0.35 3 252 255
-0.0875 -0.2125 -0.25 73 182 255
-0.075 -0.35 -0.3375 38 217 255
-0.075 -0.1625 -0.1875 86 169 255
-0.075 -0.375 -0.4625 32 223 255
-0.1875 -0.475 -0.35 6 249 255
-0.175 -0.3375 -0.25 40 214 255
-0.2625 -0.4875 -0.0125 3 252 255
-0.1875 -0.3125 0.05 48 207 255
-0.35 -0.475 0.05 6 249 255
-0.075 -0.225 -0.1625 70 185 255
-0.175 -0.3375 -0.3 40 214 255
-0.075 -0.3875 -0.35 28 227 255
-0.3 -0.375 0.05 32 223 255
-0.075 -0.4375 -0.425 16 239 255
-0.075 -0.425 -0.45 19 236 255
-0.1875 -0.15 -0.025 89 166 255
-0.1375 -0.3 -0.125 51 204 255
-0.1875 -0.375 -0.1625 32 223 255
-0.125 -0.3125 -0.125 48 207 255
-0.0875 -0.2375 -0.1 67 188 255
-0.2 -0.35 0.0125 38 217 255
-0.0875 -0.3125 -0.35 48 207 255
-0.2 -0.25 -0.025 64 191 255
-0.075 -0.2875 -0.175 54 201 255
-0.2 -0.225 -0.1 70 185 255
-0.2 -0.3125 0.025 48 207 255
-0.175 -0.3 -0.125 51 204 255
-0.3125 -0.4875 -0.05 3 252 255
-0.075 -0.25 -0.175 64 191 255
-0.1 -0.15 -0.0625 89 166 255
-0.2 -0.4625 0.0375 9 246 255
-0.1375 -0.3375 -0.1625 40 214 255
-0.1875 -0.375 -0.4125 32 223 255
-0.3 -0.4125 0.05 22 233 255
-0.0875 -0.2375 -0.2375 67 188 255
-0.075 -0.3 -0.475 51 204 255
-0.075 -0.225 -0.4125 70 185 255
-0.075 -0.1625 -0.075 86 169 255
-0.0875 -0.2 -0.25 76 179 255
-0.0875 -0.1625 -0.1125 86 169 255
-0.075 -0.2625 -0.45 60 195 255
-0.075 -0.2375 -0.2 67 188 255
-0.3125 -0.3625 0.05 35 220 255
-0.075 -0.2875 -0.1625 54 201 255
-0.1875 -0.4125 -0.25 22 233 255
-0.075 -0.3125 -0.4 48 207 255
-0.075 -0.225 -0.0625 70 185 255
-0.075 -0.175 -0.1125 83 172 255
-0.15 -0.4125 -0.4125 22 233 255
-0.075 -0.3125 -0.325 48 207 255
-0.225 -0.4 -0.35 25 230 255
-0.2 -0.3125 -0.0125 48 207 255
-0.325 -0.4875 -0.075 3 252 255
-0.2 -0.2125 0 73 182 255
-0.275 -0.2125 0.05 73 182 255
-0.1 -0.3 -0.125 51 204 255
-0.075 -0.2625 -0.2875 60 195 255
-0.075 -0.4375 -0.3625 16 239 255
-0.2 -0.1625 -0.0125 86 169 255
-0.075 -0.25 -0.425 64 191 255
-0.275 -0.4 0.05 25 230 255
-0.075 -0.2625 -0.475 60 195 255
-0.25 -0.4375 -0.3125 16 239 255
-0.2 -0.3375 0 40 214 255
-0.0875 -0.2 -0.075 76 179 255
-0.075 -0.2875 -0.325 54 201 255
-0.3625 -0.4875 0.05 3 252 255
-0.075 -0.275 -0.325 56 198 255
-0.075 -0.4625 -0.3625 9 246 255
-0.2 -0.3 0.0125 51 204 255
-0.1875 -0.375 -0.2875 32 223 255
-0.075 -0.3 -0.3 51 204 255
-0.2375 -0.3875 -0.35 28 227 255
-0.2875 -0.275 0.05 56 198 255
-0.075 -0.1875 -0.3625 80 175 255
-0.1 -0.3375 -0.3 40 214 255
-0.275 -0.4875 -0.0625 3 252 255
-0.1125 -0.2625 -0.1125 60 195 255
-0.1875 -0.3375 -0.225 40 214 255
-0.075 -0.3625 -0.45 35 220 255
-0.075 -0.225 -0.4 70 185 255
-0.075 -0.35 -0.1 38 217 255
-0.075 -0.2625 -0.5 60 195 255
-0.2 -0.325 0 44 211 255
-0.0875 -0.1875 -0.0375 80 175 255
-0.2 -0.375 -0.3375 32 223 255
-0.3 -0.4875 -0.0375 3 252 255
-0.225 -0.4875 0.05 3 252 255
-0.2 -0.425 0.025 19 236 255
-0.075 -0.2 -0.1875 76 179 255
-0.075 -0.375 -0.425 32 223 255
-0.3875 -0.475 0.05 6 249 255
-0.2 -0.4875 0.0375 3 252 255
-0.2125 -0.425 -0.35 19 236 255
-0.2 -0.2875 -0.0125 54 201 255
-0.25 -0.45 -0.2625 12 243 255
-0.2 -0.475 0.0375 6 249 255
-0.125 -0.3875 -0.4125 28 227 255
-0.1125 -0.3375 -0.1125 40 214 255
-0.075 -0.225 -0.3375 70 185 255
-0.125 -0.275 -0.1375 56 198 255
-0.325 -0.175 0.05 83 172 255
-0.075 -0.2125 -0.1375 73 182 255
-0.0875 -0.225 -0.3375 70 185 255
-0.175 -0.1625 -0.075 86 169 255
-0.225 -0.3875 -0.25 28 227 255
-0.325 -0.225 0.0375 70 185 255
-0.1125 -0.3375 -0.15 40 214 255
-0.075 -0.2375 -0.4 67 188 255
-0.2 -0.475 0 6 249 255
-0.3 -0.4875 0.05 3 252 255
-0.075 -0.1875 -0.35 80 175 255
-0.1 -0.3375 -0.1625 40 214 255
-0.1375 -0.1625 -0.125 86 169 255
-0.2 -0.225 0.05 70 185 255
-0.075 -0.175 -0.2625 83 172 255
-0.075 -0.275 -0.45 56 198 255
-0.075 -0.2625 -0.475 60 195 255
-0.075 -0.275 -0.45 56 198 255
-0.075 -0.325 -0.4875 44 211 255
-0.075 -0.2375 -0.325 67 188 255
-0.2 -0.1875 -0.025 80 175 255
-0.325 -0.225 0.05 70 185 255
-0.075 -0.3 -0.2375 51 204 255
-0.3 -0.35 0.05 38 217 255
-0.1875 -0.425 -0.35 19 236 255
-0.2 -0.3125 -0.0125 48 207 255
-0.1625 -0.2 -0.125 76 179 255
-0.2625 -0.4875 -0.2875 3 252 255
-0.1875 -0.3625 -0.4125 35 220 255
-0.075 -0.325 -0.0875 44 211 255
-0.3 -0.4875 0.05 3 252 255
-0.15 -0.325 -0.125 44 211 255
-0.075 -0.2125 -0.0875 73 182 255
-0.1 -0.275 -0.125 56 198 255
-0.15 -0.2125 -0.125 73 182 255
-0.075 -0.3125 -0.175 48 207 255
-0.225 -0.3125 0.05 48 207 255
-0.075 -0.2375 -0.175 67 188 255
-0.2 -0.3375 0.05 40 214 255
-0.325 -0.4 0.0375 25 230 255
-0.2125 -0.375 -0.3 32 223 255
-0.2625 -0.4875 -0.0625 3 252 255
-0.125 -0.2625 -0.125 60 195 255
-0.175 -0.3375 -0.4125 40 214 255
-0.0875 -0.2 -0.0625 76 179 255
-0.325 -0.25 0.0375 64 191 255
-0.075 -0.275 -0.5 56 198 255
-0.0875 -0.2125 -0.2375 73 182 255
-0.075 -0.3 -0.375 51 204 255
-0.075 -0.325 -0.1 44 211 255
-0.275 -0.4875 -0.3 3 252 255
-0.0875 -0.3375 -0.15 40 214 255
-0.125 -0.3 -0.125 51 204 255
-0.1125 -0.275 -0.1125 56 198 255
-0.075 -0.225 -0.325 70 185 255
-0.2 -0.3125 0.0375 48 207 255
-0.1125 -0.3375 -0.3375 40 214 255
-0.275 -0.4 0.05 25 230 255
-0.2 -0.275 0.025 56 198 255
-0.3125 -0.4 0.05 25 230 255
-0.3125 -0.4875 0.0375 3 252 255
-0.125 -0.25 -0.125 64 191 255
-0.125 -0.2875 -0.1625 54 201 255
-0.25 -0.4875 -0.3125 3 252 255
-0.2 -0.325 0.05 44 211 255
-0.075 -0.3875 -0.4875 28 227 255
-0.1125 -0.25 -0.125 64 191 255
-0.2 -0.4 -0.2125 25 230 255
-0.325 -0.25 0.05 64 191 255
-0.2 -0.1625 0 86 169 255
-0.125 -0.2625 -0.1625 60 195 255
-0.2 -0.1875 0.025 80 175 255
-0.25 -0.2125 0.05 73 182 255
-0.2625 -0.2375 0.05 67 188 255
-0.1375 -0.3375 -0.3125 40 214 255
-0.0875 -0.225 -0.1125 70 185 255
-0.075 -0.425 -0.3875 19 236 255
-0.3125 -0.4875 -0.175 3 252 255
-0.125 -0.1875 -0.125 80 175 255
-0.1625 -0.3375 -0.2375 40 214 255
-0.15 -0.4875 -0.35 3 252 255
-0.2 -0.4375 -0.025 16 239 255
-0.175 -0.3125 -0.125 48 207 255
-0.0875 -0.425 -0.4125 19 236 255
-0.3 -0.25 0.05 64 191 255
-0.075 -0.2875 -0.5 54 201 255
-0.2125 -0.45 -0.35 12 243 255
-0.3375 -0.2125 0.05 73 182 255
-0.2375 -0.375 -0.325 32 223 255
-0.2 -0.25 -0.0125 64 191 255
-0.0875 -0.2125 -0.25 73 182 255
-0.1125 -0.3375 -0.4125 40 214 255
-0.075 -0.25 -0.075 64 191 255
-0.2125 -0.2 0.05 76 179 255
-0.1375 -0.275 -0.125 56 198 255
-0.075 -0.2125 -0.4125 73 182 255
-0.075 -0.25 -0.3125 64 191 255
-0.075 -0.2 -0.325 76 179 255
-0.175 -0.4 -0.4125 25 230 255
-0.375 -0.4875 -0.025 3 252 255
-0.325 -0.4875 -0.1375 3 252 255
-0.075 -0.35 -0.15 38 217 255
-0.225 -0.3875 0.05 28 227 255
-0.2 -0.2375 -0.0125 67 188 255
-0.2125 -0.3375 0.05 40 214 255
-0.075 -0.2125 -0.4125 73 182 255
-0.0875 -0.3125 -0.0875 48 207 255
-0.1875 -0.325 -0.125 44 211 255
-0.0875 -0.25 -0.2375 64 191 255
-0.2 -0.2 -0.0125 76 179 255
-0.0875 -0.3 -0.1625 51 204 255
-0.125 -0.4375 -0.4125 16 239 255
-0.075 -0.1625 -0.1 86 169 255
-0.175 -0.3375 -0.25 40 214 255
-0.2625 -0.4875 -0.3 3 252 255
-0.075 -0.175 -0.125 83 172 255
-0.275 -0.3375 0.05 40 214 255
-0.3375 -0.4875 -0.0875 3 252 255
-0.2 -0.35 0.0375 38 217 255
-0.3125 -0.3125 0.05 48 207 255
-0.0875 -0.325 -0.3125 44 211 255
-0.2 -0.45 0.0375 12 243 255
-0.075 -0.2375 -0.275 67 188 255
-0.2 -0.4625 0.025 9 246 255
-0.325 -0.3375 0.05 40 214 255
-0.15 -0.4875 -0.35 3 252 255
-0.0875 -0.275 -0.2375 56 198 255
-0.1 -0.325 -0.125 44 211 255
-0.325 -0.4625 0.0375 9 246 255
-0.3125 -0.4875 -0.1125 3 252 255
-0.3375 -0.475 0.05 6 249 255
-0.075 -0.45 -0.3875 12 243 255
-0.1875 -0.375 -0.3 32 223 255
-0.25 -0.4375 -0.3125 16 239 255
-0.075 -0.175 -0.05 83 172 255
-0.175 -0.2625 -0.125 60 195 255
-0.175 -0.1625 -0.1125 86 169 255
-0.1 -0.3 -0.1375 51 204 255
-0.0875 -0.2625 -0.0625 60 195 255
-0.2 -0.4 0 25 230 255
-0.0875 -0.2875 -0.1 54 201 255
-0.1875 -0.1625 -0.075 86 169 255
-0.2625 -0.3375 0.05 40 214 255
-0.125 -0.3375 -0.225 40 214 255
-0.125 -0.3375 -0.4 40 214 255
-0.075 -0.1875 -0.1375 80 175 255
-0.2 -0.3375 -0.0375 40 214 255
-0.075 -0.375 -0.4875 32 223 255
-0.2 -0.1875 0.05 80 175 255
-0.2625 -0.4 0.05 25 230 255
-0.375 -0.4875 0.0375 3 252 255
-0.075 -0.1875 -0.3125 80 175 255
-0.275 -0.4875 -0.075 3 252 255
-0.2 -0.325 0.05 44 211 255
-0.075 -0.2 -0.4875 76 179 255
-0.175 -0.3375 -0.2 40 214 255
-0.0875 -0.3375 -0.3125 40 214 255
-0.2 -0.2625 0.05 60 195 255
-0.325 -0.1625 0.0375 86 169 255
-0.1 -0.35 -0.225 38 217 255
-0.325 -0.4875 0 3 252 255
-0.1 -0.2625 -0.175 60 195 255
-0.0875 -0.1625 -0.1 86 169 255
-0.2875 -0.4875 -0.15 3 252 255
-0.1875 -0.3375 -0.2375 40 214 255
-0.1625 -0.275 -0.125 56 198 255
-0.275 -0.325 0.05 44 211 255
-0.0875 -0.3375 -0.25 40 214 255
-0.2375 -0.4875 0.05 3 252 255
-0.175 -0.225 -0.125 70 185 255
-0.1875 -0.3375 -0.2 40 214 255
-0.3 -0.4875 -0.15 3 252 255
-0.3625 -0.4875 -0.0125 3 252 255
-0.1625 -0.375 -0.4125 32 223 255
-0.1875 -0.475 -0.35 6 249 255
-0.1875 -0.175 -0.125 83 172 255
-0.25 -0.4875 0.0125 3 252 255
-0.3 -0.4875 -0.0125 3 252 255
-0.35 -0.4875 0.0375 3 252 255
-0.225 -0.4 -0.25 25 230 255
-0.075 -0.2 -0.4375 76 179 255
-0.2 -0.15 -0.025 89 166 255
-0.1875 -0.4875 -0.275 3 252 255
-0.2125 -0.4 -0.25 25 230 255
-0.15 -0.3375 -0.3625 40 214 255
-0.0875 -0.2375 -0.25 67 188 255
-0.2 -0.2 -0.025 76 179 255
-0.3625 -0.4875 -0.125 3 252 255
-0.1125 -0.225 -0.125 70 185 255
-0.15 -0.3375 -0.4 40 214 255
-0.075 -0.2875 -0.4875 54 201 255
-0.075 -0.25 -0.1125 64 191 255
-0.0875 -0.225 -0.2375 70 185 255
-0.075 -0.325 -0.15 44 211 255
-0.1625 -0.15 -0.0375 89 166 255
-0.0875 -0.2625 -0.125 60 195 255
-0.3125 -0.4875 -0.0375 3 252 255
-0.075 -0.2125 -0.3125 73 182 255
-0.125 -0.3375 -0.2375 40 214 255
-0.0875 -0.25 -0.1 64 191 255
-0.075 -0.15 -0.05 89 166 255
-0.175 -0.425 -0.3125 19 236 255
-0.075 -0.225 -0.1875 70 185 255
-0.2 -0.175 0 83 172 255
-0.325 -0.475 0.0375 6 249 255
-0.325 -0.4875 -0.2625 3 252 255
-0.1 -0.3375 -0.15 40 214 255
-0.3 -0.4875 0.0375 3 252 255
-0.1375 -0.35 -0.125 38 217 255
-0.225 -0.4375 -0.35 16 239 255
-0.075 -0.3625 -0.425 35 220 255
-0.075 -0.475 -0.3625 6 249 255
-0.175 -0.4125 -0.2875 22 233 255
-0.0875 -0.2125 -0.35 73 182 255
-0.075 -0.3375 -0.475 40 214 255
-0.0875 -0.3125 -0.3125 48 207 255
-0.3125 -0.4875 -0.0375 3 252 255
-0.1 -0.3 -0.1375 51 204 255
-0.075 -0.2 -0.475 76 179 255
-0.075 -0.2125 -0.4625 73 182 255
-0.075 -0.3125 -0.4375 48 207 255
-0.075 -0.2875 -0.3375 54 201 255
-0.25 -0.4875 -0.225 3 252 255
-0.1625 -0.35 -0.225 38 217 255
-0.2 -0.4625 0 9 246 255
-0.075 -0.3 -0.1625 51 204 255
-0.1125 -0.2625 -0.15 60 195 255
-0.125 -0.15 -0.05 89 166 255
-0.075 -0.35 -0.175 38 217 255
-0.2375 -0.275 0.05 56 198 255
-0.175 -0.45 -0.2875 12 243 255
-0.075 -0.275 -0.1875 56 198 255
-0.1 -0.4 -0.4125 25 230 255
-0.3 -0.2875 0.05 54 201 255
-0.2125 -0.375 0.05 32 223 255
-0.1625 -0.1625 -0.0875 86 169 255
-0.075 -0.175 -0.075 83 172 255
-0.1 -0.2375 -0.1125 67 188 255
-0.3625 -0.4875 -0.05 3 252 255
-0.15 -0.275 -0.125 56 198 255
-0.075 -0.175 -0.175 83 172 255
-0.2625 -0.4875 -0.225 3 252 255
-0.175 -0.4875 -0.325 3 252 255
-0.075 -0.1625 -0.05 86 169 255
-0.25 -0.3625 0.05 35 220 255
-0.075 -0.425 -0.375 19 236 255
-0.1125 -0.35 -0.125 38 217 255
-0.325 -0.4875 -0.225 3 252 255
-0.175 -0.3 -0.125 51 204 255
-0.1 -0.325 -0.175 44 211 255
-0.1125 -0.4 -0.4125 25 230 255
-0.25 -0.4625 -0.2875 9 246 255
-0.075 -0.25 -0.35 64 191 255
-0.35 -0.475 0.05 6 249 255
-0.175 -0.325 -0.125 44 211 255
-0.125 -0.4375 -0.4125 16 239 255
-0.2 -0.1875 0.05 80 175 255
-0.2125 -0.45 -0.35 12 243 255
-0.2625 -0.4125 0.05 22 233 255
-0.0875 -0.325 -0.25 44 211 255
-0.275 -0.45 0.05 12 243 255
-0.175 -0.4125 -0.25 22 233 255
-0.15 -0.15 -0.05 89 166 255
-0.075 -0.2 -0.375 76 179 255
-0.175 -0.4625 -0.3 9 246 255
-0.1625 -0.3375 -0.3125 40 214 255
-0.2375 -0.375 -0.275 32 223 255
-0.325 -0.2 0.05 76 179 255
-0.3625 -0.4875 -0.125 3 252 255
-0.075 -0.4125 -0.35 22 233 255
-0.2625 -0.4625 0.05 9 246 255
-0.0875 -0.175 -0.25 83 172 255
-0.1 -0.325 -0.1125 44 211 255
-0.3125 -0.4875 -0.075 3 252 255
-0.075 -0.3 -0.4625 51 204 255
-0.325 -0.2125 0.0375 73 182 255
-0.1875 -0.3375 -0.125 40 214 255
-0.075 -0.3125 -0.125 48 207 255
-0.275 -0.225 0.05 70 185 255
-0.175 -0.425 -0.3125 19 236 255
-0.2 -0.425 0.0125 19 236 255
-0.075 -0.375 -0.475 32 223 255
-0.1 -0.2625 -0.175 60 195 255
-0.075 -0.35 -0.3125 38 217 255
-0.2 -0.425 0.0125 19 236 255
-0.075 -0.325 -0.4125 44 211 255
-0.2375 -0.3375 0.05 40 214 255
-0.175 -0.2 -0.125 76 179 255
-0.125 -0.3375 -0.2 40 214 255
-0.35 -0.4875 0.025 3 252 255
-0.075 -0.35 -0.325 38 217 255
-0.225 -0.375 -0.275 32 223 255
-0.3 -0.4625 0.05 9 246 255
-0.2 -0.4625 -0.35 9 246 255
-0.2375 -0.4875 0.05 3 252 255
-0.0875 -0.2 -0.0375 76 179 255
-0.075 -0.3125 -0.1 48 207 255
-0.075 -0.3125 -0.4625 48 207 255
-0.125 -0.35 -0.225 38 217 255
-0.075 -0.2 -0.4625 76 179 255
-0.075 -0.225 -0.2625 70 185 255
-0.175 -0.4375 -0.275 16 239 255
-0.2125 -0.3875 -0.25 28 227 255
-0.25 -0.475 0.05 6 249 255
-0.2875 -0.4875 0.0375 3 252 255
-0.25 -0.4875 -0.3 3 252 255
-0.075 -0.325 -0.1375 44 211 255
-0.2625 -0.375 0.05 32 223 255
-0.075 -0.2125 -0.4625 73 182 255
-0.075 -0.3 -0.1625 51 204 255
-0.175 -0.3375 -0.2375 40 214 255
-0.2625 -0.4 0.05 25 230 255
-0.3125 -0.4875 -0.2125 3 252 255
-0.075 -0.225 -0.075 70 185 255
-0.075 -0.1875 -0.05 80 175 255
-0.075 -0.2 -0.375 76 179 255
-0.075 -0.2125 -0.45 73 182 255
-0.0875 -0.2875 -0.15 54 201 255
-0.1375 -0.3375 -0.3875 40 214 255
-0.3125 -0.4875 -0.0625 3 252 255
-0.1 -0.3375 -0.1375 40 214 255
-0.0875 -0.3375 -0.325 40 214 255
-0.125 -0.2875 -0.15 54 201 255
-0.2 -0.1875 0 80 175 255
-0.275 -0.4875 -0.2 3 252 255
-0.275 -0.4875 -0.1875 3 252 255
-0.2125 -0.3625 0.05 35 220 255
