ply
format ascii 1.0
comment Created by Open3D
element vertex 1515
property double x
property double y
property double z
property uchar red
property uchar green
property uchar blue
end_header
0.1375 -0.3375 0.3125 40 214 255
-0.1 -0.4875 -0.475 3 252 255
-0.2125 -0.475 -0.3125 6 249 255
0.05 0.075 -0.2 147 108 255
-0.2375 0.075 -0.275 147 108 255
0.275 -0.1125 -0.475 99 156 255
-0.275 -0.4875 0.1625 3 252 255
-0.3 -0.4875 0 3 252 255
-0.125 0.075 -0.4375 147 108 255
0.05 0.075 -0.4375 147 108 255
-0.4875 0.075 -0.4125 147 108 255
0.2125 -0.3625 -0.4625 35 220 255
-0.475 -0.4875 -0.325 3 252 255
-0.0375 -0.4875 -0.0875 3 252 255
0.05 -0.4875 -0.3375 3 252 255
0.175 -0.35 0.375 38 217 255
0 0.075 -0.25 147 108 255
-0.1625 -0.275 -0.375 56 198 255
-0.15 -0.4875 0.125 3 252 255
-0.2625 0.075 -0.2625 147 108 255
-0.025 -0.4875 0.1625 3 252 255
-0.0125 -0.4875 -0.3375 3 252 255
0 -0.4875 0.0375 3 252 255
-0.4625 -0.4875 -0.3375 3 252 255
-0.025 -0.4875 -0.4375 3 252 255
0.05 0.075 -0.4625 147 108 255
0.175 -0.075 0.05 108 147 255
-0.0125 0.075 -0.35 147 108 255
-0.175 -0.4875 0.2375 3 252 255
-0.325 -0.45 -0.3 12 243 255
0.0125 -0.4875 -0.125 3 252 255
0.15 0.075 -0.475 147 108 255
0.125 -0.4375 0.425 16 239 255
-0.1125 -0.4 -0.475 25 230 255
-0.4375 0.075 -0.4875 147 108 255
-0.0125 -0.4875 -0.225 3 252 255
-0.2 -0.4125 -0.375 22 233 255
-0.2125 0.075 -0.3875 147 108 255
0.1875 -0.3125 0.0375 48 207 255
0.15 -0.3625 0.0125 35 220 255
-0.05 -0.4875 -0.4 3 252 255
-0.3875 -0.475 -0.3 6 249 255
-0.2875 -0.3375 -0.325 40 214 255
-0.4375 -0.4875 -0.1625 3 252 255
-0.0875 0.075 -0.4375 147 108 255
-0.2125 -0.4875 -0.3 3 252 255
-0.4 -0.4875 -0.3625 3 252 255
-0.125 -0.4875 -0.075 3 252 255
-0.4625 -0.4875 -0.3875 3 252 255
0.0625 0.075 -0.175 147 108 255
-0.0375 -0.4875 0.0375 3 252 255
-0.425 0.075 -0.4625 147 108 255
-0.4875 -0.4875 -0.2 3 252 255
0.275 -0.1875 0.2125 80 175 255
0.1 -0.3625 0.275 35 220 255
0.25 0.075 -0.3375 147 108 255
-0.225 -0.4875 -0.0125 3 252 255
0.025 0.075 -0.1875 147 108 255
0.0125 -0.4875 -0.175 3 252 255
-0.3625 -0.4875 -0.1375 3 252 255
-0.3125 0.075 -0.35 147 108 255
0.1375 -0.175 0 83 172 255
0.275 0.0625 -0.3 144 111 255
0.0125 0.075 -0.3375 147 108 255
0.25 -0.075 0.1 108 147 255
0.0875 -0.4125 0.4375 22 233 255
-0.5 0.075 -0.475 147 108 255
0.15 -0.1375 0.0125 92 163 255
-0.1375 -0.4875 0.0875 3 252 255
-0.1375 -0.3375 -0.3125 40 214 255
-0.0375 0.075 -0.325 147 108 255
0.275 -0.05 0.075 115 140 255
-0.3125 -0.4875 0.1125 3 252 255
0.1875 -0.0875 0.0375 105 150 255
-0.2875 -0.4875 -0.325 3 252 255
-0.0125 -0.4875 0.25 3 252 255
-0.325 -0.3375 -0.3875 40 214 255
0.275 -0.2 -0.4875 76 179 255
0.2375 -0.125 0.0875 96 159 255
-0.05 -0.3375 -0.425 40 214 255
0.15 0.075 -0.45 147 108 255
0.2125 -0.3 0.05 51 204 255
0.275 -0.3 0.1375 51 204 255
-0.15 -0.475 -0.5 6 249 255
-0.0875 -0.4875 -0.0625 3 252 255
-0.5 0.075 -0.425 147 108 255
-0.15 -0.4875 -0.3375 3 252 255
0.1375 -0.1375 0 92 163 255
0.1875 -0.2625 0.0375 60 195 255
-0.175 -0.4875 0.1875 3 252 255
-0.3 0.075 -0.425 147 108 255
0.1375 -0.3625 0.3625 35 220 255
-0.3125 0.075 -0.2625 147 108 255
0.2625 -0.1625 0.0875 86 169 255
0.275 -0.2375 0.175 67 188 255
-0.35 -0.4375 -0.3 16 239 255
0.275 -0.1 0.125 102 153 255
0.275 -0.3375 0.2125 40 214 255
-0.375 -0.4125 -0.3 22 233 255
0.275 -0.125 0.2375 96 159 255
-0.4125 -0.4875 -0.1125 3 252 255
-0.4875 -0.4875 -0.175 3 252 255
-0.3875 0.075 -0.225 147 108 255
0.025 -0.3375 0.2875 40 214 255
0.1875 -0.4 -0.4125 25 230 255
-0.15 -0.4875 -0.25 3 252 255
0 -0.4875 0.0625 3 252 255
-0.35 -0.4 -0.3 25 230 255
-0.175 -0.4875 0.0375 3 252 255
-0.0625 -0.4875 0.1375 3 252 255
-0.0625 -0.4875 -0.475 3 252 255
-0.275 -0.4875 -0.2375 3 252 255
0.2125 -0.1125 0.05 99 156 255
0.125 -0.35 0.275 38 217 255
-0.15 -0.4875 -0.45 3 252 255
-0.0375 -0.4875 0.2 3 252 255
-0.5 -0.4875 -0.425 3 252 255
0.1375 -0.0875 0.0125 105 150 255
-0.15 -0.3375 -0.3 40 214 255
-0.175 -0.4875 -0.0125 3 252 255
0.1 0.075 -0.375 147 108 255
-0.3625 -0.3 -0.35 51 204 255
0.1875 0.075 -0.5 147 108 255
-0.1875 -0.4875 -0.05 3 252 255
-0.3 -0.4375 -0.35 16 239 255
-0.1 -0.4875 0.15 3 252 255
-0.0625 -0.4875 -0.4625 3 252 255
-0.3625 -0.4875 -0.1 3 252 255
-0.0875 -0.4875 -0.05 3 252 255
-0.175 -0.25 -0.3625 64 191 255
0.25 0.075 -0.1625 147 108 255
-0.225 0.075 -0.3 147 108 255
-0.2625 -0.4 -0.3 25 230 255
-0.3125 -0.4875 -0.0125 3 252 255
-0.025 -0.375 0.35 32 223 255
-0.2375 -0.4875 -0.275 3 252 255
-0.0875 -0.4875 -0.175 3 252 255
-0.1 -0.4875 -0.2375 3 252 255
-0.3625 -0.4875 -0.275 3 252 255
0.2375 0.075 -0.3625 147 108 255
-0.0375 -0.4875 0.3125 3 252 255
-0.3625 -0.4125 -0.3 22 233 255
0.275 -0.1875 0.225 80 175 255
0.025 0.075 -0.35 147 108 255
-0.35 -0.425 -0.3 19 236 255
-0.025 -0.4875 0.125 3 252 255
-0.15 0.075 -0.3 147 108 255
-0.4375 -0.4875 -0.2125 3 252 255
-0.1375 -0.4875 0.075 3 252 255
0.0125 -0.4875 -0.3625 3 252 255
-0.35 0.075 -0.45 147 108 255
-0.2125 0.075 -0.2875 147 108 255
0.1625 -0.2375 0.0375 67 188 255
-0.125 0.075 -0.325 147 108 255
-0.2125 -0.3375 -0.3375 40 214 255
0.2 0.075 -0.475 147 108 255
-0.1125 0.075 -0.3 147 108 255
-0.1375 -0.4875 0.2125 3 252 255
-0.1 0.075 -0.3875 147 108 255
0.275 -0.15 0.125 89 166 255
-0.4875 -0.4875 -0.2625 3 252 255
-0.2375 -0.4875 -0.1 3 252 255
-0.425 0.075 -0.25 147 108 255
-0.1875 -0.4125 -0.425 22 233 255
-0.0375 0.075 -0.2125 147 108 255
-0.1625 -0.4875 -0.075 3 252 255
-0.1 -0.4 -0.4375 25 230 255
0.2125 -0.325 -0.375 44 211 255
0.1875 -0.425 0.35 19 236 255
-0.2625 -0.4375 -0.3 16 239 255
-0.2 -0.425 -0.3 19 236 255
-0.0125 -0.4875 -0.25 3 252 255
-0.45 -0.4875 -0.1375 3 252 255
0.0625 -0.3375 0.3125 40 214 255
0.05 0.075 -0.4875 147 108 255
0.275 -0.0875 0.1125 105 150 255
0.2 0.075 -0.325 147 108 255
-0.1375 -0.4875 0.275 3 252 255
0.225 -0.25 0.0625 64 191 255
-0.3875 -0.3875 -0.3 28 227 255
0.1375 -0.35 0 38 217 255
0.0125 -0.4875 -0.075 3 252 255
-0.3375 -0.4875 -0.2375 3 252 255
-0.125 -0.3375 -0.35 40 214 255
0.275 -0.0875 0.15 105 150 255
0.225 -0.275 0.0625 56 198 255
-0.1625 -0.4875 -0.025 3 252 255
0.2125 -0.3125 -0.3 48 207 255
0.1 0.075 -0.3875 147 108 255
0 -0.3625 0.4375 35 220 255
-0.1125 0.075 -0.4625 147 108 255
0.225 0.075 -0.4375 147 108 255
-0.0625 0.075 -0.2625 147 108 255
0.1625 -0.3875 0.4 28 227 255
-0.2 -0.275 -0.3625 56 198 255
-0.125 -0.4 -0.4625 25 230 255
-0.2625 -0.4875 -0.1 3 252 255
-0.25 -0.375 -0.3375 32 223 255
-0.15 -0.4875 -0.125 3 252 255
0.2375 -0.325 -0.3625 44 211 255
0.275 -0.2875 0.1875 54 201 255
0.25 -0.3375 0.075 40 214 255
-0.475 0.075 -0.275 147 108 255
-0.125 -0.25 -0.375 64 191 255
0.275 -0.075 0.1875 108 147 255
0.1625 -0.2 0.0125 76 179 255
0.275 -0.275 0.1875 56 198 255
-0.25 0.075 -0.275 147 108 255
0.25 -0.25 0.075 64 191 255
0.075 0.075 -0.2125 147 108 255
-0.0625 -0.4875 0.125 3 252 255
0.275 0.0625 -0.2375 144 111 255
-0.175 0.075 -0.45 147 108 255
-0.125 -0.4875 -0.175 3 252 255
-0.3625 0.075 -0.3375 147 108 255
-0.1125 -0.275 -0.3625 56 198 255
-0.125 -0.4875 -0.2125 3 252 255
0.1875 -0.125 0.0375 96 159 255
-0.175 -0.4875 -0.2375 3 252 255
-0.025 -0.4875 -0.325 3 252 255
0.175 -0.1625 0.025 86 169 255
-0.4375 0.075 -0.275 147 108 255
-0.1875 0.075 -0.2375 147 108 255
0.275 0 -0.05 128 127 255
-0.325 -0.4875 0.05 3 252 255
-0.2 -0.375 -0.3 32 223 255
-0.4375 -0.3375 -0.425 40 214 255
-0.2 -0.3625 -0.4 35 220 255
-0.2875 -0.4875 0.0875 3 252 255
-0.1875 -0.275 -0.375 56 198 255
-0.0875 -0.4875 -0.1125 3 252 255
0 -0.3875 0.475 28 227 255
0.0375 -0.4875 -0.3 3 252 255
-0.1375 -0.4 -0.425 25 230 255
0.2125 -0.325 -0.3625 44 211 255
-0.175 -0.275 -0.375 56 198 255
-0.3875 -0.4875 -0.1875 3 252 255
0.275 -0.0125 -0.1 124 131 255
-0.0375 -0.4 0.4625 25 230 255
-0.05 -0.4875 -0.3125 3 252 255
-0.125 -0.3375 -0.3 40 214 255
-0.0125 -0.4875 0.1625 3 252 255
0.15 -0.4125 0.4125 22 233 255
0.0625 0.075 -0.275 147 108 255
-0.1875 0.075 -0.2 147 108 255
-0.2375 -0.375 -0.375 32 223 255
-0.15 -0.4875 -0.225 3 252 255
0.0125 0.075 -0.25 147 108 255
-0.075 -0.4875 -0.4375 3 252 255
-0.0375 -0.3625 0.475 35 220 255
-0.3 -0.375 -0.4875 32 223 255
-0.25 -0.4875 0.025 3 252 255
0.275 0.075 -0.2 147 108 255
0.125 -0.4125 0.3875 22 233 255
-0.1625 -0.4875 0.2375 3 252 255
-0.025 0.075 -0.5 147 108 255
-0.175 -0.4875 -0.25 3 252 255
0.0625 -0.3625 0.35 35 220 255
-0.0625 0.075 -0.425 147 108 255
0.2375 0.075 -0.25 147 108 255
0.2 -0.2375 0.05 67 188 255
-0.2 -0.4875 -0.1 3 252 255
-0.275 -0.4875 0.0625 3 252 255
-0.1 -0.2875 -0.375 54 201 255
0.2125 -0.3 -0.4375 51 204 255
-0.425 0.075 -0.4125 147 108 255
0.175 -0.4375 0.375 16 239 255
0.275 -0.35 0.25 38 217 255
-0.0125 -0.475 -0.425 6 249 255
0.275 -0.3 0.25 51 204 255
0.0875 -0.4875 -0.5 3 252 255
-0.425 -0.4875 -0.3375 3 252 255
-0.4125 -0.3875 -0.3 28 227 255
0.175 -0.3625 0.0375 35 220 255
-0.15 0.075 -0.325 147 108 255
-0.3125 -0.4875 0.1625 3 252 255
0.275 -0.05 0.025 115 140 255
0 -0.3625 0.475 35 220 255
0.2625 -0.075 0.125 108 147 255
-0.2625 0.075 -0.475 147 108 255
0.2625 -0.15 0.1125 89 166 255
-0.1125 -0.4125 -0.4375 22 233 255
-0.15 -0.4875 -0.4875 3 252 255
0.25 -0.2875 0.1 54 201 255
0.1375 -0.1125 0 99 156 255
0.25 0.075 -0.4375 147 108 255
-0.3875 -0.4875 -0.3625 3 252 255
-0.2375 0.075 -0.375 147 108 255
0.0375 0.075 -0.425 147 108 255
-0.0625 -0.4875 -0.375 3 252 255
-0.3625 0.075 -0.275 147 108 255
-0.05 0.075 -0.4625 147 108 255
-0.4 0.075 -0.45 147 108 255
-0.4625 0.075 -0.2375 147 108 255
-0.3125 0.075 -0.5 147 108 255
-0.0875 -0.4875 0.225 3 252 255
-0.2625 -0.3375 -0.35 40 214 255
-0.075 -0.4875 0 3 252 255
-0.375 -0.4875 -0.1 3 252 255
0.15 -0.275 0.025 56 198 255
-0.1 0.075 -0.2375 147 108 255
-0.35 -0.4875 -0.1125 3 252 255
0.2375 -0.1 0.0875 102 153 255
-0.375 -0.4875 -0.35 3 252 255
-0.3625 -0.4875 -0.325 3 252 255
0.25 0.075 -0.3875 147 108 255
-0.2875 -0.375 -0.3625 32 223 255
-0.0625 -0.3375 -0.35 40 214 255
0.275 -0.2125 0.1375 73 182 255
-0.05 -0.3375 -0.3875 40 214 255
0.25 -0.225 0.075 70 185 255
-0.3875 -0.4875 -0.0375 3 252 255
-0.475 -0.4875 -0.3625 3 252 255
-0.3125 -0.4875 -0.0875 3 252 255
-0.1 -0.4875 -0.3 3 252 255
-0.175 -0.4875 -0.0375 3 252 255
0.275 -0.1375 0.2 92 163 255
-0.275 -0.475 -0.3375 6 249 255
-0.3625 -0.4875 -0.1625 3 252 255
-0.25 -0.4875 0.2625 3 252 255
-0.2625 0.075 -0.4875 147 108 255
-0.2625 0.075 -0.45 147 108 255
0.025 -0.425 0.4375 19 236 255
-0.025 -0.3625 0.3875 35 220 255
-0.4375 -0.4875 -0.275 3 252 255
0.1125 0.075 -0.2625 147 108 255
0.2375 0.075 -0.4 147 108 255
-0.2125 -0.4875 -0.0625 3 252 255
-0.2625 -0.4875 -0.325 3 252 255
0.2625 -0.1 0.125 102 153 255
-0.225 -0.4875 -0.2625 3 252 255
-0.075 0.075 -0.2875 147 108 255
-0.1125 -0.4875 0.2375 3 252 255
-0.1375 -0.3 -0.35 51 204 255
-0.2 -0.475 -0.3 6 249 255
-0.05 -0.4875 -0.3625 3 252 255
-0.4625 -0.4875 -0.1625 3 252 255
-0.175 -0.4 -0.475 25 230 255
-0.075 -0.4875 0.0625 3 252 255
0.1375 0.075 -0.2125 147 108 255
0.1375 -0.125 0.0125 96 159 255
-0.1 -0.4875 0.1125 3 252 255
0.225 -0.3125 0.0625 48 207 255
0.2125 -0.3 0.075 51 204 255
-0.225 -0.4875 0.125 3 252 255
0.1 0.075 -0.3 147 108 255
0.075 -0.4875 -0.4375 3 252 255
-0.1875 -0.3375 -0.3375 40 214 255
0.025 -0.4125 -0.4125 22 233 255
-0.225 -0.4875 0.0125 3 252 255
-0.2625 -0.4875 -0.2875 3 252 255
0.1625 -0.3875 0.3875 28 227 255
0.15 0.075 -0.3 147 108 255
-0.025 -0.4875 -0.0875 3 252 255
-0.475 0.075 -0.325 147 108 255
-0.375 -0.4875 0.05 3 252 255
-0.075 0.075 -0.4125 147 108 255
-0.175 -0.4875 -0.4125 3 252 255
0.2125 -0.325 -0.3875 44 211 255
0.1875 0.075 -0.425 147 108 255
-0.2625 0.075 -0.25 147 108 255
-0.15 -0.4875 -0.1875 3 252 255
-0.4125 -0.4 -0.3 25 230 255
-0.125 -0.2625 -0.375 60 195 255
0.275 -0.3625 0.1875 35 220 255
0.1125 0.075 -0.4375 147 108 255
-0.4 -0.4875 -0.325 3 252 255
-0.1125 -0.4875 -0.3625 3 252 255
0.275 0.0625 -0.4875 144 111 255
0.275 -0.0875 0.1375 105 150 255
-0.375 0.075 -0.275 147 108 255
-0.2 0.075 -0.35 147 108 255
0.0625 -0.3375 0.275 40 214 255
-0.125 -0.3375 -0.3125 40 214 255
0.05 -0.35 0.275 38 217 255
0 -0.4875 -0.1125 3 252 255
0.1 0.075 -0.3375 147 108 255
-0.0875 -0.4875 -0.0875 3 252 255
-0.0875 -0.2625 -0.3625 60 195 255
-0.175 0.075 -0.4625 147 108 255
0.1875 -0.1375 0.0375 92 163 255
-0.025 -0.35 0.425 38 217 255
0 -0.4875 0.05 3 252 255
-0.4 -0.4875 -0.1125 3 252 255
0.275 -0.3375 0.1 40 214 255
-0.1875 -0.4875 -0.125 3 252 255
-0.275 0.075 -0.325 147 108 255
-0.175 -0.3375 -0.3375 40 214 255
-0.125 -0.4875 -0.1625 3 252 255
0.0125 -0.4125 -0.3875 22 233 255
-0.2 0.075 -0.3125 147 108 255
-0.1125 -0.4 -0.4625 25 230 255
0.1375 -0.3 0 51 204 255
0.075 0.075 -0.4375 147 108 255
-0.4125 0.075 -0.45 147 108 255
-0.2125 -0.375 -0.375 32 223 255
-0.35 -0.3375 -0.4125 40 214 255
0.075 -0.4875 -0.4625 3 252 255
-0.1 0.075 -0.2625 147 108 255
-0.1625 0.075 -0.3625 147 108 255
-0.0375 -0.4875 -0.1625 3 252 255
-0.1875 -0.4 -0.4375 25 230 255
-0.0375 -0.4875 -0.05 3 252 255
0.175 -0.3625 0.375 35 220 255
-0.025 -0.4875 -0.1375 3 252 255
0.275 -0.1125 0.1875 99 156 255
-0.4125 -0.4875 -0.225 3 252 255
-0.45 -0.4875 -0.1875 3 252 255
-0.3125 -0.4875 -0.3625 3 252 255
-0.1125 -0.3625 -0.4875 35 220 255
-0.1625 -0.4875 -0.2125 3 252 255
-0.0375 -0.4875 -0.3375 3 252 255
-0.4 -0.3375 -0.4625 40 214 255
-0.4625 0.075 -0.4125 147 108 255
0.2625 -0.05 0.0375 115 140 255
0.25 -0.15 0.1 89 166 255
0.1375 -0.3375 0.3 40 214 255
0.0625 -0.4125 0.425 22 233 255
0.1875 -0.3625 0.0375 35 220 255
0.1625 -0.125 0.0125 96 159 255
-0.2 0.075 -0.275 147 108 255
0.275 -0.35 0.15 38 217 255
0.0375 -0.475 -0.3875 6 249 255
-0.175 0.075 -0.2 147 108 255
-0.3 -0.4375 -0.375 16 239 255
-0.1625 -0.3375 -0.3 40 214 255
-0.0625 -0.4875 0.1 3 252 255
0.15 0.075 -0.425 147 108 255
-0.025 0.075 -0.3 147 108 255
-0.1625 0.075 -0.4375 147 108 255
-0.3375 -0.4875 -0.35 3 252 255
-0.3875 -0.4375 -0.3 16 239 255
-0.4125 -0.4875 -0.2 3 252 255
-0.1125 0.075 -0.4125 147 108 255
0.275 -0.1875 0.1625 80 175 255
-0.2875 0.075 -0.4 147 108 255
0.1375 -0.175 0.0125 83 172 255
-0.2625 -0.4875 -0.1125 3 252 255
0.075 0.075 -0.3 147 108 255
0.2625 -0.3125 0.0875 48 207 255
-0.0125 -0.3375 -0.3625 40 214 255
-0.375 -0.4875 -0.0125 3 252 255
-0.175 -0.4875 -0.025 3 252 255
-0.1625 0.075 -0.2625 147 108 255
-0.05 -0.4875 -0.15 3 252 255
-0.15 -0.4125 -0.45 22 233 255
0.0125 -0.3625 0.2625 35 220 255
0.2375 -0.1125 0.0625 99 156 255
-0.3125 -0.4875 0.1 3 252 255
-0.0875 -0.4875 0.2625 3 252 255
0.275 -0.275 0.175 56 198 255
-0.275 -0.4875 -0.0625 3 252 255
-0.2 -0.35 -0.3375 38 217 255
0.075 -0.35 0.35 38 217 255
0 -0.4875 -0.1625 3 252 255
0.2625 -0.3375 0.0875 40 214 255
-0.5 0.075 -0.3625 147 108 255
-0.1125 0.075 -0.425 147 108 255
0.175 -0.2125 0.025 73 182 255
0 -0.4 0.475 25 230 255
-0.3125 -0.4875 -0.175 3 252 255
-0.1125 -0.4875 -0.05 3 252 255
0.275 0.075 -0.3125 147 108 255
0.1875 0.075 -0.25 147 108 255
-0.4625 0.075 -0.275 147 108 255
-0.375 -0.3375 -0.425 40 214 255
-0.325 -0.3375 -0.3375 40 214 255
0.275 -0.325 0.175 44 211 255
0.1 0.075 -0.4 147 108 255
0.275 0.0375 -0.1125 137 118 255
0.0375 0.075 -0.4875 147 108 255
-0.3125 -0.4875 0.2 3 252 255
0.1875 -0.3625 -0.3 35 220 255
0.1875 -0.3625 -0.4 35 220 255
0.1375 -0.25 0 64 191 255
0.175 -0.2375 0.0375 67 188 255
0.15 -0.425 0.4125 19 236 255
-0.225 -0.375 -0.3 32 223 255
-0.2125 0.075 -0.3125 147 108 255
0.05 0.075 -0.175 147 108 255
-0.15 -0.4875 -0.5 3 252 255
-0.4875 -0.4875 -0.4125 3 252 255
0.275 0.025 -0.275 134 121 255
0.0125 -0.4875 -0.3875 3 252 255
-0.3625 -0.4875 -0.2125 3 252 255
-0.1625 -0.4875 0.1625 3 252 255
0.0625 -0.35 0.35 38 217 255
-0.05 -0.4875 0.2 3 252 255
-0.2625 -0.3375 -0.4125 40 214 255
0.275 0.0375 -0.325 137 118 255
0.025 -0.4875 -0.4 3 252 255
-0.45 0.075 -0.3875 147 108 255
0.2 -0.325 -0.4375 44 211 255
-0.3125 -0.3875 -0.3 28 227 255
-0.1625 -0.3375 -0.3625 40 214 255
0.2375 -0.25 0.0875 64 191 255
-0.1 0.075 -0.35 147 108 255
0.1625 0.075 -0.2625 147 108 255
0.275 -0.175 -0.4875 83 172 255
-0.175 -0.4875 -0.175 3 252 255
-0.2875 0.075 -0.45 147 108 255
-0.025 -0.4875 0.2625 3 252 255
0.275 -0.1625 0.2375 86 169 255
-0.075 -0.3375 -0.3875 40 214 255
-0.3 0.075 -0.2375 147 108 255
-0.0875 -0.3125 -0.375 48 207 255
0.0125 -0.4875 -0.2625 3 252 255
0.0125 -0.3875 0.425 28 227 255
-0.2875 -0.375 -0.4 32 223 255
-0.1875 -0.25 -0.3625 64 191 255
0.225 -0.125 0.075 96 159 255
0.275 0.05 -0.15 140 114 255
-0.2875 -0.375 -0.3125 32 223 255
-0.1 0.075 -0.2125 147 108 255
-0.4125 -0.4375 -0.3 16 239 255
-0.425 -0.4875 -0.1875 3 252 255
0.2625 0.075 -0.4 147 108 255
-0.2625 -0.4875 -0.3 3 252 255
0.275 -0.0875 0.1875 105 150 255
-0.15 0.075 -0.2625 147 108 255
0.2625 -0.175 0.125 83 172 255
-0.0125 0.075 -0.2375 147 108 255
-0.0625 0.075 -0.3625 147 108 255
-0.4125 0.075 -0.225 147 108 255
-0.475 0.075 -0.375 147 108 255
0.0375 -0.4125 0.425 22 233 255
-0.075 -0.4875 0.0375 3 252 255
0.2625 -0.15 0.125 89 166 255
-0.1375 -0.4875 -0.0125 3 252 255
0.275 0.0375 -0.2375 137 118 255
-0.4875 0.075 -0.3875 147 108 255
-0.075 -0.4875 -0.4125 3 252 255
0.1875 -0.3875 -0.3875 28 227 255
-0.4375 -0.4875 -0.1125 3 252 255
0.025 -0.3375 0.3 40 214 255
-0.3 0.075 -0.4125 147 108 255
0.2125 -0.325 -0.425 44 211 255
-0.0625 -0.4875 0.225 3 252 255
-0.1625 0.075 -0.325 147 108 255
0.275 0.05 -0.1625 140 114 255
0.225 -0.325 -0.325 44 211 255
0.275 -0.2375 0.15 67 188 255
-0.3125 -0.4875 -0.075 3 252 255
-0.0625 -0.4875 -0.175 3 252 255
-0.15 -0.3375 -0.4 40 214 255
-0.3 -0.3625 -0.4125 35 220 255
-0.0625 -0.4875 -0.3625 3 252 255
-0.3875 -0.4875 -0.3375 3 252 255
-0.1875 -0.4875 0 3 252 255
-0.175 -0.4875 -0.125 3 252 255
0.275 -0.275 0.1125 56 198 255
0.275 -0.3125 0.2125 48 207 255
-0.1125 -0.4875 0.0875 3 252 255
-0.025 -0.35 0.35 38 217 255
-0.175 -0.4875 0.1 3 252 255
0.125 0.075 -0.3875 147 108 255
0.0375 0.075 -0.4375 147 108 255
-0.3375 -0.4875 -0.3375 3 252 255
0 -0.4875 -0.1875 3 252 255
0.175 -0.3375 0.025 40 214 255
0.2125 -0.1625 0.075 86 169 255
0.2125 -0.3 -0.3 51 204 255
-0.0125 0.075 -0.2 147 108 255
0.2 -0.0875 0.05 105 150 255
-0.4375 0.075 -0.3375 147 108 255
-0.3875 -0.4875 0.05 3 252 255
-0.45 0.075 -0.2875 147 108 255
0.125 0.075 -0.2125 147 108 255
-0.2375 0.075 -0.3125 147 108 255
-0.025 0.075 -0.3625 147 108 255
0.225 0.075 -0.2875 147 108 255
-0.2875 -0.4875 -0.1375 3 252 255
0.2625 -0.2625 0.1125 60 195 255
-0.3375 -0.4875 -0.1375 3 252 255
0.0625 -0.3375 0.325 40 214 255
-0.4 -0.4875 -0.225 3 252 255
-0.225 -0.475 -0.3375 6 249 255
0.275 -0.025 0.0375 121 134 255
0.2125 0.075 -0.175 147 108 255
0.275 -0.225 0.2 70 185 255
0.0625 -0.4875 -0.4875 3 252 255
-0.1625 -0.4875 0.1375 3 252 255
0.2125 -0.3625 -0.3 35 220 255
-0.2 -0.4875 0.15 3 252 255
-0.0625 -0.4875 -0.45 3 252 255
0.275 -0.075 0.025 108 147 255
-0.2875 -0.4875 -0.1875 3 252 255
-0.5 0.075 -0.4375 147 108 255
0.225 -0.075 0.075 108 147 255
-0.1625 -0.4875 -0.3625 3 252 255
0.2 -0.325 -0.375 44 211 255
-0.35 -0.4875 -0.2125 3 252 255
-0.1125 -0.4875 -0.3875 3 252 255
-0.1625 0.075 -0.3875 147 108 255
-0.275 -0.4875 0.0125 3 252 255
-0.375 -0.4875 -0.2625 3 252 255
0.1375 0.075 -0.3125 147 108 255
-0.1375 -0.4875 0.1125 3 252 255
0.275 0 0 128 127 255
-0.1125 -0.4875 0.25 3 252 255
0 -0.4875 -0.275 3 252 255
0.2625 -0.35 0.1125 38 217 255
-0.125 -0.4875 0.2875 3 252 255
-0.0125 -0.4875 -0.475 3 252 255
0.275 -0.2875 0.1375 54 201 255
-0.25 -0.4875 -0.025 3 252 255
-0.3 0.075 -0.4625 147 108 255
0.1875 0.075 -0.475 147 108 255
-0.125 -0.4875 0.1625 3 252 255
-0.275 -0.475 -0.3125 6 249 255
0.2 -0.3875 0.3 28 227 255
0.1125 0.075 -0.2375 147 108 255
-0.25 -0.4875 0.25 3 252 255
0.15 -0.35 0.375 38 217 255
-0.225 -0.4875 0.175 3 252 255
-0.1125 -0.4875 0.2875 3 252 255
-0.2875 0.075 -0.425 147 108 255
0.1375 -0.4125 0.3875 22 233 255
-0.275 -0.4875 -0.375 3 252 255
-0.25 -0.4875 0.175 3 252 255
-0.025 -0.475 0.3375 6 249 255
0.275 0.025 -0.25 134 121 255
0.275 -0.1875 -0.475 80 175 255
0.275 -0.325 0.15 44 211 255
-0.1125 -0.3375 -0.35 40 214 255
0.2125 -0.175 0.075 83 172 255
-0.2625 -0.4875 0.0875 3 252 255
-0.025 0.075 -0.3375 147 108 255
-0.175 -0.475 -0.475 6 249 255
-0.3625 -0.3375 -0.425 40 214 255
-0.175 0.075 -0.325 147 108 255
-0.5 -0.4875 -0.45 3 252 255
-0.0875 -0.4875 -0.15 3 252 255
-0.425 -0.4875 -0.2375 3 252 255
0.2375 -0.35 0.0875 38 217 255
-0.4625 -0.4875 -0.375 3 252 255
-0.2875 -0.4875 -0.35 3 252 255
-0.3375 -0.4875 -0.1625 3 252 255
-0.25 -0.475 -0.3125 6 249 255
0.1125 0.075 -0.175 147 108 255
-0.375 -0.4875 0.0625 3 252 255
-0.0125 0.075 -0.2125 147 108 255
-0.025 -0.4 0.375 25 230 255
-0.4 0.075 -0.2625 147 108 255
-0.0375 -0.4875 -0.45 3 252 255
-0.075 -0.4875 -0.325 3 252 255
-0.0375 -0.4875 0.25 3 252 255
-0.1375 -0.4875 -0.15 3 252 255
-0.1125 -0.4125 -0.5 22 233 255
-0.0125 -0.4875 -0.2375 3 252 255
-0.3375 -0.4875 0.1 3 252 255
0.0125 0.075 -0.45 147 108 255
-0.4125 -0.45 -0.3 12 243 255
-0.0125 -0.4875 0.225 3 252 255
0.025 -0.4125 0.4375 22 233 255
-0.1125 -0.4875 -0.0875 3 252 255
-0.425 0.075 -0.35 147 108 255
0.275 -0.1375 0.1625 92 163 255
-0.1 -0.3375 -0.3875 40 214 255
-0.1625 0.075 -0.425 147 108 255
-0.225 0.075 -0.2875 147 108 255
-0.3125 -0.4875 -0.15 3 252 255
-0.125 -0.2625 -0.3625 60 195 255
-0.4 -0.375 -0.3 32 223 255
-0.2125 -0.425 -0.3 19 236 255
0.1625 -0.2625 0.0125 60 195 255
-0.075 -0.4875 -0.4 3 252 255
-0.1375 -0.4875 -0.4 3 252 255
-0.0125 -0.4875 0.2625 3 252 255
-0.3375 -0.4 -0.3 25 230 255
0.275 -0.0875 0.1625 105 150 255
-0.125 -0.4875 -0.25 3 252 255
0 -0.375 0.4875 32 223 255
0.0375 -0.4375 -0.3875 16 239 255
-0.3125 0.075 -0.45 147 108 255
-0.425 0.075 -0.475 147 108 255
-0.25 -0.4875 -0.3125 3 252 255
-0.275 -0.475 -0.325 6 249 255
0.1375 -0.0875 0 105 150 255
-0.1875 -0.475 -0.5 6 249 255
-0.425 -0.4875 -0.1 3 252 255
0.275 -0.025 -0.05 121 134 255
0.275 0.025 -0.125 134 121 255
-0.3 -0.3375 -0.3375 40 214 255
-0.1625 -0.4875 0.075 3 252 255
0.1875 -0.4875 -0.4875 3 252 255
-0.4375 0.075 -0.45 147 108 255
-0.15 -0.4 -0.475 25 230 255
-0.225 -0.3875 -0.3 28 227 255
-0.3 -0.35 -0.3625 38 217 255
-0.1625 -0.25 -0.3625 64 191 255
-0.475 -0.4875 -0.125 3 252 255
0.275 0.0125 -0.2 131 124 255
-0.1 -0.4875 -0.3125 3 252 255
-0.2625 -0.375 -0.3625 32 223 255
-0.15 -0.4875 -0.3625 3 252 255
-0.15 -0.4875 -0.2125 3 252 255
-0.275 0.075 -0.3625 147 108 255
-0.3 0.075 -0.3875 147 108 255
0.1875 0.075 -0.2125 147 108 255
-0.075 0.075 -0.375 147 108 255
0.275 0.075 -0.35 147 108 255
0.275 -0.1125 0.225 99 156 255
-0.1875 -0.4875 -0.3125 3 252 255
0.275 -0.2 0.225 76 179 255
0.0625 0.075 -0.475 147 108 255
-0.2 0.075 -0.3625 147 108 255
-0.4375 -0.3375 -0.3875 40 214 255
-0.2125 0.075 -0.325 147 108 255
0.275 -0.275 0.2125 56 198 255
-0.4375 -0.4875 -0.1375 3 252 255
-0.0125 -0.475 -0.375 6 249 255
0.1 0.075 -0.175 147 108 255
0.175 0.075 -0.2125 147 108 255
-0.175 -0.3 -0.3625 51 204 255
0.275 -0.1375 0.1375 92 163 255
0.275 -0.35 0.225 38 217 255
0.0875 -0.4125 0.4 22 233 255
-0.3625 -0.2875 -0.3625 54 201 255
0.0375 0.075 -0.1875 147 108 255
-0.2 -0.4 -0.375 25 230 255
-0.35 -0.4875 -0.2375 3 252 255
-0.3875 -0.4875 -0.125 3 252 255
0.2375 0.075 -0.325 147 108 255
-0.4375 -0.3375 -0.4625 40 214 255
-0.2125 -0.4875 -0.3125 3 252 255
-0.375 -0.4875 -0.0875 3 252 255
-0.125 -0.4875 -0.2 3 252 255
-0.45 0.075 -0.35 147 108 255
0 0.075 -0.2875 147 108 255
-0.35 0.075 -0.4375 147 108 255
0.275 -0.0875 0.2 105 150 255
-0.1625 -0.4875 -0.4 3 252 255
0.1 -0.4125 0.45 22 233 255
-0.3875 -0.4875 -0.0875 3 252 255
-0.1125 -0.4875 -0.35 3 252 255
-0.1 -0.25 -0.3625 64 191 255
0.1375 0.075 -0.3375 147 108 255
-0.3 -0.3625 -0.3875 35 220 255
0.15 -0.2125 0.0125 73 182 255
-0.3875 0.075 -0.475 147 108 255
0.125 -0.4125 0.4 22 233 255
-0.3375 -0.4875 0.025 3 252 255
0.025 -0.4875 -0.0875 3 252 255
-0.325 -0.4875 0.175 3 252 255
-0.175 0.075 -0.2625 147 108 255
-0.075 -0.4875 0.2 3 252 255
-0.2375 -0.4875 -0.325 3 252 255
-0.075 -0.4875 -0.1 3 252 255
0.275 0.0375 -0.2125 137 118 255
-0.1 -0.3 -0.375 51 204 255
0.275 -0.2875 0.2 54 201 255
-0.1 -0.4875 -0.2125 3 252 255
0.025 -0.4875 -0.075 3 252 255
0.05 0.075 -0.3 147 108 255
-0.3 -0.35 -0.425 38 217 255
-0.175 -0.225 -0.375 70 185 255
0.0125 0.075 -0.5 147 108 255
-0.05 -0.4875 -0.05 3 252 255
0.2125 -0.25 0.05 64 191 255
0.2625 0.075 -0.45 147 108 255
0.2375 -0.3 -0.3625 51 204 255
0.1625 -0.1625 0.0375 86 169 255
0.025 -0.4875 -0.1875 3 252 255
-0.1375 -0.4875 0.225 3 252 255
-0.2375 -0.3375 -0.35 40 214 255
0.1125 -0.35 0.35 38 217 255
-0.1875 -0.4875 0.0375 3 252 255
-0.475 -0.4875 -0.1625 3 252 255
-0.25 -0.4875 -0.2875 3 252 255
-0.1625 -0.4875 -0.275 3 252 255
-0.075 -0.4875 -0.45 3 252 255
-0.225 -0.4875 0.1375 3 252 255
-0.2125 -0.3375 -0.5 40 214 255
0.275 -0.2125 0.125 73 182 255
0.175 -0.2 0.025 76 179 255
0 -0.4875 -0.35 3 252 255
-0.425 -0.4875 -0.0875 3 252 255
-0.15 -0.3 -0.35 51 204 255
-0.3625 -0.4875 -0.075 3 252 255
0.175 0.075 -0.4625 147 108 255
0.275 -0.0875 0.225 105 150 255
-0.2 -0.4375 -0.4125 16 239 255
0.05 0.075 -0.225 147 108 255
-0.4 -0.3375 -0.375 40 214 255
0.275 -0.0125 -0.125 124 131 255
0.1625 -0.3 0.0125 51 204 255
-0.1375 -0.4875 -0.325 3 252 255
-0.1625 -0.25 -0.375 64 191 255
-0.025 -0.4875 -0.3875 3 252 255
-0.175 -0.4875 0.1375 3 252 255
-0.375 -0.4875 0.025 3 252 255
-0.275 0.075 -0.45 147 108 255
-0.1875 0.075 -0.45 147 108 255
-0.2875 -0.375 -0.4125 32 223 255
0.025 -0.4875 -0.4375 3 252 255
0.1375 -0.35 0.275 38 217 255
0.025 0.075 -0.2125 147 108 255
0.275 -0.05 0.1 115 140 255
-0.3375 -0.3375 -0.3125 40 214 255
0.2375 0.075 -0.425 147 108 255
-0.0625 -0.4875 -0.225 3 252 255
-0.1 -0.4875 0.05 3 252 255
-0.0125 -0.4875 -0.4 3 252 255
0.275 0.075 -0.3375 147 108 255
-0.0875 -0.4875 -0.2875 3 252 255
-0.2875 0.075 -0.375 147 108 255
-0.2625 -0.4875 0.05 3 252 255
-0.5 -0.4875 -0.175 3 252 255
0.025 -0.4125 -0.3875 22 233 255
-0.125 -0.4125 -0.5 22 233 255
-0.15 -0.3375 -0.3625 40 214 255
0.275 0.0625 -0.1625 144 111 255
-0.1375 -0.4 -0.4625 25 230 255
-0.1625 -0.4875 -0.375 3 252 255
-0.275 -0.4875 -0.25 3 252 255
0.05 -0.3375 0.3375 40 214 255
-0.225 -0.3375 -0.35 40 214 255
-0.05 -0.4875 0.0125 3 252 255
0.1375 -0.1 0 102 153 255
-0.15 -0.4875 0.25 3 252 255
-0.4375 -0.3375 -0.3375 40 214 255
-0.225 0.075 -0.425 147 108 255
0.125 0.075 -0.275 147 108 255
-0.1875 0.075 -0.475 147 108 255
0.275 0.05 -0.2375 140 114 255
-0.1 -0.4875 -0.4875 3 252 255
-0.0625 -0.4875 -0.4875 3 252 255
-0.0875 -0.4875 -0.4375 3 252 255
-0.375 -0.3375 -0.4125 40 214 255
-0.125 -0.3375 -0.3375 40 214 255
-0.0875 0.075 -0.425 147 108 255
-0.25 0.075 -0.3375 147 108 255
-0.1875 -0.4875 0.0875 3 252 255
-0.1875 -0.4875 -0.45 3 252 255
0.2625 -0.2 0.125 76 179 255
0 -0.4875 0.1125 3 252 255
0.1875 -0.15 0.05 89 166 255
-0.1375 -0.4875 -0.3875 3 252 255
0.275 -0.125 0.2 96 159 255
-0.25 0.075 -0.45 147 108 255
-0.4125 0.075 -0.4125 147 108 255
0.1875 -0.2 0.0375 76 179 255
0.275 -0.025 -0.025 121 134 255
0.0375 -0.4125 0.4125 22 233 255
0.225 -0.1125 0.0625 99 156 255
-0.4125 0.075 -0.375 147 108 255
-0.35 -0.4125 -0.3 22 233 255
-0.3 -0.375 -0.3875 32 223 255
-0.275 -0.425 -0.3 19 236 255
-0.1125 -0.4875 0.1375 3 252 255
-0.325 -0.4875 -0.2 3 252 255
-0.3125 -0.4875 -0.3125 3 252 255
0.1875 -0.3375 -0.4125 40 214 255
-0.2375 -0.4625 -0.3 9 246 255
-0.2625 -0.475 -0.375 6 249 255
0.05 0.075 -0.4125 147 108 255
0.275 0.0125 -0.1875 131 124 255
0.1875 -0.1875 0.0375 80 175 255
-0.125 -0.4875 -0.225 3 252 255
-0.2625 -0.475 -0.325 6 249 255
0.2 0.075 -0.5 147 108 255
-0.025 -0.4875 -0.1875 3 252 255
-0.45 0.075 -0.475 147 108 255
0.1375 -0.4125 0.4125 22 233 255
-0.1375 -0.4875 0.025 3 252 255
-0.325 -0.4875 -0.3125 3 252 255
-0.075 -0.4875 0.1125 3 252 255
-0.1375 -0.4875 -0.25 3 252 255
0.2625 0.075 -0.375 147 108 255
-0.2375 -0.4875 0.2125 3 252 255
0.25 -0.15 0.075 89 166 255
0.0375 -0.4875 -0.1375 3 252 255
0.275 0.0625 -0.25 144 111 255
0.275 -0.3 0.15 51 204 255
-0.225 -0.4875 -0.2125 3 252 255
-0.35 -0.4875 0.0375 3 252 255
-0.125 -0.4875 0.25 3 252 255
-0.0375 -0.4875 0.1625 3 252 255
0.0125 -0.4375 -0.375 16 239 255
-0.05 -0.4875 0.1625 3 252 255
0.125 0.075 -0.225 147 108 255
-0.05 -0.4875 -0.1375 3 252 255
-0.1625 0.075 -0.2375 147 108 255
-0.075 -0.4875 0.075 3 252 255
-0.2 -0.375 -0.3375 32 223 255
0.1875 -0.375 -0.4125 32 223 255
0.2 -0.1125 0.0375 99 156 255
-0.2375 -0.4875 -0.375 3 252 255
-0.25 -0.4875 0.1625 3 252 255
-0.2375 -0.4875 -0.125 3 252 255
0.0875 0.075 -0.2625 147 108 255
-0.025 -0.4875 -0.0375 3 252 255
-0.2 -0.3875 -0.375 28 227 255
0.2 -0.325 -0.45 44 211 255
-0.3 -0.4875 0.0875 3 252 255
-0.3 -0.4875 -0.15 3 252 255
-0.175 -0.4875 0.0625 3 252 255
0.1625 -0.3125 0.0125 48 207 255
0.1875 0.075 -0.35 147 108 255
-0.1 0.075 -0.4625 147 108 255
0 0.075 -0.3375 147 108 255
0.1125 0.075 -0.225 147 108 255
0.025 -0.4375 -0.375 16 239 255
-0.1 -0.4125 -0.475 22 233 255
0.2625 -0.1375 0.0875 92 163 255
0.275 0 -0.025 128 127 255
0.1875 -0.3375 -0.375 40 214 255
0.275 -0.2 0.2375 76 179 255
-0.1 -0.4875 0.2125 3 252 255
-0.1375 -0.3125 -0.375 48 207 255
-0.3625 -0.4875 -0.175 3 252 255
-0.0875 -0.2625 -0.375 60 195 255
-0.275 -0.3375 -0.4125 40 214 255
-0.1875 0.075 -0.2875 147 108 255
-0.1875 -0.4875 -0.3875 3 252 255
-0.1625 -0.4875 -0.225 3 252 255
-0.4 -0.4875 -0.25 3 252 255
-0.0875 -0.3375 -0.325 40 214 255
0.275 0.0625 -0.3875 144 111 255
0.15 -0.3875 0.3875 28 227 255
-0.3375 -0.3375 -0.3625 40 214 255
-0.125 -0.4875 0.2 3 252 255
-0.1125 -0.4875 -0.3375 3 252 255
-0.025 -0.4875 -0.075 3 252 255
-0.1375 -0.4125 -0.475 22 233 255
-0.275 -0.45 -0.3 12 243 255
-0.2125 -0.4875 -0.2375 3 252 255
-0.1125 -0.4 -0.4875 25 230 255
-0.1 0.075 -0.4125 147 108 255
0.275 -0.075 0.075 108 147 255
-0.325 0.075 -0.3625 147 108 255
-0.3 -0.3375 -0.3 40 214 255
0.15 -0.1875 0.0125 80 175 255
-0.325 0.075 -0.4375 147 108 255
-0.2125 0.075 -0.35 147 108 255
-0.0375 -0.3375 -0.3 40 214 255
0.275 0.0625 -0.4125 144 111 255
-0.1125 0.075 -0.2 147 108 255
-0.2875 -0.3375 -0.35 40 214 255
-0.175 -0.4875 -0.0875 3 252 255
-0.0125 -0.4875 -0.1125 3 252 255
0.275 -0.2 0.1 76 179 255
0.275 0.075 -0.4 147 108 255
-0.425 -0.3375 -0.4 40 214 255
0.075 -0.4125 0.45 22 233 255
0.1875 -0.325 0.0375 44 211 255
0 -0.4875 -0.2625 3 252 255
-0.0875 -0.3375 -0.3 40 214 255
-0.0375 -0.4875 0.125 3 252 255
-0.3375 -0.3375 -0.425 40 214 255
-0.5 -0.4875 -0.2375 3 252 255
-0.125 0.075 -0.475 147 108 255
-0.2 -0.35 -0.35 38 217 255
0 -0.3875 0.45 28 227 255
-0.025 -0.3625 0.4625 35 220 255
0.275 -0.2625 0.2 60 195 255
0.15 -0.225 0.025 70 185 255
0.275 0.025 -0.2375 134 121 255
0 -0.35 0.3375 38 217 255
0.05 -0.425 0.4375 19 236 255
-0.05 0.075 -0.225 147 108 255
0.15 -0.1125 0.025 99 156 255
0.1875 0.075 -0.4375 147 108 255
-0.2375 -0.4875 0.1875 3 252 255
-0.1125 0.075 -0.325 147 108 255
0.1875 -0.3875 -0.375 28 227 255
0.175 0.075 -0.3125 147 108 255
-0.0125 -0.35 0.3875 38 217 255
0.05 0.075 -0.3875 147 108 255
-0.1625 -0.4875 -0.0625 3 252 255
0.1 0.075 -0.25 147 108 255
0.175 -0.2 0.0375 76 179 255
-0.125 -0.4875 -0.05 3 252 255
-0.0125 -0.4875 -0.4125 3 252 255
-0.2875 -0.475 -0.3 6 249 255
-0.0375 -0.4 0.475 25 230 255
0.275 0.05 -0.1 140 114 255
-0.425 -0.3375 -0.3125 40 214 255
-0.4875 -0.4875 -0.225 3 252 255
0.0625 0.075 -0.25 147 108 255
-0.275 0.075 -0.2375 147 108 255
-0.1625 -0.4875 -0.1625 3 252 255
0.2375 0.075 -0.35 147 108 255
-0.3 -0.4875 -0.3125 3 252 255
-0.4 -0.4875 -0.3375 3 252 255
-0.175 -0.4875 0.2625 3 252 255
-0.3125 0.075 -0.3125 147 108 255
-0.3375 -0.4875 -0.125 3 252 255
-0.3875 -0.4875 -0.075 3 252 255
0.125 -0.3375 0.325 40 214 255
-0.1125 -0.3375 -0.3875 40 214 255
0.15 0.075 -0.4625 147 108 255
-0.2375 -0.475 -0.3 6 249 255
0.1125 -0.4375 0.425 16 239 255
-0.325 0.075 -0.4625 147 108 255
-0.0875 -0.4875 0.175 3 252 255
-0.4875 -0.4875 -0.4 3 252 255
-0.3 -0.4875 -0.075 3 252 255
-0.025 -0.375 0.3625 32 223 255
-0.2375 -0.4875 -0.15 3 252 255
0.0125 -0.4125 -0.4125 22 233 255
0.175 -0.275 0.05 56 198 255
0 -0.4875 -0.075 3 252 255
-0.025 -0.4875 -0.4875 3 252 255
-0.1125 -0.4875 -0.1875 3 252 255
-0.1875 -0.4875 -0.0125 3 252 255
0.05 -0.4125 0.3875 22 233 255
-0.25 -0.475 -0.35 6 249 255
-0.4875 0.075 -0.4875 147 108 255
-0.1875 -0.4875 0.175 3 252 255
-0.225 -0.4875 -0.175 3 252 255
-0.2125 0.075 -0.375 147 108 255
0.2625 0.075 -0.1625 147 108 255
0.1625 -0.1625 0.0125 86 169 255
-0.1375 -0.325 -0.375 44 211 255
0.275 -0.15 0.225 89 166 255
-0.0625 -0.4875 -0.0125 3 252 255
0.2625 -0.075 0.075 108 147 255
0.1375 -0.3375 0.275 40 214 255
-0.3625 -0.4875 0.1125 3 252 255
-0.0875 -0.4875 0.1375 3 252 255
0.275 0.025 -0.175 134 121 255
0.0875 0.075 -0.425 147 108 255
-0.325 0.075 -0.3125 147 108 255
0.1875 -0.3875 -0.3125 28 227 255
0.05 -0.4875 -0.325 3 252 255
-0.225 -0.4875 -0.2375 3 252 255
-0.3125 -0.4875 0.0625 3 252 255
0.1875 0.075 -0.3125 147 108 255
0.25 -0.075 0.0875 108 147 255
-0.4625 0.075 -0.4875 147 108 255
-0.4 -0.45 -0.3 12 243 255
-0.3625 -0.45 -0.3 12 243 255
-0.35 -0.4875 0.05 3 252 255
0.2 -0.325 -0.35 44 211 255
-0.3 -0.4375 -0.3625 16 239 255
0.0375 -0.3375 0.325 40 214 255
-0.4375 -0.3375 -0.3625 40 214 255
-0.15 0.075 -0.2875 147 108 255
0.0125 -0.425 -0.4125 19 236 255
-0.2 0.075 -0.25 147 108 255
-0.5 -0.4875 -0.4875 3 252 255
-0.35 -0.4875 0.1125 3 252 255
-0.275 -0.375 -0.3625 32 223 255
0.1875 -0.3625 -0.3375 35 220 255
0.225 -0.2875 0.0625 54 201 255
-0.05 0.075 -0.2375 147 108 255
0.1375 0.075 -0.3875 147 108 255
-0.3625 -0.4875 -0.3 3 252 255
-0.2375 0.075 -0.4125 147 108 255
-0.4625 -0.4875 -0.275 3 252 255
0.0625 0.075 -0.325 147 108 255
0.1625 -0.2875 0.05 54 201 255
0.275 0.0125 -0.125 131 124 255
-0.275 -0.4875 0.175 3 252 255
-0.2875 -0.4875 -0.2 3 252 255
-0.45 0.075 -0.3375 147 108 255
0.25 -0.125 0.1 96 159 255
-0.425 -0.475 -0.3 6 249 255
-0.4375 -0.4875 -0.3 3 252 255
-0.2875 -0.4875 -0.3 3 252 255
0.1375 0.075 -0.4625 147 108 255
-0.175 -0.4875 -0.075 3 252 255
-0.025 -0.4875 0.3125 3 252 255
-0.475 0.075 -0.2625 147 108 255
-0.375 0.075 -0.3375 147 108 255
0 -0.35 0.3125 38 217 255
0.225 -0.1875 0.075 80 175 255
0.1 -0.35 0.275 38 217 255
0.0875 -0.4 0.375 25 230 255
-0.475 -0.4875 -0.375 3 252 255
0.075 0.075 -0.3875 147 108 255
-0.0125 -0.4875 -0.2625 3 252 255
-0.225 -0.3375 -0.325 40 214 255
-0.025 -0.3375 -0.3125 40 214 255
-0.4625 -0.4875 -0.35 3 252 255
-0.0625 0.075 -0.45 147 108 255
-0.5 0.075 -0.3125 147 108 255
-0.2 -0.3375 -0.3625 40 214 255
-0.5 0.075 -0.2375 147 108 255
0.175 0.075 -0.225 147 108 255
0.2375 -0.225 0.0875 70 185 255
-0.1875 0.075 -0.225 147 108 255
0.275 -0.05 0.0625 115 140 255
0.15 -0.3625 0.4 35 220 255
0.125 0.075 -0.2875 147 108 255
0.275 -0.35 0.125 38 217 255
-0.0125 -0.375 0.4875 32 223 255
0.0125 0.075 -0.425 147 108 255
-0.1625 -0.4 -0.4125 25 230 255
-0.125 -0.3375 -0.3625 40 214 255
0.0125 -0.4875 0.0375 3 252 255
-0.1375 0.075 -0.4875 147 108 255
-0.475 -0.4875 -0.2125 3 252 255
-0.2 -0.4125 -0.3 22 233 255
-0.075 0.075 -0.3875 147 108 255
-0.3 -0.3625 -0.425 35 220 255
-0.1 -0.4875 -0.0125 3 252 255
0.2 0.075 -0.275 147 108 255
-0.1625 -0.4875 -0.325 3 252 255
-0.05 -0.4875 -0.35 3 252 255
-0.125 -0.4875 -0.475 3 252 255
0.075 -0.3375 0.275 40 214 255
0.1375 -0.15 0 89 166 255
-0.4375 -0.4875 -0.325 3 252 255
0.1625 -0.35 0.0125 38 217 255
-0.0875 0.075 -0.35 147 108 255
-0.0125 -0.4875 0.1125 3 252 255
-0.0125 0.075 -0.4625 147 108 255
0.275 -0.2125 0.2125 73 182 255
-0.0625 -0.4875 0.25 3 252 255
-0.3 -0.4875 0.2 3 252 255
0.0375 -0.4625 -0.4 9 246 255
-0.25 -0.4875 -0.15 3 252 255
-0.0625 -0.4875 0 3 252 255
-0.05 -0.4875 -0.2625 3 252 255
0.275 0.0375 -0.475 137 118 255
0.0125 0.075 -0.3 147 108 255
-0.375 -0.3375 -0.3625 40 214 255
0.275 -0.0125 0.0375 124 131 255
-0.4125 -0.4875 -0.2375 3 252 255
-0.2625 -0.375 -0.3125 32 223 255
-0.2625 -0.4875 0.0375 3 252 255
0.1125 -0.4125 0.4 22 233 255
0.2625 0.075 -0.2 147 108 255
-0.1625 -0.4875 -0.15 3 252 255
-0.0125 -0.4875 -0.275 3 252 255
-0.425 -0.4875 -0.3625 3 252 255
0.275 -0.2875 0.1 54 201 255
-0.225 0.075 -0.2125 147 108 255
-0.125 -0.4875 0.0125 3 252 255
0.2 -0.125 0.0375 96 159 255
-0.3125 0.075 -0.4 147 108 255
-0.275 0.075 -0.375 147 108 255
0.0125 -0.4875 -0.1875 3 252 255
0.1875 -0.3875 -0.35 28 227 255
-0.15 0.075 -0.2 147 108 255
-0.475 0.075 -0.4 147 108 255
-0.175 -0.4875 -0.425 3 252 255
0.1625 0.075 -0.225 147 108 255
0.025 -0.3375 0.3375 40 214 255
-0.1625 -0.4875 -0.3875 3 252 255
-0.2625 -0.4875 -0.05 3 252 255
-0.425 -0.4875 -0.15 3 252 255
-0.2375 0.075 -0.25 147 108 255
-0.4 -0.3375 -0.3875 40 214 255
-0.2 -0.4875 0.2125 3 252 255
-0.3 -0.3625 -0.3625 35 220 255
-0.2125 -0.4875 -0.275 3 252 255
-0.2 -0.3375 -0.3375 40 214 255
-0.1375 -0.4875 -0.0875 3 252 255
-0.1625 -0.4875 0.1125 3 252 255
-0.0625 -0.4875 -0.1 3 252 255
0.15 -0.35 0.0125 38 217 255
-0.1625 -0.475 -0.425 6 249 255
-0.4875 -0.4875 -0.1875 3 252 255
-0.2875 -0.4875 0.2125 3 252 255
-0.2 -0.475 -0.35 6 249 255
0.1625 0.075 -0.325 147 108 255
0.15 -0.0875 0.025 105 150 255
0.275 -0.0625 0.025 112 143 255
0.225 -0.1125 0.0875 99 156 255
0.275 -0.175 0.1125 83 172 255
0.1875 -0.425 0.3625 19 236 255
-0.0875 -0.4875 -0.1875 3 252 255
-0.4375 -0.3375 -0.4 40 214 255
-0.2875 -0.4875 -0.275 3 252 255
-0.1 -0.4 -0.475 25 230 255
0.025 -0.4875 -0.2 3 252 255
-0.0875 -0.3 -0.375 51 204 255
-0.375 -0.4875 0.0125 3 252 255
0.275 -0.3375 0.2 40 214 255
-0.1375 0.075 -0.4125 147 108 255
0.275 -0.2375 0.1375 67 188 255
-0.1125 -0.4875 0.1 3 252 255
-0.3375 -0.475 -0.3 6 249 255
-0.35 -0.4875 -0.1 3 252 255
-0.325 -0.4875 0.025 3 252 255
-0.3625 0.075 -0.225 147 108 255
-0.1875 0.075 -0.4 147 108 255
-0.4125 -0.4875 -0.0125 3 252 255
-0.025 0.075 -0.1875 147 108 255
0.025 0.075 -0.325 147 108 255
-0.1375 -0.225 -0.375 70 185 255
-0.225 -0.475 -0.3125 6 249 255
0.1 0.075 -0.2 147 108 255
0.175 -0.25 0.0375 64 191 255
-0.1875 -0.3375 -0.375 40 214 255
-0.2125 -0.4875 -0.025 3 252 255
-0.2125 -0.375 -0.3875 32 223 255
0.15 -0.3625 0.375 35 220 255
-0.1 -0.3375 -0.3 40 214 255
-0.3375 0.075 -0.4375 147 108 255
0.275 0.0625 -0.325 144 111 255
-0.25 0.075 -0.2125 147 108 255
-0.2125 0.075 -0.45 147 108 255
0.25 0.075 -0.4 147 108 255
-0.0875 -0.2875 -0.3625 54 201 255
0.0625 0.075 -0.5 147 108 255
0.1125 -0.3375 0.275 40 214 255
0.0375 -0.425 -0.3875 19 236 255
0.0125 0.075 -0.475 147 108 255
0.125 -0.3375 0.2875 40 214 255
-0.0875 -0.4875 -0.2625 3 252 255
-0.075 -0.4875 -0.175 3 252 255
-0.4875 -0.4875 -0.45 3 252 255
-0.025 -0.4875 0.025 3 252 255
-0.3 -0.3375 -0.35 40 214 255
-0.4875 0.075 -0.425 147 108 255
0.225 0.075 -0.1625 147 108 255
0.0125 -0.4875 -0.1125 3 252 255
-0.2125 -0.4875 -0.1625 3 252 255
0.275 -0.2 0.175 76 179 255
-0.2 -0.4875 -0.15 3 252 255
-0.225 0.075 -0.5 147 108 255
0.1 0.075 -0.45 147 108 255
-0.2625 -0.4125 -0.3 22 233 255
-0.025 -0.45 0.3625 12 243 255
0.1 -0.4125 0.4 22 233 255
0.025 -0.4875 -0.3125 3 252 255
-0.0375 -0.375 0.4625 32 223 255
0.275 0.0375 -0.15 137 118 255
0.275 -0.275 0.25 56 198 255
0.1625 -0.275 0.0125 56 198 255
-0.175 -0.4 -0.5 25 230 255
-0.1875 -0.2625 -0.3625 60 195 255
-0.0125 -0.35 0.425 38 217 255
-0.375 0.075 -0.4125 147 108 255
-0.35 -0.4875 -0.3 3 252 255
0.2625 0.075 -0.3 147 108 255
0.275 0.05 -0.275 140 114 255
-0.3 -0.3375 -0.325 40 214 255
-0.1625 -0.4875 0.2125 3 252 255
-0.2375 0.075 -0.4375 147 108 255
-0.15 -0.4875 -0.175 3 252 255
0.275 -0.3625 0.225 35 220 255
0.15 0.075 -0.3625 147 108 255
0.2375 -0.2625 0.0875 60 195 255
-0.1125 -0.3375 -0.4 40 214 255
-0.3125 0.075 -0.4375 147 108 255
-0.0375 -0.3125 -0.35 48 207 255
-0.05 -0.4875 -0.25 3 252 255
-0.175 -0.25 -0.375 64 191 255
-0.25 -0.375 -0.3 32 223 255
-0.1875 0.075 -0.275 147 108 255
-0.1875 -0.225 -0.375 70 185 255
0.2375 0.075 -0.475 147 108 255
0.0625 0.075 -0.2625 147 108 255
-0.4375 0.075 -0.5 147 108 255
-0.2 -0.4875 0.275 3 252 255
-0.2625 0.075 -0.2125 147 108 255
0.1375 -0.225 0 70 185 255
-0.0625 -0.4875 -0.075 3 252 255
-0.375 -0.3625 -0.3 35 220 255
-0.3375 -0.4875 -0.05 3 252 255
0.275 -0.05 0.15 115 140 255
-0.1625 -0.4875 -0.0125 3 252 255
-0.2125 -0.4875 -0.0125 3 252 255
-0.1875 -0.4875 0.15 3 252 255
-0.1375 -0.4875 -0.1 3 252 255
-0.2 -0.4875 -0.225 3 252 255
-0.15 0.075 -0.4375 147 108 255
-0.0125 -0.4625 0.2625 9 246 255
-0.0875 0.075 -0.2375 147 108 255
-0.225 -0.3375 -0.3 40 214 255
0.25 -0.3125 0.075 48 207 255
-0.275 -0.4875 -0.125 3 252 255
-0.3125 0.075 -0.225 147 108 255
0.275 -0.0375 0.0375 118 137 255
-0.3375 0.075 -0.4875 147 108 255
0.0375 0.075 -0.2125 147 108 255
-0.3 -0.4875 0.0375 3 252 255
-0.3 0.075 -0.35 147 108 255
0 -0.4875 -0.25 3 252 255
-0.1125 0.075 -0.2375 147 108 255
0.2125 -0.275 0.075 56 198 255
0.0125 -0.4875 -0.2125 3 252 255
0.2625 0.075 -0.3125 147 108 255
-0.1 -0.4125 -0.45 22 233 255
0.175 0.075 -0.1875 147 108 255
-0.15 -0.4875 0.2 3 252 255
0.2625 -0.075 0.0125 108 147 255
-0.3625 -0.4875 -0.05 3 252 255
0.1625 -0.3 0.0375 51 204 255
-0.15 -0.4875 -0.15 3 252 255
-0.1125 -0.4875 -0.1625 3 252 255
-0.1125 -0.4875 0.05 3 252 255
-0.0875 -0.25 -0.375 64 191 255
0.1875 -0.3375 0.0375 40 214 255
0 -0.4875 -0.1 3 252 255
-0.1625 0.075 -0.5 147 108 255
-0.125 -0.4875 -0.3625 3 252 255
-0.375 -0.4875 -0.3 3 252 255
-0.3 -0.4875 -0.0875 3 252 255
0.1625 -0.325 0.0125 44 211 255
-0.15 -0.4875 0 3 252 255
-0.425 -0.4875 -0.025 3 252 255
0.275 -0.0625 0.1 112 143 255
-0.3 0.075 -0.4 147 108 255
-0.25 -0.4875 -0.075 3 252 255
0.1625 -0.3375 0.0375 40 214 255
-0.25 0.075 -0.4375 147 108 255
-0.1625 0.075 -0.4125 147 108 255
0.2125 -0.3 -0.325 51 204 255
-0.175 -0.4875 0.3 3 252 255
-0.275 -0.4625 -0.3 9 246 255
-0.5 0.075 -0.35 147 108 255
-0.025 -0.4875 -0.175 3 252 255
0.275 -0.25 0.175 64 191 255
0.275 -0.1375 0.2375 92 163 255
-0.4875 -0.4875 -0.1625 3 252 255
-0.0375 -0.4875 -0.3625 3 252 255
0.2625 -0.2125 0.0875 73 182 255
0.275 -0.175 0.175 83 172 255
-0.0875 -0.25 -0.3625 64 191 255
-0.1375 -0.4875 -0.3125 3 252 255
-0.0125 -0.4875 -0.425 3 252 255
-0.15 -0.4875 -0.1125 3 252 255
-0.4875 -0.4875 -0.3125 3 252 255
-0.225 -0.4875 -0.35 3 252 255
0.275 -0.1125 0.2375 99 156 255
-0.3625 0.075 -0.3875 147 108 255
0.0125 0.075 -0.3625 147 108 255
-0.425 -0.4875 -0.1125 3 252 255
-0.1875 -0.3375 -0.4125 40 214 255
-0.025 0.075 -0.25 147 108 255
-0.5 -0.4875 -0.2625 3 252 255
-0.05 0.075 -0.2625 147 108 255
-0.225 0.075 -0.475 147 108 255
0.1 -0.4125 0.4375 22 233 255
0.15 -0.3375 0.025 40 214 255
-0.25 -0.375 -0.3625 32 223 255
0.15 -0.35 0.275 38 217 255
0.1875 -0.375 0.3125 32 223 255
-0.225 -0.375 -0.3875 32 223 255
-0.325 -0.4875 0.1 3 252 255
-0.1125 -0.4875 -0.0625 3 252 255
0 0.075 -0.2625 147 108 255
-0.225 -0.4875 0.2625 3 252 255
-0.175 0.075 -0.2125 147 108 255
-0.3875 -0.4875 -0.225 3 252 255
-0.0125 -0.4125 -0.3375 22 233 255
-0.125 0.075 -0.225 147 108 255
0.0375 -0.4875 -0.425 3 252 255
-0.2125 -0.4875 -0.175 3 252 255
-0.3375 -0.4875 0.1625 3 252 255
-0.2 -0.375 -0.4 32 223 255
-0.0375 -0.325 -0.35 44 211 255
-0.4875 0.075 -0.25 147 108 255
-0.3875 0.075 -0.375 147 108 255
-0.025 -0.4625 0.35 9 246 255
-0.175 -0.4875 -0.45 3 252 255
0.0125 -0.375 0.4375 32 223 255
-0.0125 -0.35 0.325 38 217 255
-0.325 -0.4875 0.15 3 252 255
0.2625 -0.1625 0.1125 86 169 255
-0.0625 -0.3375 -0.325 40 214 255
-0.1625 -0.4875 -0.2375 3 252 255
-0.3625 -0.4875 -0.025 3 252 255
0.1 -0.4125 0.425 22 233 255
-0.025 -0.4875 0.2875 3 252 255
0.2375 -0.3125 -0.4625 48 207 255
0.25 0.075 -0.3 147 108 255
0.2375 0.075 -0.4125 147 108 255
0.0125 -0.4875 -0.05 3 252 255
0.1875 -0.375 -0.3375 32 223 255
0.075 0.075 -0.3125 147 108 255
-0.1375 -0.4875 -0.35 3 252 255
-0.125 -0.4875 0.175 3 252 255
-0.0125 -0.3375 -0.3875 40 214 255
-0.1125 -0.2375 -0.3625 67 188 255
0.1625 -0.425 0.4 19 236 255
-0.05 -0.4875 -0.125 3 252 255
0.1375 -0.075 0.0125 108 147 255
-0.375 0.075 -0.375 147 108 255
0.2 -0.4 -0.3 25 230 255
-0.1625 -0.4875 -0.175 3 252 255
0.15 -0.325 0.0125 44 211 255
-0.35 0.075 -0.3 147 108 255
-0.275 0.075 -0.3875 147 108 255
-0.1875 0.075 -0.25 147 108 255
-0.1875 -0.4125 -0.4625 22 233 255
0.2625 -0.2375 0.1125 67 188 255
0.1875 -0.4 -0.3875 25 230 255
-0.1875 -0.4875 -0.1625 3 252 255
0.0625 0.075 -0.425 147 108 255
-0.2625 -0.3375 -0.325 40 214 255
0.275 -0.2125 0.175 73 182 255
0.1375 -0.375 0.3625 32 223 255
-0.2625 -0.4875 -0.2375 3 252 255
0.05 0.075 -0.2875 147 108 255
-0.15 0.075 -0.5 147 108 255
-0.4 0.075 -0.325 147 108 255
0.2125 -0.3375 0.05 40 214 255
-0.0125 -0.375 -0.3375 32 223 255
0.25 -0.2625 0.075 60 195 255
0.1875 -0.4375 0.3625 16 239 255
0.275 -0.3125 0.25 48 207 255
0.2375 -0.225 0.075 70 185 255
-0.0125 0.075 -0.2875 147 108 255
-0.0625 -0.3375 -0.3875 40 214 255
0.0375 -0.4875 -0.4375 3 252 255
-0.1625 -0.4 -0.4625 25 230 255
-0.1125 -0.4875 0.0625 3 252 255
-0.0625 -0.3375 -0.425 40 214 255
0.225 -0.1 0.0625 102 153 255
-0.1125 0.075 -0.45 147 108 255
-0.25 -0.475 -0.3375 6 249 255
-0.3375 0.075 -0.3875 147 108 255
-0.325 -0.4875 -0.2125 3 252 255
-0.225 0.075 -0.3625 147 108 255
-0.375 -0.35 -0.3 38 217 255
0.1375 -0.2875 0 54 201 255
-0.3375 0.075 -0.4625 147 108 255
0.275 -0.1625 0.125 86 169 255
0.2625 -0.05 0.0875 115 140 255
-0.3875 -0.3 -0.4 51 204 255
-0.0625 -0.4875 -0.4125 3 252 255
-0.025 -0.4375 0.375 16 239 255
0.275 -0.1625 0.1875 86 169 255
0.275 -0.225 0.2375 70 185 255
0.275 0.075 -0.4375 147 108 255
-0.4125 -0.3625 -0.3 35 220 255
-0.0375 0.075 -0.4125 147 108 255
0.1 0.075 -0.5 147 108 255
-0.35 -0.4875 -0.025 3 252 255
-0.2375 -0.4875 0.0875 3 252 255
-0.125 -0.4875 -0.375 3 252 255
-0.35 -0.4875 -0.2 3 252 255
-0.0625 -0.4875 -0.4375 3 252 255
-0.1625 0.075 -0.375 147 108 255
0.2125 -0.4125 -0.4625 22 233 255
-0.5 0.075 -0.4125 147 108 255
-0.05 -0.4875 -0.025 3 252 255
0.275 0.0125 -0.1375 131 124 255
0.275 -0.325 0.225 44 211 255
-0.45 -0.4875 -0.2125 3 252 255
0.025 -0.3375 0.3125 40 214 255
0.2 -0.3375 0.05 40 214 255
-0.2125 -0.4875 0.0125 3 252 255
-0.225 -0.45 -0.3 12 243 255
0.25 -0.35 0.1 38 217 255
-0.3625 0.075 -0.45 147 108 255
-0.3375 -0.4875 -0.225 3 252 255
-0.05 0.075 -0.3625 147 108 255
-0.0125 -0.4 -0.325 25 230 255
0.025 0.075 -0.5 147 108 255
0.0625 0.075 -0.2375 147 108 255
-0.025 -0.3875 0.3625 28 227 255
-0.025 -0.4875 -0.0625 3 252 255
-0.3875 -0.4875 -0.0125 3 252 255
-0.5 0.075 -0.4875 147 108 255
0.275 0.0625 -0.4 144 111 255
-0.275 -0.4875 -0.3375 3 252 255
-0.025 -0.4625 0.3 9 246 255
-0.3375 0.075 -0.35 147 108 255
-0.3125 0.075 -0.475 147 108 255
0.025 -0.4125 0.45 22 233 255
-0.25 -0.375 -0.325 32 223 255
-0.275 -0.4875 0.1125 3 252 255
0.225 0.075 -0.2375 147 108 255
-0.2875 -0.475 -0.325 6 249 255
-0.0875 -0.4875 -0.2375 3 252 255
-0.4625 -0.4875 -0.1875 3 252 255
0.275 -0.1125 0.15 99 156 255
-0.3375 0.075 -0.425 147 108 255
0.275 0.05 -0.3375 140 114 255
-0.4 -0.4875 -0.275 3 252 255
-0.4625 0.075 -0.3 147 108 255
0.0125 -0.4375 0.4125 16 239 255
0.1875 -0.3375 -0.35 40 214 255
0.025 -0.4125 -0.4 22 233 255
-0.175 -0.4875 -0.275 3 252 255
-0.05 -0.4875 -0.4625 3 252 255
0.2625 -0.225 0.1125 70 185 255
0.025 -0.4875 -0.1 3 252 255
-0.3625 -0.4875 -0.0375 3 252 255
0.275 0.0375 -0.1 137 118 255
-0.2375 0.075 -0.5 147 108 255
0.2 -0.1875 0.0625 80 175 255
-0.1375 -0.25 -0.375 64 191 255
-0.2 -0.375 -0.3625 32 223 255
-0.1875 0.075 -0.3125 147 108 255
0.2625 -0.125 0.1125 96 159 255
-0.3875 -0.375 -0.3 32 223 255
-0.2375 -0.4875 -0.025 3 252 255
-0.2 -0.35 -0.375 38 217 255
-0.025 -0.4875 -0.2 3 252 255
-0.2125 -0.3375 -0.3 40 214 255
-0.075 -0.4875 -0.3625 3 252 255
-0.125 -0.4875 -0.2375 3 252 255
-0.1 -0.4875 -0.5 3 252 255
-0.025 -0.4875 0.2125 3 252 255
-0.05 -0.4875 -0.4125 3 252 255
0.275 -0.15 0.1 89 166 255
-0.3625 -0.3625 -0.3 35 220 255
0.1875 -0.4125 -0.375 22 233 255
-0.05 -0.4875 -0.2125 3 252 255
0.175 0.075 -0.25 147 108 255
-0.2125 0.075 -0.2375 147 108 255
-0.275 -0.4875 -0.3125 3 252 255
0 0.075 -0.275 147 108 255
-0.475 -0.4875 -0.15 3 252 255
0.15 -0.3375 0.275 40 214 255
-0.425 0.075 -0.45 147 108 255
0.025 -0.4875 -0.3625 3 252 255
-0.225 -0.4875 0.2375 3 252 255
0 -0.3625 0.45 35 220 255
-0.325 -0.3375 -0.3 40 214 255
-0.4375 -0.3375 -0.475 40 214 255
0.225 0.075 -0.1875 147 108 255
-0.0375 -0.4875 0 3 252 255
-0.2625 -0.4875 0.25 3 252 255
-0.0375 -0.4875 0.225 3 252 255
