ply
format ascii 1.0
comment Created by Open3D
element vertex 1528
property double x
property double y
property double z
property uchar red
property uchar green
property uchar blue
end_header
-0.0375 -0.0875 0.1875 105 150 255
-0.325 -0.4875 -0.0875 3 252 255
0.05 -0.375 -0.325 32 223 255
-0.3125 0.075 -0.2125 147 108 255
-0.05 -0.1125 -0.15 99 156 255
0.05 0.075 0.2125 147 108 255
-0.2125 0.075 0.175 147 108 255
-0.0125 -0.3375 0.3 40 214 255
-0.1125 0.075 0.1625 147 108 255
-0.45 -0.3625 0.175 35 220 255
-0.15 -0.1125 0.1875 99 156 255
-0.5 -0.2375 0.1875 67 188 255
-0.2125 -0.25 0.175 64 191 255
-0.275 -0.225 0.1875 70 185 255
-0.0375 -0.1375 0.175 92 163 255
-0.2875 0.075 -0.275 147 108 255
0.05 -0.4875 0.05 3 252 255
-0.05 0.075 0.075 147 108 255
-0.1 0.075 -0.0125 147 108 255
-0.45 0.075 -0.275 147 108 255
-0.2625 -0.4875 -0.1375 3 252 255
-0.125 -0.475 0.175 6 249 255
0.1 -0.4875 0.15 3 252 255
0 0.025 0.45 134 121 255
-0.1625 0.075 -0.15 147 108 255
-0.4375 -0.3375 0.175 40 214 255
0.0625 0.075 0.125 147 108 255
0.0375 -0.4875 0.125 3 252 255
-0.1125 -0.4875 -0.175 3 252 255
0.0625 -0.1 0.2625 102 153 255
-0.2375 0.075 0 147 108 255
-0.0375 -0.15 0.175 89 166 255
-0.425 -0.0375 0.175 118 137 255
0.125 0.075 0.325 147 108 255
-0.025 -0.4875 0.1625 3 252 255
0.075 0.075 0.425 147 108 255
-0.2625 -0.4875 0.025 3 252 255
-0.225 -0.4875 -0.0875 3 252 255
0.0625 -0.4875 0.125 3 252 255
-0.025 -0.2625 0.175 60 195 255
-0.275 -0.4875 0.1 3 252 255
-0.0125 -0.2875 0.325 54 201 255
-0.3625 -0.15 0.1625 89 166 255
-0.3625 0.075 -0.15 147 108 255
-0.0375 -0.3875 0.175 28 227 255
-0.4875 0.075 0.1875 147 108 255
-0.025 -0.1625 0.1875 86 169 255
-0.45 -0.3625 0.1875 35 220 255
-0.0625 -0.3125 0.1875 48 207 255
-0.4125 0.075 -0.0625 147 108 255
-0.075 -0.375 0.1875 32 223 255
-0.1 -0.175 0.175 83 172 255
0.0375 -0.2375 0.2625 67 188 255
-0.45 -0.0625 0.1875 112 143 255
-0.175 0.075 -0.1625 147 108 255
-0.0875 -0.0625 -0.125 112 143 255
0.2 0.075 0.2625 147 108 255
-0.15 -0.425 0.1875 19 236 255
-0.2875 -0.1125 -0.1125 99 156 255
-0.15 0.075 -0.1875 147 108 255
-0.3375 0.075 -0.325 147 108 255
-0.4625 0.075 -0.3125 147 108 255
-0.425 -0.1875 0.1625 80 175 255
-0.4 -0.3875 0.1875 28 227 255
-0.025 0.075 -0.05 147 108 255
-0.1125 -0.0625 -0.1375 112 143 255
-0.4875 -0.325 0.1875 44 211 255
0.0875 0.075 0.35 147 108 255
-0.0625 0.075 0.1125 147 108 255
0 -0.0375 0.175 118 137 255
0.0125 -0.1625 0.2625 86 169 255
-0.0375 -0.4375 0.1875 16 239 255
0.1 0.075 0.3625 147 108 255
0.1625 0.075 0.175 147 108 255
-0.4625 -0.0875 0.1875 105 150 255
-0.4 -0.1375 0.1875 92 163 255
-0.0125 -0.225 0.3125 70 185 255
-0.075 -0.2625 0.175 60 195 255
-0.25 -0.0375 0.1875 118 137 255
-0.475 0.075 -0.2 147 108 255
-0.1125 -0.4875 0.025 3 252 255
-0.05 -0.1625 0.1875 86 169 255
-0.45 -0.4875 0.1375 3 252 255
0.125 0.075 0.4125 147 108 255
-0.4125 -0.05 0.175 115 140 255
-0.1625 -0.0875 0.1875 105 150 255
-0.45 -0.4875 -0.025 3 252 255
0.1 -0.375 -0.35 32 223 255
-0.2875 -0.0875 0.1875 105 150 255
0 0.025 0.4125 134 121 255
-0.0125 0.0375 0.3875 137 118 255
-0.1875 -0.4875 -0.125 3 252 255
-0.0375 -0.4875 -0.0625 3 252 255
-0.225 -0.4875 0.05 3 252 255
-0.125 -0.4875 0.05 3 252 255
-0.0125 -0.0375 0.25 118 137 255
-0.0375 0.075 0 147 108 255
-0.2375 -0.075 0.175 108 147 255
-0.3125 0.075 -0.2625 147 108 255
-0.05 -0.4375 0.175 16 239 255
-0.025 0.075 -0.0625 147 108 255
-0.2625 -0.4875 0.125 3 252 255
-0.2625 -0.4875 0.1375 3 252 255
-0.325 -0.15 0.1875 89 166 255
0 -0.4625 0.175 9 246 255
0 0.025 0.225 134 121 255
-0.1125 0.05 0.1875 140 114 255
-0.1875 -0.1125 -0.175 99 156 255
-0.4875 0.075 -0.1875 147 108 255
0.1125 -0.3875 -0.35 28 227 255
-0.1 -0.325 0.175 44 211 255
-0.1875 -0.375 -0.35 32 223 255
-0.0125 -0.175 0.3125 83 172 255
0.1875 -0.4375 0.275 16 239 255
-0.0125 0.0375 0.2625 137 118 255
-0.3125 -0.0375 0.1875 118 137 255
-0.225 -0.2875 0.1875 54 201 255
0 -0.0125 0.325 124 131 255
-0.125 -0.375 -0.3125 32 223 255
-0.35 0.075 0.0125 147 108 255
-0.4875 0.075 -0.25 147 108 255
-0.2375 -0.3875 -0.3 28 227 255
-0.1875 -0.4875 -0.175 3 252 255
0.1375 -0.1125 -0.1375 99 156 255
-0.2875 -0.075 0.1875 108 147 255
-0.325 -0.4625 0.175 9 246 255
-0.3125 -0.4875 -0.1375 3 252 255
-0.1 -0.1875 0.1875 80 175 255
0.0125 -0.4875 0.2625 3 252 255
-0.45 -0.275 0.175 56 198 255
0 -0.3 0.275 51 204 255
0.2 -0.4875 0.2125 3 252 255
-0.3625 -0.2625 0.175 60 195 255
-0.375 -0.175 0.175 83 172 255
-0.175 -0.4875 -0.2 3 252 255
0 -0.4875 0.125 3 252 255
0.175 -0.1 -0.1 102 153 255
-0.2375 -0.4875 -0.1625 3 252 255
-0.15 0.075 -0.1375 147 108 255
-0.2125 -0.1125 -0.1375 99 156 255
-0.4 -0.2125 0.175 73 182 255
-0.325 -0.4875 0.1375 3 252 255
-0.1125 -0.4875 -0.1625 3 252 255
-0.1 -0.05 -0.15 115 140 255
-0.3875 0.075 -0.025 147 108 255
0 0.075 0.25 147 108 255
0 -0.225 0.3 70 185 255
-0.1 0.0125 0.1875 131 124 255
-0.375 -0.4875 0.025 3 252 255
-0.025 -0.025 0.1875 121 134 255
0.125 -0.4875 0.1125 3 252 255
-0.0125 0.075 0.2 147 108 255
-0.45 -0.1625 0.1625 86 169 255
-0.425 -0.4125 0.175 22 233 255
-0.125 0.075 -0.1625 147 108 255
-0.35 0.075 -0.15 147 108 255
-0.1625 0.075 -0.35 147 108 255
-0.3 -0.4875 -0.075 3 252 255
-0.4375 -0.35 0.1875 38 217 255
-0.0125 -0.45 0.325 12 243 255
0.0875 0.075 0.3625 147 108 255
-0.0125 0.075 0.1625 147 108 255
-0.35 -0.4875 -0.075 3 252 255
-0.025 -0.35 0.175 38 217 255
-0.375 0.075 -0.2875 147 108 255
-0.1125 0.075 0.1125 147 108 255
0 -0.375 -0.3 32 223 255
0.1875 -0.4375 0.2625 16 239 255
0 0.0625 0.2375 144 111 255
-0.4625 -0.4875 0.1125 3 252 255
0 -0.0625 -0.1375 112 143 255
0.0375 -0.4875 -0.1875 3 252 255
-0.2 -0.375 -0.3375 32 223 255
-0.05 0.075 -0.1625 147 108 255
0.1125 0.075 0.2875 147 108 255
0 0.05 0.2875 140 114 255
0.0375 -0.475 0.2625 6 249 255
-0.0125 -0.3125 0.275 48 207 255
0.125 -0.2625 0.2625 60 195 255
0.075 0.075 0.375 147 108 255
-0.475 -0.1375 0.1625 92 163 255
-0.3625 -0.275 0.1875 56 198 255
-0.375 -0.2125 0.1875 73 182 255
0.075 0.075 0.05 147 108 255
-0.0625 0.075 0.1625 147 108 255
-0.4125 -0.35 0.175 38 217 255
-0.45 0.075 -0.1 147 108 255
-0.325 -0.225 0.1875 70 185 255
0.0875 -0.325 0.2625 44 211 255
-0.025 -0.4875 -0.0875 3 252 255
0.075 0.075 0.0875 147 108 255
-0.3875 -0.45 0.1875 12 243 255
-0.0125 -0.3875 0.325 28 227 255
-0.4 -0.25 0.175 64 191 255
-0.0625 -0.325 0.1875 44 211 255
-0.15 -0.05 0.1875 115 140 255
0.1125 -0.4875 0.3125 3 252 255
0 -0.1125 0.3125 99 156 255
-0.4875 -0.175 0.1625 83 172 255
-0.125 -0.05 -0.125 115 140 255
-0.3875 -0.4625 0.175 9 246 255
-0.05 -0.4625 0.1875 9 246 255
0 -0.475 0.3125 6 249 255
-0.25 -0.05 0.175 115 140 255
-0.375 -0.375 0.1875 32 223 255
0 0.05 0.225 140 114 255
-0.075 -0.3625 0.175 35 220 255
-0.0125 -0.0125 0.2125 124 131 255
0.1375 -0.4625 0.2625 9 246 255
-0.225 -0.0625 0.1875 112 143 255
-0.0125 -0.15 0.275 89 166 255
-0.0375 -0.3 0.1875 51 204 255
-0.0125 -0.0875 0.275 105 150 255
-0.45 -0.325 0.1875 44 211 255
0 -0.1625 0.2625 86 169 255
-0.05 -0.1 0.175 102 153 255
-0.0625 0.075 0.1875 147 108 255
-0.1125 0.075 -0.2625 147 108 255
-0.1875 -0.3 0.175 51 204 255
-0.0875 -0.3375 0.1875 40 214 255
-0.175 0.075 0.0125 147 108 255
-0.2 -0.1125 -0.1625 99 156 255
-0.275 -0.4875 -0.1125 3 252 255
-0.0875 -0.2 0.1875 76 179 255
0.025 -0.1 0.2625 102 153 255
-0.175 -0.4875 -0.025 3 252 255
-0.025 0.075 -0.0875 147 108 255
-0.1125 0.075 -0.1875 147 108 255
0 0 0.3 128 127 255
0 0.0625 0.2125 144 111 255
-0.35 -0.425 0.1875 19 236 255
-0.2375 -0.4875 -0.1375 3 252 255
-0.2875 -0.4875 -0.175 3 252 255
0.0375 -0.4875 -0.075 3 252 255
-0.0375 0.075 -0.0375 147 108 255
-0.4375 0.075 -0.0375 147 108 255
-0.25 -0.25 0.1875 64 191 255
0 -0.35 0.225 38 217 255
-0.2 -0.4625 0.175 9 246 255
-0.3 -0.3625 0.175 35 220 255
-0.225 0.075 0.025 147 108 255
0 -0.2125 0.3 73 182 255
-0.3875 -0.3625 0.175 35 220 255
0 -0.0125 0.2875 124 131 255
-0.4625 -0.2625 0.175 60 195 255
-0.175 -0.4125 0.175 22 233 255
-0.025 -0.075 0.175 108 147 255
-0.1875 -0.125 0.1875 96 159 255
-0.3125 0.075 -0.1625 147 108 255
-0.2875 -0.4125 0.175 22 233 255
-0.475 0.075 -0.05 147 108 255
-0.4375 -0.4875 -0.0125 3 252 255
0.0125 -0.0625 -0.15 112 143 255
-0.0125 -0.125 0.2625 96 159 255
-0.325 -0.0875 0.175 105 150 255
0.175 -0.4875 0.2625 3 252 255
0.0125 -0.4875 0.25 3 252 255
-0.3375 -0.3 0.175 51 204 255
-0.0375 0.05 0.175 140 114 255
0 -0.075 0.2625 108 147 255
-0.2125 -0.4875 0.1 3 252 255
-0.0125 0.0375 0.4375 137 118 255
-0.475 -0.1 0.175 102 153 255
-0.1875 -0.4875 -0.2125 3 252 255
-0.0125 0 0.175 128 127 255
0.0375 -0.1125 -0.15 99 156 255
0.1 -0.375 -0.375 32 223 255
0.2 -0.4875 0.25 3 252 255
-0.4 -0.2875 0.1875 54 201 255
0.1875 -0.425 0.2875 19 236 255
-0.2 0.025 0.1875 134 121 255
-0.0125 -0.0625 0.325 112 143 255
-0.2125 0.075 0.025 147 108 255
-0.2875 -0.3 0.175 51 204 255
-0.1125 0.0375 0.175 137 118 255
-0.0625 0.0375 0.175 137 118 255
-0.45 -0.4875 0.1625 3 252 255
-0.4375 -0.1625 0.175 86 169 255
-0.0125 -0.0625 0.275 112 143 255
-0.4625 -0.3375 0.1625 40 214 255
-0.3125 0.075 -0.2875 147 108 255
0.05 -0.125 0.2625 96 159 255
-0.4375 0.075 -0.2 147 108 255
-0.0875 0.075 0.125 147 108 255
0.1125 -0.2375 0.2625 67 188 255
-0.1125 -0.1 0.175 102 153 255
-0.35 -0.1 0.1875 102 153 255
-0.4125 -0.175 0.1875 83 172 255
-0.1125 -0.2875 0.1875 54 201 255
0 -0.3875 0.175 28 227 255
-0.2375 -0.05 -0.125 115 140 255
-0.2625 -0.25 0.1875 64 191 255
-0.2125 0.0125 0.1875 131 124 255
-0.425 -0.125 0.1625 96 159 255
-0.0375 0.075 0.025 147 108 255
0 0.0375 0.3875 137 118 255
-0.2125 -0.175 0.175 83 172 255
0.125 -0.3375 0.2625 40 214 255
0 -0.375 -0.325 32 223 255
-0.1875 0.075 -0.25 147 108 255
-0.2125 -0.4875 -0.1125 3 252 255
-0.225 -0.1 0.175 102 153 255
-0.4125 -0.4875 0.0375 3 252 255
-0.1 0.075 -0.175 147 108 255
-0.4375 -0.0875 0.1875 105 150 255
0.0125 -0.475 0.2625 6 249 255
-0.2 -0.375 -0.2875 32 223 255
-0.4 -0.4875 0.125 3 252 255
-0.075 0 0.1875 128 127 255
-0.0125 -0.2875 0.2875 54 201 255
-0.25 -0.075 0.1875 108 147 255
0.125 -0.4375 0.2625 16 239 255
0.05 -0.1125 -0.125 99 156 255
0.0625 0.075 0.3375 147 108 255
-0.0125 -0.4625 0.3 9 246 255
0 -0.2625 0.225 60 195 255
0.0875 0.075 0.2375 147 108 255
-0.1375 -0.4875 -0.15 3 252 255
-0.5 -0.35 0.1875 38 217 255
-0.15 -0.1625 0.175 86 169 255
0.1875 -0.0625 0.3125 112 143 255
-0.3125 -0.4625 0.1875 9 246 255
0 -0.1125 0.225 99 156 255
-0.0125 0.025 0.225 134 121 255
-0.3125 -0.325 0.175 44 211 255
-0.1625 -0.15 0.1875 89 166 255
-0.3375 -0.15 0.175 89 166 255
-0.4125 -0.1625 0.1875 86 169 255
-0.1625 -0.4875 0.0125 3 252 255
-0.0125 -0.25 0.3125 64 191 255
0.225 -0.4875 0.25 3 252 255
-0.325 0.075 -0.0875 147 108 255
-0.0125 -0.275 0.225 56 198 255
0 -0.0875 0.2625 105 150 255
-0.1375 -0.4875 0.025 3 252 255
-0.1125 0.075 0.15 147 108 255
-0.125 -0.1625 0.1875 86 169 255
0.075 -0.325 0.2625 44 211 255
-0.0375 -0.1875 0.1875 80 175 255
-0.475 -0.0625 0.1875 112 143 255
-0.025 -0.4875 -0.125 3 252 255
-0.4375 0.075 -0.0125 147 108 255
-0.0375 -0.15 0.1875 89 166 255
0 -0.2875 0.175 54 201 255
-0.0625 0.075 -0.15 147 108 255
0 -0.425 0.2875 19 236 255
-0.2625 0.075 -0.25 147 108 255
0.1875 -0.0875 0.2625 105 150 255
-0.3875 -0.0875 0.1875 105 150 255
-0.3125 -0.175 0.175 83 172 255
-0.225 -0.4875 0.15 3 252 255
0.1875 -0.05 0.3125 115 140 255
0 0.05 0.175 140 114 255
0.1125 0.075 0.3125 147 108 255
0.1875 -0.3125 0.275 48 207 255
0.1875 -0.2625 0.275 60 195 255
-0.0875 -0.375 -0.2875 32 223 255
-0.0125 -0.1375 0.3 92 163 255
-0.4125 -0.3875 0.175 28 227 255
-0.0625 -0.4625 0.1875 9 246 255
-0.45 -0.4875 0.1125 3 252 255
-0.225 0.075 -0.2625 147 108 255
-0.475 -0.4875 -0.125 3 252 255
0.0375 -0.4875 0.1375 3 252 255
-0.1375 0.075 -0.025 147 108 255
-0.2 -0.1125 0.1875 99 156 255
0 -0.2875 0.2375 54 201 255
0.1125 0.075 0.3375 147 108 255
-0.5 0.075 -0.0875 147 108 255
0.075 0.075 0.2375 147 108 255
-0.15 -0.4875 -0.15 3 252 255
-0.2875 0.075 -0.1375 147 108 255
-0.4375 0.075 -0.175 147 108 255
0.1875 -0.3375 0.275 40 214 255
-0.4125 -0.4125 0.1875 22 233 255
0 -0.3625 0.225 35 220 255
-0.15 -0.4875 0.075 3 252 255
0.225 -0.4875 0.15 3 252 255
0.075 -0.4375 -0.2625 16 239 255
-0.05 -0.2 0.175 76 179 255
0.2375 -0.4875 0.175 3 252 255
-0.425 -0.0125 0.1875 124 131 255
-0.4125 0.075 -0.075 147 108 255
-0.0125 0 0.2 128 127 255
-0.1375 0.075 -0.125 147 108 255
0.1375 -0.425 -0.2625 19 236 255
-0.0375 -0.1125 -0.1 99 156 255
-0.5 0.075 -0.0625 147 108 255
-0.0125 -0.2 0.2875 76 179 255
0.1375 -0.4875 0.0625 3 252 255
-0.3875 -0.2 0.175 76 179 255
-0.3625 -0.0625 0.1875 112 143 255
-0.325 0.075 0.0125 147 108 255
0.175 -0.4875 0.075 3 252 255
-0.1625 -0.35 0.175 38 217 255
0.1125 -0.4875 0.225 3 252 255
-0.2875 0.075 -0.2125 147 108 255
-0.0125 -0.125 0.325 96 159 255
0.075 -0.4875 -0.05 3 252 255
-0.1375 -0.375 -0.2875 32 223 255
0.125 -0.4875 0.225 3 252 255
-0.2 -0.3375 0.175 40 214 255
-0.1125 -0.375 -0.3 32 223 255
0 0.075 0.325 147 108 255
0.1625 -0.075 -0.125 108 147 255
-0.1 -0.0375 -0.1375 118 137 255
-0.0625 0.075 0.0375 147 108 255
-0.2 0 0.1875 128 127 255
0.0875 -0.4 -0.2625 25 230 255
0.1875 -0.3625 0.3125 35 220 255
-0.3875 -0.125 0.175 96 159 255
-0.2625 0.075 0.175 147 108 255
-0.0125 -0.025 0.2125 121 134 255
-0.0625 -0.3625 0.1875 35 220 255
0 -0.3125 0.175 48 207 255
-0.2125 -0.2 0.175 76 179 255
-0.4875 -0.35 0.175 38 217 255
0.075 -0.0375 0.2875 118 137 255
-0.1625 0.075 0.15 147 108 255
-0.3625 -0.2625 0.1625 60 195 255
-0.4625 0.075 -0.2875 147 108 255
0.2 -0.4875 0.225 3 252 255
-0.4 -0.4875 0.0625 3 252 255
-0.2875 -0.1125 -0.125 99 156 255
-0.025 0.05 0.1875 140 114 255
-0.1875 -0.0375 0.175 118 137 255
-0.3625 -0.4875 -0.1875 3 252 255
0.075 -0.475 0.2625 6 249 255
-0.3125 0.075 -0.025 147 108 255
-0.3375 0.075 -0.1375 147 108 255
-0.3 -0.4375 0.175 16 239 255
-0.1375 -0.4 0.175 25 230 255
-0.0875 -0.175 0.175 83 172 255
-0.4375 -0.4125 0.1875 22 233 255
0.1 -0.4875 0.075 3 252 255
-0.1125 -0.4875 0.1875 3 252 255
0.1875 -0.4125 0.3 22 233 255
-0.2625 0.075 -0.0375 147 108 255
-0.4375 0.075 0.0125 147 108 255
0.1125 -0.45 0.2625 12 243 255
-0.4875 -0.4875 -0.1375 3 252 255
-0.4 -0.4 0.1625 25 230 255
0.0125 0.075 0.3875 147 108 255
-0.375 -0.2375 0.175 67 188 255
-0.4375 0.075 -0.3 147 108 255
-0.425 -0.1125 0.175 99 156 255
-0.0125 -0.3125 0.3 48 207 255
-0.4875 -0.4875 0.075 3 252 255
-0.275 -0.4 0.175 25 230 255
-0.2375 -0.3875 0.175 28 227 255
0 -0.4875 -0.2 3 252 255
0.475 -0.2125 -0.1375 73 182 255
-0.4375 -0.05 0.1875 115 140 255
0 -0.325 0.275 44 211 255
-0.4625 -0.4 0.1875 25 230 255
0.0625 -0.4875 -0.125 3 252 255
-0.0125 0.075 0.3 147 108 255
-0.475 -0.4875 -0.0625 3 252 255
-0.05 -0.4875 -0.1625 3 252 255
-0.0125 -0.125 0.225 96 159 255
0.0875 -0.125 0.2625 96 159 255
-0.125 0.0125 0.175 131 124 255
-0.025 -0.1375 0.1875 92 163 255
-0.1125 -0.175 0.1875 83 172 255
-0.2625 -0.4625 0.1875 9 246 255
-0.3875 -0.3125 0.1625 48 207 255
-0.175 -0.2125 0.175 73 182 255
-0.025 0.075 -0.025 147 108 255
-0.0125 -0.1375 0.275 92 163 255
-0.0125 -0.0625 0.2625 112 143 255
-0.375 -0.0375 0.175 118 137 255
-0.2375 -0.375 0.175 32 223 255
-0.0875 -0.3375 0.175 40 214 255
0 -0.125 0.2125 96 159 255
0.025 0.075 0.4625 147 108 255
-0.3125 -0.375 0.1875 32 223 255
-0.025 0.075 0.05 147 108 255
-0.1375 0.075 -0.175 147 108 255
-0.275 -0.05 -0.125 115 140 255
-0.4125 -0.125 0.1875 96 159 255
-0.225 -0.325 0.175 44 211 255
0.125 0.075 0.0875 147 108 255
-0.4 -0.375 0.1875 32 223 255
-0.2125 -0.375 0.1875 32 223 255
0.0375 0.075 0.1 147 108 255
-0.1 -0.4875 0.025 3 252 255
0.0125 -0.15 0.2625 89 166 255
-0.375 -0.1875 0.175 80 175 255
-0.0375 0.075 0.1875 147 108 255
-0.3 -0.2625 0.175 60 195 255
0 -0.2625 0.2875 60 195 255
-0.0125 -0.125 0.3125 96 159 255
-0.3125 -0.0375 0.175 118 137 255
-0.2375 0.075 -0.275 147 108 255
0 -0.4875 0.1125 3 252 255
-0.4125 -0.125 0.1625 96 159 255
-0.075 -0.4875 0.075 3 252 255
0.05 -0.4875 0.3 3 252 255
-0.3375 -0.2 0.1875 76 179 255
-0.175 0.075 0.1375 147 108 255
0.1875 -0.4125 0.275 22 233 255
-0.425 -0.4625 0.1875 9 246 255
-0.025 -0.3 0.175 51 204 255
-0.5 0.075 -0.2125 147 108 255
-0.25 -0.4875 0.175 3 252 255
-0.4125 -0.075 0.175 108 147 255
0.1625 -0.05 -0.125 115 140 255
0.0375 -0.0375 0.2875 118 137 255
-0.375 -0.45 0.1875 12 243 255
-0.15 0.075 -0.1125 147 108 255
-0.275 -0.1 -0.1625 102 153 255
-0.0375 0.025 0.175 134 121 255
0.15 -0.15 0.2625 89 166 255
0 -0.3625 0.2125 35 220 255
-0.025 -0.1125 -0.1125 99 156 255
-0.325 -0.0375 0.1875 118 137 255
-0.1125 0.0625 0.175 144 111 255
0.1 0.075 0.45 147 108 255
-0.0125 0 0.3375 128 127 255
0 0 0.2375 128 127 255
-0.4125 -0.4 0.175 25 230 255
-0.1375 -0.1625 0.175 86 169 255
0.0625 0.075 0.25 147 108 255
-0.45 0.075 -0.3125 147 108 255
0.1625 -0.1125 -0.1125 99 156 255
-0.1125 0.075 -0.15 147 108 255
-0.475 0.075 0 147 108 255
-0.075 -0.4875 0.1125 3 252 255
-0.3875 -0.025 0.1875 121 134 255
-0.2625 -0.35 0.175 38 217 255
-0.3625 -0.4875 -0.1125 3 252 255
-0.1375 -0.175 0.175 83 172 255
-0.0125 -0.2375 0.3 67 188 255
0 -0.225 0.3125 70 185 255
-0.2 -0.2125 0.175 73 182 255
-0.05 -0.45 0.1875 12 243 255
0.175 -0.15 0.2625 89 166 255
-0.3875 -0.225 0.1875 70 185 255
-0.1625 -0.3625 0.1875 35 220 255
0.1 0.075 0.05 147 108 255
0.075 0.075 0.325 147 108 255
-0.4 0.075 -0.1 147 108 255
-0.275 -0.0625 0.1875 112 143 255
-0.3 0.075 -0.3125 147 108 255
-0.175 -0.375 -0.3625 32 223 255
-0.0125 -0.1875 0.225 80 175 255
0.125 0.075 0.3 147 108 255
-0.3375 -0.125 0.1875 96 159 255
0 -0.15 0.3 89 166 255
0.1875 -0.1375 0.2625 92 163 255
-0.0125 0.075 -0.1125 147 108 255
-0.1375 -0.1875 0.1875 80 175 255
-0.075 -0.4875 -0.0875 3 252 255
-0.1375 -0.375 -0.3375 32 223 255
0.475 -0.1375 -0.1375 92 163 255
0.1875 -0.4875 0.2 3 252 255
0.4625 -0.125 -0.15 96 159 255
-0.3875 -0.4875 -0.0375 3 252 255
-0.4125 -0.4875 -0.0625 3 252 255
-0.4125 -0.0625 0.175 112 143 255
-0.3125 -0.2625 0.1875 60 195 255
-0.3875 -0.1625 0.1875 86 169 255
0.05 0.075 0.025 147 108 255
-0.0375 -0.1125 -0.125 99 156 255
0.125 -0.4125 0.2625 22 233 255
-0.3875 -0.4 0.1875 25 230 255
-0.15 -0.25 0.1875 64 191 255
-0.05 -0.375 -0.2875 32 223 255
-0.2875 -0.25 0.175 64 191 255
-0.325 0.075 -0.3125 147 108 255
-0.2625 -0.4875 0.1 3 252 255
-0.45 -0.3875 0.1875 28 227 255
-0.4875 -0.3875 0.175 28 227 255
-0.2125 -0.0375 0.1875 118 137 255
0 0.05 0.4625 140 114 255
-0.2375 -0.4875 0.1 3 252 255
0.175 0.075 0.3375 147 108 255
-0.4125 -0.025 0.175 121 134 255
-0.2 -0.4875 -0.0875 3 252 255
0.0625 0.075 0.075 147 108 255
-0.2 0.075 -0.3625 147 108 255
0.1125 -0.225 0.2625 70 185 255
0 -0.4125 0.2875 22 233 255
0.0125 -0.4875 -0.075 3 252 255
-0.125 -0.425 0.175 19 236 255
-0.0875 -0.3875 -0.275 28 227 255
-0.4875 -0.4875 -0.025 3 252 255
-0.3125 0.075 -0.2 147 108 255
0.175 0.075 0.175 147 108 255
0.1875 0.075 0.1875 147 108 255
-0.1 -0.2625 0.1875 60 195 255
0.025 -0.4875 -0.15 3 252 255
0.075 -0.1375 0.2625 92 163 255
0 -0.175 0.2375 83 172 255
-0.5 -0.425 0.175 19 236 255
0.0375 0.075 0.4375 147 108 255
-0.0125 0.0625 0.4 144 111 255
-0.025 -0.4875 0.175 3 252 255
-0.2125 -0.0125 0.1875 124 131 255
0.1375 -0.05 0.2625 115 140 255
-0.4125 -0.1 0.175 102 153 255
0.15 -0.4875 0.125 3 252 255
-0.075 -0.1375 0.175 92 163 255
-0.0125 -0.3375 0.175 40 214 255
-0.05 -0.3875 -0.275 28 227 255
-0.0125 -0.1 0.2625 102 153 255
-0.05 -0.4875 -0.2 3 252 255
-0.0375 -0.4875 -0.15 3 252 255
-0.05 -0.0375 0.175 118 137 255
0 -0.3 0.2625 51 204 255
-0.3125 -0.4875 -0.1 3 252 255
-0.0875 -0.0375 0.1875 118 137 255
0.0625 0.075 0.4125 147 108 255
-0.2 -0.3125 0.1875 48 207 255
0.1625 0.075 0.2625 147 108 255
0.0125 -0.35 0.2625 38 217 255
0.2125 -0.4875 0.0875 3 252 255
-0.05 -0.4875 0.1 3 252 255
-0.2375 -0.0375 0.175 118 137 255
-0.0125 -0.1 0.2875 102 153 255
-0.5 -0.4875 -0.175 3 252 255
-0.1125 0.075 -0.0375 147 108 255
-0.0125 -0.25 0.3 64 191 255
-0.2375 0.075 -0.3 147 108 255
-0.1875 -0.3125 0.175 48 207 255
-0.1 -0.25 0.175 64 191 255
-0.1375 0.05 0.175 140 114 255
-0.15 -0.4875 0.1 3 252 255
0.0875 -0.225 0.2625 70 185 255
0 -0.2375 0.2125 67 188 255
-0.3375 0.075 -0.3125 147 108 255
0.15 -0.4875 0.1375 3 252 255
-0.5 -0.3 0.1875 51 204 255
0.0875 0.075 0.1875 147 108 255
0 -0.2 0.225 76 179 255
0.025 -0.375 -0.35 32 223 255
-0.275 0.0625 0.1875 144 111 255
-0.3375 0.075 -0.35 147 108 255
0.05 0.075 0.1375 147 108 255
-0.4875 0.075 -0.1625 147 108 255
-0.05 -0.175 0.1875 83 172 255
-0.35 -0.4625 0.1875 9 246 255
-0.2125 -0.475 0.175 6 249 255
0.1875 -0.4875 0.225 3 252 255
0.05 -0.4875 0.0875 3 252 255
-0.1125 -0.375 0.1875 32 223 255
-0.3375 0.075 -0.0125 147 108 255
0.1875 -0.3375 0.2625 40 214 255
-0.0375 -0.225 0.1875 70 185 255
-0.2375 0.025 0.175 134 121 255
-0.175 -0.2375 0.1875 67 188 255
-0.25 -0.2125 0.175 73 182 255
-0.2375 0.075 -0.125 147 108 255
-0.4125 -0.2 0.1625 76 179 255
-0.0125 -0.05 0.25 115 140 255
-0.325 -0.1125 -0.1375 99 156 255
0.475 -0.2625 -0.15 60 195 255
0.0125 -0.225 0.2625 70 185 255
-0.3375 0.075 -0.1125 147 108 255
-0.3875 -0.0375 0.175 118 137 255
-0.15 0.075 -0.225 147 108 255
-0.2875 -0.325 0.1875 44 211 255
-0.375 0.075 -0.0875 147 108 255
0.1125 0.075 0.15 147 108 255
-0.225 0.05 0.175 140 114 255
-0.25 -0.4875 -0.125 3 252 255
-0.25 -0.175 0.1875 83 172 255
-0.3375 -0.05 0.175 115 140 255
0.0625 -0.225 0.2625 70 185 255
-0.175 -0.0625 0.1875 112 143 255
-0.5 -0.3875 0.175 28 227 255
0.025 -0.1125 -0.15 99 156 255
-0.325 -0.1625 0.175 86 169 255
0.0875 -0.4875 0.2375 3 252 255
-0.225 -0.2875 0.175 54 201 255
0.15 -0.0375 0.3125 118 137 255
0.1625 -0.2625 0.2625 60 195 255
-0.0125 -0.15 0.175 89 166 255
-0.4 -0.4875 0.0375 3 252 255
-0.1625 -0.4875 0.175 3 252 255
-0.3 -0.275 0.175 56 198 255
-0.075 -0.3125 0.1875 48 207 255
-0.2 -0.475 0.175 6 249 255
-0.3625 -0.1625 0.1625 86 169 255
-0.0125 -0.475 0.275 6 249 255
-0.4875 -0.45 0.1875 12 243 255
-0.375 -0.4875 -0.2 3 252 255
-0.425 -0.225 0.175 70 185 255
-0.2375 -0.4875 0.025 3 252 255
-0.2 -0.0125 0.175 124 131 255
-0.4875 -0.4125 0.1875 22 233 255
0.0375 -0.0625 -0.1375 112 143 255
-0.175 -0.375 -0.3375 32 223 255
-0.4625 -0.4875 0.175 3 252 255
0.125 -0.4 -0.35 25 230 255
-0.0625 -0.05 -0.125 115 140 255
0.1 -0.0875 0.2625 105 150 255
0.05 -0.4875 0.175 3 252 255
0.075 0.075 0.225 147 108 255
-0.3125 -0.0875 -0.15 105 150 255
-0.45 -0.0875 0.175 105 150 255
0.1875 -0.1625 0.3 86 169 255
-0.225 -0.25 0.1875 64 191 255
-0.1625 -0.375 -0.2875 32 223 255
-0.4 -0.2375 0.175 67 188 255
-0.4125 0.075 0.1625 147 108 255
-0.375 -0.0625 0.175 112 143 255
-0.125 -0.4875 -0.2 3 252 255
0 -0.0625 -0.15 112 143 255
-0.1375 -0.2125 0.1875 73 182 255
-0.4875 -0.4625 0.1875 9 246 255
0.1875 -0.425 0.275 19 236 255
0.0125 -0.0375 0.325 118 137 255
-0.325 -0.4125 0.175 22 233 255
-0.275 0.075 -0.075 147 108 255
0 0.075 0.175 147 108 255
-0.125 -0.15 0.175 89 166 255
0.1 0.075 0.0875 147 108 255
-0.075 0.0625 0.1875 144 111 255
0.075 0.075 0.475 147 108 255
-0.175 -0.0625 -0.15 112 143 255
-0.0125 -0.0125 0.3125 124 131 255
0 -0.0875 0.3 105 150 255
-0.45 -0.4875 -0.075 3 252 255
-0.1375 0.0375 0.175 137 118 255
0.1375 -0.4875 0.1 3 252 255
-0.4125 0.075 -0.15 147 108 255
-0.475 -0.4875 0.1625 3 252 255
-0.5 -0.0625 0.1875 112 143 255
-0.35 0.075 -0.1875 147 108 255
-0.2625 -0.375 0.1875 32 223 255
-0.0875 -0.3125 0.1875 48 207 255
-0.4 -0.375 0.175 32 223 255
-0.0625 -0.4875 0 3 252 255
-0.35 -0.4875 0.1 3 252 255
0.1125 -0.2125 0.2625 73 182 255
-0.35 -0.3875 0.175 28 227 255
-0.475 -0.4875 0.075 3 252 255
0.0375 0.075 0.0875 147 108 255
-0.2625 -0.1875 0.1875 80 175 255
-0.0125 -0.2375 0.325 67 188 255
-0.275 -0.125 0.1875 96 159 255
-0.225 -0.4875 0.1875 3 252 255
-0.0125 -0.4625 0.275 9 246 255
-0.275 -0.25 0.1875 64 191 255
-0.325 -0.05 -0.1375 115 140 255
0 0.075 0.45 147 108 255
0.4625 -0.1125 -0.1375 99 156 255
-0.275 -0.25 0.175 64 191 255
0.0125 -0.0625 0.2625 112 143 255
-0.25 -0.4125 0.1875 22 233 255
-0.4 -0.125 0.1875 96 159 255
-0.0125 -0.05 0.3125 115 140 255
0.025 -0.4875 -0.1375 3 252 255
-0.0375 -0.1 -0.1 102 153 255
-0.475 0.075 -0.1625 147 108 255
-0.2 0.0375 0.1875 137 118 255
-0.0125 -0.4 0.275 25 230 255
-0.4125 -0.4875 -0.075 3 252 255
-0.15 -0.0125 0.1875 124 131 255
0.0125 -0.4875 0.0625 3 252 255
0.05 0.075 0.3875 147 108 255
-0.3875 -0.2125 0.1875 73 182 255
0.1125 -0.3625 0.2625 35 220 255
0.1375 -0.4875 -0.0125 3 252 255
-0.2625 -0.4125 0.1875 22 233 255
-0.2 -0.0375 -0.1375 118 137 255
-0.0375 -0.05 -0.125 115 140 255
-0.1 0.075 0.075 147 108 255
-0.0125 -0.2 0.325 76 179 255
0 -0.4 -0.375 25 230 255
-0.2125 -0.45 0.175 12 243 255
-0.1375 0.075 0.175 147 108 255
-0.025 -0.4875 -0.05 3 252 255
0.0875 -0.0875 -0.15 105 150 255
-0.1625 -0.325 0.175 44 211 255
0.1375 -0.2375 0.2625 67 188 255
-0.0875 -0.375 -0.3625 32 223 255
0 0.075 0.0375 147 108 255
-0.25 0.075 -0.05 147 108 255
-0.3875 0.075 0.025 147 108 255
0 -0.0125 0.2125 124 131 255
0.2125 -0.1125 -0.15 99 156 255
-0.45 -0.475 0.1875 6 249 255
-0.2375 -0.05 0.175 115 140 255
-0.0125 -0.0625 0.175 112 143 255
0.0125 -0.4875 0.3125 3 252 255
0.075 -0.075 0.2625 108 147 255
0.15 -0.1375 0.2625 92 163 255
-0.275 -0.3125 0.175 48 207 255
-0.0125 -0.025 0.2 121 134 255
-0.125 -0.4875 0.1625 3 252 255
-0.1875 0 0.175 128 127 255
-0.0125 -0.2125 0.325 73 182 255
0.1125 -0.0375 -0.1375 118 137 255
-0.3875 -0.1125 0.1625 99 156 255
-0.4375 -0.1125 0.1625 99 156 255
-0.425 0.075 -0.1 147 108 255
0.125 0.075 0.2875 147 108 255
-0.4625 -0.4875 -0.125 3 252 255
0.0375 -0.4875 0.05 3 252 255
-0.4125 0.075 -0.1625 147 108 255
-0.325 -0.2125 0.1875 73 182 255
0 0.075 0.1 147 108 255
-0.0125 -0.35 0.275 38 217 255
-0.0375 0.075 0.0875 147 108 255
-0.2875 -0.125 0.1875 96 159 255
0.1875 0.075 0.2375 147 108 255
-0.4625 -0.4875 0.1375 3 252 255
-0.1125 -0.2125 0.175 73 182 255
0.025 -0.4875 -0.175 3 252 255
-0.4625 -0.35 0.175 38 217 255
0.1125 -0.35 0.2625 38 217 255
0.1875 -0.1625 0.275 86 169 255
-0.175 -0.4625 0.175 9 246 255
0.0875 -0.375 -0.325 32 223 255
-0.4625 -0.1375 0.175 92 163 255
-0.225 -0.1125 0.175 99 156 255
-0.3375 -0.025 0.175 121 134 255
-0.5 0.075 -0.1 147 108 255
0.0125 -0.4875 -0.2 3 252 255
0.0375 -0.3875 0.2625 28 227 255
-0.0375 -0.2125 0.175 73 182 255
0.1 -0.4875 -0.0375 3 252 255
-0.1875 0.075 0.15 147 108 255
-0.4625 -0.2375 0.1875 67 188 255
-0.2375 -0.4875 -0.025 3 252 255
-0.175 -0.1875 0.1875 80 175 255
-0.0125 -0.425 0.2125 19 236 255
-0.1875 -0.475 0.175 6 249 255
0 -0.1625 0.3 86 169 255
0.05 -0.175 0.2625 83 172 255
0.1875 -0.1125 -0.15 99 156 255
-0.0125 -0.3 0.275 51 204 255
-0.0875 -0.325 0.1875 44 211 255
-0.3625 -0.325 0.175 44 211 255
-0.0625 -0.375 -0.325 32 223 255
-0.475 -0.3125 0.1875 48 207 255
0.0625 -0.25 0.2625 64 191 255
-0.2125 0.075 0.15 147 108 255
0.2 -0.1125 -0.1 99 156 255
-0.25 -0.4875 0.0125 3 252 255
-0.1125 -0.475 0.175 6 249 255
0.0625 -0.175 0.2625 83 172 255
0.0625 -0.325 0.2625 44 211 255
0.025 0.075 0.375 147 108 255
0.05 -0.225 0.2625 70 185 255
0.1875 -0.3625 0.275 35 220 255
-0.3 -0.4875 0.1125 3 252 255
-0.05 -0.1125 0.175 99 156 255
0.075 0.075 0.2 147 108 255
-0.0625 0.075 -0.125 147 108 255
0.1625 -0.05 -0.15 115 140 255
0.1625 -0.4875 0.0375 3 252 255
0.075 -0.05 -0.15 115 140 255
-0.4125 0.075 -0.2125 147 108 255
-0.075 0.075 0.1125 147 108 255
0.0375 -0.05 -0.15 115 140 255
-0.3875 -0.225 0.175 70 185 255
0.1875 -0.125 0.275 96 159 255
0.4625 -0.1625 -0.15 86 169 255
-0.4375 0.075 -0.325 147 108 255
0.0625 -0.375 -0.2875 32 223 255
-0.4125 -0.025 0.1875 121 134 255
-0.2625 0.075 0.025 147 108 255
-0.0125 0.075 0.25 147 108 255
-0.2625 -0.45 0.1875 12 243 255
-0.4375 -0.3125 0.1625 48 207 255
0 -0.1375 0.2 92 163 255
-0.0125 -0.375 -0.3125 32 223 255
-0.1125 0.075 -0.025 147 108 255
-0.075 0.075 -0.15 147 108 255
-0.4375 -0.4875 0.1875 3 252 255
-0.3 -0.4625 0.175 9 246 255
-0.175 -0.4875 0.15 3 252 255
0.075 -0.4875 0.025 3 252 255
0 -0.375 -0.2875 32 223 255
-0.35 -0.175 0.175 83 172 255
-0.0125 0.0125 0.4375 131 124 255
-0.3875 0.075 -0.325 147 108 255
-0.0125 -0.25 0.175 64 191 255
0.0125 -0.4875 0.2 3 252 255
-0.175 -0.475 0.175 6 249 255
-0.1375 -0.4875 0.175 3 252 255
-0.125 -0.325 0.1875 44 211 255
-0.475 -0.35 0.175 38 217 255
-0.025 -0.1375 0.175 92 163 255
-0.3375 -0.0875 0.1875 105 150 255
0.1875 -0.275 0.2625 56 198 255
-0.4875 0.075 0.1625 147 108 255
0.0875 -0.1125 0.2625 99 156 255
-0.175 -0.3625 0.1875 35 220 255
0 -0.4 0.2 25 230 255
0 0.0125 0.4 131 124 255
-0.4625 0.075 -0.15 147 108 255
-0.0625 -0.05 -0.15 115 140 255
-0.0125 -0.4875 0.275 3 252 255
0 -0.4375 0.2125 16 239 255
0.075 -0.4875 0.2375 3 252 255
-0.2375 0.075 -0.1375 147 108 255
-0.3125 -0.4875 -0.1625 3 252 255
0.2 0.075 0.2375 147 108 255
-0.4625 -0.225 0.1625 70 185 255
-0.25 -0.0375 0.175 118 137 255
-0.0125 0.075 0.275 147 108 255
0.0625 -0.4875 0.2625 3 252 255
-0.15 -0.4875 -0.0875 3 252 255
-0.2625 -0.1 -0.1625 102 153 255
-0.25 -0.3125 0.1875 48 207 255
0.1125 -0.475 0.2625 6 249 255
-0.0125 -0.2125 0.2375 73 182 255
0.125 -0.4875 0.275 3 252 255
-0.0375 0.075 0.05 147 108 255
-0.325 -0.2875 0.1875 54 201 255
-0.275 0.075 -0.1 147 108 255
-0.375 -0.4875 0.05 3 252 255
0 -0.4 0.25 25 230 255
0 -0.3125 0.1875 48 207 255
-0.175 -0.4875 0.0125 3 252 255
-0.0125 -0.0125 0.2375 124 131 255
-0.4125 0.075 -0.2625 147 108 255
-0.4 -0.4875 -0.1875 3 252 255
-0.325 0.075 -0.2375 147 108 255
0.1125 -0.0875 0.2625 105 150 255
-0.375 0.075 0.025 147 108 255
-0.0125 0.0375 0.25 137 118 255
-0.4375 -0.2875 0.175 54 201 255
-0.0375 -0.4875 0.125 3 252 255
-0.4375 0.075 -0.2875 147 108 255
-0.2375 -0.4875 -0.1125 3 252 255
-0.2375 -0.425 0.175 19 236 255
-0.35 -0.4875 -0.05 3 252 255
-0.45 -0.1625 0.1875 86 169 255
-0.0125 -0.4875 0.325 3 252 255
-0.2125 -0.4875 -0.025 3 252 255
0.025 -0.4875 -0.0375 3 252 255
0.075 0.075 0.175 147 108 255
0 -0.0625 0.3 112 143 255
0.0875 -0.2125 0.2625 73 182 255
-0.0125 -0.4875 -0.0375 3 252 255
0 -0.4625 0.2625 9 246 255
-0.4 -0.15 0.1875 89 166 255
-0.2 -0.4875 -0.1 3 252 255
0.0625 0.075 0.1375 147 108 255
-0.15 0.075 -0.175 147 108 255
-0.175 0.0625 0.175 144 111 255
-0.375 -0.4875 -0.175 3 252 255
-0.375 -0.325 0.175 44 211 255
-0.4 0.075 -0.1125 147 108 255
0.125 -0.2875 0.2625 54 201 255
-0.0375 -0.475 0.1875 6 249 255
-0.0375 -0.4875 0 3 252 255
-0.375 -0.425 0.1625 19 236 255
-0.3875 -0.15 0.175 89 166 255
0.15 -0.2625 0.2625 60 195 255
0.0375 -0.4875 0.25 3 252 255
-0.0125 -0.0625 0.3 112 143 255
-0.3875 -0.4875 -0.075 3 252 255
0 -0.0875 0.3125 105 150 255
-0.225 0.05 0.1875 140 114 255
-0.3375 -0.15 0.1875 89 166 255
-0.225 -0.4375 0.175 16 239 255
-0.2875 -0.2625 0.175 60 195 255
-0.4 -0.1875 0.1875 80 175 255
0.15 -0.325 0.3625 44 211 255
-0.225 0.075 0 147 108 255
0.075 -0.4875 -0.025 3 252 255
-0.0875 0.075 0.1625 147 108 255
-0.025 -0.05 0.175 115 140 255
0.1875 -0.1125 0.2625 99 156 255
-0.1625 -0.0625 -0.15 112 143 255
0.0875 -0.4875 0.1375 3 252 255
-0.325 -0.1625 0.1875 86 169 255
-0.3375 0.075 0.1375 147 108 255
0.15 -0.4875 -0.0125 3 252 255
0.1625 0.075 0.3 147 108 255
-0.1625 -0.4 0.1875 25 230 255
-0.0125 -0.2 0.2 76 179 255
-0.175 0.075 -0.25 147 108 255
0 -0.3875 0.3 28 227 255
0 0.075 -0.0875 147 108 255
-0.0125 -0.325 0.225 44 211 255
-0.325 -0.4875 0.0375 3 252 255
-0.375 0.075 -0.1375 147 108 255
0.1375 -0.4875 0.1375 3 252 255
0 -0.425 0.3125 19 236 255
-0.3375 -0.425 0.1875 19 236 255
0.1375 -0.25 0.2625 64 191 255
0.075 0.075 0.35 147 108 255
-0.0125 -0.225 0.175 70 185 255
0 0.025 0.2 134 121 255
-0.25 -0.0625 -0.15 112 143 255
-0.3 -0.2375 0.175 67 188 255
-0.4625 0.075 -0.05 147 108 255
0.025 -0.1875 0.2625 80 175 255
0.075 -0.4875 0.275 3 252 255
0.175 -0.3875 0.2625 28 227 255
0.0125 -0.4875 0.1125 3 252 255
-0.3625 -0.2125 0.175 73 182 255
-0.1 -0.4875 -0.0875 3 252 255
0.1875 -0.45 0.2875 12 243 255
0.125 -0.4875 0.2375 3 252 255
-0.0125 -0.1375 0.2125 92 163 255
0.0875 -0.1625 0.2625 86 169 255
-0.0625 0.075 0.175 147 108 255
-0.3625 0.075 0.025 147 108 255
-0.475 -0.4875 0.025 3 252 255
-0.2625 0.075 0.1625 147 108 255
-0.05 -0.375 -0.3625 32 223 255
-0.0125 0 0.425 128 127 255
0.0375 -0.4875 0.0125 3 252 255
-0.0125 -0.0375 0.2875 118 137 255
-0.15 -0.3875 0.175 28 227 255
-0.0125 -0.225 0.325 70 185 255
-0.1125 -0.175 0.175 83 172 255
-0.325 -0.2 0.1875 76 179 255
-0.075 -0.3 0.1875 51 204 255
-0.0125 -0.3625 0.225 35 220 255
-0.125 0.075 0.1875 147 108 255
-0.25 -0.0625 -0.1375 112 143 255
0.1875 -0.4625 0.3125 9 246 255
-0.1375 -0.1125 0.1875 99 156 255
-0.45 0.075 -0.05 147 108 255
0 -0.175 0.2 83 172 255
-0.45 -0.0875 0.1875 105 150 255
-0.3125 0.075 -0.0125 147 108 255
0.15 -0.0875 0.2625 105 150 255
-0.475 -0.4125 0.1875 22 233 255
0.05 0.075 0.225 147 108 255
-0.175 -0.1 0.175 102 153 255
-0.3125 -0.05 -0.125 115 140 255
0.1 -0.1125 -0.15 99 156 255
0.2125 -0.4875 0.2125 3 252 255
-0.125 0.075 0.1 147 108 255
-0.2125 -0.4875 -0.0625 3 252 255
-0.425 -0.4875 -0.1125 3 252 255
0.1 0.075 0.25 147 108 255
-0.2625 0.075 -0.075 147 108 255
-0.2 -0.3375 0.1875 40 214 255
-0.175 -0.4875 0.025 3 252 255
-0.475 0.075 -0.2625 147 108 255
-0.025 -0.4875 0.1 3 252 255
0.1625 -0.0375 0.3125 118 137 255
-0.4 0.075 -0.3 147 108 255
0 -0.2375 0.25 67 188 255
-0.225 -0.05 -0.15 115 140 255
-0.45 0.075 -0.0375 147 108 255
0.0875 -0.2375 0.2625 67 188 255
-0.05 -0.4875 0.05 3 252 255
-0.075 -0.1 0.1875 102 153 255
-0.325 -0.4875 -0.2125 3 252 255
-0.0875 -0.3625 0.1875 35 220 255
-0.125 -0.3125 0.1875 48 207 255
0.175 -0.4875 0.1125 3 252 255
-0.3 -0.1125 -0.1625 99 156 255
-0.3625 -0.375 0.175 32 223 255
0.125 -0.4875 0.1875 3 252 255
-0.1375 -0.4875 -0.175 3 252 255
0.0875 0.075 0.4125 147 108 255
-0.2625 -0.4875 -0.15 3 252 255
-0.125 0.075 -0.0875 147 108 255
-0.325 0.075 -0.0375 147 108 255
-0.0125 -0.4875 -0.025 3 252 255
-0.4375 0.075 0 147 108 255
0.1125 -0.4875 0.025 3 252 255
0.15 -0.4875 0.05 3 252 255
0.1875 -0.4375 0.2875 16 239 255
-0.325 -0.175 0.175 83 172 255
-0.2625 -0.45 0.175 12 243 255
-0.4375 -0.4875 -0.05 3 252 255
-0.1 -0.4125 0.1875 22 233 255
-0.3375 -0.425 0.175 19 236 255
-0.1 -0.375 -0.3625 32 223 255
-0.125 -0.275 0.1875 56 198 255
0.0625 -0.1625 0.2625 86 169 255
0.175 -0.0375 0.2875 118 137 255
-0.3125 -0.3125 0.1875 48 207 255
-0.0125 -0.075 0.2 108 147 255
-0.0125 0.05 0.4875 140 114 255
-0.275 -0.4875 -0.2 3 252 255
-0.3375 -0.4625 0.1875 9 246 255
0.05 0.075 0.175 147 108 255
-0.0125 0.05 0.3 140 114 255
0 0.0625 0.4 144 111 255
-0.4875 -0.3375 0.1875 40 214 255
-0.0875 -0.2625 0.1875 60 195 255
-0.2 -0.0375 0.175 118 137 255
-0.2625 -0.2 0.1875 76 179 255
-0.175 0.075 -0.325 147 108 255
-0.025 0.075 0.15 147 108 255
-0.2125 0.075 -0.0125 147 108 255
-0.3 0.075 -0.2875 147 108 255
-0.025 0.075 0.025 147 108 255
-0.4 0.075 0.025 147 108 255
-0.4625 -0.4 0.1625 25 230 255
0.1875 -0.3375 0.2875 40 214 255
0 -0.2625 0.2625 60 195 255
-0.1875 -0.4875 0.0125 3 252 255
0.0125 -0.4875 0 3 252 255
0.175 -0.45 0.2625 12 243 255
-0.0125 -0.225 0.2875 70 185 255
-0.05 -0.2625 0.175 60 195 255
-0.4625 -0.25 0.1625 64 191 255
0 -0.475 0.175 6 249 255
-0.3625 -0.325 0.1875 44 211 255
-0.4125 -0.4875 -0.15 3 252 255
0 0.075 0.35 147 108 255
0.0375 -0.1625 0.2625 86 169 255
-0.25 -0.4875 0.1125 3 252 255
-0.25 -0.225 0.175 70 185 255
-0.5 0.075 -0.125 147 108 255
-0.15 -0.4 0.1875 25 230 255
-0.2875 -0.4875 0.0125 3 252 255
-0.05 -0.4875 -0.0375 3 252 255
-0.3875 -0.2375 0.1625 67 188 255
-0.0125 0.0375 0.175 137 118 255
0.0625 -0.4875 0.2125 3 252 255
-0.45 -0.15 0.1625 89 166 255
0 -0.35 0.25 38 217 255
-0.3 0.075 -0.1375 147 108 255
0.1375 -0.0625 -0.15 112 143 255
-0.0875 0.075 0.075 147 108 255
-0.05 -0.1125 -0.1125 99 156 255
-0.1875 -0.2875 0.1875 54 201 255
0.2 -0.4875 0.2875 3 252 255
0.0125 -0.2 0.2625 76 179 255
-0.05 -0.0875 0.1875 105 150 255
-0.4 -0.4875 -0.05 3 252 255
0 -0.25 0.175 64 191 255
-0.0375 -0.4875 -0.05 3 252 255
-0.425 -0.25 0.175 64 191 255
0.15 -0.4875 0 3 252 255
-0.35 -0.4875 0.1875 3 252 255
0 -0.45 0.1875 12 243 255
-0.1875 0.075 -0.3375 147 108 255
-0.225 -0.0625 -0.1375 112 143 255
-0.425 0.075 -0.2625 147 108 255
-0.375 -0.4875 0.0125 3 252 255
-0.325 -0.4875 -0.1875 3 252 255
0 0.075 0.3 147 108 255
-0.4375 -0.4875 0.1625 3 252 255
-0.3375 -0.1375 0.175 92 163 255
-0.4125 -0.3125 0.175 48 207 255
-0.1625 -0.1625 0.175 86 169 255
-0.3875 -0.4875 0.1 3 252 255
0.075 -0.4875 0.0625 3 252 255
-0.0875 0.075 -0.2375 147 108 255
0 0.0375 0.4875 137 118 255
-0.1625 -0.1 0.175 102 153 255
-0.425 -0.2625 0.175 60 195 255
-0.45 -0.2375 0.175 67 188 255
-0.0625 -0.4875 0.125 3 252 255
-0.2125 0.075 -0.05 147 108 255
-0.225 -0.3125 0.175 48 207 255
-0.025 -0.4875 0.025 3 252 255
-0.15 -0.3 0.175 51 204 255
-0.2875 -0.125 0.175 96 159 255
0 -0.4875 0.075 3 252 255
0.1875 -0.3375 0.3 40 214 255
-0.125 -0.025 0.1875 121 134 255
-0.1 -0.425 0.1875 19 236 255
-0.1375 -0.1 -0.125 102 153 255
-0.3 -0.4875 0.025 3 252 255
-0.425 -0.475 0.175 6 249 255
-0.0625 -0.2875 0.1875 54 201 255
-0.075 0.0125 0.175 131 124 255
-0.1875 0.075 -0.35 147 108 255
0 -0.0875 0.175 105 150 255
-0.5 -0.4875 0.0625 3 252 255
0.1125 -0.4875 0.0375 3 252 255
0.1375 -0.4875 0.0125 3 252 255
-0.0125 -0.2625 0.175 60 195 255
-0.2125 -0.2875 0.1875 54 201 255
-0.0625 -0.4875 0.1125 3 252 255
-0.225 -0.4875 0.125 3 252 255
-0.0625 0.05 0.1875 140 114 255
0 -0.2125 0.2875 73 182 255
-0.125 0.075 0.025 147 108 255
0.0125 -0.4875 0.3 3 252 255
-0.3 -0.4875 -0.2 3 252 255
-0.1125 -0.3 0.175 51 204 255
-0.125 0.075 0.05 147 108 255
-0.1 -0.075 0.1875 108 147 255
-0.1875 -0.1125 0.1875 99 156 255
-0.0625 -0.4875 -0.15 3 252 255
-0.2 -0.3875 0.1875 28 227 255
0 -0.275 0.2625 56 198 255
-0.4125 -0.175 0.1625 83 172 255
-0.3375 -0.35 0.1875 38 217 255
-0.075 0.075 0.0875 147 108 255
0.1375 0.075 0.375 147 108 255
0.025 -0.4875 0.0875 3 252 255
0.025 0.075 0.05 147 108 255
0.1875 -0.4875 0.2375 3 252 255
0 0.0375 0.35 137 118 255
-0.35 -0.4875 0.0875 3 252 255
0.0375 -0.4875 0.0875 3 252 255
-0.2 -0.4875 -0.0375 3 252 255
-0.45 0.075 -0.1125 147 108 255
-0.3375 -0.4875 0.025 3 252 255
-0.175 -0.4875 -0.1375 3 252 255
-0.45 -0.0625 0.175 112 143 255
-0.2375 0.075 0.0125 147 108 255
-0.125 -0.3125 0.175 48 207 255
-0.1625 -0.0625 0.175 112 143 255
0 -0.1 0.3 102 153 255
-0.075 -0.0125 0.175 124 131 255
-0.1875 0.0125 0.175 131 124 255
-0.175 -0.375 0.1875 32 223 255
-0.1875 -0.4875 -0.1375 3 252 255
-0.2 -0.425 0.175 19 236 255
-0.2 -0.4125 0.175 22 233 255
-0.4625 -0.4125 0.1625 22 233 255
0 -0.4625 0.2125 9 246 255
-0.375 -0.1125 0.1875 99 156 255
0 0.0375 0.325 137 118 255
-0.2375 -0.3125 0.1875 48 207 255
-0.0875 0.075 0.1 147 108 255
-0.425 -0.4875 0.0625 3 252 255
0.1875 -0.1 0.2875 102 153 255
0.0625 -0.3125 0.2625 48 207 255
-0.025 0.075 0 147 108 255
0 -0.3375 0.1875 40 214 255
-0.425 -0.4 0.1875 25 230 255
-0.2125 0.075 -0.0375 147 108 255
0.1 -0.4875 -0.0875 3 252 255
0.0875 -0.4875 0.1125 3 252 255
0.05 -0.1 -0.1625 102 153 255
-0.2375 -0.425 -0.25 19 236 255
-0.2375 -0.4875 0.0875 3 252 255
-0.2625 -0.4875 0 3 252 255
-0.4125 -0.275 0.175 56 198 255
0.1 0.075 0.1125 147 108 255
0 -0.1 0.2625 102 153 255
-0.1375 -0.15 0.175 89 166 255
-0.0125 -0.2 0.175 76 179 255
-0.15 0.075 -0.25 147 108 255
-0.325 -0.075 0.175 108 147 255
0.025 -0.2625 0.2625 60 195 255
0.1 -0.4 -0.375 25 230 255
0.175 0.075 0.2 147 108 255
0.125 0.075 0.2375 147 108 255
-0.5 0.075 -0.025 147 108 255
-0.4125 0.075 -0.05 147 108 255
0.1875 -0.45 0.3 12 243 255
-0.125 -0.3 0.175 51 204 255
0.0875 -0.425 -0.25 19 236 255
0 -0.15 0.175 89 166 255
-0.2125 0.025 0.175 134 121 255
0.1375 -0.3375 0.2625 40 214 255
-0.0125 -0.3875 0.2875 28 227 255
-0.45 -0.125 0.175 96 159 255
-0.0125 -0.4875 0.3 3 252 255
-0.0125 -0.05 0.325 115 140 255
-0.1875 -0.0125 0.175 124 131 255
-0.0625 -0.4875 -0.075 3 252 255
-0.1375 0.075 0 147 108 255
-0.0125 -0.4 0.2625 25 230 255
-0.0625 0.075 -0.0375 147 108 255
-0.1 -0.025 0.1875 121 134 255
-0.175 -0.0875 0.1875 105 150 255
-0.325 -0.4875 -0.1125 3 252 255
-0.05 -0.25 0.175 64 191 255
-0.3375 -0.275 0.175 56 198 255
-0.5 -0.4875 0.175 3 252 255
-0.3875 -0.4125 0.1875 22 233 255
-0.2375 -0.1 0.175 102 153 255
-0.0125 0.075 -0.0375 147 108 255
0.075 -0.1125 -0.125 99 156 255
-0.0125 -0.2125 0.225 73 182 255
-0.0375 -0.25 0.175 64 191 255
-0.1375 0.075 -0.2625 147 108 255
-0.425 -0.425 0.175 19 236 255
0 0.0625 0.45 144 111 255
-0.1 0.075 -0.2625 147 108 255
0.075 0.075 0.275 147 108 255
-0.3375 -0.1875 0.175 80 175 255
-0.45 -0.4875 -0.1 3 252 255
-0.0875 -0.1125 -0.125 99 156 255
0.1125 -0.3875 -0.3375 28 227 255
0.0375 0.075 0.2375 147 108 255
-0.05 -0.4875 0.075 3 252 255
-0.35 -0.475 0.175 6 249 255
-0.225 -0.2 0.1875 76 179 255
-0.325 -0.4875 0.15 3 252 255
-0.3625 -0.4875 -0.05 3 252 255
0 0.0625 0.425 144 111 255
0.1625 -0.0875 -0.1125 105 150 255
-0.5 0.075 -0.175 147 108 255
0.175 -0.2625 0.2625 60 195 255
-0.375 -0.45 0.175 12 243 255
-0.0125 0 0.25 128 127 255
0.0125 -0.0375 0.3 118 137 255
-0.0625 0.075 0.1375 147 108 255
0 0.0375 0.2875 137 118 255
-0.35 -0.4875 0.1125 3 252 255
-0.4625 -0.1875 0.1625 80 175 255
-0.0125 -0.425 0.2 19 236 255
-0.2375 -0.4875 0.0375 3 252 255
-0.0375 -0.35 0.1875 38 217 255
-0.4375 0.075 0.1375 147 108 255
-0.3875 -0.4875 0.025 3 252 255
-0.3 0.075 -0.0375 147 108 255
0.1875 -0.425 0.3 19 236 255
-0.4625 0.075 -0.35 147 108 255
-0.1125 -0.4875 -0.0125 3 252 255
-0.325 0.075 -0.05 147 108 255
-0.4 -0.1125 0.1875 99 156 255
-0.0125 -0.2875 0.175 54 201 255
0.15 0.075 0.275 147 108 255
0 -0.15 0.275 89 166 255
-0.05 0.075 0.1875 147 108 255
-0.2 -0.275 0.175 56 198 255
-0.3375 -0.225 0.175 70 185 255
0.0125 0.075 0.4375 147 108 255
0.1875 -0.175 0.3 83 172 255
-0.0875 -0.1 0.175 102 153 255
-0.0125 -0.425 0.325 19 236 255
-0.1125 -0.15 0.175 89 166 255
-0.375 -0.275 0.175 56 198 255
0.1625 0.075 0.1875 147 108 255
-0.475 0.075 -0.325 147 108 255
-0.4375 -0.175 0.1625 83 172 255
-0.4 -0.4875 -0.2 3 252 255
-0.3625 -0.4875 0.05 3 252 255
-0.125 -0.1375 0.1875 92 163 255
0.15 -0.4875 0.1 3 252 255
0.1 -0.4875 0.0375 3 252 255
0.0875 -0.25 0.2625 64 191 255
-0.15 -0.2125 0.175 73 182 255
-0.0625 -0.1125 -0.15 99 156 255
-0.0375 -0.4875 0.1875 3 252 255
-0.3 0.075 -0.1 147 108 255
-0.4125 -0.05 0.1875 115 140 255
0 -0.2 0.275 76 179 255
-0.4625 -0.4875 -0.075 3 252 255
-0.1125 -0.0375 0.1875 118 137 255
-0.3125 0.075 0 147 108 255
-0.1375 -0.2125 0.175 73 182 255
-0.0125 -0.075 0.3125 108 147 255
0.025 -0.3875 -0.275 28 227 255
-0.4125 -0.4875 -0.0375 3 252 255
0.05 -0.4875 -0.0375 3 252 255
0.1625 -0.4875 0.05 3 252 255
0 -0.3625 0.2 35 220 255
0.05 -0.35 0.2625 38 217 255
-0.45 -0.1375 0.1625 92 163 255
-0.3125 -0.4875 -0.0875 3 252 255
0 0.075 0.4125 147 108 255
-0.2 0.075 -0.025 147 108 255
0.1 0.075 0.3125 147 108 255
-0.45 -0.4375 0.175 16 239 255
-0.3125 -0.4125 0.1875 22 233 255
-0.125 0.075 -0.25 147 108 255
-0.1375 -0.1125 -0.125 99 156 255
0 -0.4125 0.1875 22 233 255
-0.1875 -0.05 0.1875 115 140 255
-0.0875 0.075 -0.175 147 108 255
0.1875 -0.325 0.3 44 211 255
-0.1 0.0375 0.1875 137 118 255
-0.0125 0.0625 0.3375 144 111 255
0.1 -0.4375 0.2625 16 239 255
0.075 -0.375 -0.35 32 223 255
-0.025 -0.3 0.1875 51 204 255
-0.5 0.075 -0.0125 147 108 255
-0.05 -0.4875 -0.0125 3 252 255
-0.0125 -0.1625 0.175 86 169 255
-0.3 0.075 -0.0875 147 108 255
0 -0.1375 0.225 92 163 255
0 -0.35 0.2375 38 217 255
-0.2875 0.0625 0.1875 144 111 255
-0.4 -0.4875 0.1125 3 252 255
-0.15 -0.4875 -0.1 3 252 255
-0.125 -0.4 0.1875 25 230 255
0.0625 -0.35 0.2625 38 217 255
-0.1125 -0.425 0.175 19 236 255
-0.25 -0.1125 0.1875 99 156 255
-0.4 -0.1375 0.1625 92 163 255
-0.2 -0.4875 0.0875 3 252 255
-0.375 0.075 -0.2375 147 108 255
-0.4 -0.3125 0.1625 48 207 255
-0.35 -0.325 0.1875 44 211 255
-0.0125 0.05 0.25 140 114 255
0 -0.2875 0.2125 54 201 255
0.0125 -0.1875 0.2625 80 175 255
-0.2 -0.1625 0.175 86 169 255
0 0.0125 0.3125 131 124 255
0.225 -0.4875 0.2375 3 252 255
-0.4875 -0.4875 0.05 3 252 255
0.0125 0.075 0.375 147 108 255
0.0875 -0.4875 -0.025 3 252 255
-0.3625 -0.275 0.1625 56 198 255
0.0375 0.075 0.15 147 108 255
-0.175 -0.075 0.175 108 147 255
-0.2 -0.1 -0.15 102 153 255
-0.35 -0.4875 -0.2125 3 252 255
-0.4 -0.175 0.1875 83 172 255
-0.0125 -0.3125 0.2 48 207 255
-0.3125 -0.2375 0.175 67 188 255
-0.3125 0.075 -0.0875 147 108 255
-0.4875 -0.275 0.1625 56 198 255
-0.5 -0.3875 0.1875 28 227 255
-0.125 -0.4875 0 3 252 255
-0.425 -0.4875 0.025 3 252 255
0.0875 0.075 0.1375 147 108 255
-0.25 -0.4625 0.1875 9 246 255
0.175 -0.1375 0.2625 92 163 255
0.0875 0.075 0.2 147 108 255
0 -0.3 0.3125 51 204 255
-0.2875 -0.15 0.175 89 166 255
-0.1 0.0375 0.175 137 118 255
-0.3875 -0.4875 0.0125 3 252 255
-0.275 0.075 -0.35 147 108 255
-0.1 -0.2625 0.175 60 195 255
0.025 -0.0625 -0.1375 112 143 255
-0.0125 0.0125 0.4125 131 124 255
-0.0125 -0.1875 0.325 80 175 255
-0.25 0.075 -0.1 147 108 255
-0.0125 0.075 0.2875 147 108 255
-0.4 -0.4875 -0.0125 3 252 255
-0.2 -0.1 -0.1125 102 153 255
-0.1 0 0.1875 128 127 255
0 -0.2875 0.25 54 201 255
0.1375 -0.4875 0.3125 3 252 255
-0.375 0.075 -0.1125 147 108 255
0.125 -0.2375 0.2625 67 188 255
-0.025 -0.2625 0.1875 60 195 255
-0.125 -0.2 0.175 76 179 255
-0.3375 -0.3 0.1875 51 204 255
-0.375 -0.4875 0.075 3 252 255
0.1 0.075 0.075 147 108 255
-0.475 -0.1125 0.175 99 156 255
-0.2125 0.075 -0.3125 147 108 255
-0.1625 0.075 -0.175 147 108 255
0 -0.275 0.3 56 198 255
-0.475 -0.1125 0.1875 99 156 255
-0.325 -0.4875 -0.1625 3 252 255
-0.4625 -0.4875 -0.2 3 252 255
-0.4375 0.075 -0.1 147 108 255
0.0125 -0.3 0.2625 51 204 255
-0.1625 -0.425 0.1875 19 236 255
-0.475 -0.3375 0.1875 40 214 255
0.2 -0.1 -0.1625 102 153 255
-0.325 -0.475 0.175 6 249 255
-0.0875 0.075 -0.1625 147 108 255
-0.4 -0.4625 0.175 9 246 255
0 -0.375 -0.375 32 223 255
-0.0125 -0.325 0.2 44 211 255
-0.1625 0.075 -0.325 147 108 255
-0.05 -0.475 0.1875 6 249 255
-0.25 -0.275 0.175 56 198 255
-0.3375 -0.3875 0.1875 28 227 255
-0.125 0.05 0.1875 140 114 255
-0.0625 -0.375 0.1875 32 223 255
-0.175 0.025 0.175 134 121 255
-0.1125 -0.225 0.1875 70 185 255
0.0625 -0.4875 0.2 3 252 255
0.025 -0.4875 -0.1125 3 252 255
-0.0125 -0.25 0.2 64 191 255
-0.0125 -0.3875 0.2375 28 227 255
-0.05 -0.4875 -0.0625 3 252 255
-0.1125 -0.4875 -0.0875 3 252 255
-0.1375 -0.2875 0.1875 54 201 255
-0.4 -0.4875 -0.0375 3 252 255
0.2375 -0.4875 0.1875 3 252 255
-0.2125 -0.325 0.1875 44 211 255
0.1 -0.4875 -0.075 3 252 255
-0.2875 -0.1125 0.175 99 156 255
0.1625 -0.4875 0.1125 3 252 255
0 0 0.425 128 127 255
-0.4375 -0.4875 -0.1125 3 252 255
-0.1875 -0.4875 0.1875 3 252 255
-0.2375 -0.4875 -0.0375 3 252 255
0.075 -0.4875 0.05 3 252 255
0.0875 -0.1 -0.1625 102 153 255
-0.0125 -0.125 0.2 96 159 255
-0.125 -0.1 0.1875 102 153 255
-0.15 0.075 0.1875 147 108 255
-0.3625 -0.0375 0.175 118 137 255
0.025 -0.4 -0.375 25 230 255
-0.2125 -0.4 -0.2625 25 230 255
-0.225 0.075 0.175 147 108 255
-0.15 -0.4875 -0.075 3 252 255
-0.2 -0.2375 0.1875 67 188 255
-0.05 -0.025 0.1875 121 134 255
-0.25 -0.4875 0.075 3 252 255
-0.325 -0.4375 0.1875 16 239 255
-0.2 -0.1125 -0.1375 99 156 255
-0.1 -0.3125 0.1875 48 207 255
0.0875 0.075 0.4625 147 108 255
0.475 -0.275 -0.1625 56 198 255
-0.425 -0.0375 0.1875 118 137 255
0.0875 0.075 0.2625 147 108 255
0.175 -0.4875 0.0625 3 252 255
0 -0.225 0.25 70 185 255
0.1125 -0.4875 0.25 3 252 255
0.1875 -0.4875 0.1125 3 252 255
-0.075 -0.0625 -0.125 112 143 255
-0.2375 -0.475 0.1875 6 249 255
-0.325 -0.35 0.175 38 217 255
-0.0375 -0.4125 0.175 22 233 255
-0.025 -0.4875 0.15 3 252 255
-0.15 0.025 0.1875 134 121 255
-0.1375 -0.4875 0.0375 3 252 255
-0.3 -0.1125 0.1875 99 156 255
-0.2625 -0.275 0.1875 56 198 255
0.2 -0.1 -0.1125 102 153 255
-0.15 0.075 -0.2375 147 108 255
-0.45 -0.2 0.175 76 179 255
-0.075 0.075 0.1625 147 108 255
-0.3 -0.25 0.1875 64 191 255
0.075 0.075 0.0375 147 108 255
-0.05 -0.4125 0.175 22 233 255
-0.375 0.075 -0.025 147 108 255
-0.3375 -0.475 0.1875 6 249 255
-0.0625 -0.4875 -0.125 3 252 255
-0.275 -0.1 -0.1 102 153 255
0.0875 -0.2875 0.2625 54 201 255
-0.175 -0.125 0.175 96 159 255
-0.0125 -0.275 0.2625 56 198 255
-0.0875 -0.1625 0.175 86 169 255
-0.075 -0.4875 0.025 3 252 255
-0.0625 -0.25 0.175 64 191 255
-0.4 -0.4125 0.1875 22 233 255
0.05 0.075 0.4375 147 108 255
-0.0125 0.075 0.025 147 108 255
0.0625 -0.4875 0.1625 3 252 255
-0.1 0.075 0.025 147 108 255
