ply
format ascii 1.0
comment Created by Open3D
element vertex 1565
property double x
property double y
property double z
property uchar red
property uchar green
property uchar blue
end_header
-0.2875 -0.275 0 40 214 255
0 -0.3 0.0625 35 220 255
-0.2125 -0.325 0 28 227 255
0.025 -0.325 0.025 28 227 255
-0.175 0.05 0 124 131 255
0.1 -0.1125 0 83 172 255
0.0625 0.075 0.3625 131 124 255
0.0625 -0.15 0 73 182 255
0.025 0.075 0.35 131 124 255
-0.3 0 -0.0125 112 143 255
-0.2125 0.0625 0 128 127 255
0.1625 -0.2625 0.3375 44 211 255
-0.2125 0.075 0.225 131 124 255
0.1375 -0.1375 0 76 179 255
-0.175 -0.3125 0.0125 32 223 255
0.075 -0.1625 -0.0125 70 185 255
-0.275 0.0125 -0.0125 115 140 255
0.0125 0.075 0.0125 131 124 255
0.15 -0.025 0.0875 105 150 255
-0.225 -0.0375 0.0125 102 153 255
0.0875 -0.2625 0 44 211 255
-0.3 -0.3125 0 32 223 255
-0.3 -0.275 -0.0125 40 214 255
-0.125 -0.025 0.0375 105 150 255
0.1375 0.075 0.125 131 124 255
-0.0625 0 0 112 143 255
-0.2375 0.05 -0.0125 124 131 255
-0.0875 -0.0875 0 89 166 255
-0.2625 -0.0625 0 96 159 255
-0.425 -0.025 0.0375 105 150 255
0.15 -0.175 0.1125 67 188 255
0.1125 0.05 0 124 131 255
-0.0375 -0.35 -0.0125 22 233 255
-0.0625 0.0625 0 128 127 255
0.025 -0.3625 0.0125 19 236 255
0.025 -0.225 -0.0125 54 201 255
-0.275 -0.3 -0.0125 35 220 255
-0.0375 -0.3375 0.0125 25 230 255
0.125 -0.375 0.0625 16 239 255
0.1625 -0.325 0.1125 28 227 255
-0.175 0.075 0.0875 131 124 255
-0.0125 -0.15 0 73 182 255
-0.1125 -0.3625 -0.0125 19 236 255
0.1625 -0.175 0.3 67 188 255
0.15 0.075 0.0375 131 124 255
-0.225 0.075 0.0875 131 124 255
-0.3125 -0.1125 -0.0125 83 172 255
-0.275 -0.225 -0.0125 54 201 255
0.05 -0.325 0.0875 28 227 255
-0.25 -0.125 -0.0125 80 175 255
0.0375 0.075 0.1125 131 124 255
0.1625 -0.3375 0.2625 25 230 255
-0.1125 -0.1125 0 83 172 255
-0.05 -0.225 0 54 201 255
-0.025 -0.25 -0.0125 48 207 255
-0.0625 -0.05 0 99 156 255
0.025 -0.05 0.0625 99 156 255
-0.1625 0.075 0.225 131 124 255
-0.025 -0.3 0.025 35 220 255
0.1625 0.025 0.1625 118 137 255
-0.175 0.075 0.075 131 124 255
0.1625 -0.1 0.225 86 169 255
0.0875 0.075 0.3125 131 124 255
0.15 -0.1375 0.1 76 179 255
0.1625 -0.25 0 48 207 255
0 0.075 0.1625 131 124 255
-0.025 0.05 0 124 131 255
-0.125 -0.2375 0 51 204 255
-0.15 -0.0625 -0.0125 96 159 255
-0.225 -0.15 -0.0125 73 182 255
-0.125 -0.35 0.025 22 233 255
0.1625 0.0375 0.05 121 134 255
-0.0125 -0.15 -0.0125 73 182 255
-0.0125 -0.0375 0.0625 102 153 255
-0.125 -0.35 -0.0125 22 233 255
0.1375 -0.3 0.0875 35 220 255
-0.0875 -0.2125 0 56 198 255
0.1625 0.025 0.2875 118 137 255
-0.2 0.075 0.1625 131 124 255
0.1625 -0.0375 0.075 102 153 255
-0.1125 -0.175 0.025 67 188 255
0 0.075 0.025 131 124 255
-0.275 -0.025 0.025 105 150 255
-0.375 -0.0875 -0.0125 89 166 255
-0.1 0.075 0.0125 131 124 255
0.075 -0.3 0.0125 35 220 255
0.0125 0.075 0 131 124 255
0.0375 0.075 0.3125 131 124 255
-0.075 -0.0375 -0.0125 102 153 255
0.075 -0.225 -0.0125 54 201 255
0.15 0.0375 0.15 121 134 255
0.1625 0.05 0.275 124 131 255
0.1625 -0.1625 0.0625 70 185 255
0.15 -0.2875 0.075 38 217 255
-0.3875 -0.275 -0.0125 40 214 255
0.075 -0.25 0 48 207 255
-0.2 -0.05 -0.0125 99 156 255
-0.3875 -0.0125 -0.0125 108 147 255
-0.35 -0.1 0 86 169 255
0.1625 -0.0375 0.1875 102 153 255
0.1125 0.075 0.1 131 124 255
-0.05 -0.0625 0.0375 96 159 255
-0.0125 -0.3 0.0625 35 220 255
-0.15 0.075 0.325 131 124 255
0.1125 -0.2875 0 38 217 255
0.1625 -0.1 0.025 86 169 255
-0.1 0.075 0.1625 131 124 255
-0.3 -0.0625 0 96 159 255
-0.3375 -0.025 -0.0125 105 150 255
0.1625 -0.175 0.35 67 188 255
0.1625 -0.1 0.3375 86 169 255
-0.0375 -0.0375 0.025 102 153 255
0.1 -0.15 0 73 182 255
-0.125 0.075 0.3625 131 124 255
0.0125 -0.0375 0 102 153 255
-0.1 0.025 0 118 137 255
-0.0125 -0.3375 -0.0125 25 230 255
-0.3625 -0.0875 0 89 166 255
-0.0375 -0.1625 -0.0125 70 185 255
0.025 0.025 -0.0125 118 137 255
-0.2625 -0.0375 0.0375 102 153 255
0.0625 -0.0625 0.0625 96 159 255
0.125 -0.3375 0.0875 25 230 255
-0.125 0.075 0.1375 131 124 255
0 -0.125 0 80 175 255
-0.2125 0.075 0.025 131 124 255
-0.3375 -0.1 0 86 169 255
-0.025 -0.075 0.025 92 163 255
0.15 -0.0125 0.075 108 147 255
-0.2 -0.0875 0 89 166 255
0.0625 -0.3875 0.0875 12 243 255
-0.05 0.075 0.0625 131 124 255
0.1625 0.0125 0.075 115 140 255
0.15 -0.1125 0.125 83 172 255
0.1625 -0.2125 0.025 56 198 255
-0.0125 0.075 0.225 131 124 255
-0.35 -0.0625 -0.0125 96 159 255
-0.35 -0.0625 0 96 159 255
-0.125 0.075 0.35 131 124 255
-0.1625 -0.175 -0.0125 67 188 255
-0.0625 -0.2375 0 51 204 255
-0.2875 -0.15 -0.0125 73 182 255
-0.0375 0.0375 0 121 134 255
0.1625 -0.3125 0.2875 32 223 255
-0.1875 -0.05 0 99 156 255
0.15 -0.325 0.05 28 227 255
0.1625 -0.3 0.2125 35 220 255
-0.25 -0.1875 -0.0125 64 191 255
-0.025 -0.0375 0 102 153 255
-0.4125 -0.25 0.025 48 207 255
0.075 0.075 0.0375 131 124 255
-0.175 0.075 0.2125 131 124 255
-0.2375 -0.1 0.0375 86 169 255
-0.15 -0.3 0.025 35 220 255
0.0125 -0.3 0.05 35 220 255
0.1625 -0.35 0.1875 22 233 255
-0.0375 0.075 0.3625 131 124 255
-0.3 0.0625 -0.0125 128 127 255
0.1625 -0.1875 0.275 64 191 255
-0.375 -0.2625 -0.0125 44 211 255
-0.1625 -0.0125 0 108 147 255
-0.2 -0.175 -0.0125 67 188 255
-0.25 -0.1625 0 70 185 255
0.125 -0.1875 0 64 191 255
-0.05 0.075 0.2 131 124 255
0.1375 -0.2375 0 51 204 255
-0.4 -0.1125 0 83 172 255
0.0125 -0.075 0.0375 92 163 255
-0.2 0.025 -0.0125 118 137 255
0.1625 -0.0625 0.2375 96 159 255
0.1625 -0.2375 0.2375 51 204 255
-0.1 0.075 0.2375 131 124 255
-0.4 -0.05 0 99 156 255
0 0.075 0.2375 131 124 255
0.1625 0.05 0.325 124 131 255
-0.3875 -0.0375 -0.0125 102 153 255
0.05 -0.3 0.0125 35 220 255
0.0125 0.075 0.2125 131 124 255
0.15 0.0625 0.1 128 127 255
-0.3125 0.075 0.025 131 124 255
0.0625 0.075 0.0875 131 124 255
-0.1 0 0 112 143 255
0.1625 -0.3875 0.1125 12 243 255
-0.275 0.075 0.0875 131 124 255
-0.0625 0.075 0.35 131 124 255
0.125 -0.1625 -0.0125 70 185 255
0.0375 -0.075 0.05 92 163 255
-0.1 -0.225 0.025 54 201 255
-0.4125 0.0125 0 115 140 255
0.1625 -0.125 0.2875 80 175 255
-0.275 -0.25 -0.0125 48 207 255
-0.1625 -0.075 -0.0125 92 163 255
0.15 -0.2 0.1375 60 195 255
-0.2875 -0.0375 0.025 102 153 255
0.15 -0.3375 0.0125 25 230 255
-0.1375 -0.175 -0.0125 67 188 255
0.15 -0.25 0.3375 48 207 255
-0.0375 -0.075 0.0375 92 163 255
0.1375 0.025 -0.0125 118 137 255
-0.125 -0.2 0 60 195 255
0.15 0.075 0.15 131 124 255
-0.175 -0.2875 0 38 217 255
0.15 0.0125 0.0625 115 140 255
-0.1625 -0.275 0.025 40 214 255
-0.0625 -0.2875 0 38 217 255
0.1625 -0.3125 0.15 32 223 255
0.1625 -0.075 0.025 92 163 255
0.15 -0.2625 0.1125 44 211 255
0.15 0.0125 0.0125 115 140 255
0.0875 -0.1 0 86 169 255
-0.1875 0.075 0.0375 131 124 255
-0.3625 -0.0375 0.025 102 153 255
-0.125 -0.2875 -0.0125 38 217 255
-0.0875 -0.2125 -0.0125 56 198 255
-0.2125 -0.0625 0.025 96 159 255
0.025 -0.15 -0.0125 73 182 255
-0.2375 -0.1125 -0.0125 83 172 255
-0.2375 -0.2375 -0.0125 51 204 255
0.1375 -0.2625 0 44 211 255
-0.25 -0.2875 0 38 217 255
0.1 -0.0625 0.0375 96 159 255
-0.025 -0.05 -0.0125 99 156 255
-0.1875 -0.3375 0 25 230 255
-0.15 -0.2875 0.025 38 217 255
-0.075 -0.2875 -0.0125 38 217 255
0.1625 -0.125 0.3 80 175 255
-0.275 -0.2125 -0.0125 56 198 255
-0.2 -0.175 0.025 67 188 255
0.0875 -0.15 0 73 182 255
0.0125 0.075 0.175 131 124 255
-0.1 -0.1 -0.0125 86 169 255
-0.0125 -0.225 -0.0125 54 201 255
-0.2875 0.075 0.075 131 124 255
0.025 -0.3125 -0.0125 32 223 255
-0.15 -0.3125 0 32 223 255
0.0125 0.0625 -0.0125 128 127 255
-0.0625 -0.075 -0.0125 92 163 255
-0.1 -0.1625 0.025 70 185 255
0.1125 0.075 0.2125 131 124 255
-0.0375 0.075 0.275 131 124 255
-0.275 -0.125 -0.0125 80 175 255
-0.0125 -0.325 0 28 227 255
0.0625 -0.075 0.025 92 163 255
0.15 -0.0125 0.0375 108 147 255
-0.2625 -0.1375 -0.0125 76 179 255
-0.15 -0.25 -0.0125 48 207 255
-0.2625 0.075 0.1625 131 124 255
0.1625 0.0625 0.0875 128 127 255
-0.4 -0.0625 0 96 159 255
-0.3125 -0.2 -0.0125 60 195 255
-0.175 0.075 0.1375 131 124 255
0.0375 -0.325 0.0625 28 227 255
0.1625 -0.2375 0.3 51 204 255
0.1625 -0.2375 -0.0125 51 204 255
-0.2375 0.075 0.075 131 124 255
-0.1875 0 0 112 143 255
0.125 0.075 0.0875 131 124 255
0.075 0.05 0 124 131 255
0.1625 -0.2625 0.3125 44 211 255
-0.2875 0.075 0.0125 131 124 255
0.05 -0.2875 -0.0125 38 217 255
-0.0625 0.0125 0 115 140 255
-0.075 0.075 0.225 131 124 255
-0.125 -0.325 -0.0125 28 227 255
-0.375 -0.0125 0 108 147 255
-0.075 -0.35 -0.0125 22 233 255
0.0125 -0.175 0 67 188 255
-0.2375 -0.2125 -0.0125 56 198 255
0.1625 0.0375 -0.0125 121 134 255
-0.025 -0.075 -0.0125 92 163 255
0.0625 0.075 0.0125 131 124 255
0.1625 -0.175 0.3375 67 188 255
0.0375 -0.3875 0.0875 12 243 255
-0.0875 -0.025 0.0375 105 150 255
-0.3125 -0.025 0.025 105 150 255
-0.1125 0.0625 -0.0125 128 127 255
0.1625 -0.3875 0.2875 12 243 255
0.15 -0.4 0.0875 9 246 255
0.15 -0.25 -0.0125 48 207 255
0.0625 -0.2125 -0.0125 56 198 255
-0.025 -0.1375 0 76 179 255
-0.15 -0.075 0.0125 92 163 255
-0.0875 -0.325 0 28 227 255
-0.0375 -0.275 0 40 214 255
0.0125 -0.1375 -0.0125 76 179 255
-0.2 -0.275 -0.0125 40 214 255
-0.1625 -0.3375 0 25 230 255
-0.1875 -0.0375 0.0375 102 153 255
-0.3375 0.0375 -0.0125 121 134 255
0.1625 0.0125 0.05 115 140 255
0.025 -0.375 0.0875 16 239 255
0.0375 -0.05 0.0625 99 156 255
0 -0.2 -0.0125 60 195 255
-0.1125 0.075 0.1875 131 124 255
-0.0125 -0.1 0 86 169 255
0.075 -0.075 0.025 92 163 255
0.15 -0.4 0.125 9 246 255
0.1625 -0.0375 0.3625 102 153 255
-0.075 -0.3125 -0.0125 32 223 255
0.0875 -0.225 0 54 201 255
-0.2375 -0.125 0.025 80 175 255
-0.2125 -0.025 0 105 150 255
-0.2625 -0.325 0 28 227 255
0.1625 -0.025 0.125 105 150 255
-0.325 0 -0.0125 112 143 255
0.125 0.075 0.1 131 124 255
-0.1375 -0.1 0 86 169 255
0.025 0.075 0.0375 131 124 255
-0.075 -0.225 0 54 201 255
-0.15 -0.0375 0.0125 102 153 255
0.075 0.075 0.2625 131 124 255
0.125 0.075 0.1375 131 124 255
0.15 -0.0125 0.1375 108 147 255
-0.0125 -0.325 0.0375 28 227 255
-0.15 -0.0125 -0.0125 108 147 255
0.1625 -0.025 0.0625 105 150 255
0.1625 -0.0875 0.325 89 166 255
0.1375 -0.2875 0.3375 38 217 255
-0.325 0.0125 -0.0125 115 140 255
-0.15 -0.0125 0 108 147 255
-0.0375 -0.1875 0 64 191 255
-0.1125 -0.3125 -0.0125 32 223 255
-0.05 0.075 0.15 131 124 255
-0.3625 -0.0375 -0.0125 102 153 255
-0.2375 -0.175 0 67 188 255
0.1625 -0.0375 0.2375 102 153 255
-0.2375 0.0625 -0.0125 128 127 255
0.15 -0.225 0.15 54 201 255
-0.1625 -0.225 0 54 201 255
-0.1125 -0.0375 0.0375 102 153 255
0.0125 -0.325 0 28 227 255
0.075 -0.0625 0.0625 96 159 255
-0.05 0.075 0.2375 131 124 255
0.1625 -0.2 0.1 60 195 255
0.15 -0.225 0.025 54 201 255
0.1625 -0.1875 0 64 191 255
0.1375 -0.225 0.3375 54 201 255
-0.3375 -0.2375 0 51 204 255
-0.075 0.075 0.1625 131 124 255
0.1625 -0.35 0.2875 22 233 255
-0.1 0.075 0.05 131 124 255
-0.0125 -0.3375 0.0875 25 230 255
-0.075 0.075 0.1375 131 124 255
-0.225 -0.2625 0.025 44 211 255
-0.1125 0.075 0.2 131 124 255
-0.075 0.075 0.2125 131 124 255
0.1625 -0.0375 0.325 102 153 255
-0.175 -0.125 0 80 175 255
-0.25 0.075 0.0875 131 124 255
-0.025 -0.075 0.0125 92 163 255
-0.225 -0.0125 -0.0125 108 147 255
0 0.075 0.225 131 124 255
0.1625 0.0375 0.1125 121 134 255
0.15 0.075 0 131 124 255
-0.325 0.025 0 118 137 255
-0.1125 -0.3125 0.0125 32 223 255
-0.05 -0.3625 -0.0125 19 236 255
-0.0375 -0.0375 -0.0125 102 153 255
0.0375 -0.3 0.0125 35 220 255
-0.15 -0.075 -0.0125 92 163 255
-0.125 0.075 0 131 124 255
-0.1 -0.2375 0 51 204 255
0.15 0.075 0.3375 131 124 255
-0.3125 -0.275 0 40 214 255
-0.1125 -0.1875 0 64 191 255
0.1625 0.0125 0.275 115 140 255
0.15 -0.2 0.075 60 195 255
-0.2 -0.05 0 99 156 255
-0.05 0.075 0.1125 131 124 255
0.0125 -0.3875 0.0875 12 243 255
-0.0875 -0.025 -0.0125 105 150 255
0.0875 -0.325 0.05 28 227 255
0.0625 0.075 0 131 124 255
0.025 -0.0875 -0.0125 89 166 255
0.125 0.0125 0 115 140 255
0.15 0.075 0.225 131 124 255
-0.3 0.0125 -0.0125 115 140 255
0.15 -0.15 0.125 73 182 255
-0.1125 -0.0375 0 102 153 255
0.15 -0.2375 0.0125 51 204 255
-0.3125 -0.0375 0.0375 102 153 255
-0.125 0.075 -0.0125 131 124 255
-0.1375 -0.175 0 67 188 255
0.0875 -0.15 -0.0125 73 182 255
0.1 -0.0625 0.0625 96 159 255
0.025 -0.4 0.0125 9 246 255
0 -0.325 0.075 28 227 255
0 -0.3 0.0125 35 220 255
0.0875 0.075 0.05 131 124 255
0.1625 -0.0625 0.325 96 159 255
-0.1375 0.075 0.175 131 124 255
0.1625 -0.375 0.2125 16 239 255
0.1125 -0.225 0 54 201 255
0.1625 -0.15 0.3125 73 182 255
0.1625 -0.2375 0.2 51 204 255
0.15 0.0625 0.1375 128 127 255
0.125 -0.375 0.0875 16 239 255
-0.025 -0.15 -0.0125 73 182 255
0.0875 -0.2625 -0.0125 44 211 255
0.1625 -0.0375 0.1 102 153 255
0.1125 0.075 0.375 131 124 255
0.1625 0.075 0.325 131 124 255
-0.125 -0.05 0.025 99 156 255
-0.1625 -0.2125 0.025 56 198 255
0.1625 -0.175 0.025 67 188 255
-0.2125 -0.0625 -0.0125 96 159 255
-0.2375 -0.025 0.025 105 150 255
0.0375 -0.075 0.0375 92 163 255
0.125 0.075 0.075 131 124 255
-0.1125 0.075 0.3125 131 124 255
-0.25 -0.1 0 86 169 255
-0.2125 -0.2875 0 38 217 255
-0.0125 -0.2375 -0.0125 51 204 255
-0.0375 -0.0125 -0.0125 108 147 255
-0.1375 0.075 0.0625 131 124 255
-0.2375 0.075 0 131 124 255
-0.0375 0.05 0 124 131 255
-0.225 -0.0375 -0.0125 102 153 255
-0.275 -0.15 0 73 182 255
0.1625 0.0625 0.1 128 127 255
-0.2 0.075 0 131 124 255
-0.175 -0.225 0 54 201 255
0.125 0.0375 -0.0125 121 134 255
-0.125 -0.275 0.025 40 214 255
-0.225 -0.15 0 73 182 255
0.0875 -0.3375 0.0875 25 230 255
0.1625 -0.2 0 60 195 255
-0.1875 -0.225 0 54 201 255
0.1625 -0.3875 0.2375 12 243 255
-0.1125 0.075 0.075 131 124 255
0.0875 -0.0375 0.0375 102 153 255
0.1625 -0.1875 0.25 64 191 255
-0.2375 -0.2875 -0.0125 38 217 255
0.05 0.075 0.2875 131 124 255
-0.1875 0.0625 -0.0125 128 127 255
0.1625 -0.25 0.1875 48 207 255
0.0375 -0.2 0 60 195 255
0.15 -0.3 0.1375 35 220 255
-0.3375 -0.2625 -0.0125 44 211 255
-0.3 -0.0875 -0.0125 89 166 255
-0.0125 -0.0375 0 102 153 255
0.1625 -0.225 0.1375 54 201 255
-0.1625 0.075 0.15 131 124 255
0.15 0.0125 0.1125 115 140 255
-0.3375 -0.0375 0.0125 102 153 255
0.1375 -0.1125 -0.0125 83 172 255
-0.1875 -0.3125 0.0125 32 223 255
-0.0625 0.075 0.075 131 124 255
0.1375 0.025 0 118 137 255
0.1625 -0.1625 0.3625 70 185 255
-0.025 -0.05 0.0625 99 156 255
0.025 0.075 0.2875 131 124 255
0.0375 0 0 112 143 255
0.1625 -0.1 0 86 169 255
-0.4 -0.1875 0 64 191 255
-0.3125 -0.2125 0 56 198 255
-0.3125 -0.0625 0 96 159 255
-0.375 -0.025 -0.0125 105 150 255
-0.4125 0.025 -0.0125 118 137 255
0.1625 -0.275 0.1625 40 214 255
0.15 -0.2125 0.1 56 198 255
-0.025 -0.1 0 86 169 255
0.15 -0.225 0.1 54 201 255
-0.2 0.075 0.125 131 124 255
0.1125 -0.3625 0.0875 19 236 255
-0.3875 -0.0875 0 89 166 255
0.1625 0.0625 0.1375 128 127 255
-0.0375 0.075 0.375 131 124 255
0.1625 -0.275 0.15 40 214 255
-0.1125 0.0125 -0.0125 115 140 255
-0.2125 -0.0625 0 96 159 255
-0.175 -0.1 0.025 86 169 255
0.1625 -0.05 0.2125 99 156 255
0.0875 -0.075 0.0375 92 163 255
0.1625 -0.3625 0.075 19 236 255
-0.2 -0.1125 -0.0125 83 172 255
-0.1125 0.025 -0.0125 118 137 255
0.1625 -0.0625 0.15 96 159 255
0.1625 -0.3875 0.3125 12 243 255
-0.15 -0.0625 0.025 96 159 255
-0.025 -0.3 -0.0125 35 220 255
-0.4 -0.175 -0.0125 67 188 255
-0.1625 -0.125 -0.0125 80 175 255
0.15 -0.025 0.05 105 150 255
-0.225 -0.0625 0 96 159 255
-0.075 0.075 0.375 131 124 255
0.0625 -0.2 -0.0125 60 195 255
-0.275 -0.2125 0 56 198 255
0.075 -0.1875 -0.0125 64 191 255
-0.075 0.075 0.35 131 124 255
-0.15 0.075 0.1375 131 124 255
0.0875 -0.075 0.05 92 163 255
0.1125 0.075 0.025 131 124 255
0.1625 0.075 -0.0125 131 124 255
0.1625 -0.075 0.2625 92 163 255
0 0.0125 0 115 140 255
0 -0.325 0 28 227 255
-0.2375 -0.1125 0.0375 83 172 255
-0.0625 -0.325 0 28 227 255
-0.175 -0.2125 0.025 56 198 255
0.05 -0.0875 0 89 166 255
0.15 -0.1125 0.1 83 172 255
0.1625 -0.25 0.3125 48 207 255
-0.1 -0.2875 0 38 217 255
0.1375 -0.3 0.3375 35 220 255
-0.1875 -0.275 0 40 214 255
0.125 -0.2 0 60 195 255
-0.2 -0.0375 -0.0125 102 153 255
0.1125 -0.1875 -0.0125 64 191 255
0.1625 -0.4375 0.075 0 255 255
0.1625 -0.1875 0.0875 64 191 255
-0.0625 -0.3125 0 32 223 255
-0.025 0.075 0.1875 131 124 255
0.1625 -0.3625 0.1875 19 236 255
0.15 0.0125 -0.0125 115 140 255
0.15 0.0375 0.1125 121 134 255
-0.075 -0.1125 -0.0125 83 172 255
-0.2875 -0.2875 -0.0125 38 217 255
-0.1625 0.075 0.25 131 124 255
-0.025 -0.225 -0.0125 54 201 255
0 0.075 0.1125 131 124 255
-0.3375 0.05 0 124 131 255
0.1625 -0.375 0.175 16 239 255
0.1625 -0.3625 0.2125 19 236 255
0.05 0.075 0.125 131 124 255
-0.15 -0.35 0.025 22 233 255
-0.375 -0.2125 -0.0125 56 198 255
-0.2875 0.0625 -0.0125 128 127 255
-0.35 0.0125 0 115 140 255
0.15 -0.175 0.125 67 188 255
-0.075 -0.05 0 99 156 255
-0.125 -0.35 0 22 233 255
-0.05 0.075 0.025 131 124 255
0.1625 -0.25 0.1625 48 207 255
-0.025 -0.3125 -0.0125 32 223 255
-0.1 -0.275 0 40 214 255
-0.2125 -0.1 0.025 86 169 255
0.0375 -0.175 -0.0125 67 188 255
-0.1375 -0.0375 -0.0125 102 153 255
0.1 0.075 0.125 131 124 255
-0.0375 0.075 0.0125 131 124 255
-0.025 -0.3375 -0.0125 25 230 255
0 -0.2 0 60 195 255
-0.1875 -0.0125 -0.0125 108 147 255
-0.15 0.075 0.1625 131 124 255
-0.275 0.05 0 124 131 255
0.1625 -0.25 0.0375 48 207 255
0.15 -0.15 0.35 73 182 255
0.15 -0.2125 0.025 56 198 255
0 -0.075 0.025 92 163 255
0.025 -0.1625 0 70 185 255
0.1625 0.0125 0.2375 115 140 255
-0.0375 -0.0375 0.0625 102 153 255
0.15 -0.0375 0.0875 102 153 255
0.0875 0.075 0.275 131 124 255
0.1625 -0.225 0.05 54 201 255
-0.1 -0.075 0 92 163 255
0.1625 -0.15 0.225 73 182 255
-0.1 0.0375 -0.0125 121 134 255
0.0375 -0.4125 0 6 249 255
-0.0625 0.075 0.025 131 124 255
-0.0375 -0.3 0.0875 35 220 255
-0.2875 -0.1125 -0.0125 83 172 255
-0.225 -0.2 0 60 195 255
-0.15 -0.1125 0.0375 83 172 255
0.1625 -0.3875 0.1625 12 243 255
0.0625 0.075 0.0625 131 124 255
-0.075 0.075 0.2375 131 124 255
0.125 -0.3125 0.0625 32 223 255
0 0.075 0.1375 131 124 255
0.1625 0.025 0.0625 118 137 255
0.1375 -0.1875 0.35 64 191 255
-0.2 -0.1 0.025 86 169 255
-0.1375 0.075 0.2 131 124 255
0.15 0.0375 0.0125 121 134 255
-0.0125 -0.35 0.0125 22 233 255
0.15 -0.1875 0.0875 64 191 255
0.15 -0.325 0.35 28 227 255
0.1625 0 0.3 112 143 255
0.15 0.075 0.3625 131 124 255
-0.15 -0.325 0.025 28 227 255
0.1625 -0.375 0.275 16 239 255
0.1625 -0.0625 0.3625 96 159 255
0.1625 -0.3125 0.2625 32 223 255
0.1 -0.3 0.05 35 220 255
0.1625 -0.1875 0.2125 64 191 255
-0.1625 -0.025 -0.0125 105 150 255
-0.0375 -0.175 0 67 188 255
0.025 -0.1 -0.0125 86 169 255
0.1125 0.075 0.2875 131 124 255
-0.05 -0.05 0.0125 99 156 255
-0.2875 -0.175 -0.0125 67 188 255
-0.2 -0.2125 0 56 198 255
0.025 0.075 0.3 131 124 255
0.1625 -0.0625 0.2625 96 159 255
0.1625 -0.125 0.275 80 175 255
-0.1375 -0.075 0.025 92 163 255
-0.225 -0.2375 0.025 51 204 255
0.15 0.075 0.35 131 124 255
0.1625 -0.375 0.0875 16 239 255
-0.175 0.075 0.2875 131 124 255
0.15 -0.2875 0.0375 38 217 255
-0.3375 -0.2 0 60 195 255
-0.1375 0.075 0.1375 131 124 255
-0.0125 0.075 0.075 131 124 255
-0.1125 -0.2875 0 38 217 255
-0.1 -0.275 0.025 40 214 255
-0.175 -0.35 -0.0125 22 233 255
0.15 -0.3625 0.125 19 236 255
0.05 -0.1625 0 70 185 255
0.125 0.075 0.1625 131 124 255
-0.325 0.05 0 124 131 255
-0.075 0.075 0.175 131 124 255
-0.0125 0.075 0.1875 131 124 255
-0.1875 0.075 0.2625 131 124 255
-0.0375 0.075 0.1625 131 124 255
-0.3875 -0.225 0 54 201 255
0.1125 0.075 0.075 131 124 255
0.075 0.075 0.3 131 124 255
-0.2875 -0.2875 0 38 217 255
0.1625 -0.075 0.1875 92 163 255
0.1625 -0.1625 0.125 70 185 255
-0.25 0.0625 0 128 127 255
-0.2125 -0.2875 -0.0125 38 217 255
-0.05 0.0125 -0.0125 115 140 255
-0.0375 -0.3875 0.0125 12 243 255
0.0875 -0.3 0 35 220 255
-0.0375 -0.3625 0.0375 19 236 255
-0.1625 0.075 0.275 131 124 255
0.025 -0.4 -0.0125 9 246 255
-0.1 -0.0125 -0.0125 108 147 255
-0.35 -0.2625 -0.0125 44 211 255
0.1625 -0.4125 0.1625 6 249 255
-0.1875 0.075 0.225 131 124 255
0.15 0.0625 0.075 128 127 255
-0.0625 0.075 0.05 131 124 255
-0.3375 0.0125 0 115 140 255
0.0875 -0.2375 -0.0125 51 204 255
-0.05 -0.05 -0.0125 99 156 255
0.025 -0.325 0.0875 28 227 255
-0.4125 -0.05 0 99 156 255
-0.2125 -0.1375 0 76 179 255
-0.225 -0.1 0 86 169 255
0.1625 -0.35 0.1625 22 233 255
0.075 -0.35 0.0875 22 233 255
-0.1125 -0.0375 0.0125 102 153 255
-0.075 -0.3 -0.0125 35 220 255
-0.0625 -0.3375 0 25 230 255
-0.375 -0.2 0 60 195 255
0.1625 0.0375 0.3375 121 134 255
-0.2625 -0.1125 -0.0125 83 172 255
0.025 -0.2625 0 44 211 255
0.0375 -0.15 -0.0125 73 182 255
0.1625 -0.1125 0.075 83 172 255
0.1625 -0.3 0.175 35 220 255
0.1625 -0.2125 0.25 56 198 255
-0.05 0.075 0 131 124 255
-0.325 -0.0625 -0.0125 96 159 255
0 -0.125 -0.0125 80 175 255
0.1625 -0.4 0.075 9 246 255
-0.1625 -0.175 0 67 188 255
0.1625 -0.15 0.275 73 182 255
-0.1625 0.075 0.0375 131 124 255
0.15 -0.3875 0.075 12 243 255
0.1625 -0.075 0 92 163 255
0.1625 -0.3125 0.0625 32 223 255
0.1375 -0.1125 0 83 172 255
-0.05 -0.1 0 86 169 255
0.075 0.075 0.0625 131 124 255
0.1625 -0.2625 0.0375 44 211 255
0.15 -0.3125 0.1 32 223 255
-0.0125 0.075 0.0875 131 124 255
0.15 0.0125 0.125 115 140 255
0.075 -0.375 0.0875 16 239 255
-0.0125 0.0625 0 128 127 255
0.05 0.075 0.05 131 124 255
0.1625 -0.0375 0.3125 102 153 255
-0.0625 -0.0875 -0.0125 89 166 255
-0.125 0.075 0.075 131 124 255
0.15 -0.1 0.125 86 169 255
-0.025 -0.2625 0 44 211 255
0.15 -0.05 0.125 99 156 255
-0.2375 -0.225 -0.0125 54 201 255
-0.3375 -0.3 0 35 220 255
-0.3125 0.075 0.0625 131 124 255
-0.0375 -0.25 -0.0125 48 207 255
-0.275 0.025 0 118 137 255
0.125 -0.1875 -0.0125 64 191 255
-0.0875 -0.0125 -0.0125 108 147 255
0.1625 -0.125 0.125 80 175 255
-0.1375 0.075 0.2625 131 124 255
0.1625 0 0.1375 112 143 255
-0.1125 0.075 0.2625 131 124 255
0.1625 -0.2875 0.0125 38 217 255
0.125 -0.3375 0.025 25 230 255
-0.2375 -0.15 -0.0125 73 182 255
0.0125 -0.325 0.1 28 227 255
-0.125 -0.1875 0.025 64 191 255
0.15 -0.075 0.1 92 163 255
-0.1375 -0.3125 -0.0125 32 223 255
0.0625 0.075 0.25 131 124 255
0.1625 -0.1 0.1375 86 169 255
-0.025 -0.0875 -0.0125 89 166 255
-0.375 -0.0375 0.025 102 153 255
0 -0.3875 0.0125 12 243 255
-0.225 -0.05 0 99 156 255
-0.1625 -0.2625 0.025 44 211 255
0.1625 -0.1125 0.175 83 172 255
-0.025 -0.3 0.075 35 220 255
0.1375 -0.3 -0.0125 35 220 255
0.1625 0 0.3375 112 143 255
0.1625 -0.275 0.125 40 214 255
0.1625 -0.1 0.2875 86 169 255
-0.3125 -0.05 -0.0125 99 156 255
-0.1625 -0.075 0.025 92 163 255
-0.175 -0.025 0.025 105 150 255
-0.25 -0.275 0 40 214 255
0 -0.0375 0.0375 102 153 255
0.1625 0.0375 0.2625 121 134 255
0.1375 0.075 0.05 131 124 255
-0.075 0.0625 -0.0125 128 127 255
0.15 -0.3125 0.125 32 223 255
-0.05 0 -0.0125 112 143 255
0.125 -0.2875 -0.0125 38 217 255
0.0125 -0.3 0.075 35 220 255
0.025 0.075 0.175 131 124 255
-0.0875 -0.2875 -0.0125 38 217 255
0.1625 -0.35 0.1375 22 233 255
-0.25 0.075 0.0125 131 124 255
0.1625 -0.2375 0.2125 51 204 255
0.0375 -0.2125 0 56 198 255
0.025 0.075 0.3625 131 124 255
-0.025 -0.0375 0.0125 102 153 255
-0.1125 -0.2125 -0.0125 56 198 255
0.0375 -0.325 0.05 28 227 255
0.15 -0.1 0.0125 86 169 255
-0.125 0.075 0.175 131 124 255
-0.35 -0.0375 0.0375 102 153 255
-0.2125 -0.1 0.0375 86 169 255
-0.3125 -0.2 0 60 195 255
0 0.025 -0.0125 118 137 255
-0.225 -0.3125 0.0125 32 223 255
0.025 -0.0375 0.0625 102 153 255
-0.3125 -0.0875 0 89 166 255
0.15 -0.3 0.0375 35 220 255
-0.175 -0.15 0 73 182 255
0.1625 0.05 0.1375 124 131 255
0.075 0.075 0.125 131 124 255
-0.25 -0.3125 0.0125 32 223 255
0.1375 -0.3 0.35 35 220 255
-0.15 0.075 -0.0125 131 124 255
-0.275 -0.1375 0 76 179 255
-0.075 -0.25 -0.0125 48 207 255
0.15 -0.175 0.0375 67 188 255
0.1625 -0.0375 0.2625 102 153 255
-0.0875 0.0375 -0.0125 121 134 255
-0.3875 0 -0.0125 112 143 255
-0.075 -0.2875 0 38 217 255
-0.05 -0.0375 0.0375 102 153 255
0.025 0.075 0.15 131 124 255
-0.0125 -0.2625 -0.0125 44 211 255
0.1625 -0.35 0.225 22 233 255
0.1625 -0.2 0.225 60 195 255
-0.2125 -0.1375 -0.0125 76 179 255
0.1625 -0.15 0.0625 73 182 255
0.0875 -0.0875 0 89 166 255
0.1375 -0.0875 -0.0125 89 166 255
0.15 -0.375 0.075 16 239 255
-0.05 -0.15 0 73 182 255
-0.3125 0 -0.0125 112 143 255
-0.2625 -0.25 0.025 48 207 255
0.025 -0.1875 -0.0125 64 191 255
-0.2 -0.15 0 73 182 255
-0.025 0.05 -0.0125 124 131 255
-0.1625 -0.2375 0.025 51 204 255
-0.3875 0.0125 0 115 140 255
-0.125 -0.2625 0.025 44 211 255
-0.1 -0.0375 0.0375 102 153 255
-0.0125 -0.3125 0.0125 32 223 255
-0.1125 0.05 -0.0125 124 131 255
0.05 -0.075 0.0375 92 163 255
-0.1625 -0.0875 -0.0125 89 166 255
-0.25 -0.2625 0 44 211 255
-0.1625 -0.1125 -0.0125 83 172 255
0.1625 -0.1625 0.1375 70 185 255
-0.075 -0.125 -0.0125 80 175 255
0.0875 0.075 0.2375 131 124 255
0.1625 -0.3625 0.0875 19 236 255
-0.05 -0.0875 0 89 166 255
0 -0.3125 0.0125 32 223 255
-0.0375 -0.075 -0.0125 92 163 255
0.125 0.05 -0.0125 124 131 255
0 0.075 0.2 131 124 255
0.1625 -0.1125 0.275 83 172 255
0.15 -0.1625 0.1375 70 185 255
-0.0375 0.075 0.1125 131 124 255
0.1125 -0.2125 -0.0125 56 198 255
-0.05 0.075 0.3375 131 124 255
-0.3625 -0.25 0 48 207 255
-0.1875 -0.2 0 60 195 255
0.1625 0.025 0.2625 118 137 255
-0.325 -0.3 -0.0125 35 220 255
0.1625 -0.2 0.1625 60 195 255
-0.125 -0.0875 -0.0125 89 166 255
0.025 -0.2375 0 51 204 255
-0.1875 0.075 0.1125 131 124 255
0.05 0.075 0.2625 131 124 255
-0.1375 -0.2375 0.025 51 204 255
0.1625 -0.1875 0.075 64 191 255
0.1625 -0.2625 0.2 44 211 255
-0.1875 0.0125 0 115 140 255
-0.1875 -0.025 -0.0125 105 150 255
-0.225 -0.025 0 105 150 255
-0.2375 -0.05 -0.0125 99 156 255
0.15 -0.3375 0.0875 25 230 255
-0.275 -0.1 0 86 169 255
-0.3125 -0.2375 0 51 204 255
-0.05 -0.1625 -0.0125 70 185 255
0.15 -0.25 0.05 48 207 255
-0.4125 -0.025 0.025 105 150 255
0.0875 -0.3 0.075 35 220 255
-0.175 0.075 0.125 131 124 255
-0.0875 0.075 0.35 131 124 255
0.1625 -0.1375 0.1375 76 179 255
-0.075 -0.025 0 105 150 255
-0.1625 -0.325 -0.0125 28 227 255
-0.125 -0.2375 -0.0125 51 204 255
-0.1625 -0.25 0.025 48 207 255
0.0125 -0.3125 0 32 223 255
-0.2125 0.075 -0.0125 131 124 255
0.1625 -0.1125 0.3125 83 172 255
-0.1875 -0.225 -0.0125 54 201 255
0.1625 -0.2375 0.2875 51 204 255
0.1625 -0.2875 0.1125 38 217 255
-0.05 -0.0375 -0.0125 102 153 255
0.025 -0.0625 0.0625 96 159 255
-0.1 -0.3375 -0.0125 25 230 255
-0.05 -0.2625 0 44 211 255
0.1625 0.0125 0.3625 115 140 255
0.075 -0.325 0.1 28 227 255
0.025 -0.075 0.0125 92 163 255
-0.1 0.075 0.15 131 124 255
-0.3 -0.0625 -0.0125 96 159 255
-0.0375 -0.0625 0.0125 96 159 255
0.0375 0.075 0.15 131 124 255
-0.0375 -0.075 0.0625 92 163 255
0.15 -0.05 0.0875 99 156 255
-0.2125 -0.075 -0.0125 92 163 255
0.1625 -0.1625 0.325 70 185 255
0.1 -0.0375 0.0625 102 153 255
-0.1375 -0.075 -0.0125 92 163 255
-0.1 -0.25 -0.0125 48 207 255
-0.2125 -0.0375 -0.0125 102 153 255
0.15 0.0375 0.025 121 134 255
-0.175 -0.1625 -0.0125 70 185 255
-0.3375 -0.1875 0 64 191 255
0.1625 -0.2625 0.0125 44 211 255
-0.1375 -0.3 0.025 35 220 255
0.15 0.075 0.125 131 124 255
-0.1 -0.175 0.025 67 188 255
-0.05 -0.1875 -0.0125 64 191 255
-0.2 -0.025 0 105 150 255
0.1625 -0.1875 0.0375 64 191 255
-0.1875 -0.2375 0.025 51 204 255
0.0125 -0.125 -0.0125 80 175 255
0.1625 -0.2875 0.175 38 217 255
-0.0125 -0.075 0.0125 92 163 255
-0.025 -0.25 0 48 207 255
0.1 0.075 0.15 131 124 255
0.1625 -0.3875 0.0875 12 243 255
0.1625 -0.25 0.2375 48 207 255
0.1625 -0.375 0.35 16 239 255
0.15 -0.275 0.1 40 214 255
0.1625 0.075 0.175 131 124 255
0.1625 -0.2875 0 38 217 255
0.15 -0.0625 0.1125 96 159 255
0.1625 -0.2375 0.075 51 204 255
0.1625 -0.25 0.0125 48 207 255
-0.3375 0.075 0 131 124 255
-0.2125 0.075 0.175 131 124 255
0.0875 -0.2375 0 51 204 255
0.075 0.075 0.25 131 124 255
-0.325 -0.1 -0.0125 86 169 255
0.0875 -0.3 0.0125 35 220 255
0.1625 -0.325 0.0625 28 227 255
-0.225 -0.075 -0.0125 92 163 255
-0.1125 0.075 0.0375 131 124 255
0.125 0.075 0.2875 131 124 255
-0.4 -0.25 0 48 207 255
0.1125 0.075 0.05 131 124 255
0.15 -0.2375 0.1125 51 204 255
-0.3625 -0.05 -0.0125 99 156 255
0.1375 -0.3625 0.3375 19 236 255
0.15 -0.2 0.15 60 195 255
0.1625 -0.3125 0.0875 32 223 255
0.1625 -0.2875 0.3 38 217 255
0.125 0.075 0.1875 131 124 255
-0.3125 -0.075 0 92 163 255
-0.35 0.05 -0.0125 124 131 255
0.15 -0.175 0.0125 67 188 255
-0.1 -0.025 0 105 150 255
-0.2 0.05 0 124 131 255
-0.2 -0.175 0 67 188 255
-0.2625 0.0125 0 115 140 255
0.1625 -0.075 0.0625 92 163 255
-0.4 -0.025 -0.0125 105 150 255
0.075 -0.0375 0.05 102 153 255
-0.225 -0.275 0 40 214 255
0.1625 0.0625 0.0625 128 127 255
0 -0.3 0.075 35 220 255
0.1625 -0.125 0.0875 80 175 255
-0.1125 0.075 0.0625 131 124 255
0.0625 -0.0375 0.05 102 153 255
0.15 -0.325 0.1 28 227 255
-0.225 -0.025 0.0375 105 150 255
0.1625 -0.2875 0.35 38 217 255
-0.1875 0.075 -0.0125 131 124 255
-0.3 -0.25 0 48 207 255
-0.25 -0.0125 -0.0125 108 147 255
0.1625 0.075 0.1 131 124 255
-0.075 -0.0875 -0.0125 89 166 255
-0.4125 -0.0625 0.025 96 159 255
-0.125 0.075 0.025 131 124 255
0.1625 -0.0125 0.3375 108 147 255
-0.2125 -0.0375 0.0375 102 153 255
0.1625 -0.1875 0.1625 64 191 255
-0.2625 -0.1125 0 83 172 255
0.15 -0.325 0.1375 28 227 255
0.1625 0.0125 0.2125 115 140 255
-0.2625 -0.0875 0 89 166 255
-0.0375 -0.275 -0.0125 40 214 255
0.025 -0.325 0.1 28 227 255
0.1625 -0.325 0.3375 28 227 255
0.15 -0.1125 0.075 83 172 255
-0.2625 0.0375 -0.0125 121 134 255
-0.275 0 -0.0125 112 143 255
-0.025 -0.2625 -0.0125 44 211 255
-0.0125 -0.325 0.025 28 227 255
-0.2875 -0.0375 -0.0125 102 153 255
-0.1875 -0.1625 -0.0125 70 185 255
-0.1875 -0.2 -0.0125 60 195 255
0.1625 -0.2875 0.25 38 217 255
0.1625 -0.05 0.275 99 156 255
0.1625 -0.275 0.0375 40 214 255
-0.0125 -0.075 0 92 163 255
-0.2125 -0.2375 -0.0125 51 204 255
0.1375 0.075 0.0875 131 124 255
-0.0375 0.075 0.0625 131 124 255
-0.15 0.075 0.0125 131 124 255
-0.3125 -0.1375 0 76 179 255
0.1125 -0.15 -0.0125 73 182 255
0.0375 -0.3 -0.0125 35 220 255
-0.1 -0.225 0 54 201 255
0 -0.075 0.0125 92 163 255
0.1 -0.075 0.025 92 163 255
-0.0125 -0.3 0 35 220 255
-0.1125 -0.3 -0.0125 35 220 255
0.1625 0.05 0.0875 124 131 255
0.075 0.025 -0.0125 118 137 255
-0.1 0.025 -0.0125 118 137 255
0.0125 -0.1875 -0.0125 64 191 255
-0.0875 0.05 -0.0125 124 131 255
0.0125 -0.3 0 35 220 255
0.1625 -0.0625 0.1 96 159 255
0.1625 -0.225 0.075 54 201 255
-0.0375 -0.2875 0 38 217 255
-0.425 -0.1125 0.0375 83 172 255
0.125 0.075 0 131 124 255
-0.325 0 0 112 143 255
-0.2125 -0.125 -0.0125 80 175 255
-0.225 0.0125 0 115 140 255
0.15 -0.2625 0.1 44 211 255
-0.2125 -0.1875 -0.0125 64 191 255
0.15 0.0375 0.0625 121 134 255
0.1625 -0.25 0.05 48 207 255
0.0875 0 -0.0125 112 143 255
0.1625 -0.4 0.275 9 246 255
0.1625 -0.225 0.15 54 201 255
-0.0625 -0.25 0 48 207 255
0.15 -0.3375 0.075 25 230 255
-0.4 0.0375 -0.0125 121 134 255
0.125 -0.4 0.0875 9 246 255
-0.3 0.075 0.025 131 124 255
-0.0375 -0.2875 -0.0125 38 217 255
-0.15 0.025 -0.0125 118 137 255
-0.175 0.05 -0.0125 124 131 255
0.15 0.075 0.1875 131 124 255
0.0625 -0.325 0.1 28 227 255
0.1625 -0.2125 0.125 56 198 255
0.0125 -0.0125 0 108 147 255
-0.0375 -0.325 0.0625 28 227 255
0.1625 0.075 0.2875 131 124 255
-0.0875 0.075 0.3125 131 124 255
0.1625 -0.1875 0.35 64 191 255
0.15 -0.0625 0.075 96 159 255
-0.125 -0.075 0 92 163 255
-0.425 -0.1 0.0375 86 169 255
0.1625 -0.075 0.3 92 163 255
0.1625 -0.0125 0.325 108 147 255
-0.2375 0.075 0.1 131 124 255
-0.1 -0.2125 0.025 56 198 255
-0.2625 0.075 0 131 124 255
-0.275 -0.2625 0 44 211 255
-0.025 -0.325 0 28 227 255
0.05 -0.075 0.025 92 163 255
-0.2125 0.075 0.0125 131 124 255
0.15 0 0.125 112 143 255
0.1625 -0.25 0.075 48 207 255
-0.2375 -0.0625 0 96 159 255
0.075 -0.325 0.075 28 227 255
0.1375 0.075 0.1 131 124 255
-0.2125 -0.05 -0.0125 99 156 255
0.125 -0.2125 0 56 198 255
-0.075 0 0 112 143 255
0.15 0.0125 0.15 115 140 255
-0.2 -0.3 0 35 220 255
0.1625 -0.175 0.225 67 188 255
0.1625 -0.0625 0.225 96 159 255
-0.2875 -0.125 -0.0125 80 175 255
-0.025 -0.05 0 99 156 255
-0.225 -0.0625 0.025 96 159 255
-0.225 0.025 -0.0125 118 137 255
0.15 -0.1625 0.0875 70 185 255
0.15 -0.275 0.1375 40 214 255
0 -0.0625 -0.0125 96 159 255
0.1625 -0.1625 0.25 70 185 255
0.1625 -0.375 0.2625 16 239 255
0.1625 -0.3125 0.2 32 223 255
-0.2375 -0.2625 -0.0125 44 211 255
0.1625 -0.175 0.0375 67 188 255
0.1375 -0.3375 0.35 25 230 255
0.1625 -0.1375 0.2375 76 179 255
0.1625 -0.4 0.1375 9 246 255
-0.3 -0.2 0 60 195 255
-0.0375 0.075 0.075 131 124 255
-0.1625 -0.3125 -0.0125 32 223 255
-0.075 -0.1875 0 64 191 255
0.1625 0.05 0.15 124 131 255
-0.0375 0.0375 -0.0125 121 134 255
0.025 0.075 0.375 131 124 255
0.1625 -0.3 0 35 220 255
0.1375 -0.35 0.3375 22 233 255
0.15 -0.1 0.0625 86 169 255
-0.325 -0.0875 -0.0125 89 166 255
-0.1625 -0.25 -0.0125 48 207 255
-0.225 0.075 0.1375 131 124 255
-0.2 -0.0625 0 96 159 255
0.1125 0.075 0.1875 131 124 255
-0.0125 -0.0875 -0.0125 89 166 255
-0.1 0.0125 0 115 140 255
0.0125 -0.075 -0.0125 92 163 255
-0.3 0.075 -0.0125 131 124 255
0.1625 -0.05 0.0625 99 156 255
0.05 -0.05 0.0625 99 156 255
-0.15 -0.0375 -0.0125 102 153 255
0.0125 0.025 -0.0125 118 137 255
0.1125 0.075 0.275 131 124 255
-0.375 -0.2875 0 38 217 255
0.125 0 0 112 143 255
-0.2375 0.0375 -0.0125 121 134 255
0.1625 -0.1125 0.0875 83 172 255
-0.275 -0.175 -0.0125 67 188 255
0.0625 -0.275 -0.0125 40 214 255
-0.175 -0.3125 -0.0125 32 223 255
0.1625 -0.075 0.0875 92 163 255
0.1 -0.325 0.0875 28 227 255
-0.2375 0.075 0.125 131 124 255
-0.1125 0 0 112 143 255
-0.1375 -0.1 0.0375 86 169 255
-0.225 0.025 0 118 137 255
0.1375 -0.25 0 48 207 255
0.1625 -0.1625 0.3 70 185 255
0.0375 -0.3 0.025 35 220 255
-0.0625 -0.025 0 105 150 255
-0.1 -0.325 0 28 227 255
-0.275 -0.175 0 67 188 255
-0.325 -0.025 -0.0125 105 150 255
0.1625 -0.1125 -0.0125 83 172 255
-0.25 -0.05 -0.0125 99 156 255
0.0875 -0.275 -0.0125 40 214 255
0.1625 -0.275 0.0125 40 214 255
-0.275 0.075 0.05 131 124 255
-0.2375 -0.2375 0 51 204 255
-0.15 0.075 0.15 131 124 255
0.15 -0.2375 0.0625 51 204 255
0.15 -0.2125 0.0875 56 198 255
0.1625 -0.1 0.125 86 169 255
0.1625 -0.1875 0.3625 64 191 255
-0.175 -0.25 0.025 48 207 255
-0.3375 -0.125 -0.0125 80 175 255
-0.0375 -0.3125 0.025 32 223 255
0.1625 0 0.2625 112 143 255
-0.15 -0.2125 -0.0125 56 198 255
0.1 -0.05 0.0375 99 156 255
0 0.075 0.0125 131 124 255
-0.025 -0.1625 -0.0125 70 185 255
-0.025 0.075 0.35 131 124 255
0.1625 -0.3875 0.2125 12 243 255
-0.1625 -0.2375 0 51 204 255
-0.3625 -0.225 0 54 201 255
0.0625 -0.2375 0 51 204 255
0.1125 -0.35 0.0875 22 233 255
0.15 0 0.1375 112 143 255
-0.025 -0.35 0 22 233 255
-0.1125 0.075 0.125 131 124 255
-0.0125 -0.1875 -0.0125 64 191 255
-0.025 0.0375 0 121 134 255
-0.025 -0.325 0.0875 28 227 255
0 -0.0875 0 89 166 255
-0.225 0.075 0.0375 131 124 255
-0.3875 -0.025 0.025 105 150 255
-0.4125 0.0375 0 121 134 255
-0.0125 -0.3 0.0375 35 220 255
-0.3125 -0.25 -0.0125 48 207 255
-0.2625 -0.2875 0 38 217 255
0.0375 0.075 -0.0125 131 124 255
0.0375 -0.075 0 92 163 255
0.1625 -0.0125 0.0125 108 147 255
-0.1875 0.075 0.15 131 124 255
0 -0.375 0.0125 16 239 255
-0.05 -0.2375 0 51 204 255
-0.175 -0.0375 0.0125 102 153 255
-0.0875 0.075 0 131 124 255
0.0375 -0.3 0 35 220 255
-0.4125 0.05 -0.0125 124 131 255
0.0375 -0.3 0.05 35 220 255
0.1625 -0.0625 0.3125 96 159 255
0.125 0.075 0.25 131 124 255
-0.25 -0.1875 0 64 191 255
-0.0875 -0.05 0 99 156 255
-0.0625 0.075 0.15 131 124 255
-0.0875 -0.0625 -0.0125 96 159 255
-0.0375 -0.2625 -0.0125 44 211 255
0.1625 -0.2875 -0.0125 38 217 255
-0.1125 -0.0625 0 96 159 255
0.1625 -0.225 0.275 54 201 255
0.0625 -0.1 -0.0125 86 169 255
0.05 -0.1875 -0.0125 64 191 255
-0.35 -0.175 0 67 188 255
-0.0125 -0.3 0.025 35 220 255
-0.3625 0 -0.0125 112 143 255
-0.0125 -0.325 -0.0125 28 227 255
0.1 0.075 0.0625 131 124 255
-0.075 -0.2125 -0.0125 56 198 255
0.075 0.0375 -0.0125 121 134 255
0.1625 -0.3 0.35 35 220 255
-0.3125 0.075 0.075 131 124 255
0.1625 0.0375 0.3625 121 134 255
0.1625 -0.3 0.325 35 220 255
0.075 -0.2375 0 51 204 255
0 0.075 0.35 131 124 255
-0.0875 -0.2625 0 44 211 255
-0.025 -0.325 -0.0125 28 227 255
-0.375 -0.075 0 92 163 255
-0.3375 -0.275 -0.0125 40 214 255
0.15 -0.1875 0.1 64 191 255
-0.3375 0.075 0.025 131 124 255
-0.325 0.0375 0 121 134 255
0.1625 0.0125 0.0375 115 140 255
-0.1625 0.075 0.0625 131 124 255
0.1625 -0.0875 0.275 89 166 255
-0.1125 -0.025 0.0375 105 150 255
-0.3 -0.275 0 40 214 255
0.1625 -0.05 0.3375 99 156 255
0.1625 -0.2875 0.0625 38 217 255
0.025 -0.325 0.0125 28 227 255
-0.2875 -0.0375 0.0375 102 153 255
-0.2625 -0.2875 -0.0125 38 217 255
0.15 -0.3 0.075 35 220 255
-0.0375 -0.0375 0 102 153 255
-0.0375 -0.3125 0.0875 32 223 255
-0.35 -0.2125 0 56 198 255
-0.2125 0.075 0.075 131 124 255
-0.275 -0.25 0 48 207 255
0.15 0 0.15 112 143 255
-0.2625 -0.2625 0.025 44 211 255
0.05 0.075 0.0625 131 124 255
0.1125 0.075 0.1125 131 124 255
-0.05 0.075 0.1875 131 124 255
0.1625 -0.375 0.325 16 239 255
-0.25 -0.0625 0 96 159 255
-0.175 -0.0625 -0.0125 96 159 255
0.025 0.075 0.225 131 124 255
-0.2125 0.075 0.2125 131 124 255
0.15 -0.275 0.025 40 214 255
0.1125 -0.2 -0.0125 60 195 255
-0.0375 -0.1875 -0.0125 64 191 255
0.1625 -0.325 0.225 28 227 255
-0.125 -0.2875 0.025 38 217 255
0.0375 0.075 0.05 131 124 255
0.15 -0.0125 0.0875 108 147 255
-0.1375 -0.1875 0.025 64 191 255
0.0875 0.075 0.0875 131 124 255
-0.025 -0.3125 0.0125 32 223 255
0 -0.0625 0 96 159 255
0 -0.275 -0.0125 40 214 255
0.0625 -0.1375 0 76 179 255
-0.2 -0.15 -0.0125 73 182 255
-0.0375 -0.3625 0 19 236 255
0.1625 -0.3875 0.25 12 243 255
-0.225 0.075 0.075 131 124 255
0.1 0.05 -0.0125 124 131 255
0.0625 -0.3375 0.0875 25 230 255
-0.175 0.075 0.1625 131 124 255
-0.1875 -0.1625 0.025 70 185 255
0.1625 -0.2 0.025 60 195 255
-0.1875 -0.1625 0 70 185 255
0.125 -0.2875 0 38 217 255
-0.1125 -0.1 0.0375 86 169 255
0.1 0.075 0.25 131 124 255
-0.1125 -0.2625 0 44 211 255
0.1625 -0.2125 0.3625 56 198 255
0.1125 -0.3375 0.0875 25 230 255
-0.2875 -0.075 0 92 163 255
0.0375 -0.1125 0 83 172 255
-0.0875 -0.3 -0.0125 35 220 255
-0.2125 0.075 0.0375 131 124 255
0.0125 -0.0375 0.05 102 153 255
-0.2 -0.3125 0 32 223 255
-0.075 0.05 -0.0125 124 131 255
-0.2375 -0.325 0 28 227 255
0.1625 -0.175 0.075 67 188 255
-0.175 -0.1125 0.025 83 172 255
-0.275 -0.275 -0.0125 40 214 255
-0.15 0.075 0.125 131 124 255
0.1625 -0.35 0.3125 22 233 255
0.0375 -0.2125 -0.0125 56 198 255
0.1625 -0.25 0.0625 48 207 255
0.075 0.075 0.3375 131 124 255
-0.3875 -0.125 -0.0125 80 175 255
-0.375 -0.05 0 99 156 255
0.1625 0.05 0.0125 124 131 255
0 -0.075 0.0375 92 163 255
0.15 -0.3625 0.0875 19 236 255
-0.1375 0.075 0.3125 131 124 255
0.1125 -0.325 0.075 28 227 255
0.125 -0.2 -0.0125 60 195 255
-0.375 -0.2125 0 56 198 255
0.1625 -0.1375 0.1875 76 179 255
0.1625 0 0.0625 112 143 255
0.0125 0.075 0.0625 131 124 255
0.15 -0.0875 0.05 89 166 255
-0.0625 0.075 0.3625 131 124 255
0 -0.3625 0.0875 19 236 255
-0.1 0.075 0.025 131 124 255
-0.1875 -0.1125 0 83 172 255
0.15 -0.35 0.075 22 233 255
-0.1125 0.075 0.35 131 124 255
-0.1875 0.075 0.0625 131 124 255
0.1625 -0.3625 0.225 19 236 255
-0.0375 -0.35 0.025 22 233 255
0.025 -0.075 0.05 92 163 255
0.1625 -0.2875 0.3375 38 217 255
-0.1 0.075 0.1 131 124 255
-0.2875 -0.3125 -0.0125 32 223 255
0.125 -0.2375 0 51 204 255
-0.0375 -0.075 0 92 163 255
-0.1875 -0.15 0.025 73 182 255
-0.0125 0.025 0 118 137 255
0.05 0.075 0.15 131 124 255
-0.125 0.075 0.0375 131 124 255
-0.2875 -0.1125 0 83 172 255
0.0625 -0.2125 0 56 198 255
0.05 -0.325 0.075 28 227 255
0.0125 -0.05 0 99 156 255
0.1625 0.05 0.2875 124 131 255
-0.175 0.075 0.2625 131 124 255
0.0125 0.075 0.075 131 124 255
-0.1125 0.075 0.0875 131 124 255
-0.025 0.075 0.1375 131 124 255
-0.175 -0.2 -0.0125 60 195 255
0.0125 -0.0625 -0.0125 96 159 255
-0.05 -0.2125 0 56 198 255
-0.3875 -0.2625 -0.0125 44 211 255
0.0125 0.075 0.3625 131 124 255
-0.0375 0.075 0.125 131 124 255
-0.025 -0.3875 0 12 243 255
-0.2625 -0.0625 0.025 96 159 255
0.0375 -0.175 0 67 188 255
-0.1 0.075 0.2125 131 124 255
0.0375 -0.2625 -0.0125 44 211 255
0.15 0.075 0.05 131 124 255
0.15 -0.1125 -0.0125 83 172 255
-0.125 -0.1125 0.0375 83 172 255
0.1625 -0.325 0.0375 28 227 255
-0.1875 -0.15 -0.0125 73 182 255
0.15 -0.2625 0.1375 44 211 255
0.1 -0.0875 0 89 166 255
0.075 0.075 0.0875 131 124 255
0.1625 -0.1125 0.3625 83 172 255
-0.0875 -0.1875 0 64 191 255
0.0125 -0.075 0.0625 92 163 255
-0.125 -0.1625 0 70 185 255
0.1625 -0.1625 0.1125 70 185 255
-0.25 -0.0625 -0.0125 96 159 255
0.15 -0.0625 0.0875 96 159 255
-0.0125 -0.3625 0 19 236 255
0.1625 -0.1375 0.2625 76 179 255
-0.0625 0.075 0.25 131 124 255
0.1 -0.1875 -0.0125 64 191 255
-0.1875 -0.3125 -0.0125 32 223 255
0.0375 -0.3625 0 19 236 255
-0.275 0.075 0 131 124 255
-0.0625 0.075 0.2625 131 124 255
-0.075 -0.1 -0.0125 86 169 255
0.1625 -0.1375 0.15 76 179 255
0.025 -0.2625 -0.0125 44 211 255
-0.1875 0.075 0.0125 131 124 255
-0.425 -0.0625 0.025 96 159 255
0.0375 0.075 0.2125 131 124 255
-0.175 -0.05 0.025 99 156 255
-0.0375 0 -0.0125 112 143 255
-0.25 -0.3 0 35 220 255
-0.4 -0.125 -0.0125 80 175 255
0.1625 -0.2 0.2 60 195 255
0.1625 -0.0125 0.2625 108 147 255
-0.15 -0.2875 0 38 217 255
-0.3125 -0.15 0 73 182 255
0.15 -0.1 0.1375 86 169 255
-0.3125 -0.125 -0.0125 80 175 255
-0.05 0.075 0.0875 131 124 255
-0.0125 -0.275 -0.0125 40 214 255
0.0375 -0.075 0.0125 92 163 255
0.1125 0.075 -0.0125 131 124 255
-0.0125 -0.1375 -0.0125 76 179 255
0.1125 0.0125 -0.0125 115 140 255
0.05 -0.175 -0.0125 67 188 255
-0.175 -0.3125 0 32 223 255
0.1625 -0.1 0.175 86 169 255
0.0625 -0.0375 0.0375 102 153 255
-0.1375 0.075 0.275 131 124 255
-0.1625 -0.0375 -0.0125 102 153 255
-0.025 0.075 0.0375 131 124 255
0.05 0.075 0.075 131 124 255
-0.125 -0.3 -0.0125 35 220 255
-0.075 -0.15 -0.0125 73 182 255
0.15 0.025 0.0875 118 137 255
-0.125 -0.025 0.025 105 150 255
-0.1875 -0.25 -0.0125 48 207 255
0.1625 -0.275 0.1875 40 214 255
0.1625 -0.125 0.175 80 175 255
-0.0125 -0.2 -0.0125 60 195 255
0.1625 0.0375 0.3 121 134 255
-0.15 0.075 0.1125 131 124 255
0.05 -0.075 -0.0125 92 163 255
-0.0375 -0.05 0.0125 99 156 255
0.0625 -0.3625 0.0875 19 236 255
0.1625 0.05 0.2625 124 131 255
0.1375 -0.3 0.0125 35 220 255
-0.225 -0.1875 -0.0125 64 191 255
0.1 0.075 0.325 131 124 255
0.1625 -0.325 0.1 28 227 255
-0.3 0.05 0 124 131 255
-0.3875 -0.175 0 67 188 255
0.0125 0.025 0 118 137 255
0.1625 -0.0875 0.2875 89 166 255
0.15 -0.225 0.35 54 201 255
-0.025 -0.025 -0.0125 105 150 255
-0.0125 -0.325 0.0875 28 227 255
-0.1 0.0375 0 121 134 255
0.15 -0.1125 0.15 83 172 255
0.025 0.075 0.25 131 124 255
-0.1 -0.125 -0.0125 80 175 255
0.0875 -0.3 0.025 35 220 255
0.1 0.075 0.025 131 124 255
-0.3 -0.1125 -0.0125 83 172 255
0.05 0.075 0 131 124 255
0 0.075 0.2875 131 124 255
0.1625 0.05 0.35 124 131 255
0.125 -0.3 -0.0125 35 220 255
-0.35 -0.1375 -0.0125 76 179 255
0.05 -0.2 -0.0125 60 195 255
-0.2375 -0.1625 -0.0125 70 185 255
-0.2875 0.0125 -0.0125 115 140 255
0.15 -0.0875 0.15 89 166 255
0.1625 -0.0625 0.175 96 159 255
0.0375 -0.1875 -0.0125 64 191 255
0.15 -0.3 0.15 35 220 255
-0.35 -0.225 -0.0125 54 201 255
-0.05 0.0375 0 121 134 255
0.1625 -0.15 0.1125 73 182 255
0.15 -0.0375 0.075 102 153 255
0.15 0.025 -0.0125 118 137 255
0.1625 0.0375 0.0875 121 134 255
0.1625 -0.1625 -0.0125 70 185 255
-0.1375 -0.125 0 80 175 255
-0.2375 -0.05 0.025 99 156 255
-0.2625 0.0625 -0.0125 128 127 255
0.125 -0.3 0.025 35 220 255
-0.225 -0.225 -0.0125 54 201 255
-0.25 -0.325 0 28 227 255
0.0625 -0.1625 0 70 185 255
0.0125 -0.1 0 86 169 255
0.1625 -0.0125 0.2125 108 147 255
-0.4 -0.1375 0 76 179 255
-0.375 -0.0125 -0.0125 108 147 255
-0.275 -0.05 0 99 156 255
-0.0125 -0.1625 0 70 185 255
0.1625 0 0.0375 112 143 255
0.1625 0.075 0.2625 131 124 255
-0.05 -0.0375 0.025 102 153 255
-0.2625 -0.25 -0.0125 48 207 255
0.15 -0.15 0.3375 73 182 255
-0.2375 -0.1875 0 64 191 255
0.1625 -0.1125 0.3 83 172 255
0 -0.1375 -0.0125 76 179 255
0.15 0.05 0.0625 124 131 255
-0.3375 -0.1125 0 83 172 255
0.125 -0.4125 0.075 6 249 255
0.1625 -0.275 -0.0125 40 214 255
0.15 -0.3625 0.1 19 236 255
-0.025 -0.075 0.05 92 163 255
0.1625 -0.35 0.125 22 233 255
0.15 -0.225 0.0875 54 201 255
0.15 -0.1875 0.15 64 191 255
-0.2625 -0.225 0 54 201 255
-0.325 -0.0625 0 96 159 255
0.0375 -0.325 0.075 28 227 255
-0.3375 0.075 0.0375 131 124 255
-0.125 0.0625 -0.0125 128 127 255
0 -0.0125 -0.0125 108 147 255
0.1625 0 0.2875 112 143 255
0.1625 -0.225 0.2125 54 201 255
-0.3125 -0.075 -0.0125 92 163 255
0.0125 0.075 0.2625 131 124 255
-0.175 0.075 0.05 131 124 255
0.15 -0.1375 0.0375 76 179 255
-0.1875 -0.1125 0.025 83 172 255
-0.075 -0.3125 0 32 223 255
-0.0375 -0.0125 0 108 147 255
-0.15 -0.125 0.025 80 175 255
-0.1375 -0.05 -0.0125 99 156 255
0.15 -0.0875 0.075 89 166 255
0.1625 -0.3125 0.275 32 223 255
0.025 -0.375 0.0125 16 239 255
-0.1 0.075 0.3625 131 124 255
-0.275 -0.1875 0 64 191 255
-0.15 -0.025 0 105 150 255
0.1125 0.075 0.3125 131 124 255
0.0625 -0.375 0.0875 16 239 255
-0.25 0.075 0.025 131 124 255
0.1625 -0.4125 0.15 6 249 255
-0.2 -0.325 0 28 227 255
0.1625 -0.1 0.05 86 169 255
-0.3625 -0.2875 -0.0125 38 217 255
0.125 -0.3375 0.0625 25 230 255
0.0125 -0.3 0.0375 35 220 255
-0.125 -0.0875 0.025 89 166 255
-0.2875 -0.1875 -0.0125 64 191 255
-0.0625 -0.3625 -0.0125 19 236 255
-0.25 -0.3 -0.0125 35 220 255
0.1625 -0.1375 0.3375 76 179 255
-0.1875 0.075 0.175 131 124 255
-0.2375 -0.0625 0.025 96 159 255
0.0125 -0.4 0.0375 9 246 255
-0.1875 -0.25 0.025 48 207 255
0.0625 -0.125 -0.0125 80 175 255
-0.4 0.0125 -0.0125 115 140 255
0.1 -0.1625 0 70 185 255
0.15 -0.275 0.15 40 214 255
-0.0625 -0.0125 0 108 147 255
-0.3875 -0.2 0 60 195 255
0.1 -0.05 0.05 99 156 255
0.1625 -0.125 0.1625 80 175 255
-0.175 0.075 0.175 131 124 255
-0.175 -0.1125 -0.0125 83 172 255
-0.25 -0.0875 0 89 166 255
-0.325 -0.2625 0 44 211 255
-0.1 0.075 0 131 124 255
0.025 -0.3625 0 19 236 255
-0.1 -0.2375 0.025 51 204 255
-0.3125 0.0125 -0.0125 115 140 255
-0.35 -0.05 0 99 156 255
-0.1 -0.325 0.025 28 227 255
0.1375 -0.2125 0 56 198 255
-0.15 0.075 0.2375 131 124 255
0.1375 -0.15 -0.0125 73 182 255
-0.0875 -0.3 0 35 220 255
0.1625 -0.125 0.1 80 175 255
-0.35 -0.275 -0.0125 40 214 255
-0.15 0.05 0 124 131 255
0.1 -0.3 0.025 35 220 255
0.1625 -0.3875 0.15 12 243 255
-0.05 -0.05 0.05 99 156 255
0.1625 -0.2875 0.1625 38 217 255
-0.225 -0.25 0 48 207 255
0.15 -0.1875 0.3375 64 191 255
-0.3375 -0.0375 0.0375 102 153 255
-0.0625 0.075 0.375 131 124 255
-0.375 -0.275 0 40 214 255
0.0125 -0.325 0.05 28 227 255
-0.35 -0.075 -0.0125 92 163 255
-0.025 0.075 0.025 131 124 255
0.1625 -0.1875 0.2875 64 191 255
-0.125 -0.3625 -0.0125 19 236 255
-0.175 0.0625 0 128 127 255
-0.1125 -0.025 0.025 105 150 255
0.125 0.075 0.1125 131 124 255
0.025 -0.325 0.0625 28 227 255
-0.0375 -0.35 0.0625 22 233 255
-0.0625 -0.15 0 73 182 255
0 -0.275 0 40 214 255
-0.0625 -0.0375 -0.0125 102 153 255
0.0125 -0.05 0.0625 99 156 255
-0.25 -0.2375 -0.0125 51 204 255
-0.1125 -0.3 0.025 35 220 255
-0.175 -0.1375 -0.0125 76 179 255
0.1 -0.3875 0.0875 12 243 255
-0.4 0.025 -0.0125 118 137 255
0.1625 -0.175 0.0875 67 188 255
-0.2375 -0.0875 0.025 89 166 255
0.15 -0.225 0.05 54 201 255
0.1625 -0.0875 -0.0125 89 166 255
-0.2125 -0.2625 0 44 211 255
0.1 0.075 0.05 131 124 255
-0.1625 0.075 0.1375 131 124 255
-0.225 -0.1 0.0375 86 169 255
-0.15 -0.1 0 86 169 255
0.075 0.075 0.1 131 124 255
-0.05 -0.05 0.0625 99 156 255
0.1 0.075 0.3 131 124 255
-0.3 -0.2875 0 38 217 255
0.125 0.075 0.025 131 124 255
-0.1125 -0.1875 -0.0125 64 191 255
0.1625 -0.3 0.2375 35 220 255
-0.025 -0.0125 -0.0125 108 147 255
0.15 -0.425 0.075 3 252 255
-0.1875 -0.2125 -0.0125 56 198 255
-0.0375 0.075 0.1 131 124 255
0.125 0.075 0.35 131 124 255
-0.25 -0.05 0.025 99 156 255
0.0625 0.075 0.1125 131 124 255
-0.0375 -0.0375 0.0375 102 153 255
-0.2 -0.0125 0 108 147 255
0.1625 -0.2125 0.1 56 198 255
-0.3 -0.15 0 73 182 255
-0.2875 -0.0875 0 89 166 255
0.15 -0.125 0.05 80 175 255
-0.0625 -0.2 -0.0125 60 195 255
-0.05 -0.35 -0.0125 22 233 255
0.1625 0.025 0.0875 118 137 255
-0.0875 -0.2 0 60 195 255
-0.2125 0.075 0.125 131 124 255
0.025 -0.2125 0 56 198 255
-0.15 0.075 0.3125 131 124 255
-0.075 0.0125 -0.0125 115 140 255
-0.35 -0.1125 -0.0125 83 172 255
-0.1 -0.3375 0.025 25 230 255
0.1625 -0.125 0 80 175 255
-0.3625 0.05 0 124 131 255
-0.225 -0.3125 0 32 223 255
-0.2875 0.075 0.1 131 124 255
-0.1 -0.1375 -0.0125 76 179 255
-0.0375 0.075 0.025 131 124 255
0.1625 -0.275 0.175 40 214 255
-0.2125 0.025 -0.0125 118 137 255
0.1625 -0.375 0.25 16 239 255
-0.35 -0.0375 0.025 102 153 255
-0.3375 0.0125 -0.0125 115 140 255
-0.1125 0.0625 0 128 127 255
-0.05 -0.3375 0 25 230 255
-0.025 -0.075 0.0625 92 163 255
-0.225 0.05 -0.0125 124 131 255
0.0625 -0.05 0.0625 99 156 255
0.15 -0.15 0.1125 73 182 255
