ply
format ascii 1.0
comment Created by Open3D
element vertex 1502
property double x
property double y
property double z
property uchar red
property uchar green
property uchar blue
end_header
-0.3375 -0.2375 -0.2625 67 188 255
-0.2625 -0.45 0.175 12 243 255
0.1375 -0.4 0.0625 25 230 255
-0.075 0.075 -0.0375 147 108 255
0.3375 -0.3625 -0.2625 35 220 255
-0.3375 0.075 -0.2625 147 108 255
0.1625 0.075 -0.05 147 108 255
-0.2125 -0.1125 -0.2625 99 156 255
0.3375 -0.0375 0.125 118 137 255
0.325 -0.2125 -0.2375 73 182 255
-0.5 -0.4375 -0.2625 16 239 255
-0.2625 -0.3875 0 28 227 255
-0.3625 0.0125 -0.2625 131 124 255
0.1375 -0.3875 -0.025 28 227 255
0.2875 -0.4875 0.1375 3 252 255
0.2375 -0.2125 -0.2625 73 182 255
-0.175 0.0375 -0.2625 137 118 255
0.1 0.075 0.0875 147 108 255
-0.125 -0.225 -0.2625 70 185 255
0.3375 -0.1875 -0.1125 80 175 255
-0.2375 0.075 -0.1 147 108 255
-0.3 0.075 -0.0875 147 108 255
-0.1 -0.2375 -0.2625 67 188 255
0.3375 -0.0125 0.0375 124 131 255
0.1 0.075 -0.25 147 108 255
-0.1625 -0.2 -0.2625 76 179 255
0.05 0.075 0.025 147 108 255
0.0375 0.075 -0.0375 147 108 255
-0.075 -0.2 -0.2625 76 179 255
0.125 -0.4 0.15 25 230 255
0.0625 0.075 -0.1 147 108 255
0.1 -0.0875 -0.2625 105 150 255
0.075 -0.05 -0.2625 115 140 255
0.3375 0.025 0.0125 134 121 255
0.3375 0.0625 0.0875 144 111 255
0.3375 -0.1875 0.0125 80 175 255
-0.225 -0.4875 0.0875 3 252 255
0.3375 -0.425 -0.2125 19 236 255
0.3375 -0.025 -0.0125 121 134 255
0.3375 -0.2875 -0.175 54 201 255
0.05 0.075 -0.025 147 108 255
0.3375 -0.05 0.1375 115 140 255
0.3375 -0.2 -0.2 76 179 255
0.025 0.075 -0.05 147 108 255
0.325 -0.3375 0.0375 40 214 255
0.175 -0.2375 -0.2625 67 188 255
0.3375 -0.3125 -0.05 48 207 255
0.175 0 -0.2625 128 127 255
0.3375 -0.15 -0.175 89 166 255
0.2 0.05 -0.2625 140 114 255
0.0625 -0.2625 -0.2625 60 195 255
-0.1 -0.25 -0.2625 64 191 255
-0.25 -0.4625 0.175 9 246 255
0.1125 -0.125 -0.2625 96 159 255
-0.0375 -0.3375 0.45 40 214 255
-0.325 -0.0375 -0.2625 118 137 255
0.1125 -0.3875 0.0375 28 227 255
-0.3125 -0.1875 -0.2625 80 175 255
0.175 0.075 0.0875 147 108 255
0.2375 0.075 -0.25 147 108 255
0.3375 -0.1125 0.0625 99 156 255
-0.5 -0.325 -0.2625 44 211 255
0.325 -0.2375 0.0375 67 188 255
0.2375 0.075 -0.1 147 108 255
0.325 -0.4 -0.1625 25 230 255
0.05 -0.1375 -0.2625 92 163 255
0.25 0.0125 -0.2625 131 124 255
0.325 -0.2875 -0.1625 54 201 255
-0.2875 0.075 -0.175 147 108 255
0.3375 -0.275 -0.1375 56 198 255
-0.125 0.075 0.05 147 108 255
0.325 0.0125 0.05 131 124 255
0.325 -0.3 -0.1625 51 204 255
-0.3 -0.4 0.0375 25 230 255
0.3375 -0.025 -0.025 121 134 255
-0.2625 0.05 -0.2625 140 114 255
0.325 -0.225 0.0125 70 185 255
0.2 0.0375 -0.2625 137 118 255
0.325 -0.125 0.0125 96 159 255
0.1125 -0.1 -0.2625 102 153 255
-0.2625 -0.2625 -0.2625 60 195 255
-0.1125 0.075 -0.05 147 108 255
0.25 0 -0.2625 128 127 255
0.025 0.075 -0.25 147 108 255
0.3 -0.4875 0.05 3 252 255
0.25 0.075 0.0375 147 108 255
0.325 -0.05 0.0125 115 140 255
-0.05 -0.175 -0.2625 83 172 255
-0.0125 -0.3875 0.4125 28 227 255
-0.275 -0.3 -0.2625 51 204 255
0.325 -0.0875 -0.0875 105 150 255
0.2625 0.075 -0.05 147 108 255
0.3375 0.025 -0.175 134 121 255
-0.2125 -0.3875 -0.1625 28 227 255
0.3375 -0.3125 -0.1125 48 207 255
-0.2375 -0.3875 -0.1625 28 227 255
0.325 -0.05 -0.125 115 140 255
-0.2875 0.0375 -0.2625 137 118 255
0.325 0.05 -0.075 140 114 255
0.325 -0.4375 -0.2375 16 239 255
0.25 -0.1875 -0.2625 80 175 255
0.3375 -0.3125 -0.0375 48 207 255
0.3375 -0.1375 -0.225 92 163 255
-0.2375 -0.25 -0.2625 64 191 255
0.3375 -0.2 -0.2125 76 179 255
-0.45 -0.425 -0.2625 19 236 255
-0.4375 -0.35 -0.2625 38 217 255
-0.0375 -0.3 0.45 51 204 255
-0.075 0.075 -0.15 147 108 255
0.1875 -0.225 -0.2625 70 185 255
0.1875 0.075 -0.2375 147 108 255
0.25 0.075 -0.2625 147 108 255
0.2125 0.075 -0.075 147 108 255
-0.45 0.0625 -0.2625 144 111 255
0.15 -0.15 -0.2625 89 166 255
-0.3125 0.075 -0.1875 147 108 255
0.325 -0.1 -0.1875 102 153 255
0.3375 -0.25 -0.05 64 191 255
0.3375 0.075 -0.25 147 108 255
0.1625 -0.0375 -0.2625 118 137 255
0.075 0.075 0.025 147 108 255
-0.4375 0.075 -0.1125 147 108 255
-0.4 0.075 -0.075 147 108 255
-0.1125 0.025 -0.2625 134 121 255
-0.1875 0.075 -0.1875 147 108 255
0.325 -0.1875 -0.075 80 175 255
-0.175 -0.425 0.175 19 236 255
-0.2875 0.075 -0.1125 147 108 255
0.025 0.075 -0.2125 147 108 255
0.275 0.0625 -0.2625 144 111 255
-0.4875 -0.3125 -0.2625 48 207 255
0.3375 -0.15 -0.075 89 166 255
0.325 -0.325 -0.2375 44 211 255
-0.35 0.075 -0.2375 147 108 255
-0.375 0.075 -0.05 147 108 255
0.325 0 -0.05 128 127 255
-0.375 -0.0375 -0.2625 118 137 255
-0.175 0.075 -0.2625 147 108 255
-0.3375 -0.1125 -0.2625 99 156 255
-0.5 -0.425 -0.2625 19 236 255
-0.2 -0.175 -0.2625 83 172 255
0.2625 -0.2875 -0.2625 54 201 255
-0.35 -0.0125 -0.2625 124 131 255
0.325 -0.125 -0.15 96 159 255
0.3375 0.0125 -0.05 131 124 255
0.3375 -0.2125 -0.1 73 182 255
0.325 -0.35 -0.1125 38 217 255
0.2875 -0.425 -0.2625 19 236 255
0.3375 -0.2 -0.075 76 179 255
0.1625 -0.175 -0.2625 83 172 255
-0.225 -0.3875 -0.1125 28 227 255
-0.225 -0.4 0.1375 25 230 255
-0.2375 -0.3625 -0.2125 35 220 255
0.0875 0 -0.2625 128 127 255
0.325 -0.225 -0.175 70 185 255
0.325 -0.0375 -0.125 118 137 255
-0.1875 0.075 -0.2125 147 108 255
0.3375 -0.1375 -0.125 92 163 255
0.3375 -0.2375 -0.0875 67 188 255
-0.225 0.075 -0.1 147 108 255
-0.275 0.075 0.0375 147 108 255
0.325 -0.4125 -0.0625 22 233 255
-0.425 -0.325 -0.2625 44 211 255
0.2375 0.075 -0.0375 147 108 255
0.2875 -0.4875 0.125 3 252 255
0.3375 -0.175 -0.2 83 172 255
-0.225 0.075 -0.175 147 108 255
-0.25 0.075 -0.15 147 108 255
0.1875 -0.2625 -0.2625 60 195 255
0.1875 -0.3875 -0.25 28 227 255
0.325 -0.3 -0.2625 51 204 255
0.1875 0.075 -0.225 147 108 255
0.3375 0.0375 0.0875 137 118 255
0.325 -0.175 -0.0125 83 172 255
0.3375 -0.425 -0.2 19 236 255
0.325 -0.2 -0.2625 76 179 255
-0.025 -0.3625 0.45 35 220 255
-0.1 -0.1625 -0.2625 86 169 255
-0.3875 0.075 -0.1625 147 108 255
0.0875 0.075 0.05 147 108 255
0.325 -0.1125 -0.25 99 156 255
0.3375 0.075 -0.0375 147 108 255
0.3375 -0.1375 -0.15 92 163 255
-0.0375 0.025 -0.2625 134 121 255
-0.2125 -0.225 -0.2625 70 185 255
-0.2625 -0.4875 0.0875 3 252 255
-0.1625 0.075 0.0375 147 108 255
-0.425 -0.3375 -0.2625 40 214 255
0.2625 0.075 0.0625 147 108 255
0.3375 -0.4 0.0125 25 230 255
0.3375 0.0375 -0.2375 137 118 255
0.3125 0.075 -0.2625 147 108 255
0.025 0.075 -0.075 147 108 255
0.2625 0.075 -0.225 147 108 255
-0.3 0.025 -0.2625 134 121 255
0.3375 -0.3875 -0.2375 28 227 255
0.175 0.075 -0.0375 147 108 255
-0.0375 0.075 -0.1 147 108 255
0.3375 -0.3125 -0.0125 48 207 255
0.325 -0.025 0 121 134 255
-0.425 0.075 -0.0125 147 108 255
0.025 0.075 -0.1 147 108 255
0.25 0.075 0 147 108 255
0.325 0 0.1 128 127 255
-0.2 0.075 -0.0375 147 108 255
-0.425 0.075 -0.1125 147 108 255
0.3375 -0.025 -0.175 121 134 255
-0.2125 -0.4 0.15 25 230 255
-0.4125 -0.3125 -0.2625 48 207 255
-0.1125 -0.1125 -0.2625 99 156 255
0.325 -0.4125 -0.2625 22 233 255
-0.2625 -0.25 -0.2625 64 191 255
0.3375 -0.4125 -0.0125 22 233 255
-0.2 -0.2625 -0.2625 60 195 255
0.3375 0.025 -0.0125 134 121 255
0.325 -0.2375 -0.0625 67 188 255
0.3375 -0.475 -0.075 6 249 255
-0.2375 -0.2875 -0.2625 54 201 255
0.3375 0.0375 0.0375 137 118 255
0.1375 0.075 -0.1375 147 108 255
0.3125 0 -0.2625 128 127 255
0.15 -0.475 0.1375 6 249 255
0.0375 -0.1375 -0.2625 92 163 255
0.2125 -0.3375 -0.2625 40 214 255
0.325 -0.175 0.0375 83 172 255
-0.05 0.0625 -0.2625 144 111 255
0.3375 -0.1625 -0.2125 86 169 255
0.325 -0.025 -0.1625 121 134 255
-0.1875 -0.2375 -0.2625 67 188 255
-0.075 0.075 -0.1 147 108 255
-0.4 0.0375 -0.2625 137 118 255
0.325 -0.0375 0.15 118 137 255
0 0.075 -0.25 147 108 255
0.3375 -0.475 0.0125 6 249 255
-0.25 -0.2 -0.2625 76 179 255
-0.0875 0.025 -0.2625 134 121 255
-0.2 -0.3875 -0.025 28 227 255
0.3375 -0.2625 -0.0625 60 195 255
-0.225 -0.4 0.15 25 230 255
0.225 -0.2 -0.2625 76 179 255
0.025 0.075 -0.125 147 108 255
0.05 0.075 -0.225 147 108 255
0.275 0.075 -0.025 147 108 255
0.15 -0.2375 -0.2625 67 188 255
-0.075 0.075 -0.075 147 108 255
-0.3375 -0.3 -0.2625 51 204 255
0.2375 -0.1125 -0.2625 99 156 255
0.2625 -0.4875 0.15 3 252 255
-0.4875 -0.125 -0.2625 96 159 255
0.3375 0.0375 0.1125 137 118 255
0 -0.2375 -0.2625 67 188 255
0.175 -0.4 0.05 25 230 255
-0.3125 0.075 -0.225 147 108 255
0.325 0.0625 -0.2625 144 111 255
-0.15 0.075 -0.225 147 108 255
-0.275 -0.0375 -0.2625 118 137 255
0.3375 -0.075 0 108 147 255
0.325 0.05 -0.025 140 114 255
-0.225 -0.2 -0.2625 76 179 255
-0.25 -0.3875 0.0375 28 227 255
0.325 -0.3875 0.0125 28 227 255
0.3375 -0.075 -0.1875 108 147 255
-0.2 0.075 -0.2 147 108 255
0.3375 -0.4 -0.1125 25 230 255
-0.25 0.0625 -0.2625 144 111 255
-0.325 -0.2875 -0.2625 54 201 255
0.325 -0.2 0.025 76 179 255
-0.125 -0.1125 -0.2625 99 156 255
0.325 -0.2125 -0.1625 73 182 255
-0.5 -0.1625 -0.2625 86 169 255
-0.15 0.075 -0.1875 147 108 255
-0.2125 -0.3875 -0.025 28 227 255
-0.075 0.075 0 147 108 255
0.3375 -0.3125 -0.0625 48 207 255
0.325 -0.3 -0.2375 51 204 255
0.1375 0.075 0.0125 147 108 255
0.125 -0.4625 0.15 9 246 255
0.2625 0.075 -0.25 147 108 255
0 0.075 -0.1125 147 108 255
0.2875 -0.1125 -0.2625 99 156 255
-0.425 -0.225 -0.2625 70 185 255
-0.1 -0.3875 0.4125 28 227 255
0.325 -0.15 -0.2125 89 166 255
0.325 0.0375 -0.05 137 118 255
0 0.075 -0.1625 147 108 255
0.325 -0.0625 -0.075 112 143 255
-0.2875 -0.3125 -0.2625 48 207 255
0.075 -0.1875 -0.2625 80 175 255
-0.45 -0.0625 -0.2625 112 143 255
0.025 -0.2625 -0.2625 60 195 255
-0.3375 -0.0625 -0.2625 112 143 255
0.325 -0.275 -0.0625 56 198 255
-0.2375 -0.3875 -0.125 28 227 255
0.05 -0.05 -0.2625 115 140 255
0.075 -0.1375 -0.2625 92 163 255
0.2125 -0.025 -0.2625 121 134 255
0.3375 0.05 0.0875 140 114 255
0.3375 0.0125 -0.2125 131 124 255
0.0875 0.075 -0.1 147 108 255
0.325 -0.3 -0.0875 51 204 255
0.325 -0.0125 0.1875 124 131 255
-0.0125 -0.35 0.45 38 217 255
-0.25 -0.275 -0.2625 56 198 255
0.3375 -0.0625 -0.1625 112 143 255
0 -0.2 -0.2625 76 179 255
0.3375 -0.3125 -0.125 48 207 255
0.3 0.0375 -0.2625 137 118 255
0.225 -0.1625 -0.2625 86 169 255
0.1 -0.1875 -0.2625 80 175 255
0.325 -0.2125 0 73 182 255
0.325 -0.2 -0.1125 76 179 255
-0.225 -0.4875 0.1 3 252 255
0.1125 -0.0125 -0.2625 124 131 255
0.325 0.025 0.1125 134 121 255
-0.2 -0.3875 0.0375 28 227 255
0.325 -0.35 -0.2625 38 217 255
0.15 0.075 -0.0125 147 108 255
0.325 0.05 0.0375 140 114 255
-0.1375 -0.2375 -0.2625 67 188 255
-0.3 0.075 -0.1125 147 108 255
0.05 -0.0125 -0.2625 124 131 255
0.1625 0.075 0.075 147 108 255
0.3375 -0.0125 -0.1875 124 131 255
0.1 0.075 -0.1125 147 108 255
0.325 -0.2125 0.0125 73 182 255
-0.1375 0.075 0 147 108 255
0.05 0.075 -0.2125 147 108 255
0.175 0.075 -0.2 147 108 255
0.3375 0 0.175 128 127 255
0.3375 -0.2 -0.2375 76 179 255
0.3375 -0.4375 -0.15 16 239 255
0.0875 -0.4 0.1625 25 230 255
0.2375 -0.2625 -0.2625 60 195 255
0.1875 -0.125 -0.2625 96 159 255
0.025 0.075 -0.025 147 108 255
-0.0875 0.0125 -0.2625 131 124 255
-0.225 0.075 -0.075 147 108 255
0.3375 -0.2625 -0.125 60 195 255
0.3375 -0.4 -0.075 25 230 255
-0.2375 -0.3875 0.05 28 227 255
0.325 -0.0625 -0.0125 112 143 255
0.1125 0.075 -0.1625 147 108 255
0.325 -0.0875 0.0125 105 150 255
0 0.075 -0.075 147 108 255
-0.225 -0.25 -0.2625 64 191 255
0.1 0.075 -0.0875 147 108 255
-0.15 -0.1375 -0.2625 92 163 255
-0.1 -0.1375 -0.2625 92 163 255
0.3125 -0.4875 -0.05 3 252 255
0.0625 0.0375 -0.2625 137 118 255
-0.25 -0.4625 0.15 9 246 255
-0.0375 0.075 0 147 108 255
-0.2625 0.075 -0.0125 147 108 255
0.3375 -0.4625 -0.125 9 246 255
0.325 0.0375 0.1375 137 118 255
-0.275 -0.4625 0.0875 9 246 255
-0.5 -0.2375 -0.2625 67 188 255
0.3375 -0.3125 0.0125 48 207 255
-0.05 0.075 -0.125 147 108 255
0.2375 -0.2 -0.2625 76 179 255
-0.275 -0.4 0.05 25 230 255
-0.275 -0.4125 0.175 22 233 255
-0.275 -0.3875 -0.1 28 227 255
0.175 -0.4 -0.05 25 230 255
-0.3625 -0.35 -0.2625 38 217 255
-0.4125 -0.3 -0.2625 51 204 255
0.1375 -0.0625 -0.2625 112 143 255
-0.35 0.075 -0.25 147 108 255
-0.2875 -0.375 -0.2625 32 223 255
-0.2125 0.075 -0.225 147 108 255
0.1875 -0.4625 0.1 9 246 255
-0.0875 0.0625 -0.2625 144 111 255
0.0875 -0.1125 -0.2625 99 156 255
-0.0125 0.075 -0.025 147 108 255
0.3375 -0.3375 0.05 40 214 255
0.3 0.075 -0.2375 147 108 255
0.3375 -0.0875 -0.1875 105 150 255
0.3 -0.1625 -0.2625 86 169 255
-0.4625 0.075 -0.25 147 108 255
-0.3125 0.075 -0.25 147 108 255
0.325 0.0125 0.1875 131 124 255
-0.1875 -0.3875 0.05 28 227 255
-0.225 -0.3875 -0.1 28 227 255
0.1625 -0.4 -0.025 25 230 255
0.175 -0.175 -0.2625 83 172 255
-0.2875 0.075 -0.0875 147 108 255
-0.2 -0.3875 0.0625 28 227 255
-0.3625 -0.375 -0.2625 32 223 255
-0.3625 -0.2 -0.2625 76 179 255
0.225 0.075 -0.25 147 108 255
0.325 -0.3625 0.0375 35 220 255
0.15 -0.3875 -0.0875 28 227 255
0.325 -0.475 -0.0125 6 249 255
-0.3625 0.05 -0.2625 140 114 255
0.325 -0.05 -0.2625 115 140 255
0.2 -0.2375 -0.2625 67 188 255
-0.1 0.075 -0.225 147 108 255
0.325 -0.1 0.0375 102 153 255
-0.4875 -0.4875 -0.2625 3 252 255
0.1875 -0.3 -0.2625 51 204 255
0.3125 -0.175 -0.2625 83 172 255
0.325 -0.475 0.075 6 249 255
0.325 -0.2125 -0.2625 73 182 255
-0.3 -0.325 -0.2625 44 211 255
0.325 -0.325 -0.075 44 211 255
0.3375 -0.2 -0.0375 76 179 255
0.325 0 -0.0875 128 127 255
0.325 -0.2 -0.1375 76 179 255
-0.175 0.075 -0.2 147 108 255
0.325 -0.3125 -0.0125 48 207 255
0.325 -0.4875 0.075 3 252 255
0.325 0 0.025 128 127 255
0.25 -0.4875 0.1625 3 252 255
0.325 -0.4 0.0375 25 230 255
0.2 0.075 0 147 108 255
-0.2125 0.075 -0.1625 147 108 255
-0.325 -0.175 -0.2625 83 172 255
0.3375 -0.3375 -0.05 40 214 255
0.325 0.025 0.125 134 121 255
0.3375 -0.0125 0.0125 124 131 255
0.3125 -0.3125 -0.2625 48 207 255
0.2125 -0.125 -0.2625 96 159 255
0.3375 -0.025 -0.075 121 134 255
-0.225 -0.3625 -0.2625 35 220 255
0.1 0.075 0.05 147 108 255
-0.1875 0.0125 -0.2625 131 124 255
0.325 -0.45 -0.2375 12 243 255
0.3375 -0.2625 -0.1375 60 195 255
0.325 -0.4625 -0.1 9 246 255
0.0375 -0.15 -0.2625 89 166 255
0.325 -0.1 -0.1375 102 153 255
0.2375 0.075 -0.0625 147 108 255
-0.0625 -0.225 -0.2625 70 185 255
-0.0375 0.075 -0.175 147 108 255
-0.3 -0.3875 -0.225 28 227 255
-0.4125 -0.3875 -0.2625 28 227 255
0.325 -0.4625 -0.0875 9 246 255
-0.2875 -0.3875 -0.2625 28 227 255
0.1375 -0.2125 -0.2625 73 182 255
0.1375 -0.3875 -0.0625 28 227 255
-0.2625 0.075 0 147 108 255
-0.3 -0.35 -0.25 38 217 255
0.25 0.075 -0.1125 147 108 255
0.225 -0.35 -0.2625 38 217 255
0.3375 0.0625 -0.125 144 111 255
0.15 0.025 -0.2625 134 121 255
0.3375 0.0125 -0.025 131 124 255
0.1625 -0.05 -0.2625 115 140 255
-0.1625 -0.4 0.15 25 230 255
0.0625 0.075 0.0375 147 108 255
0.325 0.05 -0.0875 140 114 255
-0.4625 0.075 -0.225 147 108 255
0.3375 0 -0.2 128 127 255
-0.2 -0.4875 0.1 3 252 255
0.325 -0.4875 -0.0625 3 252 255
-0.2875 -0.4875 0.1 3 252 255
0.2125 0.075 -0.1875 147 108 255
0.1875 -0.175 -0.2625 83 172 255
-0.2375 0.0125 -0.2625 131 124 255
0.325 -0.05 0.2 115 140 255
-0.475 0.075 -0.2375 147 108 255
0.275 0.075 -0.2 147 108 255
-0.4375 -0.4 -0.2625 25 230 255
-0.35 -0.2625 -0.2625 60 195 255
-0.4375 -0.225 -0.2625 70 185 255
-0.45 0.075 -0.1 147 108 255
0.3375 -0.4375 0.0625 16 239 255
-0.0375 0.075 -0.0125 147 108 255
0.1875 0.075 0.1 147 108 255
-0.025 0.075 0.0375 147 108 255
-0.1625 0.075 -0.1 147 108 255
-0.1 0.075 -0.0875 147 108 255
0.0875 -0.2125 -0.2625 73 182 255
0.2375 -0.025 -0.2625 121 134 255
0.0875 0.075 0.0625 147 108 255
0.0375 0.075 -0.0625 147 108 255
-0.0125 -0.175 -0.2625 83 172 255
-0.35 0.075 0 147 108 255
0.3 -0.4875 0.0625 3 252 255
-0.2 -0.075 -0.2625 108 147 255
0.15 -0.4 0.025 25 230 255
-0.2125 0.075 -0.2625 147 108 255
-0.3 -0.3625 -0.25 35 220 255
-0.0375 -0.325 0.45 44 211 255
-0.2875 -0.4 0.0875 25 230 255
0.325 -0.0875 -0.0125 105 150 255
-0.35 -0.0375 -0.2625 118 137 255
-0.2125 -0.3875 0.0125 28 227 255
0.325 -0.225 0 70 185 255
0.2875 -0.4875 0.0875 3 252 255
0.2875 -0.0375 -0.2625 118 137 255
0.325 -0.2875 -0.2375 54 201 255
0.3375 0.025 -0.025 134 121 255
0.1125 -0.4 0.0875 25 230 255
0.1875 0.0375 -0.2625 137 118 255
0.3375 -0.2875 -0.0875 54 201 255
-0.3 0.075 -0.0625 147 108 255
-0.275 -0.375 -0.2625 32 223 255
-0.2 -0.3875 0.125 28 227 255
-0.1625 -0.125 -0.2625 96 159 255
-0.0375 0.075 0.05 147 108 255
0.3375 -0.4875 -0.125 3 252 255
0.3375 0.0625 -0.1125 144 111 255
-0.175 -0.3875 0.1 28 227 255
0.1375 0.075 -0.175 147 108 255
0.325 -0.3125 -0.15 48 207 255
-0.1 0.075 -0.0375 147 108 255
-0.05 0.075 -0.2 147 108 255
-0.0375 -0.0875 -0.2625 105 150 255
-0.2625 -0.325 -0.2625 44 211 255
-0.2625 -0.2375 -0.2625 67 188 255
-0.1125 0.075 0.0625 147 108 255
-0.175 -0.2125 -0.2625 73 182 255
0.1875 -0.425 0.0875 19 236 255
0.3375 -0.05 -0.2 115 140 255
-0.2375 -0.3875 0.0375 28 227 255
-0.075 0.075 -0.1875 147 108 255
0.325 -0.1375 -0.0125 92 163 255
0.1 -0.4625 0.125 9 246 255
-0.0125 0.075 -0.2 147 108 255
-0.1125 -0.15 -0.2625 89 166 255
-0.15 -0.2625 -0.2625 60 195 255
0.325 -0.3125 -0.2375 48 207 255
-0.475 -0.0875 -0.2625 105 150 255
0.3375 0.0375 0.075 137 118 255
0.3375 -0.0625 -0.0625 112 143 255
0.3375 -0.0875 -0.05 105 150 255
0.325 -0.3625 -0.25 35 220 255
0.3375 0.075 -0.075 147 108 255
0.2125 -0.1625 -0.2625 86 169 255
0.3125 0.05 -0.2625 140 114 255
-0.3625 -0.15 -0.2625 89 166 255
-0.3 -0.3375 -0.25 40 214 255
0.225 -0.025 -0.2625 121 134 255
0.3375 -0.025 0.025 121 134 255
-0.3625 0.075 -0.1125 147 108 255
-0.1875 -0.4875 0.0875 3 252 255
-0.4875 -0.35 -0.2625 38 217 255
-0.1 -0.2625 -0.2625 60 195 255
0.325 -0.175 -0.1375 83 172 255
0.3 -0.35 -0.2625 38 217 255
0.325 -0.25 -0.175 64 191 255
-0.225 -0.325 -0.2625 44 211 255
-0.2625 -0.3875 0.025 28 227 255
-0.225 0.075 -0.1375 147 108 255
-0.1125 0.075 -0.0125 147 108 255
0.325 -0.375 0.025 32 223 255
0.325 -0.25 -0.0625 64 191 255
0.15 0.075 -0.2375 147 108 255
0.175 0.075 0.0625 147 108 255
-0.0375 0.0625 -0.2625 144 111 255
0.3375 -0.1125 -0.0375 99 156 255
-0.4 -0.1375 -0.2625 92 163 255
-0.425 0.075 -0.075 147 108 255
-0.4875 -0.4875 -0.2 3 252 255
-0.3125 -0.125 -0.2625 96 159 255
-0.25 0.075 -0.1875 147 108 255
-0.1 0.075 0 147 108 255
0.1875 -0.0875 -0.2625 105 150 255
0.3375 0.0375 -0.0625 137 118 255
-0.2875 0.075 0 147 108 255
-0.075 -0.375 0.45 32 223 255
0.15 -0.475 0.125 6 249 255
-0.3125 0.0125 -0.2625 131 124 255
-0.125 0.075 -0.1375 147 108 255
-0.125 0.075 -0.1125 147 108 255
0.125 0.075 -0.1375 147 108 255
-0.2875 -0.4 0.075 25 230 255
-0.4 0.075 -0.15 147 108 255
0.3375 -0.25 -0.1 64 191 255
-0.4375 0.075 -0.2625 147 108 255
0.125 -0.3875 0.025 28 227 255
-0.0875 -0.25 -0.2625 64 191 255
-0.4375 -0.2125 -0.2625 73 182 255
0.1875 -0.475 0.1625 6 249 255
0.125 0.075 -0.2375 147 108 255
0.175 -0.425 0.1625 19 236 255
0.3375 -0.0375 0.075 118 137 255
0.3375 -0.075 -0.025 108 147 255
-0.2 -0.0875 -0.2625 105 150 255
0.225 0.075 -0.0375 147 108 255
0.325 -0.1375 -0.2375 92 163 255
-0.25 0.075 0.05 147 108 255
-0.3875 0.0375 -0.2625 137 118 255
-0.025 0.075 -0.0625 147 108 255
0.05 -0.1625 -0.2625 86 169 255
-0.3875 -0.1125 -0.2625 99 156 255
0.325 0 -0.0625 128 127 255
0.05 0.075 0.0125 147 108 255
-0.3875 0.075 -0.15 147 108 255
0.3375 -0.0875 0.1625 105 150 255
-0.15 0.075 -0.0375 147 108 255
0.3375 -0.2875 0 54 201 255
-0.3125 -0.225 -0.2625 70 185 255
0.325 -0.075 0.05 108 147 255
0.325 -0.1375 -0.175 92 163 255
0.3375 -0.025 0.1 121 134 255
0.325 -0.4 0.0125 25 230 255
0.3375 -0.3875 -0.05 28 227 255
-0.4125 0.075 -0.175 147 108 255
-0.0125 0.075 -0.0625 147 108 255
-0.5 -0.05 -0.2625 115 140 255
0.325 -0.0875 -0.2375 105 150 255
0.325 -0.3 0.025 51 204 255
-0.0875 -0.075 -0.2625 108 147 255
0.3375 -0.1 -0.1625 102 153 255
0.3375 -0.125 0.0125 96 159 255
-0.0875 0.075 -0.175 147 108 255
0.0375 -0.125 -0.2625 96 159 255
-0.2625 -0.225 -0.2625 70 185 255
0.325 -0.25 -0.1625 64 191 255
0.325 -0.2375 -0.225 67 188 255
0.2625 -0.325 -0.2625 44 211 255
0.325 0 -0.1625 128 127 255
0.1875 -0.425 0.15 19 236 255
0.3125 -0.4875 -0.0625 3 252 255
0.0625 -0.1375 -0.2625 92 163 255
-0.1 -0.0625 -0.2625 112 143 255
0.325 -0.2375 -0.0125 67 188 255
-0.3375 -0.3625 -0.2625 35 220 255
0.125 0.075 -0.1625 147 108 255
-0.3875 0.075 -0.2375 147 108 255
0.325 -0.2875 0.0375 54 201 255
0.3375 -0.4125 0.0125 22 233 255
-0.3125 -0.325 -0.2625 44 211 255
-0.2625 0.075 -0.1 147 108 255
-0.3125 -0.4 -0.1375 25 230 255
-0.175 0.075 -0.1 147 108 255
-0.3875 0.0625 -0.2625 144 111 255
-0.4375 -0.45 -0.2625 12 243 255
0.3375 -0.25 -0.1625 64 191 255
0.075 0.075 -0.0125 147 108 255
-0.4 -0.3375 -0.2625 40 214 255
0.25 0.075 -0.0375 147 108 255
0.325 -0.025 0.1 121 134 255
-0.0625 -0.2 -0.2625 76 179 255
-0.475 -0.4875 -0.175 3 252 255
0.0625 0.075 0.025 147 108 255
-0.2875 0.075 -0.125 147 108 255
0.1375 -0.4125 0.1625 22 233 255
-0.225 -0.4375 0.175 16 239 255
-0.175 -0.4 0.1625 25 230 255
-0.1125 0.0375 -0.2625 137 118 255
-0.275 -0.2375 -0.2625 67 188 255
0.3375 0.075 -0.125 147 108 255
-0.475 0.075 -0.1625 147 108 255
-0.5 -0.1 -0.2625 102 153 255
0.075 0.025 -0.2625 134 121 255
0.3375 -0.1 0 102 153 255
0.3375 -0.0375 -0.225 118 137 255
0.3125 -0.4875 -0.0125 3 252 255
0.325 -0.3875 -0.05 28 227 255
0.325 -0.0125 -0.1125 124 131 255
-0.275 -0.4875 0.1 3 252 255
0.325 -0.45 -0.1125 12 243 255
-0.325 -0.1625 -0.2625 86 169 255
0.325 -0.275 -0.125 56 198 255
0.25 -0.0375 -0.2625 118 137 255
0.325 -0.225 0.025 70 185 255
0.1375 0.075 -0.225 147 108 255
0.325 -0.1875 0.0125 80 175 255
-0.3625 0.075 -0.0125 147 108 255
-0.3625 0.075 0 147 108 255
-0.0625 0.075 -0.1875 147 108 255
-0.4125 -0.1 -0.2625 102 153 255
0.15 -0.475 0.1125 6 249 255
0.325 0.0625 -0.1125 144 111 255
-0.0625 0.05 -0.2625 140 114 255
-0.2625 -0.3875 -0.075 28 227 255
-0.2125 -0.3875 -0.1125 28 227 255
-0.4625 -0.375 -0.2625 32 223 255
-0.2375 -0.1125 -0.2625 99 156 255
0.3 -0.325 -0.2625 44 211 255
-0.275 0.025 -0.2625 134 121 255
-0.3 0.075 -0.2125 147 108 255
0.3375 0.0125 -0.1375 131 124 255
0.0875 -0.225 -0.2625 70 185 255
-0.05 -0.0625 -0.2625 112 143 255
0.075 -0.4125 0.1625 22 233 255
0.325 -0.275 -0.0375 56 198 255
-0.3875 -0.2625 -0.2625 60 195 255
0.3375 -0.2875 -0.025 54 201 255
0.3375 -0.0375 0.1125 118 137 255
-0.05 0.075 0.05 147 108 255
-0.35 0.075 -0.0375 147 108 255
0.325 -0.225 -0.2375 70 185 255
0.2875 0.075 0.1125 147 108 255
0.225 0.075 -0.175 147 108 255
-0.2 -0.4 0.15 25 230 255
0.325 0.075 0.05 147 108 255
0.3375 -0.2375 -0.15 67 188 255
0.0625 0.075 -0.0625 147 108 255
-0.175 0.0625 -0.2625 144 111 255
0.3375 -0.1625 -0.1 86 169 255
-0.125 -0.125 -0.2625 96 159 255
0.2875 -0.4875 0.025 3 252 255
0.325 -0.275 0 56 198 255
0.3375 -0.3875 -0.1 28 227 255
-0.2 0.075 -0.025 147 108 255
0.3375 0.0125 -0.1875 131 124 255
0.3375 -0.35 -0.2125 38 217 255
0.3375 -0.275 -0.175 56 198 255
0.325 0.0375 -0.1625 137 118 255
0.275 -0.0875 -0.2625 105 150 255
0.3375 -0.25 -0.2375 64 191 255
-0.2375 -0.325 -0.2625 44 211 255
0.3375 -0.1625 -0.1625 86 169 255
-0.1875 0.075 -0.1375 147 108 255
0.325 -0.075 -0.1625 108 147 255
0.3125 -0.0875 -0.2625 105 150 255
-0.05 -0.1875 -0.2625 80 175 255
0.075 0.075 0.075 147 108 255
0.325 -0.3125 -0.2 48 207 255
0.3375 -0.4125 -0.25 22 233 255
0.1125 -0.225 -0.2625 70 185 255
0.075 -0.025 -0.2625 121 134 255
0.0125 0.075 -0.1875 147 108 255
0.2125 -0.075 -0.2625 108 147 255
-0.3625 -0.4125 -0.2625 22 233 255
0.325 -0.325 -0.2125 44 211 255
-0.35 -0.1125 -0.2625 99 156 255
0.3375 -0.275 -0.2375 56 198 255
0.3375 0.075 -0.1125 147 108 255
-0.275 -0.325 -0.2625 44 211 255
-0.0875 0.075 -0.05 147 108 255
-0.3 -0.4 0.0875 25 230 255
-0.0875 0.075 0.05 147 108 255
-0.375 -0.375 -0.2625 32 223 255
0.3375 -0.1875 0 80 175 255
-0.3 -0.075 -0.2625 108 147 255
-0.45 0.0375 -0.2625 137 118 255
0.3375 -0.425 -0.025 19 236 255
0.325 0.0625 0.0375 144 111 255
0.325 -0.1 -0.0125 102 153 255
0.1 -0.2375 -0.2625 67 188 255
-0.45 -0.2875 -0.2625 54 201 255
-0.4625 -0.15 -0.2625 89 166 255
0.3375 -0.0875 0.0375 105 150 255
0.275 0.075 0.1 147 108 255
0.325 -0.175 -0.225 83 172 255
-0.4625 -0.4875 -0.2 3 252 255
0.325 -0.2875 -0.0125 54 201 255
0.2 -0.25 -0.2625 64 191 255
-0.3625 0.075 -0.2 147 108 255
0.0875 -0.45 0.1625 12 243 255
-0.025 0.075 0.05 147 108 255
-0.175 -0.075 -0.2625 108 147 255
-0.425 0.0125 -0.2625 131 124 255
0.325 -0.3125 -0.075 48 207 255
-0.4 -0.0875 -0.2625 105 150 255
0.325 -0.3 -0.0375 51 204 255
0.3375 -0.1625 -0.1875 86 169 255
0.325 -0.25 -0.05 64 191 255
0.325 -0.375 0.0125 32 223 255
0 -0.15 -0.2625 89 166 255
-0.3625 0.075 -0.15 147 108 255
-0.3375 0.075 -0.175 147 108 255
0.3375 -0.0625 -0.15 112 143 255
0.175 -0.4 0.125 25 230 255
0.325 -0.3375 0.05 40 214 255
0.325 -0.175 -0.075 83 172 255
0.0125 0.075 -0.2 147 108 255
-0.15 0.075 -0.2625 147 108 255
0.0125 0.075 0.0625 147 108 255
0.325 0.0125 0.1375 131 124 255
0.325 -0.35 -0.075 38 217 255
0.325 -0.325 0.0375 44 211 255
0.325 -0.2125 -0.225 73 182 255
-0.15 -0.2375 -0.2625 67 188 255
0.3 -0.15 -0.2625 89 166 255
-0.125 -0.0625 -0.2625 112 143 255
-0.375 0.075 -0.0125 147 108 255
-0.3125 0.075 -0.1125 147 108 255
0.0375 0.075 -0.2125 147 108 255
0.325 0.075 0.0625 147 108 255
0.3375 -0.2875 -0.1875 54 201 255
0.325 -0.175 -0.1125 83 172 255
0.15 -0.4 0.15 25 230 255
0.3375 0 -0.1375 128 127 255
-0.3125 -0.4375 0.1 16 239 255
0.1375 -0.4625 0.15 9 246 255
0.325 -0.2625 -0.2375 60 195 255
0.1125 -0.1375 -0.2625 92 163 255
0.325 0.0125 0 131 124 255
0.325 -0.1875 -0.2375 80 175 255
-0.125 0.0625 -0.2625 144 111 255
0.325 0.025 -0.225 134 121 255
0.3375 -0.075 -0.175 108 147 255
0.2625 -0.3375 -0.2625 40 214 255
-0.2875 -0.4 0.1375 25 230 255
-0.4875 0.075 -0.2625 147 108 255
-0.475 0.075 -0.175 147 108 255
0.3375 -0.0875 -0.025 105 150 255
-0.2125 -0.4625 0.0875 9 246 255
0.0375 0.075 -0.1125 147 108 255
0.175 0.075 -0.0625 147 108 255
-0.175 0.075 -0.25 147 108 255
0.325 -0.075 -0.225 108 147 255
-0.425 0.075 -0.1 147 108 255
0.0875 0.075 -0.2625 147 108 255
-0.0375 -0.15 -0.2625 89 166 255
-0.1 -0.3125 0.45 48 207 255
0.325 0.0375 -0.225 137 118 255
0.3375 -0.2875 -0.075 54 201 255
0.0875 -0.025 -0.2625 121 134 255
-0.2375 -0.175 -0.2625 83 172 255
-0.1875 -0.4 0.1375 25 230 255
-0.3625 0.075 0.0375 147 108 255
0.3375 -0.45 0.0125 12 243 255
-0.3 -0.375 -0.2625 32 223 255
-0.125 -0.15 -0.2625 89 166 255
0.3375 -0.2 -0.2625 76 179 255
0.325 -0.1 -0.075 102 153 255
0.3375 0.0375 0.1 137 118 255
-0.25 0.05 -0.2625 140 114 255
-0.275 0.075 -0.15 147 108 255
-0.05 0.075 -0.15 147 108 255
0.3375 -0.275 0.0625 56 198 255
0.3375 -0.075 -0.2 108 147 255
-0.0125 -0.15 -0.2625 89 166 255
-0.3875 -0.1625 -0.2625 86 169 255
0.3375 -0.3 -0.1125 51 204 255
0.1 0.075 -0.2125 147 108 255
-0.25 -0.3875 -0.025 28 227 255
0.175 -0.3875 -0.1875 28 227 255
0.3 -0.05 -0.2625 115 140 255
-0.3375 0.075 -0.0625 147 108 255
-0.35 0.0375 -0.2625 137 118 255
0.3375 0.05 -0.1 140 114 255
0.2375 0.075 0.075 147 108 255
-0.5 -0.3625 -0.2625 35 220 255
0.0375 0 -0.2625 128 127 255
0.325 -0.4875 -0.025 3 252 255
-0.2875 -0.3875 -0.1625 28 227 255
0.175 0.075 -0.175 147 108 255
0.3375 -0.1125 -0.2375 99 156 255
0.325 -0.275 0.025 56 198 255
-0.4375 0.075 -0.15 147 108 255
0.1875 -0.4375 0.1375 16 239 255
0.15 -0.175 -0.2625 83 172 255
-0.1375 0.075 0.05 147 108 255
0.3375 0.0125 -0.25 131 124 255
0.2125 0.075 -0.175 147 108 255
0.2625 -0.2 -0.2625 76 179 255
0.275 0.075 -0.2375 147 108 255
-0.3875 0.075 -0.2125 147 108 255
-0.4 0.075 -0.225 147 108 255
0.3375 0.075 -0.2 147 108 255
-0.0375 -0.05 -0.2625 115 140 255
-0.425 -0.3875 -0.2625 28 227 255
0.175 -0.4 -0.1125 25 230 255
0.3375 -0.3375 -0.0625 40 214 255
-0.5 -0.2875 -0.2625 54 201 255
-0.2125 -0.1875 -0.2625 80 175 255
-0.4625 -0.4625 -0.2625 9 246 255
0.325 -0.2875 0.05 54 201 255
-0.05 0.075 -0.1875 147 108 255
0.325 -0.0875 -0.2125 105 150 255
0.3375 -0.175 -0.225 83 172 255
0.15 0.05 -0.2625 140 114 255
0.325 -0.3625 -0.025 35 220 255
0.175 -0.475 0.1375 6 249 255
0.3375 -0.05 0.0375 115 140 255
0.325 -0.45 -0.025 12 243 255
-0.3125 0.0375 -0.2625 137 118 255
0.25 0.0375 -0.2625 137 118 255
0.325 -0.45 0.025 12 243 255
0.325 -0.2125 -0.1125 73 182 255
0.325 -0.175 -0.1 83 172 255
0.325 -0.125 -0.0875 96 159 255
0.325 -0.475 0 6 249 255
0.3375 -0.0625 0.025 112 143 255
-0.3875 -0.125 -0.2625 96 159 255
-0.2875 0.075 -0.25 147 108 255
-0.4625 0.075 -0.2625 147 108 255
-0.025 -0.3875 0.425 28 227 255
0.3375 -0.125 -0.025 96 159 255
-0.275 0.075 -0.025 147 108 255
0.1625 -0.45 0.1625 12 243 255
0.2625 -0.125 -0.2625 96 159 255
-0.025 -0.35 0.45 38 217 255
0.0875 0.075 -0.15 147 108 255
0.325 -0.3375 -0.2 40 214 255
0.175 -0.4 -0.025 25 230 255
-0.175 0.075 -0.15 147 108 255
0.3375 -0.1875 -0.2 80 175 255
-0.3125 -0.375 -0.2625 32 223 255
0.325 -0.1875 -0.0625 80 175 255
0.325 0.0125 -0.0375 131 124 255
0.325 -0.4875 0.05 3 252 255
0.3375 -0.0375 -0.2125 118 137 255
-0.4125 -0.0375 -0.2625 118 137 255
0.275 -0.225 -0.2625 70 185 255
0.15 0.075 -0.2625 147 108 255
0.325 -0.2625 0.0375 60 195 255
0.15 -0.4 -0.0125 25 230 255
0.3375 -0.0625 -0.0875 112 143 255
0.2 -0.4875 0.1 3 252 255
-0.15 -0.2 -0.2625 76 179 255
-0.0625 -0.25 -0.2625 64 191 255
-0.15 0.025 -0.2625 134 121 255
0.3375 0.05 -0.05 140 114 255
-0.0125 0.05 -0.2625 140 114 255
-0.425 0.075 -0.225 147 108 255
0.3375 -0.3125 -0.2625 48 207 255
0.3375 -0.05 -0.225 115 140 255
0.1625 0.075 0 147 108 255
0.075 -0.0125 -0.2625 124 131 255
0.3375 0.0375 0 137 118 255
0.075 -0.225 -0.2625 70 185 255
-0.1375 0.075 -0.2625 147 108 255
0.05 -0.225 -0.2625 70 185 255
0.325 0.025 -0.0375 134 121 255
-0.25 0.075 -0.1125 147 108 255
0.1125 -0.3875 0.0625 28 227 255
0.1625 -0.4875 0.1375 3 252 255
0.3125 -0.225 -0.2625 70 185 255
0.1875 -0.2 -0.2625 76 179 255
-0.1625 -0.2625 -0.2625 60 195 255
0.3375 0.0125 -0.0125 131 124 255
0.325 0.0625 0.0125 144 111 255
-0.25 -0.3875 -0.05 28 227 255
0.175 0.075 0.1 147 108 255
-0.2375 -0.3875 -0.0375 28 227 255
0.3375 -0.0875 -0.1625 105 150 255
-0.175 -0.2625 -0.2625 60 195 255
-0.2375 -0.3875 0.125 28 227 255
-0.4 -0.025 -0.2625 121 134 255
0.3375 -0.225 -0.1125 70 185 255
0.1875 -0.0375 -0.2625 118 137 255
0.2875 -0.1 -0.2625 102 153 255
0.325 -0.125 -0.1375 96 159 255
0.2 -0.15 -0.2625 89 166 255
0.3375 -0.1125 -0.2 99 156 255
0.2625 -0.175 -0.2625 83 172 255
0.1625 0.075 -0.1625 147 108 255
0.025 -0.05 -0.2625 115 140 255
-0.1 -0.2 -0.2625 76 179 255
0.1125 0 -0.2625 128 127 255
0.325 -0.2125 -0.0875 73 182 255
0.0625 -0.1125 -0.2625 99 156 255
-0.2875 0.075 -0.1375 147 108 255
0.325 0.075 -0.1 147 108 255
-0.4125 0.05 -0.2625 140 114 255
0.3375 -0.05 0.1 115 140 255
0.3 0.075 0.1 147 108 255
0.1 -0.4625 0.15 9 246 255
0.3375 -0.075 -0.1125 108 147 255
0.1875 -0.3125 -0.2625 48 207 255
0.3375 -0.0625 -0.0125 112 143 255
0.3375 0.025 0.175 134 121 255
0.0125 -0.25 -0.2625 64 191 255
0.325 -0.0375 -0.0125 118 137 255
-0.075 -0.35 0.45 38 217 255
0.325 -0.0375 -0.025 118 137 255
-0.2375 -0.1 -0.2625 102 153 255
0.1875 -0.1125 -0.2625 99 156 255
0.275 -0.0375 -0.2625 118 137 255
0.0875 0.075 -0.2375 147 108 255
0.325 -0.3125 -0.25 48 207 255
0.025 -0.225 -0.2625 70 185 255
0.1 0.075 -0.025 147 108 255
-0.45 0.0125 -0.2625 131 124 255
-0.025 0.025 -0.2625 134 121 255
0.325 -0.0625 -0.1125 112 143 255
0.125 -0.4625 0.1 9 246 255
0.3375 -0.3 -0.1375 51 204 255
0.3375 -0.3625 0 35 220 255
-0.225 0.075 0.0375 147 108 255
0.325 -0.1125 0.025 99 156 255
0.125 -0.3875 0.05 28 227 255
0.325 -0.325 -0.125 44 211 255
-0.025 0.075 0.075 147 108 255
0.3375 -0.0625 0.0625 112 143 255
0.2625 0.075 -0.1 147 108 255
0.3375 -0.4125 -0.075 22 233 255
0.325 0.0125 0.1 131 124 255
-0.225 -0.1625 -0.2625 86 169 255
0.1 0.075 -0.2 147 108 255
0.325 -0.3125 -0.025 48 207 255
0.1125 0.075 -0.0375 147 108 255
-0.4625 -0.025 -0.2625 121 134 255
-0.5 0.025 -0.2625 134 121 255
0.1125 0.075 0.0375 147 108 255
-0.4625 -0.3 -0.2625 51 204 255
0.3375 -0.0375 -0.0625 118 137 255
-0.1875 -0.2 -0.2625 76 179 255
-0.325 -0.375 -0.2625 32 223 255
-0.3875 0.075 -0.175 147 108 255
-0.35 -0.35 -0.2625 38 217 255
0.125 0.0625 -0.2625 144 111 255
0.1 -0.3625 0.4625 35 220 255
0.325 -0.225 -0.025 70 185 255
-0.175 -0.4625 0.1 9 246 255
-0.25 -0.225 -0.2625 70 185 255
0.325 -0.45 -0.25 12 243 255
0.125 -0.4125 0.1625 22 233 255
0.325 0.0625 -0.2375 144 111 255
0.325 0.0375 0.025 137 118 255
-0.3 0.05 -0.2625 140 114 255
0.325 -0.225 -0.0875 70 185 255
0.3375 -0.15 0.0625 89 166 255
-0.3375 0.075 -0.15 147 108 255
-0.075 -0.125 -0.2625 96 159 255
-0.1125 0.05 -0.2625 140 114 255
0.25 0.075 0.075 147 108 255
0.325 0.0125 -0.175 131 124 255
-0.2625 -0.3875 0.0125 28 227 255
0.3375 -0.275 -0.1875 56 198 255
0.325 -0.35 -0.1375 38 217 255
-0.0875 0.075 -0.1125 147 108 255
-0.0125 0.075 0 147 108 255
0.3375 -0.4875 0.0625 3 252 255
0.3375 0.0625 -0.1 144 111 255
-0.2625 -0.4625 0.125 9 246 255
-0.275 -0.05 -0.2625 115 140 255
-0.15 -0.1125 -0.2625 99 156 255
-0.2625 -0.3875 -0.025 28 227 255
-0.3875 0.075 -0.075 147 108 255
0.325 -0.0625 0.025 112 143 255
0.3375 0.0125 0.0875 131 124 255
-0.45 -0.4875 -0.1125 3 252 255
-0.1375 0.075 -0.2125 147 108 255
0.225 -0.1125 -0.2625 99 156 255
0.175 -0.4 -0.0375 25 230 255
-0.25 0.025 -0.2625 134 121 255
0.3375 -0.1875 -0.2125 80 175 255
-0.45 -0.1 -0.2625 102 153 255
-0.4 -0.1625 -0.2625 86 169 255
0.3375 -0.1625 -0.1375 86 169 255
0.325 -0.3125 -0.0625 48 207 255
0.325 0 0.1875 128 127 255
-0.1875 -0.4625 0.125 9 246 255
-0.25 -0.3875 -0.0875 28 227 255
0.1125 0.075 -0.075 147 108 255
-0.4625 -0.45 -0.2625 12 243 255
0.2625 -0.4875 0.05 3 252 255
-0.125 0.075 -0.0125 147 108 255
-0.125 -0.1 -0.2625 102 153 255
0.325 -0.2875 -0.0375 54 201 255
0.3375 -0.1125 -0.05 99 156 255
-0.0875 -0.0875 -0.2625 105 150 255
0.175 0.075 -0.15 147 108 255
0.15 0.075 -0.2 147 108 255
-0.325 0.075 -0.125 147 108 255
0.1125 -0.2125 -0.2625 73 182 255
0.05 -0.2125 -0.2625 73 182 255
-0.3125 -0.4125 0.1125 22 233 255
-0.15 0.075 -0.15 147 108 255
0.325 -0.2875 0.0125 54 201 255
0.1 -0.4375 0.1625 16 239 255
0.3375 -0.175 0 83 172 255
-0.2875 0.025 -0.2625 134 121 255
0.1625 -0.2375 -0.2625 67 188 255
0.3375 -0.0375 0.1 118 137 255
0.025 0.0375 -0.2625 137 118 255
-0.2875 -0.4 0.15 25 230 255
-0.4375 -0.425 -0.2625 19 236 255
-0.225 0.075 -0.025 147 108 255
-0.3375 0.0625 -0.2625 144 111 255
0.3375 -0.15 -0.2375 89 166 255
0.325 -0.0375 -0.05 118 137 255
0.075 -0.1125 -0.2625 99 156 255
0.325 -0.325 -0.0625 44 211 255
0.3375 0.075 -0.1 147 108 255
0.325 -0.3125 0.025 48 207 255
-0.1 -0.1875 -0.2625 80 175 255
-0.0625 -0.15 -0.2625 89 166 255
0.3375 -0.2875 -0.25 54 201 255
0.3125 -0.4875 0 3 252 255
-0.4 -0.1 -0.2625 102 153 255
-0.025 -0.175 -0.2625 83 172 255
-0.4125 -0.0875 -0.2625 105 150 255
-0.3625 0.075 -0.175 147 108 255
-0.25 -0.2375 -0.2625 67 188 255
0.325 -0.0125 -0.2 124 131 255
0.325 0.0125 0.15 131 124 255
0.3375 -0.1625 -0.2 86 169 255
-0.2125 0.075 0.025 147 108 255
-0.0375 0.075 0.025 147 108 255
-0.4875 -0.4125 -0.2625 22 233 255
-0.4125 0.075 -0.125 147 108 255
-0.3 -0.4 0.05 25 230 255
0.3375 0.0625 0.0375 144 111 255
-0.3125 -0.4375 0.1625 16 239 255
0.225 0.075 -0.225 147 108 255
-0.3 -0.1875 -0.2625 80 175 255
0.25 -0.05 -0.2625 115 140 255
-0.2375 0.075 -0.1625 147 108 255
0.1125 -0.475 0.1625 6 249 255
0.0875 -0.1 -0.2625 102 153 255
-0.05 0.075 -0.1375 147 108 255
0.325 -0.2875 0.025 54 201 255
0.3375 -0.375 0.0125 32 223 255
-0.2625 0.075 -0.175 147 108 255
-0.425 0 -0.2625 128 127 255
0.0625 0.075 0.0125 147 108 255
-0.075 -0.1625 -0.2625 86 169 255
0.1 -0.375 0.45 32 223 255
0.3375 -0.3125 0 48 207 255
0.2875 -0.4875 0 3 252 255
0.075 -0.125 -0.2625 96 159 255
0.3375 -0.2125 0.0625 73 182 255
0.3375 -0.075 -0.15 108 147 255
-0.075 0.075 -0.2375 147 108 255
0.1 -0.3875 0.0875 28 227 255
0.225 -0.4 -0.2625 25 230 255
-0.2375 0.075 -0.225 147 108 255
-0.4 0.075 -0.2125 147 108 255
0.325 -0.0125 -0.2125 124 131 255
0.325 -0.125 -0.0125 96 159 255
0.325 -0.1375 -0.2 92 163 255
-0.1125 0.075 -0.225 147 108 255
-0.375 0.075 -0.1125 147 108 255
-0.4125 0.075 -0.2625 147 108 255
0.325 0.075 -0.05 147 108 255
0.325 0.0375 0.05 137 118 255
0.25 -0.3875 -0.2625 28 227 255
-0.3 0.0375 -0.2625 137 118 255
-0.5 -0.3375 -0.2625 40 214 255
0.1875 -0.15 -0.2625 89 166 255
0.1125 -0.425 0.1625 19 236 255
-0.225 -0.225 -0.2625 70 185 255
0.325 -0.35 0 38 217 255
0.2625 -0.4875 0.1 3 252 255
-0.2125 -0.3875 0.0375 28 227 255
-0.2 0.075 -0.25 147 108 255
-0.2 -0.4 0.1625 25 230 255
0.3375 0.0625 0.0625 144 111 255
0.25 -0.3625 -0.2625 35 220 255
0.3375 -0.0125 0.1125 124 131 255
0.2625 -0.075 -0.2625 108 147 255
-0.175 -0.4875 0.0875 3 252 255
-0.4 -0.4 -0.2625 25 230 255
0.275 0.075 0.0125 147 108 255
0.3375 -0.4375 -0.2625 16 239 255
-0.45 -0.2125 -0.2625 73 182 255
0.325 -0.425 0 19 236 255
-0.225 0.075 -0.0875 147 108 255
-0.275 0.075 -0.175 147 108 255
0.125 -0.3875 -0.025 28 227 255
0.325 -0.45 0.0125 12 243 255
0.3375 0 0 128 127 255
-0.3125 0.075 0.0125 147 108 255
0.325 -0.3625 -0.1 35 220 255
0.0125 -0.1125 -0.2625 99 156 255
0.3 -0.3375 -0.2625 40 214 255
-0.1125 0.075 -0.125 147 108 255
0.2625 -0.4875 0.1625 3 252 255
0.3375 -0.0625 -0.2125 112 143 255
-0.2875 -0.0375 -0.2625 118 137 255
0.325 -0.0875 -0.1 105 150 255
0.0375 0.075 -0.1375 147 108 255
0.3375 -0.3 0.05 51 204 255
0.325 0 -0.1 128 127 255
0.3375 -0.4375 -0.125 16 239 255
0.325 -0.4125 -0.1875 22 233 255
0.3375 -0.3375 -0.25 40 214 255
-0.225 -0.05 -0.2625 115 140 255
0.3375 0.025 -0.0625 134 121 255
0.3375 0.0625 0.0125 144 111 255
0.3375 0.05 -0.0875 140 114 255
0.3375 -0.35 -0.0375 38 217 255
0.3375 -0.05 0.0125 115 140 255
0.3375 -0.275 -0.1625 56 198 255
0.0875 -0.35 0.475 38 217 255
-0.2875 0.075 -0.05 147 108 255
0.3375 -0.3 -0.175 51 204 255
0.125 -0.4 0.0875 25 230 255
-0.4625 0.0625 -0.2625 144 111 255
-0.05 -0.3375 0.45 40 214 255
-0.375 -0.425 -0.2625 19 236 255
0.1375 -0.2625 -0.2625 60 195 255
0.325 -0.325 -0.2 44 211 255
0.325 0 0.0625 128 127 255
-0.475 -0.2625 -0.2625 60 195 255
0.1625 -0.1375 -0.2625 92 163 255
0.325 -0.125 -0.125 96 159 255
-0.3 -0.3125 -0.2625 48 207 255
-0.475 -0.0125 -0.2625 124 131 255
0.2625 0.075 -0.2125 147 108 255
0.1375 -0.1875 -0.2625 80 175 255
0.175 0.075 -0.1 147 108 255
0.275 0.075 -0.1875 147 108 255
0.325 -0.2 -0.2125 76 179 255
-0.0875 0.075 0.075 147 108 255
0.3375 -0.375 -0.0875 32 223 255
0.325 -0.05 0.1375 115 140 255
0.3 0.075 0.025 147 108 255
0.325 0.025 -0.125 134 121 255
0.3375 -0.05 -0.1625 115 140 255
-0.2625 -0.3875 -0.15 28 227 255
-0.3 -0.4 0 25 230 255
-0.0125 0 -0.2625 128 127 255
0.325 -0.275 0.05 56 198 255
0.325 -0.275 -0.2 56 198 255
0.325 -0.15 -0.1 89 166 255
-0.475 -0.0625 -0.2625 112 143 255
0.325 -0.25 0.025 64 191 255
0.3375 0 0.075 128 127 255
0.15 -0.0375 -0.2625 118 137 255
0.325 -0.2 -0.0625 76 179 255
-0.225 -0.125 -0.2625 96 159 255
0.0875 -0.0375 -0.2625 118 137 255
0.1875 -0.4375 0.15 16 239 255
0.3 -0.4875 -0.05 3 252 255
-0.2375 0.075 -0.2 147 108 255
0.3375 -0.175 -0.1125 83 172 255
-0.2875 0.075 -0.1 147 108 255
-0.2375 -0.3875 0.1125 28 227 255
0.0375 -0.2625 -0.2625 60 195 255
0.3375 -0.4375 -0.0125 16 239 255
0.325 -0.0875 -0.1875 105 150 255
0.3375 -0.3625 0.0625 35 220 255
0.3375 -0.275 -0.1125 56 198 255
0.025 -0.1375 -0.2625 92 163 255
0.325 -0.275 0.0375 56 198 255
0.3375 -0.0125 0.1875 124 131 255
0.325 -0.1375 -0.125 92 163 255
-0.25 0.075 -0.2125 147 108 255
0.3375 -0.2875 -0.0375 54 201 255
0.3 -0.4 -0.2625 25 230 255
-0.1 0.075 -0.2375 147 108 255
-0.425 0.075 -0.2375 147 108 255
-0.2375 0.075 -0.0875 147 108 255
0.325 -0.1875 -0.1625 80 175 255
0.1 -0.4125 0.1625 22 233 255
0.0125 0.075 -0.05 147 108 255
-0.3875 0.075 -0.125 147 108 255
0.3375 -0.3125 -0.175 48 207 255
-0.2125 -0.15 -0.2625 89 166 255
-0.4 -0.375 -0.2625 32 223 255
0.25 -0.4875 0.075 3 252 255
0.2125 -0.0875 -0.2625 105 150 255
0.1375 0.025 -0.2625 134 121 255
0.2625 -0.0125 -0.2625 124 131 255
0.3375 -0.2625 -0.175 60 195 255
0.225 0.0375 -0.2625 137 118 255
0.1625 0.0625 -0.2625 144 111 255
0.3375 -0.075 -0.2625 108 147 255
0.2125 0.075 -0.2125 147 108 255
-0.1125 0.075 -0.0375 147 108 255
0.325 -0.1125 -0.1875 99 156 255
0.325 -0.05 0.1125 115 140 255
0.1125 0.075 0.0125 147 108 255
-0.3375 0.075 0 147 108 255
0.0625 0.0625 -0.2625 144 111 255
0.3375 -0.4 0.025 25 230 255
-0.375 -0.4 -0.2625 25 230 255
-0.45 -0.2625 -0.2625 60 195 255
-0.375 0.0625 -0.2625 144 111 255
0.3375 -0.35 0.0375 38 217 255
-0.1375 0.075 0.0625 147 108 255
-0.275 -0.0125 -0.2625 124 131 255
-0.2125 -0.3875 0.1 28 227 255
0.3375 -0.2375 -0.1625 67 188 255
0.2 -0.05 -0.2625 115 140 255
-0.05 0.075 -0.225 147 108 255
-0.05 -0.35 0.45 38 217 255
0.0125 0.025 -0.2625 134 121 255
-0.3375 0.075 -0.1 147 108 255
-0.35 0.075 -0.2 147 108 255
0.2125 -0.15 -0.2625 89 166 255
0.1125 -0.4 0.1125 25 230 255
0.25 -0.2375 -0.2625 67 188 255
-0.4625 -0.3125 -0.2625 48 207 255
-0.3125 0.075 -0.1 147 108 255
0.3375 -0.1875 -0.05 80 175 255
0.325 -0.175 -0.025 83 172 255
0.125 -0.4875 0.125 3 252 255
0.3375 -0.125 -0.2375 96 159 255
-0.0375 0.075 -0.1875 147 108 255
0.3375 -0.2625 0 60 195 255
0.325 -0.2 0.05 76 179 255
-0.0375 0.075 -0.2 147 108 255
-0.3 0.0625 -0.2625 144 111 255
-0.2375 -0.35 -0.2625 38 217 255
0.325 -0.0125 0.15 124 131 255
0.325 0.05 0.0875 140 114 255
-0.3625 0.075 0.0125 147 108 255
0.225 -0.075 -0.2625 108 147 255
-0.4 0.075 -0.0875 147 108 255
0.3 0.025 -0.2625 134 121 255
0.3375 -0.0875 0.025 105 150 255
0.225 -0.3125 -0.2625 48 207 255
-0.1 0.075 0.0375 147 108 255
0.1375 -0.3875 -0.0375 28 227 255
0.2 0.075 -0.0375 147 108 255
0.325 -0.1625 -0.125 86 169 255
-0.3 -0.4875 0.0875 3 252 255
0.3 0.075 -0.225 147 108 255
-0.375 0.075 -0.075 147 108 255
0.3375 -0.4125 -0.125 22 233 255
0.0125 0.075 -0.1 147 108 255
-0.1375 0.075 -0.1125 147 108 255
-0.0875 0.075 -0.1375 147 108 255
-0.25 -0.3625 -0.2125 35 220 255
0.325 -0.35 -0.1 38 217 255
0.3375 0.05 0.1 140 114 255
0.1625 -0.1 -0.2625 102 153 255
0.3 0.075 -0.2625 147 108 255
-0.1125 0.075 0.0375 147 108 255
0.1125 0.075 0.0875 147 108 255
-0.475 -0.2 -0.2625 76 179 255
0.3125 -0.2625 -0.2625 60 195 255
0.325 -0.475 -0.05 6 249 255
-0.3375 -0.1875 -0.2625 80 175 255
-0.4375 0.075 -0.05 147 108 255
-0.225 -0.4625 0.15 9 246 255
-0.3 0.075 -0.225 147 108 255
0.325 -0.425 -0.1875 19 236 255
-0.2625 -0.4125 0.175 22 233 255
0.3375 -0.175 -0.1625 83 172 255
-0.0375 0.075 -0.075 147 108 255
-0.3875 -0.3875 -0.2625 28 227 255
-0.2125 -0.0375 -0.2625 118 137 255
0.3375 -0.0125 -0.025 124 131 255
-0.5 -0.2125 -0.2625 73 182 255
0.15 -0.2625 -0.2625 60 195 255
0.125 -0.225 -0.2625 70 185 255
-0.0125 0.025 -0.2625 134 121 255
-0.4375 -0.175 -0.2625 83 172 255
0.2125 -0.2125 -0.2625 73 182 255
0.025 -0.175 -0.2625 83 172 255
0.15 -0.1125 -0.2625 99 156 255
-0.475 -0.25 -0.2625 64 191 255
0.1375 -0.1375 -0.2625 92 163 255
0.3375 -0.425 0.0625 19 236 255
0.325 -0.0875 -0.2 105 150 255
0.3375 -0.2375 -0.1375 67 188 255
0.3375 -0.2875 -0.125 54 201 255
0.325 -0.2375 -0.05 67 188 255
-0.25 -0.1125 -0.2625 99 156 255
0.3375 -0.15 -0.025 89 166 255
0.0875 0.075 -0.0125 147 108 255
0.3375 0.0625 -0.1875 144 111 255
0.1375 0.075 -0.1625 147 108 255
-0.3375 -0.0375 -0.2625 118 137 255
0.325 0 -0.0125 128 127 255
0.3375 0 -0.2625 128 127 255
0.225 -0.15 -0.2625 89 166 255
0.25 -0.4125 -0.2625 22 233 255
-0.275 0.075 0.0125 147 108 255
-0.25 -0.45 0.175 12 243 255
-0.2875 -0.025 -0.2625 121 134 255
0.3375 -0.3125 -0.15 48 207 255
-0.1875 -0.4625 0.175 9 246 255
-0.25 0.075 -0.1625 147 108 255
0.125 -0.4875 0.15 3 252 255
0.3375 -0.3 -0.075 51 204 255
0.2625 -0.15 -0.2625 89 166 255
0.3 -0.4875 0.1 3 252 255
0.1125 -0.2 -0.2625 76 179 255
-0.025 -0.3125 0.45 48 207 255
0.3375 -0.45 -0.1875 12 243 255
-0.4875 -0.225 -0.2625 70 185 255
0.3375 -0.45 -0.0375 12 243 255
0.3375 0.0125 -0.1625 131 124 255
0.3375 0.05 0.15 140 114 255
-0.175 0.075 0 147 108 255
-0.4375 -0.4125 -0.2625 22 233 255
-0.0625 0.075 0.025 147 108 255
0.3375 -0.4625 -0.0875 9 246 255
-0.3875 -0.3125 -0.2625 48 207 255
0.3375 -0.025 0.05 121 134 255
0.3375 -0.0125 -0.075 124 131 255
-0.2125 -0.3875 -0.05 28 227 255
0.1 0.075 -0.15 147 108 255
-0.05 0.075 0.0625 147 108 255
-0.0875 0.075 -0.0875 147 108 255
0.025 -0.0875 -0.2625 105 150 255
-0.1375 -0.1875 -0.2625 80 175 255
0.3375 -0.025 -0.2375 121 134 255
0.3375 -0.4375 0.05 16 239 255
0.3375 0.075 -0.05 147 108 255
0.325 -0.45 -0.1375 12 243 255
0.3375 -0.325 -0.2125 44 211 255
0.325 0.0125 -0.125 131 124 255
-0.4 0.075 -0.2625 147 108 255
0.1375 -0.225 -0.2625 70 185 255
-0.425 -0.1875 -0.2625 80 175 255
-0.1375 -0.275 -0.2625 56 198 255
0.325 -0.3 -0.075 51 204 255
-0.3625 -0.175 -0.2625 83 172 255
0.325 -0.2 -0.025 76 179 255
-0.1875 -0.1875 -0.2625 80 175 255
-0.225 -0.4625 0.0875 9 246 255
-0.4875 0.075 -0.225 147 108 255
0.15 -0.4 0.0125 25 230 255
-0.2 -0.3875 0.025 28 227 255
0.325 -0.0375 0.175 118 137 255
-0.1875 -0.4375 0.175 16 239 255
0.1375 -0.275 -0.2625 56 198 255
0.1625 0.075 -0.225 147 108 255
0.3375 -0.2375 0.05 67 188 255
0.325 -0.3 0.0375 51 204 255
0.325 -0.1625 0.025 86 169 255
0.15 -0.4875 0.1375 3 252 255
0.3375 -0.375 -0.25 32 223 255
0.2875 -0.0875 -0.2625 105 150 255
0.0625 0.075 -0.2 147 108 255
-0.35 -0.3625 -0.2625 35 220 255
-0.2375 -0.15 -0.2625 89 166 255
-0.0875 -0.375 0.45 32 223 255
0.2 -0.4875 0.15 3 252 255
0.325 -0.2625 -0.075 60 195 255
0.325 -0.2375 -0.075 67 188 255
-0.3625 0 -0.2625 128 127 255
0.3375 0.0125 0.1125 131 124 255
0.0375 0.075 -0.125 147 108 255
0.325 -0.3625 -0.15 35 220 255
-0.075 0.075 -0.1625 147 108 255
-0.325 -0.2125 -0.2625 73 182 255
0.3375 -0.075 0.0625 108 147 255
-0.4 0.0125 -0.2625 131 124 255
-0.5 -0.1125 -0.2625 99 156 255
0.2875 0.075 -0.0375 147 108 255
0.225 0.075 -0.1125 147 108 255
-0.4 0.075 -0.125 147 108 255
-0.375 -0.3 -0.2625 51 204 255
-0.35 0.0625 -0.2625 144 111 255
0.3375 -0.175 -0.025 83 172 255
-0.25 -0.1 -0.2625 102 153 255
0.1 -0.35 0.45 38 217 255
0.325 0.025 -0.0125 134 121 255
0.2375 -0.05 -0.2625 115 140 255
0.3375 0.025 -0.1625 134 121 255
-0.3 0.075 -0.025 147 108 255
0.2375 -0.3875 -0.2625 28 227 255
-0.4375 -0.3875 -0.2625 28 227 255
-0.0375 -0.3875 0.425 28 227 255
0.0375 0.075 -0.1 147 108 255
-0.275 0.075 -0.1 147 108 255
0.0375 0.075 0 147 108 255
-0.1 -0.175 -0.2625 83 172 255
0.3375 -0.35 -0.0125 38 217 255
0.325 -0.125 -0.1875 96 159 255
0.3375 -0.125 -0.1375 96 159 255
0.3375 -0.025 -0.1375 121 134 255
0.3375 -0.2125 -0.2375 73 182 255
0.1875 -0.4875 0.1125 3 252 255
0.325 0.025 0.0625 134 121 255
-0.075 -0.25 -0.2625 64 191 255
0.3375 -0.0625 -0.125 112 143 255
0.2125 0.075 -0.125 147 108 255
0.325 0 -0.1125 128 127 255
-0.225 -0.3875 0.0625 28 227 255
0.325 -0.175 -0.0625 83 172 255
-0.325 0.075 -0.0625 147 108 255
0.3375 -0.125 -0.1875 96 159 255
-0.15 -0.05 -0.2625 115 140 255
0.275 -0.4875 0.15 3 252 255
-0.45 -0.3125 -0.2625 48 207 255
-0.2125 -0.4 0.1625 25 230 255
0.3375 0.0125 0 131 124 255
0.15 -0.125 -0.2625 96 159 255
0.3375 0.0375 -0.25 137 118 255
0.325 0.075 0.025 147 108 255
0.3375 -0.25 -0.2 64 191 255
-0.4625 -0.1125 -0.2625 99 156 255
0.0875 0.075 0.025 147 108 255
-0.2125 -0.3875 0.025 28 227 255
0.25 0.075 -0.2125 147 108 255
0.0125 0.075 -0.125 147 108 255
0.025 -0.075 -0.2625 108 147 255
-0.3625 -0.3625 -0.2625 35 220 255
0.3375 -0.2125 -0.0125 73 182 255
0.1125 -0.4 0.15 25 230 255
0 0.075 -0.1375 147 108 255
-0.125 0.075 -0.175 147 108 255
0.3375 -0.1625 -0.0625 86 169 255
-0.3375 0.075 -0.025 147 108 255
-0.275 -0.3375 -0.2625 40 214 255
-0.0875 -0.2125 -0.2625 73 182 255
-0.1375 -0.0875 -0.2625 105 150 255
0.325 -0.4 -0.0625 25 230 255
0.125 -0.45 0.1625 12 243 255
0.125 -0.275 -0.2625 56 198 255
0.2375 -0.4875 0.1625 3 252 255
-0.1375 -0.1125 -0.2625 99 156 255
-0.3875 -0.25 -0.2625 64 191 255
0.3375 -0.3625 -0.225 35 220 255
0.325 -0.4625 -0.05 9 246 255
-0.3125 -0.45 0.1125 12 243 255
0.325 -0.2 -0.075 76 179 255
-0.0125 -0.375 0.45 32 223 255
-0.425 -0.2625 -0.2625 60 195 255
0.3 0.075 -0.2125 147 108 255
-0.4375 0.075 -0.025 147 108 255
0.325 -0.3875 0 28 227 255
-0.425 0.075 -0.0625 147 108 255
-0.3125 -0.45 0.15 12 243 255
0.325 -0.2375 -0.25 67 188 255
-0.3 -0.4 -0.0375 25 230 255
-0.1875 -0.1 -0.2625 102 153 255
0.175 -0.375 -0.2125 32 223 255
0.325 -0.1375 -0.15 92 163 255
-0.3 0.075 -0.15 147 108 255
0.325 -0.0375 -0.1875 118 137 255
-0.2125 0.075 -0.15 147 108 255
-0.1125 -0.0125 -0.2625 124 131 255
0.25 -0.3375 -0.2625 40 214 255
