ply
format ascii 1.0
comment Created by Open3D
element vertex 1180
property double x
property double y
property double z
property uchar red
property uchar green
property uchar blue
end_header
0.0903121 -0.369152 -0.0530274 30 225 255
-0.325803 -0.392557 0.0910037 24 231 255
-0.0583619 -0.416017 0.311958 18 237 255
-0.305136 -0.115183 -0.295722 95 160 255
-0.181342 -0.178351 0.291509 79 176 255
-0.312311 -0.0466614 -0.00541902 112 143 255
-0.331172 -0.313295 0.294501 44 211 255
-0.30314 -0.241614 -0.294289 63 192 255
0.00271982 -0.4827 0.147228 1 254 255
0.190895 -0.484138 -0.257502 0 255 255
-0.137931 0.045095 0.29289 136 119 255
-0.124685 0.0745767 0.162177 144 111 255
-0.326244 -0.142667 0.0141803 88 167 255
0.156023 -0.342286 0.305409 36 218 255
0.231004 -0.483817 -0.151157 1 254 255
-0.285042 -0.162698 0.281485 83 172 255
-0.180753 -0.477926 0.132681 2 253 255
0.375315 -0.337923 0.299677 38 217 255
-0.24496 -0.4837 0.0314048 1 254 255
-0.305413 -0.484716 -0.113606 0 255 255
-0.200151 -0.380507 0.293847 27 228 255
-0.317165 0.012515 -0.18935 128 127 255
-0.228219 0.0708998 0.233269 143 112 255
-0.0154419 -0.484152 -0.140181 0 255 255
0.214912 -0.399287 -0.29208 22 233 255
-0.274934 0.0726552 -0.148088 143 112 255
-0.0428229 0.0648575 -0.162261 141 113 255
-0.270383 -0.300385 -0.248165 48 207 255
0.100066 -0.482555 0.100981 1 254 255
-0.111368 -0.438481 0.284583 12 243 255
-0.251909 -0.189762 -0.29071 76 179 255
0.0947533 -0.44936 -0.23814 9 246 255
-0.334983 -0.110453 0.19932 96 159 255
-0.290764 -0.446292 -0.294435 10 245 255
0.0286867 0.00926488 -0.292186 127 128 255
0.206138 -0.480294 0.0530369 1 254 255
-0.190627 -0.377976 -0.262851 28 227 255
0.193872 -0.379 -0.00131208 27 228 255
-0.0568955 -0.0501198 0.313482 112 143 255
-0.325441 -0.285201 0.185798 51 204 255
-0.310178 -0.118421 -0.214127 94 161 255
-0.241993 -0.231247 0.305948 65 190 255
0.127359 -0.407901 0.0814549 20 235 255
-0.306642 -0.483901 0.297161 1 254 255
-0.027463 -0.337537 -0.294106 38 217 255
-0.234007 -0.476494 0.178638 2 253 255
-0.326345 -0.46694 -0.189393 5 250 255
-0.318583 -0.314099 -0.278255 44 211 255
0.0200827 -0.255168 -0.294382 59 195 255
0.085635 -0.453672 -0.0316285 8 247 255
-0.0870194 -0.107682 -0.294046 97 158 255
-0.224085 0.0738975 0.0213815 143 112 255
-0.305414 -0.484763 0.0419772 0 255 255
-0.214924 -0.0332342 0.310685 116 139 255
0.0544639 -0.482364 0.288066 1 254 255
-0.0754082 -0.409246 0.212229 20 235 255
-0.266915 0.0732653 0.178335 143 112 255
-0.264178 -0.484741 0.250865 0 255 255
0.165537 0.0143656 -0.292019 128 127 255
-0.0332793 -0.422403 0.0242377 16 239 255
-0.183013 -0.483806 -0.00686845 1 254 255
-0.3291 -0.0521271 -0.170519 111 144 255
0.252479 -0.475822 -0.0596368 3 252 255
-0.141346 0.0741614 -0.0997759 143 112 255
-0.26948 -0.35883 0.212611 32 222 255
0.0309338 -0.483294 -0.0495882 1 254 255
0.0309329 -0.467897 0.237424 5 250 255
-0.315622 0.0667398 0.26685 141 113 255
-0.0841995 -0.438627 0.114698 12 243 255
-0.323401 0.0603522 0.0479659 140 114 255
-0.0591609 -0.217749 0.288425 69 186 255
-0.332126 -0.354695 0.263318 34 221 255
0.0549804 -0.192557 -0.287711 75 179 255
-0.323034 -0.204632 -0.0284454 72 183 255
-0.327572 -0.0846337 0.0565879 103 152 255
-0.304678 -0.0277812 0.273132 117 138 255
-0.112714 -0.121498 0.314641 93 162 255
-0.0292431 0.0658359 -0.280975 141 113 255
0.10682 -0.408394 -0.133125 20 235 255
-0.333815 -0.18037 0.232197 78 177 255
0.100001 -0.0890581 0.294576 102 153 255
-0.137795 -0.484768 -0.16584 0 255 255
-0.285402 0.0727785 -0.0291633 143 112 255
-0.327964 -0.433089 0.00573366 14 241 255
0.132041 -0.137993 -0.294838 89 166 255
-0.29912 0.0714165 -0.22177 143 112 255
-0.119853 -0.304516 0.288357 46 209 255
-0.325558 -0.360362 -0.0592018 32 223 255
0.2996 -0.396407 -0.031457 23 232 255
-0.329467 -0.187191 -0.230982 76 179 255
-0.164633 0.0136907 0.193835 128 127 255
0.111699 -0.351213 -0.2693 34 221 255
0.0638748 -0.0282275 0.294609 117 138 255
0.350315 -0.437923 -0.150323 12 243 255
0.0178707 -0.166345 0.295638 81 173 255
-0.327859 -0.0905096 -0.0803384 101 154 255
-0.323422 -0.05923 0.152555 109 146 255
-0.108125 -0.483552 0.0451105 1 254 255
-0.0533065 -0.483019 0.311159 1 254 255
0.0992711 -0.483949 -0.282216 1 254 255
0.132428 -0.483318 0.00468763 1 254 255
-0.239794 -0.48103 -0.197013 1 254 255
0.306542 -0.371908 -0.243984 29 226 255
-0.328418 -0.36143 -0.228418 32 223 255
0.125053 -0.398348 0.307284 22 233 255
-0.198471 -0.439349 -0.30073 12 243 255
-0.32537 -0.168613 0.150329 81 174 255
-0.0996846 0.0745767 0.0871772 144 111 255
-0.236226 -0.0974984 -0.292948 99 156 255
-0.0646411 -0.289958 -0.29512 50 205 255
-0.0900924 0.000166201 0.312063 124 131 255
0.21215 -0.227913 -0.292737 65 189 255
-0.291143 -0.387272 -0.201713 25 230 255
0.125315 -0.225423 0.0496772 67 188 255
-0.0117999 -0.374582 0.30105 29 226 255
0.241313 -0.375749 -0.110845 28 227 255
-0.0224376 -0.470186 -0.0410781 4 251 255
-0.3276 0.0189815 0.195631 129 126 255
-0.273062 -0.458004 0.14404 7 248 255
0.246059 -0.0799933 -0.289688 104 151 255
-0.313984 -0.412621 0.262062 19 236 255
-0.211736 0.0207907 -0.289654 130 125 255
-0.00526953 -0.0729429 0.295652 105 149 255
-0.23352 -0.321853 0.283167 42 213 255
-0.26547 -0.429158 0.0266087 15 240 255
-0.114941 -0.48314 -0.0736773 1 254 255
-0.0108047 -0.142153 -0.292858 88 167 255
0.130912 -0.178049 0.300415 79 176 255
-0.0808685 -0.484602 -0.20902 0 255 255
-0.334922 -0.208592 0.292819 71 184 255
-0.177194 -0.473252 0.316793 3 252 255
-0.217809 -0.483144 -0.0950412 1 254 255
-0.301696 -0.189571 -0.199684 76 179 255
0.172684 -0.371165 -0.233397 29 226 255
-0.321089 0.0208137 -0.0174143 130 125 255
-0.326991 -0.367283 -0.14339 30 225 255
-0.327819 -0.0290776 -0.252901 117 138 255
0.261322 -0.483984 -0.199114 1 254 255
-0.248205 0.0386346 0.295666 134 121 255
-0.14552 -0.323375 -0.296187 42 213 255
0.00838874 -0.305451 0.288924 46 209 255
-0.0927799 -0.483141 0.222237 1 254 255
0.0985421 -0.0628816 -0.28831 108 147 255
-0.138877 -0.379616 0.323308 27 228 255
-0.29619 -0.363654 -0.0383367 31 224 255
-0.335457 -0.0604362 0.302085 109 146 255
0.272902 -0.261808 -0.287581 56 198 255
0.251058 -0.424604 0.0305641 16 239 255
-0.227328 0.0712989 0.108141 143 112 255
0.0685082 -0.3857 -0.185166 26 229 255
-0.244655 -0.14345 0.303161 88 167 255
0.106177 -0.321772 0.302436 42 213 255
0.175315 -0.0754233 0.287177 105 150 255
0.18989 -0.483357 -0.0151581 1 254 255
-0.314345 -0.0855105 0.21781 103 152 255
-0.132354 0.0739463 -0.189469 143 112 255
-0.244741 -0.428847 0.317294 15 240 255
-0.281606 0.0109103 -0.28014 127 128 255
-0.337928 -0.463527 0.125396 6 249 255
-0.291432 -0.484576 -0.268314 0 255 255
-0.32863 -0.27781 0.257161 52 202 255
-0.307179 -0.169427 -0.295568 81 174 255
-0.325066 -0.361791 0.0309142 32 223 255
-0.0564648 -0.197089 -0.293476 73 181 255
0.194904 -0.376541 0.303352 28 227 255
-0.182593 -0.439131 0.275695 12 243 255
0.133718 -0.475972 -0.112531 3 252 255
-0.301995 -0.393168 0.169628 24 231 255
-0.0928146 0.0616074 -0.288554 140 114 255
0.0287337 0.0667557 -0.257504 141 113 255
0.129052 -0.483234 0.17073 1 254 255
-0.134864 -0.252587 -0.293293 60 195 255
-0.322331 -0.232621 0.075262 65 190 255
-0.0234089 -0.42057 -0.297383 17 238 255
0.0161659 -0.482791 0.0203918 1 254 255
-0.285871 -0.484769 0.179752 0 255 255
0.242379 -0.451564 -0.124253 9 246 255
-0.30946 -0.264871 -0.205056 56 198 255
-0.294152 -0.343177 0.0824135 36 218 255
0.165884 -0.300395 -0.296893 48 207 255
-0.331048 0.052876 -0.264303 138 117 255
-0.3315 -0.0114702 0.0766051 121 134 255
-0.328667 -0.439351 -0.0687999 12 243 255
0.0953272 -0.482571 0.263801 1 254 255
0.207764 -0.161681 -0.285993 83 172 255
-0.120147 -0.390031 -0.287799 25 230 255
-0.0856805 -0.0351554 -0.286576 115 140 255
-0.335427 -0.121207 0.286921 93 162 255
-0.0955553 -0.442383 0.0203872 11 244 255
0.0462397 -0.373776 -0.295368 29 226 255
-0.0679069 -0.426635 0.278953 15 240 255
0.246413 -0.337136 -0.291541 38 217 255
0.112815 -0.0379233 0.0121772 115 140 255
-0.325879 -0.237855 -0.084786 64 191 255
0.1102 -0.34825 -3.61018e-05 35 220 255
-0.300979 -0.349057 -0.117865 35 220 255
-0.175578 -0.474092 -0.242871 3 252 255
0.0258248 -0.400811 -0.0144051 22 233 255
0.244779 -0.460471 -0.293322 7 248 255
-0.165445 -0.0447792 0.296226 113 142 255
0.1823 -0.375718 -0.08296 28 227 255
-0.211616 0.0736351 -0.161517 143 112 255
0.155912 -0.483207 0.073349 1 254 255
0.100081 0.0270065 -0.288338 131 124 255
0.197535 -0.483897 -0.158863 1 254 255
-0.338096 -0.00172533 0.147461 124 131 255
0.24791 -0.368229 -0.193212 30 225 255
-0.187262 0.0742658 0.17102 143 112 255
-0.169656 -0.169035 -0.292778 81 174 255
0.0557447 -0.480135 0.15837 1 254 255
-0.168011 0.0699068 -0.27468 142 113 255
0.0345298 -0.429814 0.277398 14 241 255
-0.278105 -0.36663 -0.293291 31 224 255
-0.304365 -0.436731 0.0752407 13 242 255
-0.0797808 -0.213853 0.313405 70 185 255
-0.0968281 -0.482967 0.129362 1 254 255
0.0738989 -0.249524 -0.295811 60 194 255
0.0553177 -0.483905 -0.183292 1 254 255
0.0813039 -0.48346 -0.074462 1 254 255
-0.300728 -0.329659 0.232747 40 215 255
-0.0201543 0.00400271 0.298287 125 130 255
-0.290896 -0.0602178 -0.297327 109 146 255
0.103942 -0.367726 -0.0961122 30 225 255
-0.114368 -0.480593 0.31419 1 254 255
-0.233484 -0.484313 -0.249134 0 255 255
0.16868 -0.279941 0.304748 52 202 255
0.0631118 -0.432709 -0.262358 14 241 255
-0.178834 -0.0545154 -0.295973 110 145 255
-0.244759 -0.294026 -0.295897 48 206 255
-0.313998 -0.066488 -0.119407 107 147 255
0.023767 -0.38309 0.068205 26 229 255
-0.229288 -0.46997 0.0762298 4 251 255
-0.328761 -0.281823 -0.142536 52 203 255
-0.324285 -0.359119 0.121352 32 223 255
-0.327087 0.0515391 0.104052 138 117 255
0.000409707 -0.476167 0.317387 3 252 255
-0.277637 -0.0120579 0.307124 121 134 255
-0.0211593 -0.367533 0.273343 30 225 255
-0.153011 -0.484495 -0.281885 0 255 255
0.18661 -0.401192 0.0878649 22 233 255
0.212815 -0.0254233 -0.000322794 118 137 255
0.114673 -0.458409 0.314673 7 248 255
-0.10567 0.0750318 -0.0748411 144 111 255
0.13506 -0.366223 -0.196124 31 224 255
-0.179219 -0.24283 0.290387 62 193 255
-0.30977 -0.0140719 0.194318 121 134 255
-0.190765 -0.38032 0.196825 27 228 255
-0.325879 -0.428956 0.283007 15 240 255
0.0729929 -0.131395 -0.286241 91 163 255
0.0242823 -0.482845 -0.289169 1 254 255
-0.260235 -0.362865 0.310329 32 223 255
0.317624 -0.41477 -0.224815 18 237 255
-0.278352 -0.484522 -0.134899 0 255 255
0.152094 -0.185149 -0.281375 77 178 255
-0.175165 -0.484037 0.216156 0 255 255
-0.167199 0.056428 0.0531232 139 116 255
-0.176334 0.00582281 0.313493 126 129 255
-0.292911 -0.284914 0.301339 51 204 255
0.0733571 -0.482937 0.0540265 1 254 255
-0.325831 -0.403776 -0.272057 21 234 255
-0.316603 -0.102061 0.00338521 97 157 255
0.0878819 -0.145492 0.294311 87 168 255
-0.318861 -0.15656 -0.100258 84 171 255
-0.0566234 -0.451054 0.173289 9 246 255
-0.232327 0.0736636 -0.0701569 143 112 255
-0.328483 -0.126145 -0.205334 92 163 255
-0.334356 -0.473156 0.223818 3 252 255
-0.316447 -0.187428 0.0507949 76 179 255
-0.330849 0.021072 -0.0680235 130 125 255
-0.29188 -0.434613 -0.0419195 13 242 255
0.258355 -0.129848 -0.285843 91 163 255
-0.027557 -0.088561 -0.289125 102 153 255
0.206497 -0.459613 -0.243563 7 248 255
-0.290487 0.0724221 0.0516018 143 112 255
-0.329665 -0.482333 -0.142604 1 254 255
-0.288722 -0.354243 -0.24052 34 221 255
-0.328917 -0.479212 0.0695888 2 253 255
-0.325925 0.0196683 0.288956 129 126 255
-0.317611 -0.239403 0.203931 63 192 255
0.123024 -0.355483 0.0681931 32 222 255
-0.236351 -0.228363 -0.291889 65 189 255
0.060713 -0.343781 0.30163 36 219 255
0.143334 -0.484228 -0.279967 0 255 255
0.387815 -0.412923 -0.125323 19 236 255
-0.259923 -0.443893 0.226629 11 244 255
0.246443 -0.376394 -0.0341187 28 227 255
-0.325219 -0.254783 -0.274348 59 195 255
-0.0178815 0.0645863 -0.223221 141 113 255
0.0294636 -0.448123 -0.102134 10 245 255
-0.123703 -0.0808204 0.293153 104 151 255
-0.329309 0.0639451 -0.1759 141 113 255
0.206657 0.0136758 -0.290811 128 127 255
-0.177946 -0.470488 0.00142024 4 251 255
-0.167859 -0.340769 0.290014 36 218 255
-0.277219 -0.0740437 0.283806 105 150 255
0.177589 -0.0797186 -0.292964 104 151 255
-0.0396769 -0.483058 0.0432478 1 254 255
-0.325467 -0.303991 -0.0489953 47 208 255
-0.0570507 -0.48237 -0.185016 1 254 255
0.294846 -0.458959 -0.129518 7 248 255
0.0597034 -0.237392 0.298234 64 191 255
-0.219804 0.0685211 0.269003 142 113 255
-0.320143 -0.283578 0.10227 52 203 255
-0.0122919 -0.483134 0.213825 1 254 255
0.124372 -0.483872 -0.180369 1 254 255
-0.295898 0.0721304 -0.108769 143 112 255
-0.0776497 -0.314787 0.302593 44 211 255
-0.298567 0.0717535 0.214861 143 112 255
0.124491 -0.411716 -0.277318 19 236 255
-0.242166 -0.420853 -0.295723 17 238 255
-0.328026 -0.310097 -0.209644 44 210 255
-0.323669 -0.257867 0.0188382 58 197 255
-0.322377 -0.152605 0.257295 85 170 255
0.282152 -0.313164 -0.266082 44 211 255
-0.330011 -0.146742 -0.25987 87 168 255
-0.263657 -0.474292 0.31514 3 252 255
-0.248225 -0.483433 -0.0194588 1 254 255
-0.285876 -0.334177 0.165186 39 216 255
0.262558 -0.470566 -0.0157306 4 251 255
-0.285055 -0.367695 0.0235478 30 225 255
-0.123482 -0.0998058 -0.289187 99 156 255
0.237815 -0.437923 0.112177 12 243 255
-0.112489 -0.386494 0.265192 25 230 255
-0.327269 -0.48422 -0.0482949 0 255 255
-0.088674 -0.437722 -0.299741 12 243 255
-0.187185 -0.425423 -0.0878228 16 239 255
-0.232683 0.0719914 -0.233547 143 112 255
-0.00431436 -0.12353 0.304732 93 162 255
-0.181163 -0.1509 0.291996 86 169 255
-0.172977 0.0389628 0.138252 134 121 255
0.161431 -0.482534 0.142662 1 254 255
-0.340893 -0.08065 0.230927 104 151 255
0.157731 -0.351476 -0.0442752 34 221 255
-0.328548 -0.210165 -0.162674 71 184 255
0.0359759 -0.0372024 -0.284177 115 140 255
-0.0835605 0.0703921 -0.153007 142 113 255
-0.000872527 -0.477959 0.0941146 2 253 255
-0.253831 -0.191404 0.304654 75 179 255
0.231562 -0.385473 -0.247116 26 229 255
-0.32903 -0.00846265 -0.15056 121 133 255
0.145296 -0.475324 -0.0479161 3 252 255
-0.269715 -0.484089 0.125253 0 255 255
-0.0671754 -0.348715 -0.284475 35 220 255
-0.329215 -0.353897 0.213323 34 221 255
-0.170077 -0.483841 0.101001 1 254 255
-0.0820206 -0.481905 -0.0828892 1 254 255
0.0278643 -0.327736 -0.294713 40 214 255
0.191892 -0.328818 0.305992 40 215 255
-0.0983232 0.0361017 0.294045 134 121 255
0.161888 -0.421852 0.307225 16 239 255
-0.0669067 -0.252404 0.285763 60 195 255
-0.32725 -0.434853 -0.185792 13 242 255
-0.0368804 -0.261723 -0.292581 56 198 255
0.167345 -0.450766 -0.154969 9 246 255
-0.012382 -0.422829 0.313293 16 239 255
0.142491 -0.252673 -0.296751 60 195 255
-0.313982 -0.0479883 -0.0681728 112 143 255
-0.324721 -0.124789 0.108975 92 163 255
0.0586614 -0.377733 -0.11949 28 227 255
-0.243131 -0.135632 -0.298137 89 165 255
-0.0141501 -0.471562 -0.260406 4 251 255
0.302703 -0.371961 -0.148572 29 226 255
-0.331271 0.0150749 0.0121847 128 127 255
0.100476 -0.436064 0.0721926 13 242 255
-0.314843 -0.0302258 -0.224356 117 138 255
0.00782252 -0.483724 0.260034 1 254 255
-0.124015 0.0762993 0.000101398 144 111 255
0.203239 -0.469124 -0.299061 4 251 255
-0.208184 -0.353131 -0.295794 34 221 255
-0.150916 -0.484478 -0.122011 0 255 255
-0.326348 -0.15753 -0.0198509 84 171 255
-0.0830299 -0.161795 -0.290544 83 172 255
-0.221825 -0.0747557 0.299309 105 150 255
-0.078621 -0.14845 0.292043 86 169 255
-0.286967 -0.386243 0.286653 26 229 255
0.187424 -0.373082 -0.156561 29 226 255
-0.325267 -0.470961 -0.280986 4 251 255
-0.328448 -0.1209 -0.127607 93 162 255
-0.14211 -0.213742 0.312127 70 185 255
-0.132435 -0.466278 0.226246 5 250 255
0.0224186 -0.483882 -0.140924 1 254 255
0.0134729 -0.203846 -0.28853 72 183 255
-0.274204 -0.446996 -0.22921 10 245 255
-0.29041 0.034965 0.320992 133 121 255
-0.0230343 0.0188528 -0.29288 129 126 255
0.285729 -0.432453 -0.270089 14 241 255
-0.326861 -0.42999 0.189931 14 241 255
-0.170211 0.0533259 0.291066 138 117 255
0.108626 -0.314765 -0.295933 44 211 255
-0.323696 -0.197334 0.133162 73 181 255
-0.313926 -0.0619691 0.0320501 109 146 255
0.0200946 -0.0132236 0.294322 121 134 255
-0.259666 -0.424239 0.154813 16 239 255
-0.040372 -0.482451 0.155029 1 254 255
0.108531 -0.24178 0.300229 63 192 255
-0.00550257 -0.193956 0.296943 75 179 255
0.248752 -0.480664 -0.0890774 1 254 255
-0.291002 -0.222743 -0.227002 67 188 255
-0.326552 0.0579825 -0.0259626 139 116 255
0.173019 -0.462882 0.0515636 6 249 255
0.0570989 -0.466471 0.318569 5 250 255
-0.12424 0.0146107 -0.293712 128 127 255
-0.287656 0.0720379 0.132043 143 112 255
-0.309285 -0.484785 0.229466 0 255 255
0.182789 -0.392177 -0.293324 24 231 255
-0.189955 -0.264776 -0.295308 56 198 255
-0.103033 -0.472608 -0.0274998 3 252 255
0.0927447 -0.483421 -0.0197241 1 254 255
-0.291093 0.069396 0.279491 142 113 255
-0.220662 -0.431684 0.278817 14 241 255
-0.323765 -0.308475 0.155342 44 210 255
0.199801 -0.254364 -0.284359 59 195 255
-0.150507 -0.275799 0.306667 54 201 255
-0.0483618 -0.359006 0.307641 32 222 255
-0.266828 -0.020366 -0.299718 119 136 255
0.162815 -0.0379233 0.299677 115 140 255
0.0587723 -0.342336 0.0386806 36 218 255
0.252249 -0.177357 -0.286646 79 176 255
-0.325494 -0.384931 -0.100431 26 229 255
-0.315679 -0.417954 0.0252238 17 238 255
-0.320526 -0.173853 0.204489 80 175 255
-0.214895 -0.483797 0.1551 1 254 255
0.0959993 -0.401655 -0.296165 22 233 255
-0.339704 -0.0337434 0.188492 116 139 255
-0.244196 -0.277405 0.307338 52 202 255
-0.174696 0.0741426 -0.0695723 143 112 255
0.127971 -0.0381695 -0.292347 115 140 255
-0.257878 -0.483949 0.0641344 1 254 255
0.0700875 -0.482276 0.210611 1 254 255
-0.326982 0.0500751 0.222059 137 118 255
-0.26557 -0.409537 0.0714787 20 235 255
-0.324064 -0.0748268 -0.276941 105 150 255
-0.0779571 -0.484474 0.270502 0 255 255
0.0619152 -0.483936 -0.236416 1 254 255
-0.303891 -0.294485 -0.2919 48 206 255
0.104877 -0.412342 0.128162 19 236 255
0.246065 -0.389051 0.0501392 25 230 255
-0.26891 0.0616773 -0.287357 140 114 255
-0.309015 -0.189107 0.290079 76 179 255
-0.0936047 0.0728158 -0.235559 143 112 255
-0.0593542 -0.458352 0.0670301 7 248 255
-0.121571 -0.300986 -0.29292 47 208 255
-0.329401 0.0557648 -0.0940444 139 116 255
-0.325371 -0.319673 0.0376201 43 211 255
0.0734655 -0.387468 -0.228177 25 230 255
-0.303066 -0.332267 -0.168106 39 216 255
0.0738719 -0.203379 -0.294805 72 183 255
-0.281731 0.0723606 -0.181123 143 112 255
-0.286969 -0.484589 -0.210053 0 255 255
0.102359 -0.48378 -0.135658 1 254 255
0.104621 -0.371928 0.295134 29 226 255
-0.314184 -0.00298077 0.112446 124 131 255
-0.141102 -0.408525 0.293466 20 235 255
-0.22782 -0.484305 -0.123104 0 255 255
-0.237225 0.0738488 0.0432467 143 112 255
0.0646847 -0.00543623 -0.294704 123 131 255
-0.326927 -0.0133838 0.252487 121 134 255
-0.322652 -0.484112 0.161493 0 255 255
0.0917543 -0.444924 -0.0712915 11 244 255
0.196522 -0.483705 -0.0687152 1 254 255
0.0353369 -0.297351 0.29934 48 207 255
0.0510939 -0.0859296 0.297043 102 153 255
-0.0406911 -0.482617 -0.118518 1 254 255
0.0571717 -0.462246 0.0379611 6 249 255
-0.329549 0.0167286 -0.209762 129 126 255
0.292499 -0.428726 -0.0654874 15 240 255
-0.30384 -0.211164 -0.295256 70 185 255
-0.195554 -0.33296 0.309538 39 216 255
0.173423 -0.38096 0.0152809 27 228 255
0.239575 -0.0617729 -0.286719 109 146 255
-0.0668371 -0.0820096 0.291646 103 152 255
-0.139318 -0.412361 -0.298041 19 236 255
-0.311686 -0.0954157 -0.157019 100 155 255
0.117047 -0.108525 -0.28794 97 158 255
0.301411 -0.456641 -0.174946 8 247 255
-0.17589 0.0743997 -0.137347 143 112 255
-0.325557 -0.395258 0.130678 23 232 255
-0.150502 -0.483563 0.169805 1 254 255
-0.326836 -0.320808 0.272135 42 213 255
0.0160463 -0.102948 -0.286723 97 157 255
-0.135481 -0.484026 -0.0174484 0 255 255
-0.288537 -0.384491 0.24161 26 229 255
0.250315 -0.0629233 0.287177 108 147 255
-0.151159 0.0787803 0.106294 145 110 255
-0.324343 0.0580822 0.155407 139 116 255
-0.32888 -0.080404 0.116244 104 151 255
-0.0501989 -0.47284 -0.294522 3 252 255
-0.321242 -0.223101 -0.0578135 67 188 255
-0.13666 -0.023617 0.291424 118 137 255
-0.146572 -0.177209 -0.290884 79 176 255
-0.212185 -0.387923 -0.112823 25 230 255
-0.241559 -0.484494 0.251221 0 255 255
-0.295219 0.0722827 -0.0656465 143 112 255
-0.309163 -0.355821 -0.287226 32 222 255
0.0708044 -0.367052 -0.0231146 30 225 255
0.0561205 -0.177656 0.299786 79 176 255
0.150315 -0.000423317 0.0121772 124 131 255
-0.174687 -0.0962067 0.292999 100 155 255
0.0671822 0.0606835 -0.272741 140 114 255
-0.020473 -0.273338 0.29885 54 201 255
0.189828 -0.420555 0.288811 17 238 255
-0.231482 -0.473281 0.0058888 3 252 255
0.0328493 -0.283268 -0.295204 52 203 255
-0.269729 -0.0949626 -0.286366 100 155 255
-0.153648 -0.484092 0.285214 0 255 255
-0.196987 -0.391009 -0.2614 24 231 255
0.150315 -0.275423 0.0371772 54 201 255
0.275278 -0.361885 -0.282478 32 223 255
0.249283 -0.484142 -0.236882 0 255 255
-0.020328 -0.483436 -0.0356441 1 254 255
-0.200933 -0.446519 0.23269 10 245 255
-0.328993 -0.240317 -0.214835 63 192 255
0.0833093 -0.0427336 0.295639 113 142 255
-0.29447 -0.101842 0.30067 97 157 255
-0.327613 -0.425275 -0.226024 16 239 255
-0.0590656 -0.0191288 0.313083 120 135 255
-0.25336 -0.483732 -0.280098 1 254 255
0.0408968 -0.482785 0.140177 1 254 255
-0.204992 -0.418822 0.317743 17 238 255
-0.221011 -0.234059 0.289168 64 191 255
-0.0321107 -0.390233 -0.293498 25 230 255
-0.326454 -0.314468 -0.0850663 44 211 255
-0.225025 0.0744957 0.179296 143 112 255
-0.29435 -0.413186 -0.162341 19 236 255
-0.13484 -0.482684 -0.222004 1 254 255
-0.16435 -0.0597903 -0.287352 109 146 255
-0.321702 0.00284465 -0.277125 125 130 255
-0.0586155 -0.0623864 -0.293757 108 147 255
0.10787 -0.430548 0.292264 14 241 255
-0.276573 -0.484181 -0.0510922 0 255 255
-0.182332 0.0727197 -0.237518 143 112 255
-0.30411 -0.483935 0.296549 1 254 255
-0.0148499 -0.40927 0.266953 20 235 255
0.125562 0.0204263 -0.290631 130 125 255
0.185164 -0.121937 -0.294617 93 162 255
0.129006 -0.370915 -0.135252 29 226 255
-0.135277 -0.170953 0.314607 81 174 255
-0.075363 0.0728187 -0.114736 143 112 255
-0.308175 0.0711429 0.0227247 143 112 255
-0.314167 -0.274454 0.222857 54 201 255
-0.326983 -0.401228 -0.0507363 22 233 255
-0.0788156 -0.240488 -0.291563 63 192 255
0.165424 -0.483969 -0.21683 1 254 255
-0.0918941 -0.439303 0.313191 12 243 255
-0.329533 -0.151991 -0.178645 85 170 255
-0.153644 -0.483592 0.0554759 1 254 255
-0.327206 -0.0801122 -0.0500743 104 151 255
0.290515 -0.39271 -0.0092474 24 231 255
0.17515 -0.328813 -0.284869 40 215 255
-0.183436 0.058379 0.25215 139 116 255
0.141387 -0.202905 -0.2967 72 183 255
0.0943995 -0.450251 -0.166694 9 246 255
-0.314624 -0.388868 0.298667 25 230 255
-0.184123 -0.484155 -0.256797 0 255 255
0.0611871 -0.455532 -0.30018 8 247 255
-0.322913 -0.124557 0.176772 93 162 255
-0.299109 -0.358702 -0.0664639 32 222 255
-0.326595 -0.156693 0.0600511 84 171 255
-0.00782672 -0.48417 -0.210567 0 255 255
-0.18756 -0.484095 -0.0652926 0 255 255
-0.335275 -0.217847 0.279862 69 186 255
0.269592 -0.375374 -0.108988 28 227 255
-0.329174 -0.0542579 -0.203686 111 144 255
-0.21835 -0.170076 -0.296549 81 174 255
0.400315 -0.362923 -0.100323 32 223 255
0.209157 -0.480341 0.0484353 1 254 255
-0.178232 0.0739096 -0.00752121 143 112 255
-0.318487 -0.484349 0.00449768 0 255 255
-0.226428 -0.00237437 0.311269 124 131 255
-0.312792 -0.0292707 0.0027779 117 138 255
0.154508 -0.231043 0.302899 65 190 255
-0.31985 -0.206934 -0.12245 71 184 255
-0.278685 -0.35698 0.110459 32 222 255
-0.320912 -0.256148 0.136465 59 195 255
-0.0900266 -0.32029 -0.296052 42 213 255
-0.0821568 -0.445465 0.232291 10 245 255
-0.322171 -0.218313 0.0167245 69 186 255
-0.329221 -0.204737 -0.269014 72 183 255
0.199685 -0.484044 -0.134669 0 255 255
0.0321981 -0.459145 -0.057652 7 248 255
-0.329012 -0.482809 -0.113319 1 254 255
0.099254 -0.297034 0.301151 48 207 255
0.0387802 -0.387827 0.287149 25 230 255
0.214137 -0.455545 -0.0296066 8 247 255
0.26414 -0.233951 -0.289042 65 190 255
-0.317701 0.027577 -0.13745 131 124 255
-0.0971691 -0.25647 0.312225 59 195 255
0.12932 -0.477621 0.13921 2 253 255
-0.253595 0.0730285 -0.125588 143 112 255
-0.0777431 -0.483279 0.0606788 1 254 255
-0.201468 0.0160497 -0.292709 129 126 255
-0.322105 -0.485355 -0.196214 0 255 255
-0.0958447 -0.484571 -0.138151 0 255 255
0.169344 -0.368624 0.0664915 30 225 255
0.0460298 -0.142377 -0.292556 88 167 255
-0.307238 -0.149613 -0.234963 86 169 255
0.0923841 -0.477863 0.262083 2 253 255
0.00920743 0.046366 -0.291109 136 119 255
-0.26138 0.0733609 -0.0292069 143 112 255
-0.322634 -0.104762 0.257145 97 157 255
0.168761 -0.440858 -0.273035 12 243 255
-0.249516 0.0727892 0.0963807 143 112 255
-0.307775 0.0705874 -0.237425 142 113 255
-0.010754 -0.0635097 0.29578 108 147 255
-0.195252 -0.381875 0.279775 27 228 255
-0.247851 -0.484175 -0.1783 0 255 255
0.0384462 -0.483116 -0.00434815 1 254 255
-0.101902 -0.177805 0.289832 79 176 255
-0.040744 -0.141068 -0.289586 88 167 255
-0.0168695 -0.484126 0.270655 0 255 255
-0.20037 -0.307571 -0.293894 46 209 255
-0.281793 -0.251154 0.289628 60 195 255
-0.324442 -0.350548 -0.180644 35 220 255
0.0632743 -0.390024 0.0641567 25 230 255
-0.297754 -0.352684 0.00739756 34 221 255
0.226137 -0.291397 -0.281061 50 205 255
-0.281825 -0.43199 -0.295132 14 241 255
-0.236072 -0.0478937 -0.286363 112 143 255
0.203684 -0.367232 -0.208215 30 225 255
0.177178 -0.033902 -0.289964 116 139 255
0.0286249 -0.442721 -0.129616 11 244 255
-0.241743 -0.164213 0.29232 81 173 255
-0.23437 0.0680043 0.288303 142 113 255
-0.0733367 -0.380512 0.287131 27 228 255
-0.0566489 0.0709996 -0.236262 143 112 255
-0.321994 -0.140081 -0.0590711 89 166 255
-0.183665 -0.116718 -0.293247 95 160 255
0.0924554 -0.132168 0.294768 91 163 255
-0.328135 -0.0210725 -0.081159 119 136 255
-0.325445 -0.382086 0.0538134 27 228 255
-0.243639 -0.484087 0.205521 0 255 255
-0.247602 -0.325295 0.280395 40 214 255
-0.327422 0.0480683 0.0672926 137 118 255
-0.127528 -0.480249 0.134953 1 254 255
0.0763501 -0.300796 -0.289811 47 208 255
-0.296994 -0.415937 -0.0831223 18 237 255
-0.171768 0.031708 0.160425 133 121 255
-0.00920226 -0.473613 0.191876 3 252 255
0.195908 -0.375952 -0.11494 28 227 255
0.0878154 0.0120767 0.0121772 128 127 255
-0.076375 0.0268364 0.294685 131 124 255
0.0112618 -0.23122 0.296115 65 190 255
0.0184974 -0.394515 -0.288392 23 232 255
-0.318358 -0.270738 -0.132783 55 200 255
-0.325001 -0.29591 0.0777349 48 206 255
-0.326946 -0.452582 0.267501 9 246 255
0.242419 -0.406564 -0.289645 20 235 255
0.120351 -0.483236 0.0389966 1 254 255
-0.310693 -0.0104159 0.179169 121 133 255
-0.330722 -0.203272 0.208771 72 183 255
-0.00971051 -0.0263479 -0.285907 118 137 255
-0.309738 -0.0412305 0.290904 113 141 255
-0.33118 -0.463074 0.0727877 6 249 255
0.113034 -0.48378 -0.222062 1 254 255
-0.198988 -0.481113 0.312021 1 254 255
-0.328496 -0.0614669 0.0731233 109 146 255
0.322716 -0.381717 -0.128023 27 228 255
-0.239739 -0.356831 -0.265558 32 222 255
-0.323763 -0.348166 0.171988 35 220 255
-0.266271 0.0727712 0.215395 143 112 255
-0.000516385 -0.40419 0.0563226 21 234 255
-0.307516 -0.120366 -0.294499 94 161 255
-0.324383 0.0541891 0.267827 138 117 255
-0.114801 0.0758979 -0.0317651 144 111 255
-0.121439 0.0741246 -0.176199 143 112 255
-0.193513 -0.464625 -0.304283 5 250 255
-0.166161 -0.48345 -0.157689 1 254 255
0.137843 -0.349343 -0.269579 35 220 255
-0.301658 -0.268272 -0.217483 56 199 255
-0.327503 -0.407377 -0.16241 20 235 255
-0.0178012 -0.293644 -0.292289 48 206 255
-0.0692325 0.0232615 -0.293353 130 125 255
-0.117107 -0.467516 0.0464459 5 250 255
0.151748 -0.483686 -0.0806004 1 254 255
-0.324648 -0.283463 -0.018613 52 203 255
-0.14877 -0.232426 -0.294854 65 190 255
-0.137258 -0.281212 0.288387 52 203 255
-0.27233 -0.223695 -0.296874 67 188 255
-0.0699319 -0.484547 -0.238156 0 255 255
-0.270775 -0.484142 -0.101396 0 255 255
0.14951 -0.328612 0.0398342 40 215 255
-0.260677 -0.400453 0.311869 22 233 255
-0.318778 -0.140432 0.289838 88 167 255
0.0585725 -0.483512 -0.0741173 1 254 255
-0.316236 -0.315431 0.295932 44 211 255
0.0783763 -0.482781 0.10961 1 254 255
-0.324868 -0.309333 -0.2669 44 210 255
-0.136559 -0.484368 0.258369 0 255 255
-0.334092 -0.0789095 0.170064 104 151 255
-0.0208097 -0.214036 -0.292724 70 185 255
-0.174685 -0.400423 0.124677 22 233 255
-0.306356 -0.385801 -0.244274 26 229 255
-0.143009 0.0739432 0.057645 143 112 255
-0.0300139 -0.483221 0.31158 1 254 255
0.27718 -0.369931 -0.228852 30 225 255
0.200369 -0.183364 -0.29239 77 178 255
-0.0263649 -0.154029 0.294618 85 170 255
-0.301675 0.0421455 -0.287563 135 120 255
-0.289863 -0.484662 0.128376 0 255 255
0.0200898 -0.414303 -0.0209641 18 237 255
0.111054 -0.165967 -0.293516 81 173 255
-0.149685 -0.400423 -0.162823 22 233 255
0.231572 -0.376769 -0.0254995 28 227 255
-0.326992 -0.186045 0.0987212 77 178 255
-0.295003 -0.428251 0.201306 15 240 255
-0.326241 -0.118521 0.0236989 94 161 255
-0.145762 0.0604866 -0.289012 140 114 255
0.0832143 -0.0747728 -0.29216 105 150 255
-0.223701 -0.0529647 0.293842 111 144 255
0.245267 -0.474158 -0.164092 3 252 255
0.362815 -0.325423 0.299677 40 214 255
-0.133134 -0.341611 0.305191 36 218 255
0.133022 -0.458926 0.304276 7 248 255
0.194307 -0.379952 0.302893 27 228 255
-0.0586925 -0.482996 0.197966 1 254 255
-0.107022 -0.047637 -0.28828 112 143 255
-0.0140675 -0.482783 0.0749506 1 254 255
-0.0264215 -0.327378 0.30131 40 214 255
0.142228 -0.470027 -0.300743 4 251 255
-0.305503 0.0358335 0.317388 134 121 255
0.120736 -0.483153 0.182414 1 254 255
0.095148 -0.208658 0.299307 71 184 255
0.169278 -0.299274 0.30524 48 207 255
-0.330965 -0.00699609 0.0552219 123 131 255
-0.291926 -0.330352 0.187377 40 215 255
-0.15047 -0.21576 0.29037 69 186 255
-0.309415 -0.041687 0.239392 113 141 255
0.0509273 -0.467231 0.318639 5 250 255
-0.0521024 0.0664183 -0.154935 141 113 255
-0.285003 -0.455115 -0.00629795 8 247 255
-0.0891038 -0.48401 -0.0493322 1 254 255
0.115914 -0.376468 -0.295133 28 227 255
-0.231105 0.072664 -0.186663 143 112 255
-0.119785 -0.383808 -0.28689 26 229 255
-0.0919418 -0.0474445 0.300632 112 143 255
-0.143818 -0.437499 0.317023 12 243 255
-0.157665 0.0388737 0.27949 134 121 255
-0.314001 -0.485183 -0.24006 0 255 255
0.0781995 -0.355196 0.287758 32 222 255
0.255765 -0.132192 -0.285612 91 163 255
-0.235975 0.0628336 -0.289467 140 114 255
0.0109627 -0.00654396 0.295846 123 131 255
0.17075 0.0147978 -0.29089 128 127 255
-0.307965 0.0736237 -0.182929 143 112 255
-0.0617953 -0.205917 0.31241 72 183 255
-0.31185 -0.14965 -0.166784 86 169 255
0.137406 -0.435585 0.0765925 13 242 255
-0.117527 -0.470443 -0.299442 4 251 255
0.00411304 -0.481609 -0.291404 1 254 255
-0.124685 -0.362923 0.212177 32 223 255
-0.115547 -0.133033 -0.294646 89 165 255
0.152391 -0.353296 -0.0415045 34 221 255
-0.331243 -0.349474 0.262062 35 220 255
-0.22539 -0.483689 0.10931 1 254 255
-0.325605 -0.38859 0.00280303 25 230 255
0.315636 -0.442774 -0.193075 11 244 255
0.0705234 -0.384314 -0.176933 26 229 255
-0.119413 -0.483839 0.192992 1 254 255
0.0397373 -0.482368 0.266948 1 254 255
0.000604695 -0.484161 -0.173887 0 255 255
0.125852 -0.276835 -0.288878 54 201 255
-0.0579421 -0.393314 0.245357 24 231 255
-0.337116 -0.157416 0.245448 84 171 255
-0.29627 0.0716866 0.106306 143 112 255
-0.317547 -0.0457872 -0.15032 113 142 255
0.0623528 -0.363499 -0.279817 31 224 255
-0.331322 -0.460515 -0.0469558 7 248 255
0.281077 -0.310016 -0.27228 44 210 255
-0.201573 -0.11763 0.30214 94 161 255
-0.279815 -0.483996 0.303734 1 254 255
-0.228238 -0.407618 0.193385 20 235 255
-0.180965 -0.483751 0.00501409 1 254 255
-0.259941 -0.332325 0.307547 39 216 255
-0.311857 -0.093453 -0.235806 100 155 255
-0.304099 -0.227579 0.272815 65 189 255
-0.0150964 -0.426328 0.291812 15 240 255
0.312233 -0.395607 -0.0781803 23 232 255
0.169359 -0.48334 -0.00799406 1 254 255
-0.027923 -0.360202 -0.282702 32 223 255
-0.32667 -0.41487 0.202018 18 237 255
-0.201628 0.0728011 -0.109695 143 112 255
-0.317135 0.0677877 0.197216 142 113 255
-0.272989 -0.328054 -0.294543 40 215 255
0.19622 -0.462378 -0.12468 6 249 255
-0.299106 -0.331907 0.131673 39 216 255
0.23659 -0.474915 0.00674363 3 252 255
-0.196955 -0.389044 -0.295174 25 230 255
0.103225 -0.365802 0.00473761 31 224 255
-0.326281 -0.39838 -0.271155 22 233 255
-0.0121308 -0.483862 -0.0867864 1 254 255
0.150042 -0.483261 0.102005 1 254 255
0.036212 -0.254328 -0.289375 59 195 255
0.220578 -0.484141 -0.22377 0 255 255
0.225315 -0.0254233 0.0121772 118 137 255
-0.322585 -0.18703 -0.0175971 77 178 255
0.219627 -0.0378025 -0.289255 115 140 255
-0.037755 -0.438388 0.0104698 12 243 255
-0.296656 -0.484556 0.0531996 0 255 255
-0.326984 -0.0427716 -0.015193 113 142 255
-0.200306 -0.216014 -0.295963 69 186 255
-0.295856 -0.205655 -0.213766 72 183 255
0.111212 -0.367019 -0.0982223 30 225 255
0.202797 -0.347717 -0.292958 35 220 255
-0.032716 -0.470657 0.103743 4 251 255
0.143866 -0.376144 -0.190818 28 227 255
-0.315926 -0.42565 -0.116868 15 240 255
-0.104095 -0.1955 -0.294905 73 181 255
-0.330518 0.0556182 -0.151844 139 116 255
-0.327457 -0.247818 0.17459 60 194 255
-0.225155 0.0739293 -0.014943 143 112 255
0.0907091 -0.0917782 0.294643 101 154 255
0.0782302 -0.4832 -0.288016 1 254 255
-0.337962 -0.0112447 0.160771 121 133 255
-0.186071 0.0740105 0.18492 143 112 255
-0.328828 0.0486151 -0.0216363 137 118 255
0.0482474 -0.482806 0.0644072 1 254 255
-0.0263611 0.0652291 -0.214201 141 113 255
0.0249014 -0.355748 0.300522 32 222 255
-0.0970673 -0.110933 0.291578 96 159 255
-0.311262 -0.427996 0.115287 15 240 255
-0.214491 -0.208767 0.304811 71 184 255
-0.316674 -0.119725 -0.0920654 94 161 255
0.203755 -0.465168 -0.301608 5 250 255
-0.327048 -0.155699 -0.274442 85 170 255
-0.168478 -0.444913 0.242467 11 244 255
-0.322482 -0.0238683 -0.279067 118 137 255
0.159214 -0.0942719 -0.289128 100 155 255
0.0791513 -0.483773 -0.147818 1 254 255
-0.222274 0.0106888 0.294225 127 128 255
-0.328263 -0.314638 -0.214297 44 211 255
-0.0822356 -0.483759 0.00258523 1 254 255
-0.325445 -0.341379 -0.026997 36 218 255
0.362815 -0.362923 -0.150323 32 223 255
-0.268025 -0.462639 -0.258799 6 249 255
0.0272472 -0.258756 0.288563 58 197 255
-0.265328 -0.358553 0.248417 32 222 255
0.0212627 -0.0656728 -0.292342 108 147 255
0.270053 -0.382472 0.00985556 26 229 255
-0.144462 -0.0301294 -0.295485 117 138 255
-0.267529 -0.378348 0.0838664 28 227 255
-0.324657 -0.339232 -0.129089 38 217 255
0.0671246 -0.45579 -0.0236826 8 247 255
-0.201578 0.0738437 0.0619621 143 112 255
-0.323885 -0.254441 0.0680798 59 195 255
-0.179448 -0.283676 0.305575 52 203 255
-0.0918699 -0.321521 0.303453 42 213 255
-0.270626 -0.0251732 -0.282177 118 137 255
-0.16662 0.0738277 -0.198122 143 112 255
0.25136 -0.368489 -0.190433 30 225 255
-0.327688 -0.187824 -0.109662 76 179 255
0.0536628 -0.0222045 0.294421 119 136 255
0.0320571 -0.131193 0.294684 91 163 255
-0.207376 -0.105001 -0.296475 97 157 255
0.0449914 -0.482878 0.205021 1 254 255
0.101802 -0.22218 -0.288818 68 187 255
0.0207729 -0.159063 -0.287574 84 171 255
-0.0644063 -0.396586 -0.295125 23 232 255
0.218475 -0.397928 0.067415 23 232 255
-0.127418 -0.484463 -0.0941883 0 255 255
-0.327382 -0.290022 0.246173 50 205 255
-0.303064 -0.48488 -0.178553 0 255 255
-0.310752 -0.484636 0.218395 0 255 255
0.112815 -0.262923 0.0371772 56 198 255
-0.0440661 -0.24444 0.287712 62 193 255
-0.324775 -0.369388 0.0973355 30 225 255
0.0350032 0.06557 -0.260312 141 113 255
-0.249261 -0.272932 -0.295871 55 200 255
-0.275013 -0.108561 0.285487 97 158 255
-0.19253 -0.388998 0.310851 25 230 255
-0.323194 -0.259668 -0.0666321 58 197 255
-0.331999 -0.141332 0.176236 88 167 255
-0.0689022 -0.48407 0.253082 0 255 255
-0.335037 -0.179157 0.288631 79 176 255
-0.077379 -0.484622 -0.178494 0 255 255
-0.133638 0.074189 -0.104483 143 112 255
-0.196815 -0.48396 -0.170384 1 254 255
-0.328361 -0.215435 -0.181687 69 186 255
-0.28742 -0.378557 -0.0215583 27 228 255
-0.205497 -0.484504 0.255895 0 255 255
-0.312595 0.00423077 0.252112 125 130 255
-0.325298 -0.421359 0.286495 17 238 255
-0.121987 -0.483645 0.109097 1 254 255
-0.252935 0.0739235 0.148927 143 112 255
-0.287762 -0.400685 -0.213282 22 233 255
0.106108 -0.482177 0.281686 1 254 255
-0.107596 -0.2864 -0.295896 51 204 255
-0.109328 -0.394228 0.305705 23 232 255
0.0301635 -0.367832 0.00942885 30 225 255
0.198734 -0.23908 -0.284405 63 192 255
-0.318877 0.00794956 -0.0639041 126 129 255
0.0414155 -0.413721 -0.297353 18 237 255
-0.256349 -0.161767 -0.29807 83 172 255
-0.319348 0.0690485 -0.252221 142 113 255
-0.227064 -0.484416 -0.289742 0 255 255
-0.252683 -0.0395422 0.307396 113 141 255
-0.326133 0.0543225 0.109421 138 117 255
-0.0586133 -0.101714 -0.293508 97 157 255
0.282553 -0.440068 -0.265079 12 243 255
0.103848 -0.366074 0.0684569 31 224 255
-0.142794 0.00258855 0.301206 125 130 255
-0.0975106 -0.47978 0.315668 2 253 255
0.139702 -0.322295 0.304107 42 213 255
-0.223965 -0.483722 -0.0253683 1 254 255
-0.16313 -0.336722 -0.294025 38 217 255
-0.0406514 -0.38194 0.312732 27 228 255
-0.31177 -0.484686 -0.0637347 0 255 255
-0.193198 -0.483874 0.180737 1 254 255
0.123713 -0.483537 -0.0404091 1 254 255
0.14066 -0.48397 -0.166364 1 254 255
-0.14387 -0.149898 0.29147 86 169 255
-0.32742 -0.0521439 0.122886 111 144 255
-0.0230441 -0.0360112 0.312088 115 140 255
0.233062 -0.374863 -0.0771943 28 227 255
-0.312894 0.0707511 -0.0654087 143 112 255
0.236735 -0.481498 -0.0755672 1 254 255
-0.241925 -0.408195 0.26273 20 235 255
-0.325763 -0.0642199 0.276486 108 147 255
-0.321204 -0.1292 0.0753061 91 163 255
-0.330761 -0.461192 0.14584 6 249 255
0.0541933 -0.483947 -0.211167 1 254 255
-0.0197941 -0.110743 0.290006 96 159 255
-0.266217 0.0720374 -0.219989 143 112 255
-0.0194136 -0.483238 -0.00289259 1 254 255
0.313593 -0.428932 -0.11818 15 240 255
0.133199 -0.202452 0.301246 73 182 255
0.254484 -0.204089 -0.286677 72 183 255
-0.0830825 0.0571278 -0.289442 139 116 255
-0.325595 -0.253594 0.283038 59 195 255
-0.275418 0.0698171 0.278942 142 113 255
0.0623229 0.00493134 -0.292029 126 129 255
-0.262513 -0.38336 0.168085 26 229 255
0.0107768 -0.482714 0.146449 1 254 255
-0.328674 -0.265074 -0.147353 56 198 255
0.156723 -0.399979 -0.29448 22 233 255
0.0639119 -0.378735 -0.13469 27 228 255
-0.180687 -0.484587 -0.225841 0 255 255
-0.201062 -0.483671 0.0530464 1 254 255
-0.316785 0.00445907 -0.196807 126 129 255
0.130556 -0.144182 -0.295279 87 168 255
-0.277688 -0.0694992 -0.298861 107 147 255
-0.328216 -0.437422 -0.00307796 12 243 255
-0.314318 -0.386657 0.236181 25 230 255
-0.310045 0.0705267 0.0144798 142 113 255
-0.329909 -0.241137 -0.240947 63 192 255
-0.109899 -0.43043 0.230221 14 241 255
0.15368 -0.431529 0.308603 14 241 255
-0.325445 -0.202202 0.145293 73 182 255
-0.301642 -0.317607 -0.230075 43 211 255
-0.257043 -0.283699 0.308135 52 203 255
-0.320664 -0.280325 0.0288684 52 202 255
-0.137587 -0.436938 -0.292052 13 242 255
-0.197023 -0.484173 -0.100734 0 255 255
-0.0533632 -0.465549 0.166001 5 250 255
-0.154493 0.0741696 0.122352 143 112 255
-0.0916703 -0.21217 0.288788 70 185 255
0.145302 -0.300427 -0.296679 47 208 255
-0.316737 0.00655406 0.0927553 126 129 255
-0.295469 -0.38384 -0.155867 26 229 255
-0.279647 -0.484997 0.262329 0 255 255
0.245781 -0.0829693 -0.289594 103 152 255
-0.312397 -0.0930485 -0.184431 101 154 255
-0.168284 -0.088318 0.293089 102 153 255
-0.0485039 -0.189884 -0.28968 76 179 255
0.0227478 -0.460723 0.0611835 6 249 255
-0.325288 -0.297981 0.193552 48 207 255
0.160682 -0.379635 -0.00942498 27 228 255
0.225315 -0.0629233 0.287177 108 147 255
0.0494122 -0.483784 -0.120524 1 254 255
-0.185745 -0.470665 0.00254237 4 251 255
-0.00041789 -0.298975 -0.295287 48 207 255
-0.286379 -0.434216 0.0586971 13 242 255
0.114283 -0.26384 0.301044 56 198 255
-0.327709 -0.380724 -0.225059 27 228 255
-0.33741 -0.111452 0.222181 96 159 255
0.113643 -0.365822 -0.251594 31 224 255
-0.270768 -0.204731 0.300894 72 183 255
-0.257804 -0.406774 -0.295508 20 235 255
-0.325762 -0.390505 0.15653 24 231 255
-0.0375696 -0.0392119 -0.287519 113 141 255
-0.0431031 -0.484353 -0.24412 0 255 255
0.266483 -0.260725 -0.289359 58 197 255
0.00547252 -0.471074 0.317386 4 251 255
-0.31603 0.071476 -0.123406 143 112 255
-0.14408 0.0795315 0.0226022 145 110 255
-0.229952 -0.471884 0.31618 4 251 255
-0.0985033 -0.283883 0.288072 52 203 255
0.232834 -0.483931 -0.166074 1 254 255
-0.174685 -0.387923 -0.100323 25 230 255
-0.327718 -0.0107618 0.284575 121 133 255
-0.321638 -0.45107 -0.280541 9 246 255
0.202447 0.00916352 -0.291264 127 128 255
0.110266 -0.482506 0.204918 1 254 255
0.164362 -0.369321 -0.109834 30 225 255
-0.314235 -0.347839 0.296827 35 220 255
-0.203157 0.0677316 0.239099 142 113 255
-0.262168 -0.484079 0.157148 0 255 255
-0.0752795 0.0244005 0.294492 131 124 255
-0.326475 -0.1127 -0.00535074 96 159 255
-0.237366 0.0735077 -0.0977519 143 112 255
-0.202904 -0.179913 0.291658 78 177 255
-0.0551209 -0.482463 -0.135126 1 254 255
0.0821918 -0.462812 0.319115 6 249 255
-0.311076 -0.330731 -0.101617 40 215 255
0.125154 -0.033941 -0.289817 116 139 255
-0.0321061 -0.439766 -0.299141 12 243 255
-0.210642 -0.00500428 -0.28953 123 131 255
0.106075 -0.383633 -0.0523213 26 229 255
-0.0694991 -0.483217 0.105445 1 254 255
0.241985 -0.374384 -0.136829 29 226 255
0.188273 -0.348503 0.30547 35 220 255
-0.315052 -0.195579 0.241998 73 181 255
-0.326605 -0.201805 0.0257489 73 182 255
-0.31375 -0.0693829 -0.109628 107 147 255
-0.328118 -0.0649898 -0.252823 108 147 255
-0.264833 -0.483958 0.0199347 1 254 255
-0.128917 0.0732691 -0.229899 143 112 255
0.103501 -0.379244 0.304678 27 228 255
0.0886764 -0.48319 0.0178196 1 254 255
-0.164347 0.07008 -0.0586846 142 113 255
0.05149 -0.194045 0.294779 75 179 255
-0.306169 -0.334675 0.0842091 39 216 255
0.246742 -0.384264 -0.289567 26 229 255
0.12427 -0.48376 -0.106465 1 254 255
0.158605 -0.484023 -0.250357 0 255 255
-0.259293 0.0127503 0.313159 128 127 255
-0.156905 -0.125934 -0.289108 92 163 255
-0.324113 -0.484812 0.247798 0 255 255
-0.330332 0.00379193 0.0235753 125 130 255
0.175002 -0.458545 0.0560635 7 248 255
-0.335454 -0.120257 0.281492 94 161 255
0.186482 -0.130909 -0.287639 91 163 255
-0.193376 -0.320714 0.310109 42 213 255
0.0134319 -0.295818 0.288879 48 206 255
-0.170728 -0.262306 -0.292883 56 198 255
0.291852 -0.380244 -0.0487255 27 228 255
-0.327917 -0.429965 0.0675287 14 241 255
-0.327115 -0.141275 0.120929 88 167 255
0.0254274 -0.0702972 0.295118 105 149 255
-0.286387 0.0720927 0.167531 143 112 255
-0.327942 -0.00151034 -0.128731 124 131 255
-0.329026 -0.481984 -0.198099 1 254 255
0.206568 -0.365095 -0.232619 31 224 255
0.22399 -0.480736 -0.0320246 1 254 255
-0.307323 -0.291329 -0.290279 50 205 255
-0.256691 -0.463762 0.137063 6 249 255
0.00734361 -0.363224 -0.294807 31 224 255
-0.272709 -0.128553 0.299867 91 163 255
-0.329932 -0.4543 -0.11509 8 247 255
0.0740382 -0.33825 0.0358575 38 217 255
-0.268284 -0.483985 -0.281096 1 254 255
0.0126965 -0.404899 0.276584 21 234 255
0.0797785 -0.10603 -0.29275 97 158 255
0.0668081 -0.230478 -0.295547 65 190 255
-0.0166775 -0.470602 -0.0351588 4 251 255
-0.148068 -0.484195 -0.0520272 0 255 255
-0.186533 -0.0268119 0.296231 118 137 255
0.203427 -0.290198 -0.293191 50 205 255
0.311361 -0.420521 -0.230878 17 238 255
-0.0580674 0.069251 -0.138273 142 113 255
-0.038996 0.0663977 -0.281256 141 113 255
-0.282012 -0.407341 0.287469 20 235 255
-0.329134 -0.170183 -0.214686 81 174 255
0.0305 -0.46871 0.234872 4 251 255
-0.278773 0.0728818 0.0784862 143 112 255
-0.103143 -0.48418 -0.247734 0 255 255
-0.317034 0.0609058 0.278713 140 114 255
-0.1572 -0.180464 0.312968 78 177 255
0.0632725 -0.417676 -0.272304 17 238 255
-0.119493 -0.483758 0.0343213 1 254 255
-0.28539 -0.191382 -0.281803 75 179 255
0.375315 -0.412923 -0.0878228 19 236 255
0.175471 -0.452611 -0.139099 9 246 255
0.0191545 0.00862703 -0.294368 127 128 255
-0.323281 -0.228772 0.10474 65 189 255
0.0753154 -0.0254233 -0.000322794 118 137 255
-0.0716491 -0.343471 -0.294027 36 219 255
-0.134119 -0.44214 0.281101 11 244 255
-0.326504 -0.175183 -0.0560734 80 175 255
-0.14755 0.0473069 0.292236 137 118 255
-0.329089 0.0268576 -0.221119 131 124 255
-0.131535 0.00822903 -0.286754 127 128 255
-0.327291 0.0370068 0.199068 134 121 255
-0.0133027 -0.183921 0.294107 77 178 255
0.0719824 -0.30622 0.300598 46 209 255
-0.268716 -0.484227 -0.114036 0 255 255
-0.227318 -0.263257 0.290382 56 198 255
-0.050807 -0.245669 -0.290543 62 193 255
0.142201 -0.235989 -0.296903 64 191 255
-0.271246 0.0732245 -0.0151986 143 112 255
-0.148688 -0.335959 0.289182 38 217 255
-0.103428 -0.0655387 0.300568 108 147 255
0.238064 -0.427616 0.0451239 15 240 255
0.137815 -0.225423 0.0496772 67 188 255
0.109802 -0.46203 0.0689962 6 249 255
0.034069 -0.483991 -0.257757 1 254 255
0.270078 -0.455023 -0.0686301 8 247 255
-0.190438 0.0707158 -0.269481 143 112 255
-0.312898 -0.0511993 -0.0114703 111 144 255
-0.309153 -0.334775 0.258009 39 216 255
-0.326722 -0.395123 -0.0535898 23 232 255
-0.261471 -0.103972 -0.298983 97 157 255
-0.0291563 0.00465473 0.298216 126 129 255
-0.211446 0.0741689 0.120554 143 112 255
-0.120229 -0.0813667 -0.294817 104 151 255
-0.0358399 -0.483234 0.209912 1 254 255
-0.0422582 -0.300456 0.294724 47 208 255
0.0807377 -0.482669 0.140377 1 254 255
-0.170609 -0.183614 -0.29128 77 178 255
-0.0621846 0.0745767 -0.0378228 144 111 255
-0.328563 -0.356613 -0.260803 32 222 255
0.171761 -0.474534 -0.0731724 3 252 255
-0.323164 -0.305135 0.132159 46 209 255
-0.303409 0.0293464 -0.287439 131 123 255
0.29761 -0.358761 -0.256718 32 222 255
-0.302672 -0.450372 -0.241031 9 246 255
0.13406 0.0139691 -0.290684 128 127 255
0.150315 -0.0379233 0.0121772 115 140 255
0.0776148 -0.438497 -0.071965 12 243 255
-0.156669 -0.481583 0.31193 1 254 255
-0.324665 -0.34096 0.00354206 36 218 255
-0.211831 0.0584459 0.29246 139 116 255
-0.0372208 -0.392459 0.26216 24 231 255
-0.32884 -0.132638 -0.141431 89 165 255
0.190772 -0.413183 0.293379 19 236 255
-0.16943 -0.483756 0.151143 1 254 255
0.108808 -0.474737 -0.237107 3 252 255
0.287619 -0.371386 -0.161803 29 226 255
-0.141369 -0.47093 -0.300145 4 251 255
0.242334 -0.447478 -0.294989 10 245 255
-0.245474 -0.484187 -0.206811 0 255 255
-0.308468 -0.485068 -0.0202633 0 255 255
-0.315282 -0.484719 0.110631 0 255 255
-0.0837107 -0.462983 0.0549928 6 249 255
0.0923977 -0.173776 0.298762 80 175 255
0.0220274 -0.483493 -0.0668654 1 254 255
-0.326698 -0.0701307 0.0636471 105 149 255
-0.248476 0.0727199 -0.164901 143 112 255
-0.329171 -0.0493863 -0.188898 112 143 255
0.0161378 -0.178651 -0.292719 79 176 255
0.179466 -0.371771 -0.174112 29 226 255
-0.323964 -0.257301 -0.0361918 59 195 255
-0.0692468 -0.131537 0.298903 91 163 255
-0.228529 -0.369377 0.287928 30 225 255
0.0693869 -0.304677 -0.289908 46 209 255
-0.326527 -0.227975 0.227701 65 189 255
-0.258004 0.0740198 0.222339 143 112 255
0.0638076 0.0608252 -0.273983 140 114 255
0.173007 -0.185494 -0.28717 77 178 255
-0.328224 -0.121012 -0.245576 93 162 255
-0.286947 -0.443876 0.306864 11 244 255
-0.326474 -0.0491252 0.220707 112 143 255
-0.120059 -0.483729 -0.164213 1 254 255
0.287311 -0.461445 -0.188078 6 249 255
0.143386 -0.32971 0.0361118 40 215 255
-0.17302 -0.388026 -0.295848 25 230 255
0.15443 -0.483285 0.0261095 1 254 255
-0.071408 -0.484643 0.281975 0 255 255
-0.259645 -0.43995 0.220307 12 243 255
-0.281844 -0.0678324 0.30028 107 147 255
-0.286785 -0.352825 -0.247413 34 221 255
0.121671 -0.432147 -0.297979 14 241 255
-0.128234 0.0742243 -0.141801 143 112 255
0.250315 -0.425423 0.112177 16 239 255
-0.310289 0.0346219 0.314111 133 121 255
-0.2525 -0.482288 -0.0587049 1 254 255
0.251084 -0.152519 -0.287098 85 170 255
-0.295523 -0.218315 -0.213574 69 186 255
-0.211574 -0.308704 -0.295495 44 210 255
-0.31828 -0.157615 0.029271 84 171 255
-0.327568 -0.229515 -0.0983365 65 189 255
-0.324531 0.058055 0.0529327 139 116 255
0.104977 -0.412803 -0.147357 19 236 255
0.20916 -0.377945 -0.0117484 28 227 255
-0.327306 -0.415414 0.262669 18 237 255
-0.326365 -0.333574 -0.157638 39 216 255
-0.174571 0.0380618 0.166613 134 121 255
-0.323222 -0.0918804 0.151458 101 154 255
-0.00641563 -0.0903113 -0.292717 101 154 255
0.0819495 -0.168198 -0.292701 81 174 255
-0.112813 -0.240647 -0.29485 63 192 255
