ply
format ascii 1.0
comment Created by Open3D
element vertex 1185
property double x
property double y
property double z
property uchar red
property uchar green
property uchar blue
end_header
0.0377058 -0.483814 -0.0790227 4 251 255
-0.372972 -0.484314 0.429719 3 252 255
-0.434629 0.0737647 -0.170301 146 109 255
0.0128154 0.0745767 0.487177 147 108 255
0.126671 -0.128649 0.262733 94 161 255
-0.0857266 -0.483454 0.32928 4 251 255
-0.0302488 -0.484234 -0.2111 3 252 255
0.0753154 -0.237923 0.262177 67 188 255
-0.154367 0.0711974 0.438544 146 109 255
0.0151406 -0.465188 -0.336387 8 247 255
-0.384604 -0.483778 0.325027 4 251 255
-0.414605 -0.402837 0.394811 24 231 255
-0.0246846 -0.112923 -0.112823 99 156 255
-0.195 -0.422341 0.275196 19 236 255
-0.468487 -0.218944 0.242516 71 184 255
0.111002 0.0730637 0.0887172 146 109 255
-0.108844 -0.477051 0.0664525 5 250 255
-0.012058 0.0742584 0.173767 146 109 255
-0.00272522 -0.35162 0.30082 36 218 255
0.148468 0.0732143 0.172054 146 109 255
-0.101312 0.0584097 0.114708 142 113 255
-0.456133 0.0732103 -0.260073 146 109 255
-0.467914 -0.399305 0.264275 25 230 255
-0.468154 0.0706505 0.0923017 146 109 255
-0.113485 -0.128873 0.195928 94 161 255
0.152303 0.0738326 0.275921 146 109 255
-0.0881351 0.0748884 -0.187688 147 108 255
-0.172102 -0.482984 0.247936 4 251 255
-0.359093 0.0710089 -0.0115064 146 109 255
-0.329029 -0.123804 0.192581 96 159 255
-0.26477 -0.483664 0.0597506 4 251 255
-0.097888 -0.379466 -0.377871 30 225 255
0.0332134 -0.421008 0.230388 20 235 255
-0.464336 -0.434204 0.344205 16 239 255
0.087924 -0.482619 0.244401 4 251 255
0.123821 -0.208433 0.286126 73 181 255
-0.216617 -0.483985 0.398097 4 251 255
-0.170003 -0.242074 0.14197 65 190 255
-0.312185 -0.112923 -0.112823 99 156 255
0.168189 -0.483099 0.287434 4 251 255
0.110523 -0.369608 0.428783 32 222 255
-0.133418 -0.482409 -0.110019 4 251 255
-0.00446224 -0.483863 -0.00964602 4 251 255
-0.326531 0.0732923 0.359545 146 109 255
0.00562797 0.0207477 0.283806 133 121 255
-0.162409 0.073811 -0.153935 146 109 255
0.161002 -0.351847 0.26704 36 218 255
-0.0646099 -0.296316 0.21276 52 203 255
0.0626324 -0.433598 0.424168 16 239 255
-0.20881 -0.0850165 0.141617 105 149 255
0.0101476 -0.143635 0.14326 91 163 255
-0.452842 -0.0945523 0.181315 103 152 255
-0.429672 -0.485207 -0.123628 3 252 255
-0.0234802 0.0718919 0.368077 146 109 255
-0.0632425 -0.367023 0.161296 32 222 255
-0.499685 -0.275423 0.174677 56 198 255
-0.09314 -0.107481 0.139404 100 155 255
-0.456021 -0.427443 0.182555 18 237 255
0.0155618 -0.145025 0.337089 89 165 255
0.147931 -0.0855405 0.379569 105 149 255
0.0164153 -0.0434199 0.415536 116 139 255
0.0801498 -0.47936 0.0591466 5 250 255
-0.282259 -0.484088 -0.106832 3 252 255
0.154006 -0.483422 0.159653 4 251 255
-0.173193 -0.471122 -0.277365 7 248 255
-0.400731 0.073862 0.347248 146 109 255
0.154354 -0.424191 0.393965 19 236 255
-0.0218528 -0.271413 0.283765 58 197 255
0.0275437 -0.484624 0.43609 3 252 255
0.0598687 -0.197531 0.187651 77 178 255
-0.031874 -0.105571 0.234857 100 155 255
-0.467258 0.0703275 -0.330101 145 110 255
-0.295632 -0.48283 0.283494 4 251 255
0.1284 0.0699593 0.401924 145 110 255
-0.180472 -0.475044 0.162682 6 249 255
-0.386591 -0.455263 0.215692 11 244 255
-0.147095 0.072332 -0.272784 146 109 255
-0.0861002 -0.483133 -0.0462474 4 251 255
-0.398118 -0.0198515 0.188425 121 133 255
-0.124703 -0.0216014 0.178067 121 133 255
-0.444105 -0.251256 0.300737 63 192 255
-0.38286 -0.48305 0.0543712 4 251 255
-0.00429979 -0.293391 0.403343 52 203 255
-0.435851 -0.486042 -0.286394 3 252 255
-0.0423973 -0.484582 0.438012 3 252 255
-0.359379 -0.484368 -0.260005 3 252 255
-0.143816 -0.450105 0.450077 12 243 255
-0.0858098 -0.440884 0.273708 15 240 255
-0.316978 -0.421945 0.218126 19 236 255
-0.0791467 0.0727522 0.336728 146 109 255
-0.404244 0.0742769 0.20231 146 109 255
-0.255477 -0.441717 0.440842 14 241 255
-0.191423 -0.387087 -0.37974 28 227 255
-0.0347694 -0.43693 -0.38822 16 239 255
-0.352644 -0.293651 0.207916 52 203 255
-0.42712 0.0700363 -0.09508 145 110 255
-0.473984 0.071309 -0.218013 146 109 255
-0.113793 0.0742972 -0.0981409 146 109 255
0.150315 -0.0629233 -0.150323 111 144 255
-0.499685 -0.187923 0.174677 79 176 255
0.179714 -0.245722 0.357482 65 190 255
-0.27421 -0.388665 0.286343 28 227 255
-0.0894558 -0.452361 0.163512 12 243 255
-0.278467 -0.0589881 0.170577 112 143 255
-0.112311 -0.483436 0.0484412 4 251 255
-0.306765 0.0741991 -0.126451 146 109 255
-0.224017 0.0711352 0.184451 146 109 255
-0.255123 0.0714719 -0.219892 146 109 255
-0.041661 -0.350121 0.425687 38 217 255
-0.378156 -0.485823 -0.334493 3 252 255
-0.420852 -0.480471 0.113321 4 251 255
-0.118095 0.0717879 -0.344086 146 109 255
0.039322 0.0703099 0.39446 145 110 255
0.0155803 -0.0717934 0.148275 109 146 255
-0.446537 0.0740819 0.273001 146 109 255
-0.0226294 -0.482783 0.197394 4 251 255
-0.233778 -0.478157 0.298001 5 250 255
-0.00696718 -0.478946 -0.273355 5 250 255
0.000263431 -0.47791 0.328183 5 250 255
-0.248991 -0.484992 -0.18023 3 252 255
-0.223281 0.0718928 0.274373 146 109 255
0.462815 -0.162923 -0.150323 86 169 255
-0.208505 -0.483235 0.215541 4 251 255
-0.158058 -0.295213 0.180683 52 203 255
0.0273439 -0.249917 0.170104 63 192 255
0.031757 0.0737618 0.0422936 146 109 255
-0.378403 -0.087657 0.259036 105 150 255
-0.143567 -0.417617 0.242484 21 234 255
-0.274685 -0.0379233 -0.137823 118 137 255
-0.0862977 0.0404365 0.259098 138 117 255
-0.159004 -0.344618 0.283929 39 216 255
-0.429134 -0.484568 0.213444 3 252 255
0.116504 -0.398245 0.318645 25 230 255
-0.344434 0.0707322 0.274134 146 109 255
-0.0599329 0.0741766 -0.00105278 146 109 255
-0.112185 -0.0379233 -0.137823 118 137 255
-0.228278 -0.484147 -0.0391623 3 252 255
-0.0509136 -0.209353 0.146359 73 181 255
0.109818 -0.153155 0.420741 88 167 255
-0.279578 -0.10209 0.242201 101 154 255
0.0916873 0.0739429 0.252045 146 109 255
-0.0135525 -0.391548 -0.282688 27 228 255
-0.449159 -0.274198 0.195655 56 198 255
0.0111946 -0.483289 0.0984142 4 251 255
0.0802608 -0.122283 0.223494 96 159 255
0.107665 -0.483955 0.372769 4 251 255
-0.152892 -0.0610061 0.138346 112 143 255
-0.0616709 -0.481086 -0.163962 4 251 255
0.0150467 0.0418786 0.445887 138 117 255
0.100257 -0.058063 0.318096 113 142 255
0.150315 -0.487923 0.0621772 3 252 255
0.0672612 -0.378716 -0.316779 30 225 255
-0.357222 -0.455261 0.274423 11 244 255
-0.387216 0.0719216 -0.306536 146 109 255
-0.470102 0.0707709 0.03896 146 109 255
-0.310356 -0.244009 0.213792 65 190 255
0.187517 -0.151917 0.339747 89 166 255
-0.0347344 -0.483523 0.0341447 4 251 255
-0.13181 0.060047 0.149729 143 112 255
-0.290461 0.0746073 -0.0589392 147 108 255
-0.173868 -0.484173 -0.0983009 3 252 255
-0.212274 -0.485129 -0.294712 3 252 255
0.0737875 -0.0348363 0.244663 119 136 255
-0.274754 -0.480874 0.34885 4 251 255
0.10168 -0.351739 0.237 36 218 255
-0.0916901 -0.445797 -0.387226 13 242 255
-0.172994 -0.484857 -0.220996 3 252 255
-0.472921 -0.48449 -0.0294156 3 252 255
-0.201851 -0.485873 -0.383199 3 252 255
-0.272786 -0.32099 0.370513 44 210 255
-0.205672 -0.398542 0.159717 25 230 255
0.0337288 -0.444122 0.176944 14 241 255
0.033936 -0.310449 0.316319 48 207 255
-0.104997 -0.391644 -0.264804 27 228 255
-0.234904 -0.216969 0.139088 72 183 255
-0.0786573 -0.0455577 0.144008 116 139 255
-0.117456 -0.226954 0.14568 69 186 255
-0.201015 0.0670203 0.0962927 145 110 255
-0.307314 0.0632014 0.0297407 144 111 255
-0.1336 -0.132583 0.1351 93 162 255
-0.112214 -0.483117 0.154761 4 251 255
-0.477263 -0.484296 -0.109571 3 252 255
-0.0392771 -0.482934 0.270673 4 251 255
-0.119437 0.0751205 0.0381633 147 108 255
0.131529 -0.248692 0.410262 64 191 255
0.0526027 -0.483685 0.349022 4 251 255
-0.376858 -0.484145 -0.0881875 3 252 255
0.000536899 -0.122585 0.415798 96 159 255
0.26678 -0.483241 0.273415 4 251 255
0.177669 -0.363447 0.367017 34 221 255
-0.272004 0.0732939 0.357182 146 109 255
-0.42377 0.0733287 0.414254 146 109 255
-0.0442606 -0.348429 0.291453 38 217 255
-0.043408 -0.233383 0.229511 68 187 255
-0.279174 -0.384686 0.193039 29 226 255
-0.212414 0.0746379 -0.0547815 147 108 255
0.0277394 -0.146019 0.266067 89 165 255
-0.144665 0.0718875 0.340313 146 109 255
-0.405114 0.072286 -0.238676 146 109 255
-0.406435 -0.0842792 0.215095 105 149 255
-0.303122 -0.226518 0.154729 69 186 255
-0.359915 0.0604807 0.097676 143 112 255
-0.316619 -0.483634 0.0184013 4 251 255
-0.464262 -0.478231 0.13889 5 250 255
-0.119644 -0.0647136 0.203835 111 144 255
0.155176 -0.293889 0.272837 52 203 255
-0.24201 -0.30811 0.29969 48 206 255
-0.147027 -0.484804 -0.33025 3 252 255
-0.353639 -0.445574 0.423353 13 242 255
0.0664266 -0.36142 0.305233 35 220 255
-0.0458512 -0.0261326 0.205073 121 134 255
0.0998379 -0.462045 0.265921 9 246 255
0.0510938 0.0729597 -0.04056 146 109 255
-0.470607 0.0744972 0.32811 146 109 255
0.0891459 -0.31209 0.433894 48 207 255
-0.0375812 0.0741667 -0.0548095 146 109 255
-0.0460765 0.0733854 -0.200109 146 109 255
-0.155434 -0.222446 0.320942 70 185 255
-0.480623 -0.483702 0.360531 4 251 255
-0.168499 -0.480792 0.345612 4 251 255
-0.42007 -0.484382 0.276343 3 252 255
0.00290346 0.0748498 0.304687 147 108 255
0.0478208 -0.482845 0.189228 4 251 255
-0.375547 -0.484615 -0.184218 3 252 255
-0.430169 -0.299064 0.32989 51 204 255
-0.041482 -0.467259 0.217909 8 247 255
-0.310499 -0.484146 0.0830622 3 252 255
0.0281151 -0.478663 -0.137332 5 250 255
-0.347472 -0.483002 0.252532 4 251 255
-0.288083 0.0741794 0.274312 146 109 255
0.00580903 -0.21684 0.357893 72 183 255
0.0661062 -0.27498 0.229762 56 198 255
-0.161246 -0.379503 -0.30425 30 225 255
-0.104432 -0.281559 0.140051 55 200 255
0.0310777 -0.171453 0.434845 84 171 255
0.0932232 0.0649474 0.427818 144 111 255
-0.22705 -0.296138 0.146801 52 203 255
0.11644 0.0736961 0.141109 146 109 255
0.0941578 -0.420123 -0.260353 20 235 255
0.0192046 0.0748737 0.226055 147 108 255
-0.471893 0.0719101 -0.107293 146 109 255
-0.219934 -0.429743 -0.344948 17 238 255
-0.120381 0.0721939 0.236268 146 109 255
-0.369805 -0.379321 0.286397 30 225 255
-0.0129584 0.0742728 0.112098 146 109 255
-0.138144 -0.4845 -0.152836 3 252 255
-0.318272 0.0711736 -0.315324 146 109 255
-0.0140801 -0.00412371 0.447222 126 129 255
-0.249983 -0.483866 0.174947 4 251 255
0.202253 -0.209095 0.324346 73 181 255
-0.189058 -0.457404 0.430037 10 245 255
-0.27387 -0.323682 0.219151 44 210 255
-0.020774 -0.109915 0.14136 99 156 255
-0.359739 -0.230855 0.194542 68 187 255
-0.437953 0.0744101 0.102869 146 109 255
0.212815 -0.112923 -0.150323 99 156 255
-0.423962 -0.485186 -0.0198842 3 252 255
-0.11414 -0.484683 -0.246883 3 252 255
-0.189066 -0.484289 0.127864 3 252 255
0.0112978 -0.247129 0.436343 64 191 255
-0.434244 -0.213577 0.16298 73 182 255
-0.341019 0.0743165 0.171637 146 109 255
-0.160215 -0.0086761 0.251845 125 130 255
-0.425326 -0.484845 0.373087 3 252 255
-0.0693712 -0.375452 -0.305429 31 224 255
-0.353176 0.0730491 0.424013 146 109 255
-0.160881 -0.339251 0.151022 40 214 255
-0.0276388 -0.484014 -0.134327 4 251 255
-0.0538123 -0.485083 -0.349222 3 252 255
0.150315 -0.0379233 0.287177 118 137 255
-0.337549 0.061974 -0.0548892 143 112 255
-0.00438431 -0.464568 0.405843 8 247 255
0.0879942 -0.483364 0.109498 4 251 255
0.039665 -0.466062 0.25391 8 247 255
0.145237 -0.477319 0.422937 5 250 255
-0.00970767 -0.00612006 0.162031 126 129 255
-0.356067 -0.481729 0.193725 4 251 255
-0.151167 -0.438505 0.193047 15 240 255
-0.0121676 0.0735441 -0.126606 146 109 255
0.0982227 -0.0344851 0.408018 119 136 255
-0.293598 0.0763356 -0.189129 147 108 255
0.226376 -0.483199 0.203383 4 251 255
0.0551948 0.0737704 0.100843 146 109 255
-0.18584 0.0734692 -0.243061 146 109 255
-0.0323949 -0.152737 0.305697 88 167 255
-0.0137246 -0.38087 0.424002 30 225 255
-0.379184 -0.00271171 0.25156 127 128 255
-0.0397662 -0.253375 0.311959 63 192 255
-0.410813 0.0715755 -0.0217864 146 109 255
-0.0161787 -0.443397 0.149924 14 241 255
-0.482755 -0.483888 0.42479 4 251 255
-0.278326 -0.484083 0.419266 3 252 255
-0.248616 -0.472335 0.169333 7 248 255
0.178831 0.0727182 0.197158 146 109 255
-0.195592 0.072756 -0.313039 146 109 255
-0.0546736 -0.326088 0.14481 44 211 255
-0.183225 -0.169951 0.132924 84 171 255
-0.369119 -0.483602 0.111322 4 251 255
-0.399658 0.0686903 0.285872 145 110 255
-0.0392689 -0.48436 -0.271428 3 252 255
0.044654 -0.0985551 0.269815 102 153 255
-0.382491 0.0740325 -0.166188 146 109 255
-0.469933 0.0691225 0.214045 145 110 255
-0.0861523 -0.163363 0.206523 86 169 255
-0.393616 -0.354331 0.182536 36 218 255
-0.253001 0.0747031 0.122408 147 108 255
-0.499685 -0.487923 0.0246772 3 252 255
0.00178425 0.0737943 -0.00256528 146 109 255
-0.252105 -0.484805 -0.232149 3 252 255
0.0503154 -0.0379233 -0.137823 118 137 255
-0.113516 -0.4833 0.0153411 4 251 255
0.0854461 -0.481474 -0.047098 4 251 255
-0.223457 0.0708528 0.445857 146 109 255
-0.400484 -0.152171 0.206022 88 167 255
0.102438 -0.141259 0.306901 91 163 255
0.207198 -0.35439 0.319107 36 218 255
-0.305172 -0.473493 0.28429 6 249 255
-0.0656761 -0.476112 0.383065 6 249 255
-0.0382019 0.0328723 0.279719 136 119 255
-0.0495907 -0.482612 -0.0620159 4 251 255
-0.116961 0.0705182 0.442842 145 110 255
-0.270642 -0.351791 0.397708 36 218 255
0.0274909 -0.352369 0.251861 36 218 255
-0.254208 -0.485345 -0.33196 3 252 255
0.106428 -0.483105 0.297781 4 251 255
-0.0459331 0.0745824 0.0667722 147 108 255
0.0252668 -0.182166 0.204899 81 174 255
-0.0413371 -0.483042 0.131286 4 251 255
0.105336 0.00631623 0.34216 129 126 255
0.0605305 -0.471104 0.443134 7 248 255
0.0127964 -0.379294 -0.378806 30 225 255
-0.28305 0.056048 0.217708 142 113 255
-0.32816 -0.369882 0.153276 32 222 255
-0.0863631 -0.48402 -0.119516 4 251 255
-0.383621 -0.088654 0.170326 105 150 255
-0.252978 -0.48381 0.00125271 4 251 255
-0.399138 -0.430363 0.246972 17 238 255
-0.184888 0.073944 0.31623 146 109 255
-0.195016 0.0721765 -0.170298 146 109 255
-0.0643009 0.0728764 0.220843 146 109 255
-0.291414 -0.483351 0.131457 4 251 255
0.03541 -0.295814 0.441709 52 203 255
-0.468538 -0.318108 0.265845 46 209 255
-0.184307 -0.0805715 0.170161 107 147 255
-0.110231 -0.482946 0.210763 4 251 255
-0.363013 -0.484266 0.0118709 3 252 255
0.212156 0.0721648 0.257865 146 109 255
0.0169531 -0.055555 0.237171 113 142 255
-0.130319 0.072389 -0.0218868 146 109 255
-0.091933 -0.156874 0.144759 87 168 255
-0.0680505 -0.370676 0.246428 32 222 255
-0.133986 -0.463187 -0.388423 9 246 255
0.0797293 -0.107192 0.42238 100 155 255
-0.318616 -0.485706 -0.356881 3 252 255
-0.172079 0.0617453 0.183246 143 112 255
0.0775058 -0.41994 0.318817 20 235 255
-0.0923535 -0.348358 0.420931 38 217 255
-0.468609 -0.47084 0.250364 7 248 255
-0.243954 -0.469405 0.234257 7 248 255
0.0802933 -0.315935 0.317736 47 208 255
-0.396017 -0.451881 0.433322 12 243 255
-0.162185 -0.112923 -0.100323 99 156 255
0.185092 -0.440522 0.358369 15 240 255
0.158451 -0.279333 0.381539 56 199 255
-0.0987817 -0.479545 -0.303778 5 250 255
-0.460679 0.0739896 0.396185 146 109 255
-0.220655 -0.484214 -0.1121 3 252 255
-0.262031 0.0639767 -0.152075 144 111 255
-0.233892 0.0659666 0.0413246 144 111 255
-0.468351 -0.484932 -0.163676 3 252 255
0.142821 0.0739576 0.310474 146 109 255
0.150183 -0.15933 0.381917 87 168 255
-0.00819612 -0.231841 0.261196 68 187 255
-0.306382 -0.300959 0.150591 50 205 255
-0.410128 -0.285602 0.17938 54 201 255
-0.185531 0.074406 -0.0999497 146 109 255
0.187815 -0.100423 0.274677 102 153 255
-0.290282 0.0574431 0.438778 142 113 255
0.070021 -0.328935 0.214637 43 211 255
0.0326469 -0.483076 0.264997 4 251 255
-0.160849 -0.0115042 0.175706 124 131 255
0.199998 -0.483231 0.263382 4 251 255
0.0513421 -0.435559 -0.317518 16 239 255
0.462815 -0.300423 -0.137823 51 204 255
-0.062562 -0.478001 0.298 5 250 255
-0.435382 -0.485557 -0.325342 3 252 255
-0.318222 -0.484202 -0.0726196 3 252 255
-0.096938 -0.484404 0.435344 3 252 255
0.035008 -0.197405 0.152783 77 178 255
-0.145656 -0.389732 -0.384548 28 227 255
-0.10954 -0.365215 0.288007 34 221 255
-0.320471 0.0585106 0.321483 142 113 255
-0.396763 0.0586507 0.0743691 142 113 255
0.0173679 -0.340148 0.166734 40 215 255
0.0492667 0.0740543 0.180873 146 109 255
0.0357441 0.0673834 -0.0759822 145 110 255
-0.398325 -0.43601 0.158174 16 239 255
0.0938583 -0.192006 0.42637 78 177 255
-0.0578043 0.0739013 -0.150979 146 109 255
-0.459071 0.0704241 -0.0237694 145 110 255
-0.0491028 -0.247221 0.139612 64 191 255
-0.292146 -0.484411 -0.155945 3 252 255
0.0242632 -0.48399 0.000998621 4 251 255
0.0392863 0.0710638 0.363349 146 109 255
0.0253154 -0.112923 -0.125323 99 156 255
-0.264591 -0.095057 0.169093 103 152 255
-0.19075 -0.483016 0.276224 4 251 255
-0.0966254 -0.00230075 0.238437 127 128 255
0.0810885 -0.387177 -0.373707 28 227 255
0.143539 -0.183033 0.252896 81 174 255
-0.212947 -0.481459 0.0882209 4 251 255
0.11672 -0.440676 0.424751 15 240 255
0.0612037 -0.415467 -0.24263 21 234 255
-0.089631 0.0465899 0.305247 139 116 255
0.154998 0.0721835 0.375305 146 109 255
0.0739511 -0.366539 0.437195 34 221 255
-0.119456 -0.483807 -0.0429595 4 251 255
-0.241276 -0.408252 0.273875 23 232 255
-0.362185 -0.175423 0.162177 83 172 255
-0.157987 0.0718591 -0.365575 146 109 255
0.144161 -0.365367 0.293021 34 221 255
-0.434678 0.0717648 -0.349488 146 109 255
0.168554 -0.483665 0.341979 4 251 255
-0.113592 -0.460066 -0.257366 10 245 255
0.0631867 -0.257375 0.191899 62 193 255
-0.38163 0.0703023 0.232585 145 110 255
0.117922 -0.100263 0.24749 102 153 255
0.138909 -0.483117 0.195849 4 251 255
-0.457478 -0.131309 0.183619 94 161 255
-0.414183 -0.485187 -0.0703415 3 252 255
-0.0376023 -0.390652 0.312317 27 228 255
-0.0600839 -0.48447 -0.230637 3 252 255
-0.14583 -0.249188 0.182301 64 191 255
-0.470222 -0.265781 0.239361 59 195 255
0.170864 -0.438281 0.269555 15 240 255
-0.265386 -0.171021 0.177173 84 171 255
-0.198788 -0.00602313 0.25233 126 129 255
-0.286569 -0.483048 0.22218 4 251 255
-0.044818 0.0280244 0.152773 135 120 255
-0.0621298 -0.419251 0.447421 20 235 255
-0.0985487 -0.478202 0.228103 5 250 255
-0.0145041 -0.481769 0.0568224 4 251 255
-0.33844 0.0735224 0.0538877 146 109 255
-0.443984 0.0541938 0.156303 141 113 255
-0.465562 -0.196566 0.252675 77 178 255
-0.409505 -0.4844 -0.254854 3 252 255
-0.0890395 -0.48326 0.113137 4 251 255
-0.133069 0.068646 0.103219 145 110 255
0.0551758 -0.483725 0.0763222 4 251 255
0.100217 -0.0218733 0.279277 121 133 255
-0.174469 -0.484305 0.430047 3 252 255
-0.307648 -0.484988 -0.269347 3 252 255
-0.13777 0.0737235 -0.174013 146 109 255
0.000986836 -0.299334 0.280638 51 204 255
-0.329178 0.0741722 -0.229209 146 109 255
-0.452796 -0.0559155 0.185113 113 142 255
-0.384342 -0.483503 0.290377 4 251 255
-0.415566 -0.481335 0.0459028 4 251 255
0.00732382 0.0276556 0.204619 134 121 255
0.165074 -0.32749 0.379898 44 211 255
-0.381391 0.0745289 -0.0691866 146 109 255
-0.0743655 -0.397903 0.205089 26 229 255
-0.389526 -0.484315 0.39183 3 252 255
-0.0833181 0.0743 -0.0894278 146 109 255
-0.0101746 -0.47924 -0.0701625 5 250 255
-0.312185 -0.112923 -0.162823 99 156 255
-0.163292 -0.483826 0.00823092 4 251 255
-0.149106 -0.473609 0.145149 6 249 255
-0.189729 -0.484501 -0.159429 3 252 255
-0.10709 -0.328167 0.191049 43 211 255
-0.454391 -0.319042 0.316789 46 209 255
0.225309 -0.483965 0.363178 4 251 255
-0.341385 0.0740669 -0.137699 146 109 255
-0.0641292 -0.0809126 0.224376 107 147 255
0.126656 0.0739002 0.228701 146 109 255
-0.1137 -0.374901 -0.314579 31 224 255
-0.245858 0.0733948 -0.264388 146 109 255
-0.395041 -0.0457676 0.257743 116 139 255
0.0859724 0.0718741 0.332721 146 109 255
0.189407 -0.483364 0.123193 4 251 255
-0.47267 0.0741386 0.274355 146 109 255
-0.120629 0.0721412 -0.272574 146 109 255
-0.342424 -0.321364 0.211543 44 210 255
-0.298504 -0.483709 0.370495 4 251 255
-0.383102 -0.486073 -0.372038 3 252 255
-0.0795729 -0.214457 0.205831 73 182 255
0.0158443 -0.434088 0.287722 16 239 255
0.150315 -0.487923 0.0121772 3 252 255
-0.436575 -0.484064 0.189873 3 252 255
-0.470996 0.0707396 -0.286138 146 109 255
0.112815 -0.0379233 -0.137823 118 137 255
-0.154566 -0.114446 0.172721 97 157 255
-0.186086 0.0682723 0.0371871 145 110 255
-0.029937 -0.154129 0.23817 88 167 255
-0.224469 -0.483573 0.363048 4 251 255
-0.303618 0.0704861 0.105581 145 110 255
0.0178846 -0.397464 0.158981 26 229 255
0.202325 -0.259007 0.329879 60 194 255
0.0214191 -0.432225 -0.384787 17 238 255
0.0502712 -0.481617 -0.170115 4 251 255
0.0411595 -0.484326 0.406648 3 252 255
-0.00517288 -0.483064 0.165877 4 251 255
-0.109577 -0.484494 -0.189658 3 252 255
-0.149766 0.0762936 0.247565 147 108 255
-0.254913 -0.426843 0.159974 18 237 255
0.14172 -0.235896 0.278234 67 188 255
-0.45559 0.073194 -0.192281 146 109 255
-0.20587 -0.254052 0.139809 62 193 255
-0.0532913 -0.383849 -0.376304 29 226 255
0.0734095 -0.38132 0.233217 30 225 255
-0.00232755 -0.332042 0.434249 42 213 255
-0.246214 -0.482876 0.265137 4 251 255
-0.156692 -0.48488 -0.274998 3 252 255
-0.499685 -0.487923 0.0871772 3 252 255
0.0892977 0.0100644 0.407272 130 125 255
-0.457748 -0.201101 0.187869 76 179 255
0.0715312 -0.256845 0.433883 62 193 255
-0.337185 -0.0254233 0.174677 121 134 255
-0.169132 -0.180248 0.175669 81 174 255
-0.342937 -0.483833 -0.14421 4 251 255
-0.0871411 0.0725423 0.388719 146 109 255
-0.166479 -0.328103 0.286961 43 211 255
-0.451642 -0.354787 0.189735 36 218 255
-0.199685 -0.0629233 -0.125323 111 144 255
-0.183286 -0.422559 -0.386829 19 236 255
0.14801 -0.30439 0.248872 48 206 255
-0.259307 0.0649925 -0.0215077 144 111 255
-0.055831 0.0454688 0.0888161 139 116 255
0.0503424 0.0641268 0.43907 144 111 255
-0.26934 -0.282958 0.156089 55 200 255
0.137815 -0.112923 -0.137823 99 156 255
-0.281837 0.0633621 -0.102834 144 111 255
0.0111267 -0.184642 0.375962 80 175 255
-0.0871846 -0.100423 -0.162823 102 153 255
-0.434982 0.0670444 0.327346 145 110 255
0.0359987 0.0253967 0.311352 134 121 255
-0.361369 0.0746305 -0.293737 147 108 255
-0.358056 -0.14015 0.206608 92 163 255
0.0203641 -0.106726 0.19981 100 155 255
-0.189885 0.0711654 0.137914 146 109 255
-0.316168 -0.421162 0.276424 20 235 255
-0.0390648 -0.428739 -0.288054 18 237 255
-0.210293 -0.444761 -0.303914 14 241 255
-0.0261981 -0.453746 0.448167 11 244 255
-0.23665 0.0581302 0.320945 142 113 255
-0.417906 -0.484129 0.106442 3 252 255
0.0256311 -0.0571813 0.429057 113 142 255
-0.0503353 -0.173875 0.140047 83 172 255
-0.312001 -0.442639 0.438486 14 241 255
0.124692 -0.444925 0.31529 14 241 255
0.0639129 -0.27889 0.31622 56 199 255
-0.0366282 -0.478647 -0.213833 5 250 255
-0.0139837 -0.348322 0.222664 38 217 255
-0.104064 -0.485283 -0.364087 3 252 255
-0.311343 -0.483533 0.0668477 4 251 255
-0.351135 -0.485421 -0.313389 3 252 255
-0.1362 -0.484044 0.385213 4 251 255
0.013944 -0.480452 0.210138 4 251 255
-0.197527 -0.313612 0.176702 47 208 255
-0.0524138 0.0672325 0.447413 145 110 255
-0.467348 -0.412312 0.254428 22 233 255
-0.0498461 -0.319504 0.275657 46 209 255
-0.46928 0.07186 -0.14094 146 109 255
-0.213802 -0.48506 -0.199278 3 252 255
-0.171216 -0.192174 0.299037 78 177 255
-0.0212754 0.0191583 0.251228 131 123 255
-0.248897 -0.483505 0.0919973 4 251 255
-0.247192 -0.484617 -0.042056 3 252 255
-0.302315 -0.448866 0.187714 13 242 255
-0.280751 0.0743567 0.171505 146 109 255
-0.0463599 0.0745016 0.167088 146 109 255
0.0699336 0.0732786 0.284465 146 109 255
-0.166768 -0.482592 -0.0542681 4 251 255
-0.320352 0.0626621 -0.00188022 143 112 255
-0.249685 -0.112923 -0.137823 99 156 255
0.0282704 -0.372511 -0.329469 32 223 255
-0.250562 -0.485644 -0.370008 3 252 255
-0.154225 -0.450249 0.271257 12 243 255
-0.443892 -0.484883 0.0286047 3 252 255
0.117571 -0.483327 0.126696 4 251 255
-0.140274 -0.483536 0.0849679 4 251 255
-0.110494 -0.446217 0.449445 13 242 255
0.0329836 -0.483532 -0.115219 4 251 255
0.0609966 0.0742864 0.223257 146 109 255
-0.134587 0.0502851 0.288385 140 114 255
0.0239171 -0.171604 0.266761 83 172 255
-0.0829652 -0.283056 0.203977 55 200 255
-0.34495 -0.484195 -0.207952 3 252 255
-0.366149 -0.42006 0.418045 20 235 255
0.141934 -0.109716 0.390463 99 156 255
-0.0746846 -0.0379233 -0.137823 118 137 255
-0.015924 -0.420879 0.246816 20 235 255
-0.247173 0.0642835 0.233687 144 111 255
-0.0718457 -0.484109 0.0352215 3 252 255
-0.371311 0.0735135 0.346896 146 109 255
0.0405248 -0.483989 -0.0400992 4 251 255
-0.0904964 -0.483584 0.344701 4 251 255
-0.404308 0.0744373 0.0183247 146 109 255
-0.397524 0.0580819 0.148126 142 113 255
-0.4166 -0.250215 0.201371 63 192 255
-0.168102 0.0704773 0.446285 145 110 255
-0.450104 -0.45655 0.400211 11 244 255
-0.379984 -0.483654 0.1851 4 251 255
0.171299 -0.483054 0.213568 4 251 255
-0.325264 0.0277171 0.243649 135 120 255
-0.457056 -0.44486 0.194862 14 241 255
0.119805 -0.384382 0.428377 29 226 255
0.00443357 -0.212907 0.21385 73 182 255
-0.407846 -0.0278343 0.174418 120 135 255
-0.0565624 -0.419527 0.16519 20 235 255
0.045472 -0.413848 0.442499 21 234 255
-0.0121846 -0.000423317 0.349677 127 128 255
-0.357172 -0.483569 -0.0406037 4 251 255
-0.467724 -0.15433 0.233757 88 167 255
-0.149527 -0.482963 0.247944 4 251 255
-0.329152 0.0738785 -0.353168 146 109 255
0.0426534 0.0690687 0.0123472 145 110 255
-0.0387402 0.0731265 0.268503 146 109 255
0.0166201 -0.0197117 0.199437 121 133 255
-0.0444459 0.0730927 -0.217905 146 109 255
0.0855212 -0.138358 0.221295 92 163 255
-0.176716 0.0695381 -0.0178599 145 110 255
-0.24184 -0.189621 0.139857 79 176 255
-0.0873877 -0.447113 -0.328301 13 242 255
0.0179718 -0.414232 -0.275477 21 234 255
0.0522497 -0.130613 0.309485 94 161 255
-0.166369 -0.404724 0.185911 24 231 255
-0.309862 -0.359003 0.215061 36 219 255
0.097042 -0.483728 0.179495 4 251 255
-0.431176 -0.484206 0.336595 3 252 255
-0.459207 0.0543321 0.066461 141 113 255
0.0632833 -0.483426 0.0253039 4 251 255
-0.054387 -0.482809 0.209531 4 251 255
-0.153907 -0.483471 0.138363 4 251 255
-0.310536 -0.48415 0.426307 3 252 255
-0.418381 0.07258 -0.137377 146 109 255
-0.436736 0.0717698 -0.294991 146 109 255
0.111646 0.0740337 0.185511 146 109 255
-0.0739474 -0.389829 -0.259132 28 227 255
-0.0855695 0.0726519 0.00616586 146 109 255
0.0283431 0.061662 0.0995327 143 112 255
0.00100401 0.0684143 0.423036 145 110 255
0.112507 -0.305483 0.425641 48 206 255
0.200315 -0.0629233 -0.150323 111 144 255
0.202285 -0.329377 0.33849 43 211 255
0.25888 -0.483389 0.194671 4 251 255
-0.030743 -0.461313 -0.371565 9 246 255
-0.222955 0.0428184 0.444717 138 117 255
0.0996588 -0.310478 0.239514 48 207 255
-0.191698 -0.483836 0.039137 4 251 255
-0.280749 0.057194 0.303145 142 113 255
0.0189387 -0.27075 0.164993 58 197 255
-0.102557 0.0741664 -0.128583 146 109 255
0.110401 -0.359855 0.318326 35 220 255
0.112398 -0.482701 0.252407 4 251 255
-0.183658 -0.383589 -0.332845 29 226 255
0.114605 -0.482711 0.429999 4 251 255
-0.373197 0.0568213 0.421036 142 113 255
-0.256862 -0.484307 -0.130679 3 252 255
-0.271466 -0.484939 -0.305184 3 252 255
-0.470001 0.0451803 0.37626 139 116 255
-0.109416 0.0484537 0.179344 140 114 255
0.114108 -0.184851 0.300226 80 175 255
0.462815 -0.100423 -0.137823 102 153 255
0.137815 -0.400423 -0.300323 25 230 255
-0.42368 -0.485422 -0.18293 3 252 255
-0.353949 -0.197214 0.206533 77 178 255
-0.411314 -0.484717 0.427556 3 252 255
-0.271791 0.0736674 -0.317099 146 109 255
-0.465258 -0.439354 0.307998 15 240 255
0.221748 -0.480576 0.295908 4 251 255
-0.0849701 -0.481885 0.0920666 4 251 255
0.187655 -0.194081 0.343743 78 177 255
-0.368529 0.0701007 -0.230974 145 110 255
0.0777267 -0.480704 -0.103859 4 251 255
-0.0351062 -0.373501 -0.31585 32 223 255
-0.00299522 0.0716508 0.351158 146 109 255
-0.238755 -0.484002 0.142142 4 251 255
-0.119568 -0.0468816 0.14143 115 140 255
-0.229359 -0.338008 0.155627 40 214 255
0.0390392 -0.0293504 0.2652 120 135 255
-0.446355 -0.316259 0.165861 46 209 255
-0.0339698 -0.307771 0.141863 48 206 255
-0.0288269 -0.484114 -0.172392 3 252 255
-0.437135 -0.485277 -0.0977276 3 252 255
0.0952544 0.0731848 0.0769133 146 109 255
-0.24097 -0.134697 0.170065 93 162 255
-0.229351 -0.484132 0.415243 3 252 255
0.00549756 -0.1169 0.399612 97 158 255
-0.0602922 -0.339617 0.418637 40 215 255
-0.309834 -0.29601 0.214571 52 203 255
-0.14469 -0.377815 0.291352 31 224 255
-0.346926 -0.407423 0.214734 23 232 255
-0.0111955 -0.483357 0.254053 4 251 255
0.0730813 -0.160937 0.427733 86 169 255
0.0244728 -0.145605 0.146897 89 165 255
0.00505608 -0.479055 -0.251339 5 250 255
-0.197397 0.0767836 0.252492 147 108 255
0.462815 -0.212923 -0.137823 73 182 255
-0.190816 -0.484757 -0.32726 3 252 255
-0.142748 0.0720359 -0.304375 146 109 255
-0.00885069 -0.481163 0.348776 4 251 255
-0.10917 -0.474806 0.269795 6 249 255
-0.054834 -0.483783 -0.0436658 4 251 255
-0.0701761 -0.251987 0.239757 63 192 255
0.0545159 -0.345452 0.423085 39 216 255
-0.474757 0.0701782 0.159764 145 110 255
-0.195917 0.0676553 -0.197938 145 110 255
-0.141213 0.0693501 0.0553919 145 110 255
0.178135 -0.407362 0.367247 23 232 255
-0.132394 -0.430442 -0.267406 17 238 255
0.155243 0.0737549 0.262943 146 109 255
-0.166277 0.0695865 -0.0839103 145 110 255
0.102604 -0.0652241 0.24939 111 144 255
-0.199764 -0.47253 0.199076 6 249 255
-0.350426 -0.381434 0.284444 30 225 255
-0.0293071 -0.0779087 0.233866 107 147 255
-0.00882167 0.0734585 -0.145767 146 109 255
-0.325514 0.0752539 0.257517 147 108 255
0.0445436 -0.404988 0.192978 24 231 255
-0.433151 0.0709782 0.249604 146 109 255
-0.196216 -0.0457959 0.172923 116 139 255
-0.143959 -0.17647 0.136354 81 173 255
0.00836953 -0.470598 -0.330391 7 248 255
0.00383087 0.0738531 -0.0445928 146 109 255
0.122296 -0.0454234 0.398491 116 139 255
-0.114042 -0.347858 0.153146 38 217 255
-0.441395 -0.461784 0.158951 9 246 255
-0.115035 -0.484005 -0.0110663 4 251 255
0.187815 -0.0879233 0.312177 105 150 255
0.0965509 -0.483772 0.358468 4 251 255
-0.42642 -0.118738 0.165691 97 158 255
-0.432666 0.0741509 -0.236157 146 109 255
-0.0315076 0.0745713 0.0427147 147 108 255
-0.377823 -0.485357 -0.282784 3 252 255
-0.0159266 -0.290164 0.233924 52 202 255
-0.120477 0.0733928 -0.209332 146 109 255
0.159783 -0.445374 0.426916 13 242 255
-0.222937 0.0740084 -0.128186 146 109 255
-0.197857 -0.444664 0.443787 14 241 255
0.0229386 -0.0050646 0.437679 126 129 255
0.0721018 0.00142198 0.312233 128 127 255
-0.102959 -0.093111 0.205493 104 151 255
0.118271 -0.407162 -0.24971 23 232 255
-0.0246846 -0.100423 -0.162823 102 153 255
0.114593 -0.218637 0.421432 71 184 255
-0.0191913 -0.225373 0.138919 70 185 255
-0.393984 0.0745772 -0.349272 147 108 255
-0.464992 0.0715651 0.00811191 146 109 255
0.0878154 -0.112923 -0.150323 99 156 255
0.0877931 -0.379132 -0.34706 30 225 255
0.0123218 -0.483079 0.131178 4 251 255
-0.244924 -0.483162 0.302712 4 251 255
-0.439174 -0.485926 -0.228191 3 252 255
-0.322802 0.0623147 0.182541 143 112 255
-0.329298 0.0739974 -0.171793 146 109 255
0.0109696 -0.255666 0.411139 62 193 255
-0.464219 -0.236009 0.268469 67 188 255
0.0281068 0.0728696 0.28472 146 109 255
-0.343962 -0.483917 0.143419 4 251 255
-0.31749 -0.482942 0.270296 4 251 255
-0.0129296 -0.484301 0.409835 3 252 255
-0.366768 -0.0687558 0.258783 110 145 255
-0.243258 0.0760225 -0.0629684 147 108 255
-0.162185 -0.0754233 -0.150323 108 147 255
-0.396981 -0.404373 0.245387 24 231 255
-0.100961 -0.476326 0.160482 5 250 255
-0.0202681 -0.0596046 0.147319 112 143 255
-0.0954003 -0.371187 -0.353984 32 223 255
-0.183807 -0.4789 0.368599 5 250 255
-0.401154 -0.294453 0.209725 52 203 255
0.0135414 0.0589439 0.140292 143 112 255
-0.468402 -0.485375 -0.298083 3 252 255
-0.13576 0.00457652 0.246741 129 126 255
-0.19167 -0.476372 0.280095 5 250 255
-0.0632729 0.0726043 0.328492 146 109 255
0.216784 -0.483373 0.116117 4 251 255
0.205623 -0.483916 0.393975 4 251 255
-0.48387 -0.483745 0.414996 4 251 255
-0.0200555 -0.380442 0.167875 30 225 255
-0.133569 -0.297485 0.142753 51 204 255
0.175883 0.0736772 0.337817 146 109 255
-0.27439 -0.4849 -0.23247 3 252 255
-0.309398 0.0715183 -0.248575 146 109 255
-0.0873699 -0.336513 0.223384 40 214 255
0.129929 -0.428392 0.257422 18 237 255
0.112199 0.0378297 0.406659 137 118 255
-0.451138 -0.0213156 0.194429 121 133 255
-0.183252 -0.471592 -0.389025 7 248 255
-0.202341 -0.483285 0.205184 4 251 255
-0.33661 -0.318898 0.154333 46 209 255
-0.233537 0.0653996 0.174266 144 111 255
-0.0916339 0.0698086 -0.0491024 145 110 255
0.0370841 -0.432507 0.318032 17 238 255
-0.388057 -0.473483 0.10596 6 249 255
0.209944 0.0720506 0.240524 146 109 255
0.0679069 -0.0517697 0.399325 113 141 255
-0.0322732 -0.168452 0.306459 84 171 255
-0.389467 0.0751721 0.189272 147 108 255
-0.19749 -0.484258 -0.0540743 3 252 255
-0.0856607 -0.0988589 0.146692 102 153 255
-0.426463 0.072635 -0.078339 146 109 255
0.241113 -0.483123 0.24847 4 251 255
0.0487956 -0.482658 0.228517 4 251 255
-0.262732 0.0713549 0.443743 146 109 255
-0.128134 -0.484461 -0.217882 3 252 255
-0.122804 -0.482575 -0.119671 4 251 255
-0.143653 -0.426905 0.443328 18 237 255
-0.355469 -0.484261 0.428422 3 252 255
0.0943091 0.0742605 0.131472 146 109 255
-0.20781 0.0693666 -0.295053 145 110 255
-0.0626041 -0.423646 0.282853 19 236 255
-0.442123 -0.270019 0.309305 58 197 255
-0.297259 -0.484003 -0.050112 4 251 255
-0.499685 -0.112923 0.174677 99 156 255
0.0862623 -0.0943126 0.306621 103 152 255
0.0466387 -0.479497 0.059751 5 250 255
-0.382626 -0.48379 0.327663 4 251 255
-0.0853338 -0.482962 0.253061 4 251 255
0.0645066 -0.435495 -0.347295 16 239 255
0.0357132 -0.443284 0.153649 14 241 255
-0.233874 -0.200788 0.178739 76 179 255
-0.0658399 0.0234575 0.212558 133 121 255
-0.372063 0.0253671 0.245985 134 121 255
0.152001 -0.37046 0.394243 32 222 255
-0.233577 0.0179887 0.245465 131 123 255
-0.195417 -0.484899 -0.234187 3 252 255
-0.295962 -0.485731 -0.366775 3 252 255
-0.254697 0.0652006 0.08684 144 111 255
0.00886184 -0.330706 0.305215 43 211 255
-0.47294 -0.484525 -0.0377435 3 252 255
-0.0228712 -0.483299 0.0803753 4 251 255
0.162815 -0.0379233 0.337177 118 137 255
0.16727 -0.483033 0.26458 4 251 255
-0.408179 -0.470775 0.235059 7 248 255
-0.457708 -0.107368 0.226879 100 155 255
0.0504973 -0.186884 0.226915 80 175 255
-0.374444 0.0603474 0.0175786 143 112 255
-0.171021 -0.357607 0.15303 36 219 255
-0.0497969 -0.481687 -0.134646 4 251 255
-0.312185 -0.0504233 -0.137823 115 140 255
-0.0103929 -0.484029 -0.0297887 4 251 255
-0.279352 -0.411472 0.274786 22 233 255
0.133237 -0.1443 0.260014 89 165 255
-0.119787 -0.189782 0.187899 79 176 255
-0.10626 -0.389356 0.248113 28 227 255
0.0510871 -0.181564 0.150746 81 174 255
0.0448169 -0.316902 0.229941 46 209 255
-0.094915 0.074786 0.124166 147 108 255
-0.193953 0.0614515 0.326583 143 112 255
-0.0121846 -0.0379233 -0.137823 118 137 255
-0.218799 0.0763455 -0.00892702 147 108 255
-0.324865 -0.481672 0.374511 4 251 255
-0.330796 0.0618453 0.128145 143 112 255
-0.453189 -0.48428 0.254788 3 252 255
-0.0592297 -0.438411 -0.24986 15 240 255
-0.0474336 0.0743721 -0.082382 146 109 255
-0.0505054 -0.166528 0.229445 85 170 255
-0.290548 -0.214625 0.1532 72 183 255
0.114934 -0.112096 0.412595 99 156 255
-0.342006 -0.483453 0.0697268 4 251 255
0.0655536 -0.464713 0.254686 8 247 255
-0.471596 0.0713777 -0.215788 146 109 255
-0.313602 -0.481761 0.228367 4 251 255
-0.106651 -0.484839 -0.28885 3 252 255
-0.254796 0.0709544 -0.187978 146 109 255
0.0196995 -0.0629754 0.185833 111 144 255
-0.18081 0.0724556 -0.356044 146 109 255
-0.330212 0.0745216 -0.0889698 146 109 255
0.0140003 0.0745007 0.200369 146 109 255
-0.457224 0.0703544 -0.347856 145 110 255
-0.377421 0.0736297 0.306953 146 109 255
-0.121449 0.0742796 0.345792 146 109 255
-0.186996 -0.392059 0.277776 27 228 255
-0.428838 -0.437433 0.41318 15 240 255
-0.408099 -0.484762 -0.327886 3 252 255
-0.360119 -0.484527 -0.108449 3 252 255
-0.0121846 -0.0879233 0.324677 105 150 255
-0.222084 -0.0914251 0.144238 104 151 255
-0.472436 0.0705152 0.312312 145 110 255
-0.0653758 -0.483805 0.36439 4 251 255
-0.13265 -0.484365 0.427793 3 252 255
-0.254301 -0.484272 0.0375823 3 252 255
0.157277 -0.316207 0.280356 46 209 255
-0.0439583 -0.48489 -0.307001 3 252 255
-0.432599 -0.250691 0.160364 63 192 255
-0.374119 -0.405023 0.177402 24 231 255
0.0371575 -0.0994242 0.25315 102 153 255
0.032612 -0.156144 0.434338 87 168 255
-0.435909 -0.171082 0.16657 84 171 255
-0.0904901 -0.0425954 0.206801 117 138 255
-0.372284 -0.484972 -0.232736 3 252 255
0.0602539 0.0707127 0.379853 146 109 255
-0.167098 -0.484937 -0.143277 3 252 255
-0.163866 0.0748207 0.192575 147 108 255
-0.428453 0.0743362 0.376988 146 109 255
-0.101429 0.0722593 -0.259323 146 109 255
0.187815 -0.487923 0.0496772 3 252 255
-0.476253 -0.484369 -0.116824 3 252 255
0.0999224 0.0741304 0.28198 146 109 255
-0.0804028 -0.439902 -0.385822 15 240 255
0.012535 -0.395481 0.445043 26 229 255
-0.267649 -0.479458 0.44696 5 250 255
-0.0867264 0.0697633 0.443218 145 110 255
-0.116963 -0.439098 0.189977 15 240 255
-0.429575 -0.480827 -0.0422326 4 251 255
-0.235953 -0.484741 -0.274922 3 252 255
-0.290973 0.0739734 0.0251514 146 109 255
-0.139616 0.0741991 -0.124778 146 109 255
0.0266604 -0.379835 0.260768 30 225 255
-0.0746846 -0.112923 -0.125323 99 156 255
0.187815 -0.187923 0.262177 79 176 255
0.00836174 -0.287812 0.440708 54 201 255
-0.446636 -0.397829 0.172633 26 229 255
-0.406186 -0.484336 0.0411738 3 252 255
-0.170722 0.0748019 0.115004 147 108 255
0.049097 0.0736737 0.0652054 146 109 255
-0.299894 -0.48314 0.168123 4 251 255
0.165501 0.0729745 0.187552 146 109 255
0.0764223 -0.414259 -0.291073 21 234 255
0.0957011 -0.480786 0.163437 4 251 255
0.0116979 -0.00917885 0.405525 125 130 255
0.00564898 -0.483617 -0.109146 4 251 255
-0.184534 0.0313289 0.23998 135 120 255
-0.461249 -0.481546 0.143885 4 251 255
-0.0128287 -0.369103 -0.354879 32 222 255
-0.0909629 0.0738761 0.280755 146 109 255
0.0537771 -0.483055 0.281601 4 251 255
-0.0215032 -0.155319 0.143527 88 167 255
-0.471712 0.0703794 0.124267 145 110 255
-0.225946 -0.481554 0.117032 4 251 255
-0.033545 -0.033012 0.231903 119 136 255
-0.499685 -0.337923 0.187177 40 214 255
0.160156 -0.37373 0.265521 32 223 255
0.00596134 -0.483686 0.0261768 4 251 255
-0.224733 -0.485099 -0.148829 3 252 255
0.0492711 -0.106361 0.410255 100 155 255
-0.366942 -0.483163 0.229014 4 251 255
-0.39748 -0.484715 -0.162624 3 252 255
0.205207 -0.246958 0.323923 64 191 255
-0.0297691 0.0708026 0.410608 146 109 255
-0.201802 -0.461998 -0.285969 9 246 255
-0.464532 0.0739429 0.2142 146 109 255
-0.173183 -0.130713 0.168232 94 161 255
0.198345 -0.483756 0.328929 4 251 255
-0.0854399 0.0724372 0.0736577 146 109 255
-0.139275 -0.378128 -0.379422 31 224 255
0.203703 -0.375308 0.33563 31 224 255
-0.0354891 0.0741803 -0.00853156 146 109 255
-0.341763 0.0733124 0.415723 146 109 255
-0.0831566 -0.246065 0.184819 64 191 255
-0.102827 -0.483078 0.176328 4 251 255
-0.0509036 -0.451889 0.448798 12 243 255
-0.00636795 0.0731574 0.248962 146 109 255
0.135555 -0.256575 0.406352 62 193 255
-0.262679 -0.482927 0.234395 4 251 255
0.125161 0.071973 0.359146 146 109 255
-0.315775 -0.484724 -0.205513 3 252 255
-0.379483 -0.346433 0.204484 39 216 255
0.181843 -0.146692 0.346381 89 165 255
-0.187185 -0.112923 -0.162823 99 156 255
-0.0963526 -0.478266 -0.229279 5 250 255
0.000249432 -0.194658 0.256012 78 177 255
-0.467188 -0.309939 0.274436 48 207 255
-0.416816 0.0704075 0.086454 145 110 255
0.175315 -0.112923 -0.175323 99 156 255
-0.399554 0.0723857 -0.194004 146 109 255
-0.0415229 -0.468559 0.195338 7 248 255
-0.314665 -0.395984 0.158326 26 229 255
0.051956 -0.483946 0.371408 4 251 255
-0.205185 0.0729421 -0.231412 146 109 255
0.0970689 -0.423836 0.431957 19 236 255
0.0699143 -0.479663 -0.157511 5 250 255
-0.225865 -0.484075 -0.0174275 3 252 255
-0.457755 0.0702125 -0.0459302 145 110 255
-0.282828 -0.484037 -0.0906804 4 251 255
-0.0221648 -0.481766 0.118344 4 251 255
-0.0364351 -0.322181 0.302126 44 210 255
-0.0855214 -0.136151 0.210914 93 162 255
-0.356946 -0.245443 0.196862 65 190 255
0.0426165 -0.385141 -0.383293 29 226 255
0.063518 -0.239468 0.43345 65 189 255
-0.212814 -0.462418 0.255725 9 246 255
0.00946969 0.0124929 0.275422 131 124 255
-0.195174 -0.255004 0.13979 62 193 255
-0.0337746 0.0745007 0.195195 146 109 255
-0.0159868 0.0249262 0.447834 134 121 255
-0.0183176 -0.474399 0.276013 6 249 255
-0.370496 -0.482663 0.00920528 4 251 255
-0.119417 -0.296757 0.187061 51 204 255
-0.347226 0.075354 0.348988 147 108 255
-0.376068 0.0720534 -0.117197 146 109 255
-0.166173 -0.398229 -0.288665 25 230 255
-0.27023 -0.481645 0.368907 4 251 255
-0.285449 -0.270566 0.154726 58 197 255
-0.0422294 0.0311131 0.113352 135 120 255
0.00311035 -0.48253 -0.201531 4 251 255
-0.0244343 0.0735298 -0.166685 146 109 255
-0.346181 0.0744883 -0.0392638 146 109 255
-0.150984 -0.481213 0.211186 4 251 255
0.0181142 0.0733013 -0.0850327 146 109 255
0.00252846 -0.472297 0.44736 7 248 255
-0.323487 0.0717631 -0.292963 146 109 255
-0.149727 -0.484811 -0.331289 3 252 255
-0.216325 -0.364437 0.17156 34 221 255
-0.471019 0.071935 -0.10667 146 109 255
0.0850058 -0.482754 0.437787 4 251 255
-0.206018 -0.15468 0.134932 88 167 255
-0.0667904 -0.481999 0.0321773 4 251 255
-0.0718215 -0.481603 -0.084278 4 251 255
-0.478019 0.0707655 -0.26989 146 109 255
-0.211394 -0.417477 -0.358909 21 234 255
0.0873305 -0.335618 0.318224 42 213 255
-0.149698 -0.0795531 0.180868 107 147 255
-0.120659 -0.35911 0.193502 35 220 255
-0.141476 -0.483551 0.0671134 4 251 255
-0.322869 -0.485279 -0.305994 3 252 255
0.0515392 -0.48333 0.133774 4 251 255
-0.380931 -0.360666 0.262572 35 220 255
0.162815 -0.0879233 -0.112823 105 150 255
0.0807901 -0.481763 -0.0533522 4 251 255
-0.0315306 0.0508817 0.32438 140 114 255
-0.0862381 0.0748133 -0.172623 147 108 255
-0.273561 -0.484386 0.0663002 3 252 255
0.0935097 0.0651047 0.427443 144 111 255
-0.0762834 -0.483095 0.299375 4 251 255
-0.0347324 -0.386368 0.265828 29 226 255
-0.140339 0.070059 -0.053158 145 110 255
-0.37986 -0.486068 -0.37121 3 252 255
-0.464089 -0.45625 0.372877 11 244 255
-0.171791 -0.480586 0.339416 4 251 255
-0.0655003 -0.484286 0.40798 3 252 255
-0.388738 -0.450842 0.144314 12 243 255
-0.263601 -0.0754744 0.167688 108 147 255
-0.237185 -0.0504233 -0.125323 115 140 255
0.127658 -0.483907 0.36537 4 251 255
-0.0965939 0.07468 0.197774 147 108 255
-0.0400905 -0.390669 0.442591 27 228 255
0.0585027 -0.40044 0.315773 25 230 255
-0.126523 0.0717803 -0.34433 146 109 255
-0.0711821 -0.484423 -0.199577 3 252 255
0.0840225 -0.382689 0.233019 29 226 255
-0.433684 -0.484699 0.30843 3 252 255
-0.176957 -0.483849 0.156485 4 251 255
-0.487185 -0.262923 0.162177 60 195 255
0.00210358 0.073296 0.0467386 146 109 255
0.13319 -0.184587 0.405393 80 175 255
0.0605017 0.0740479 0.148838 146 109 255
-0.0738021 -0.265898 0.139781 59 195 255
0.150905 -0.218822 0.258721 71 184 255
0.0884932 0.0740511 0.223667 146 109 255
-0.156158 -0.484143 -0.0976722 3 252 255
0.0738381 -0.308183 0.20618 48 206 255
0.0963257 0.0123848 0.338662 131 124 255
-0.278834 0.0739677 -0.135628 146 109 255
-0.0661285 -0.190044 0.183297 79 176 255
-0.171612 -0.0189123 0.175096 123 131 255
-0.414642 0.0533316 0.226254 141 113 255
-0.192294 0.0746171 0.0620909 147 108 255
0.116883 -0.339556 0.423845 40 215 255
-0.308219 0.0736429 0.0667543 146 109 255
-0.175803 0.0530634 0.447977 141 113 255
-0.291991 0.0734148 0.321383 146 109 255
-0.175516 0.0724598 -0.277484 146 109 255
0.161007 -0.452881 0.392418 11 244 255
-0.25167 0.0744773 0.13686 146 109 255
0.0626393 -0.0321444 0.243913 119 136 255
-0.221633 0.0718834 0.27218 146 109 255
-0.355734 -0.481442 0.268989 4 251 255
0.00921382 -0.137887 0.214113 92 163 255
-0.0320708 -0.338882 0.163595 40 214 255
-0.403327 -0.483785 0.151915 4 251 255
-0.290131 -0.370909 0.200443 32 223 255
-0.450893 -0.0740159 0.214419 108 147 255
-0.441589 -0.484909 0.418675 3 252 255
0.0503355 -0.23352 0.204989 68 187 255
0.0245519 -0.19378 0.433531 78 177 255
0.17544 0.0736028 0.28056 146 109 255
0.126211 -0.333339 0.24694 42 213 255
0.115429 -0.0907213 0.280722 104 151 255
-0.292406 -0.482899 0.297219 4 251 255
-0.0194188 -0.436257 -0.387264 16 239 255
0.129974 -0.481874 0.229732 4 251 255
-0.0662591 -0.0502141 0.146488 115 140 255
-0.0641647 -0.483036 0.151312 4 251 255
-0.224716 -0.485445 -0.333307 3 252 255
-0.389905 -0.173723 0.178405 83 172 255
0.164789 -0.327545 0.380164 44 211 255
-0.307949 0.0743969 0.218959 146 109 255
-0.0528677 -0.302553 0.218914 50 205 255
-0.470157 0.0742911 0.380815 146 109 255
0.122283 -0.160574 0.236772 86 169 255
0.0184885 -0.483002 0.181909 4 251 255
0.204791 -0.483041 0.229287 4 251 255
0.0955286 -0.482972 0.280968 4 251 255
-0.405518 -0.0662913 0.168134 110 145 255
0.0333456 -0.373116 0.422849 32 223 255
-0.0594493 -0.484418 -0.263746 3 252 255
-0.0595561 0.0728257 -0.229512 146 109 255
0.0282065 0.0641704 0.443204 144 111 255
-0.377386 0.0720665 -0.266553 146 109 255
-0.293223 -0.449393 0.443958 12 243 255
-0.330464 -0.483741 -0.017869 4 251 255
-0.151691 -0.463045 -0.387295 9 246 255
-0.127718 -0.210215 0.145722 73 181 255
-0.0228809 -0.429263 -0.252277 18 237 255
-0.114664 -0.37699 -0.30316 31 224 255
0.137085 -0.0679795 0.391863 110 145 255
-0.00239747 -0.201929 0.150675 76 179 255
-0.363014 0.0742289 -0.352143 146 109 255
-0.365231 0.0603089 0.0743339 143 112 255
0.0313322 -0.284477 0.242584 55 200 255
-0.000453957 -0.479661 -0.151724 5 250 255
-0.466311 -0.435481 0.255251 16 239 255
0.0521798 -0.155546 0.184426 88 167 255
-0.248389 -0.426104 0.162866 18 237 255
-0.138368 0.0746994 0.000783548 147 108 255
0.177692 -0.484124 0.403355 3 252 255
-0.0778649 -0.462723 0.235984 9 246 255
0.147064 -0.457412 0.297425 10 245 255
-0.42601 -0.484389 0.0686599 3 252 255
0.0378154 -0.0629233 -0.125323 111 144 255
0.475315 -0.175423 -0.137823 83 172 255
-0.110481 -0.484364 -0.155958 3 252 255
-0.152052 -0.467928 -0.266886 8 247 255
-0.191897 -0.482408 0.43824 4 251 255
0.00169379 -0.285825 0.403914 54 201 255
-0.245077 0.0654384 0.0454733 144 111 255
-0.112687 0.0746834 0.256453 147 108 255
0.0974554 -0.139307 0.307923 92 163 255
-0.116048 -0.115972 0.13739 97 157 255
-0.453185 -0.316385 0.31807 46 209 255
-0.296947 0.0630082 -0.0694444 144 111 255
-0.00971752 -0.114847 0.142431 97 157 255
-0.443417 0.0741626 0.175334 146 109 255
-0.199685 -0.112923 -0.112823 99 156 255
0.133429 0.0734357 0.15802 146 109 255
-0.0257017 0.0741236 0.123405 146 109 255
0.0161242 -0.479597 0.354414 5 250 255
0.0360754 0.0497501 0.338304 140 114 255
-0.313933 -0.484439 -0.163258 3 252 255
-0.160317 -0.481994 0.2822 4 251 255
-0.387112 -0.0299879 0.255273 120 135 255
0.262994 -0.483213 0.261658 4 251 255
0.0494063 -0.395846 -0.285192 26 229 255
-0.239176 0.0727163 0.430229 146 109 255
-0.326745 -0.291415 0.155707 52 202 255
0.187815 -0.0504233 0.287177 115 140 255
0.0606239 -0.135873 0.246268 93 162 255
-0.130801 -0.48295 0.121246 4 251 255
-0.202415 0.0683976 -0.140406 145 110 255
0.06852 0.00699516 0.417945 129 126 255
-0.0839509 -0.351407 0.422943 36 218 255
-0.281447 0.0737885 -0.32592 146 109 255
0.0616013 -0.481843 0.0923169 4 251 255
0.0562524 -0.440548 0.425115 15 240 255
-0.0990073 -0.394226 0.168164 26 229 255
-0.261725 -0.483449 0.125558 4 251 255
-0.21712 0.0713166 0.213255 146 109 255
-0.487185 -0.0504233 0.174677 115 140 255
0.0253154 -0.0379233 0.337177 118 137 255
-0.255699 -0.483932 0.399815 4 251 255
-0.373422 0.0743678 0.149895 146 109 255
0.0086755 -0.167314 0.398621 85 170 255
-0.0386035 -0.483956 -0.109634 4 251 255
-0.0757558 -0.387969 -0.378686 28 227 255
-0.189736 -0.484769 -0.202164 3 252 255
-0.371115 -0.483729 0.40605 4 251 255
-0.0474028 -0.485051 -0.337881 3 252 255
-0.384793 0.0737795 -0.0263161 146 109 255
-0.158415 -0.483811 -0.0104434 4 251 255
0.211215 -0.476794 0.317299 5 250 255
0.0572775 -0.30573 0.430634 48 206 255
-0.102531 0.0729684 0.376454 146 109 255
-0.399422 -0.483633 0.243664 4 251 255
0.0211566 -0.483882 -0.0501298 4 251 255
-0.466531 0.0706857 0.0258379 146 109 255
-0.424534 -0.485345 -0.145736 3 252 255
-0.457908 -0.186541 0.189466 80 175 255
-0.441914 -0.329239 0.163955 43 211 255
-0.00145629 -0.415245 0.23271 21 234 255
-0.132415 0.0592068 0.155128 143 112 255
-0.360569 0.0681918 0.235351 145 110 255
-0.139582 -0.445918 0.240912 13 242 255
-0.245072 -0.328654 0.161217 43 211 255
