ply
format ascii 1.0
comment Created by Open3D
element vertex 1211
property double x
property double y
property double z
property uchar red
property uchar green
property uchar blue
end_header
-0.235653 -0.459208 0.230676 127 0 255
-0.172641 -0.128237 0.448687 127 0 255
-0.205406 -0.150601 -0.00902456 127 0 255
-0.0713293 -0.332536 0.436106 127 0 255
0.0246728 -0.487305 0.112466 127 0 255
-0.215002 -0.273335 0.348871 127 0 255
0.0637188 -0.348296 -0.294443 127 0 255
-0.193876 -0.487143 0.126459 127 0 255
-0.16622 -0.477577 0.266214 127 0 255
0.127292 0.075609 0.0624676 89 59 253
0.142463 0.076194 0.177466 89 59 253
0.166663 -0.19852 0.420087 127 0 255
-0.0445034 -0.475767 0.425363 127 0 255
-0.0521384 -0.127129 0.446636 127 0 255
0.299673 0.0752166 0.199952 89 59 253
-0.207547 -0.0529255 -0.0354939 127 0 255
-0.225314 -0.481263 -0.0355103 127 0 255
-0.16983 -0.464354 -0.213899 127 0 255
-0.164924 0.0292609 0.446129 113 21 254
-0.208513 -0.107857 -0.326837 127 0 255
-0.162827 0.0752183 -0.37505 89 59 253
0.0701567 0.0475119 0.427022 103 37 254
-0.106742 -0.0567764 0.421613 127 0 255
-0.211649 -0.321812 0.171306 127 0 255
-0.0438198 0.0759903 0.322671 89 59 253
-0.171153 -0.271578 0.420792 127 0 255
-0.204671 -0.315752 -0.324222 127 0 255
-0.138426 -0.484676 0.322651 127 0 255
-0.195181 -0.392676 -0.0415403 127 0 255
-0.351291 -0.485002 -0.186489 127 0 255
-0.039174 -0.483098 0.332893 127 0 255
-0.158537 0.0772618 -0.172096 89 59 253
-0.209953 -0.171175 0.195379 127 0 255
-0.204054 0.0679545 0.20883 93 53 253
0.109859 -0.392006 0.431492 127 0 255
-0.203808 -0.194464 -0.161874 127 0 255
-0.181479 -0.112149 0.376761 127 0 255
-0.205578 -0.303056 0.101797 127 0 255
-0.174468 -0.47452 0.39962 127 0 255
-0.191302 -0.0802615 -0.248363 127 0 255
0.00856155 -0.380192 0.427255 127 0 255
0.0397154 -0.453178 0.479476 127 0 255
-0.212161 -0.223317 0.265382 127 0 255
-0.212021 -0.0449598 0.030842 127 0 255
-0.187577 -0.121084 0.0974654 127 0 255
0.105699 0.0748133 0.339902 89 59 253
0.0516413 0.0782729 -0.0863381 87 62 253
0.0202698 -0.24489 0.426899 127 0 255
0.0804672 -0.0954689 0.418795 127 0 255
0.0211987 -0.0201386 0.417981 127 0 255
0.187173 0.0752256 0.0874457 89 59 253
0.00883484 0.078332 -0.188699 87 62 253
-0.20877 -0.381422 -0.21909 127 0 255
-0.0494144 -0.232181 0.441427 127 0 255
-0.207737 -0.158979 -0.214636 127 0 255
-0.19804 -0.213923 -0.0162267 127 0 255
-0.197998 -0.360291 0.237887 127 0 255
-0.0162315 0.0786051 -0.263779 87 62 253
-0.182703 -0.00502289 -0.135358 127 0 255
-0.17157 0.0761102 0.359821 89 59 253
-0.38173 -0.485393 -0.279541 127 0 255
-0.106349 0.0789815 -0.123815 87 62 253
0.0216302 -0.135902 0.455943 127 0 255
-0.177578 -0.304728 -0.101708 127 0 255
-0.188196 -0.251215 -0.2311 127 0 255
0.0242729 0.0750854 0.396152 89 59 253
-0.208565 -0.0450952 0.149195 127 0 255
-0.137118 0.0745614 -0.226031 89 59 253
-0.206705 -0.401172 0.0666586 127 0 255
0.137173 0.0752245 -0.0125536 89 59 253
-0.0620758 0.0779695 0.210083 89 59 253
-0.224829 -0.477874 0.055305 127 0 255
0.0443696 -0.330428 0.44631 127 0 255
0.12554 -0.303263 0.427499 127 0 255
0.0536398 0.0769567 0.157485 89 59 253
0.203974 0.074564 0.229444 89 59 253
-0.214682 -0.469089 -0.153258 127 0 255
0.0632402 -0.259169 0.471312 127 0 255
-0.0411771 0.0368592 0.435029 109 28 254
-0.112827 -0.324825 0.387479 127 0 255
-0.209305 -0.0759079 -0.0799387 127 0 255
-0.128562 0.0758553 0.137374 89 59 253
-0.197923 -0.230025 0.046705 127 0 255
-0.197582 0.0748755 -0.0168455 89 59 253
-0.0406955 0.0760596 -0.0920561 89 59 253
-0.171746 -0.188282 0.449633 127 0 255
-0.260465 -0.402801 0.320826 127 0 255
-0.215721 -0.110023 0.279535 127 0 255
-0.27469 -0.49343 -0.21489 127 0 255
-0.182758 -0.0506684 0.395583 127 0 255
-0.0878273 -0.262325 0.337479 127 0 255
-0.141764 -0.431263 0.411496 127 0 255
-0.204961 -0.48688 0.218326 127 0 255
0.00125742 0.0758598 0.104756 89 59 253
-0.0521197 -0.286753 0.433136 127 0 255
-0.226975 -0.0133789 0.26237 127 0 255
0.174673 -0.487292 0.337457 127 0 255
-0.196436 -0.407566 -0.104708 127 0 255
-0.0628272 -0.48731 0.0499689 127 0 255
-0.146084 0.0794956 0.286325 87 62 253
-0.206073 -0.30099 -0.179465 127 0 255
-0.214218 -0.400331 0.265822 127 0 255
0.112173 0.0752164 -0.125048 89 59 253
-0.186616 -0.481854 0.314663 127 0 255
-0.209412 -0.246625 0.212345 127 0 255
0.00875412 -0.473693 0.432263 127 0 255
-0.219597 0.0473668 -0.166588 103 37 254
0.0140009 0.0782626 0.0142256 87 62 253
-0.217482 -0.428557 0.356394 127 0 255
-0.187392 0.0206762 0.400313 117 15 254
0.0613619 -0.426844 0.429469 127 0 255
-0.354093 -0.442883 -0.281981 127 0 255
-0.204546 -0.385106 0.454281 127 0 255
-0.212136 -0.432281 -0.25967 127 0 255
-0.198918 -0.23376 0.33178 127 0 255
-0.180367 -0.218506 -0.0875602 127 0 255
-0.237086 -0.0621686 0.31627 127 0 255
-0.193972 0.069478 0.084007 93 53 253
-0.207182 -0.0616462 -0.325207 127 0 255
-0.277911 -0.486806 -0.023381 127 0 255
-0.0991891 -0.179912 0.446701 127 0 255
-0.202831 -0.349053 -0.0223038 127 0 255
-0.122947 -0.011933 0.418926 127 0 255
-0.186645 0.00481649 -0.215033 125 3 254
-0.179161 -0.459124 -0.0700541 127 0 255
-0.0881329 -0.484427 0.280029 127 0 255
-0.184163 -0.0919401 0.00118456 127 0 255
-0.063375 0.0750787 0.048063 89 59 253
-0.213734 -0.299993 0.262826 127 0 255
-0.213121 -0.207881 0.390336 127 0 255
0.0985417 0.0757143 0.107789 89 59 253
-0.20295 -0.150654 -0.159461 127 0 255
-0.205232 -0.00477668 0.0900376 127 0 255
-0.152526 0.0791781 0.00934236 87 62 253
-0.233377 -0.48501 0.360979 127 0 255
-0.204559 -0.144152 0.328665 127 0 255
-0.266519 -0.48462 0.200734 127 0 255
-0.212222 -0.177813 -0.303573 127 0 255
0.067029 -0.483001 0.323915 127 0 255
-0.207761 -0.170121 0.12657 127 0 255
-0.211179 0.048783 -0.078383 103 37 254
-0.211518 -0.0736936 -0.171841 127 0 255
-0.156359 -0.354269 0.424658 127 0 255
-0.207813 -0.314766 0.0655184 127 0 255
-0.206373 -0.347711 -0.157917 127 0 255
-0.259472 -0.433181 0.271722 127 0 255
0.081234 -0.141059 0.436082 127 0 255
-0.155565 -0.49091 0.215919 127 0 255
0.161157 -0.283562 0.417775 127 0 255
-0.179309 0.0763423 -0.136136 89 59 253
-0.196946 0.00415299 0.159644 125 3 254
-0.0509989 0.0756212 0.407461 89 59 253
0.0246728 -0.487306 0.212466 127 0 255
-0.206533 -0.152635 0.028757 127 0 255
-0.213983 -0.428189 -0.180775 127 0 255
-0.180495 -0.129078 -0.0720735 127 0 255
-0.18891 -0.456507 0.0137411 127 0 255
-0.193185 -0.265608 -0.028635 127 0 255
-0.131113 0.0698655 0.429002 93 53 253
-0.314868 -0.489454 -0.294553 127 0 255
-0.204016 0.0603616 0.288754 97 46 253
-0.000825364 0.0759583 0.33916 89 59 253
0.0872298 0.0754446 0.303988 89 59 253
-0.199612 -0.325829 -0.278483 127 0 255
0.105761 0.0757132 0.0401197 89 59 253
-0.201642 -0.328877 0.34693 127 0 255
0.0141515 -0.204547 0.480765 127 0 255
0.141124 0.0311986 0.423996 113 21 254
-0.0624146 0.0755365 0.120867 89 59 253
-0.0757705 -0.464503 0.435309 127 0 255
-0.109775 -0.382005 0.463083 127 0 255
-0.0503272 -0.487312 -0.0750297 127 0 255
-0.195117 -0.398508 0.219434 127 0 255
-0.0249208 -0.478454 0.37989 127 0 255
0.046054 -0.0783526 0.43914 127 0 255
-0.195017 0.0381823 -0.280684 109 28 254
-0.0992589 -0.0788686 0.446245 127 0 255
0.131013 0.0752233 0.367362 89 59 253
0.156818 -0.0969153 0.422302 127 0 255
-0.218214 -0.112099 -0.248938 127 0 255
-0.131945 0.0770934 0.336945 89 59 253
-0.170403 -0.0238265 0.447137 127 0 255
-0.199875 -0.433229 0.133133 127 0 255
0.150122 0.0769844 0.290431 89 59 253
0.163144 -0.470471 0.409901 127 0 255
0.224673 0.0751889 0.37497 89 59 253
-0.0712528 0.0742194 -0.20873 89 59 253
-0.181948 -0.0243699 -0.034922 127 0 255
-0.206144 -0.218962 -0.191736 127 0 255
-0.204872 0.0637168 0.410721 95 49 253
0.06342 0.0778173 -0.0140802 89 59 253
-0.0253272 -0.0498132 0.187471 127 0 255
-0.240439 -0.489542 0.26027 127 0 255
-0.115327 0.0761431 -0.0237274 89 59 253
0.0209879 0.0498264 0.429837 103 37 254
-0.161744 0.0753462 0.215713 89 59 253
-0.179433 -0.468115 -0.259187 127 0 255
0.0132039 -0.293487 0.444548 127 0 255
-0.00310033 0.0787279 0.273907 87 62 253
0.0326488 0.0785734 -0.113522 87 62 253
-0.186171 -0.294287 0.394622 127 0 255
-0.0397244 -0.0399547 0.448107 127 0 255
0.0996381 -0.347805 -0.288535 127 0 255
-0.137968 -0.428495 0.456713 127 0 255
-0.167868 -0.0939133 0.445003 127 0 255
-0.213002 -0.133653 0.227368 127 0 255
0.224514 0.074586 0.163609 89 59 253
0.0838193 -0.040759 0.426436 127 0 255
-0.207796 0.068994 0.342699 93 53 253
-0.0495206 -0.386407 0.431914 127 0 255
0.130135 0.0753991 0.219819 89 59 253
-0.19855 -0.371784 -0.304829 127 0 255
0.0946049 -0.46219 0.430356 127 0 255
-0.241496 -0.488351 0.143724 127 0 255
-0.0404665 0.0736951 -0.287163 91 56 253
-0.206171 -0.054844 -0.131632 127 0 255
0.162173 -0.0373304 0.462482 127 0 255
-0.204713 -0.259695 0.11893 127 0 255
-0.189274 -0.000269581 0.0303179 127 0 255
0.0621729 -0.487304 0.124965 127 0 255
-0.211753 -0.236026 -0.27711 127 0 255
0.162173 -0.374812 0.46247 127 0 255
0.262173 0.0752081 0.274957 89 59 253
-0.218367 0.0485272 -0.23021 103 37 254
-0.0511985 0.0760099 -0.0218117 89 59 253
-0.188108 -0.343112 -0.223368 127 0 255
-0.0531005 -0.429009 -0.307556 127 0 255
-0.192531 -0.446911 0.433702 127 0 255
-0.196889 -0.186584 0.0682909 127 0 255
-0.210076 -0.191706 0.165859 127 0 255
-0.209005 -0.0751351 0.0647869 127 0 255
-0.109518 -0.482142 0.337269 127 0 255
-0.209324 -0.360848 0.148369 127 0 255
-0.341925 -0.490433 -0.226956 127 0 255
-0.124558 -0.223742 0.42839 127 0 255
-0.282398 -0.485936 0.0551738 127 0 255
-0.00810608 -0.136235 0.448835 127 0 255
-0.0685907 -0.257672 0.483894 127 0 255
-0.217134 -0.107241 0.388486 127 0 255
-0.0155499 0.0758255 0.204628 89 59 253
-0.141948 -0.153837 0.427689 127 0 255
-0.255133 -0.489974 -0.0985106 127 0 255
-0.20869 -0.0679301 0.128881 127 0 255
0.0496729 0.0752028 -0.212539 89 59 253
-0.23667 -0.4042 0.45785 127 0 255
-0.0569534 0.0743352 -0.122458 89 59 253
-0.100327 -0.487311 0.0249698 127 0 255
-0.199148 -0.387706 0.361443 127 0 255
-0.16493 0.0752364 0.162304 89 59 253
-0.191661 -0.0139895 -0.254508 127 0 255
-0.199911 -0.17523 -0.0631282 127 0 255
-0.152434 -0.331565 0.457071 127 0 255
-0.213331 -0.200875 0.296731 127 0 255
-0.204306 -0.0375809 0.297981 127 0 255
0.142076 -0.200445 0.423682 127 0 255
-0.186078 -0.291692 -0.0574465 127 0 255
-0.140943 -0.472325 -0.158211 127 0 255
0.187173 0.0752256 0.0124457 89 59 253
-0.170958 0.0754677 -0.28592 89 59 253
-0.304934 -0.486376 -0.164011 127 0 255
-0.19995 -0.343141 0.21235 127 0 255
0.162408 -0.329915 0.422191 127 0 255
0.0746726 0.0251667 0.462484 115 18 254
-0.199265 -0.298278 -0.136528 127 0 255
0.050926 0.0769935 0.0842808 89 59 253
-0.209272 -0.00414213 -0.0798956 127 0 255
0.146473 -0.416208 0.432054 127 0 255
-0.0686675 0.0185654 0.43009 119 12 254
-0.150327 -0.224824 0.362478 127 0 255
-0.197511 -0.210904 0.213249 127 0 255
-0.213798 -0.180679 -0.260782 127 0 255
-0.128658 -0.481686 0.39175 127 0 255
-0.217276 0.0235346 0.311059 115 18 254
-0.091343 0.0766198 0.315621 89 59 253
-0.204553 -0.220875 -0.142972 127 0 255
-0.0273261 -0.338262 0.448757 127 0 255
0.0340469 -0.483932 0.29176 127 0 255
0.00447953 0.0740572 -0.148095 91 56 253
-0.116016 0.0785266 0.23894 87 62 253
-0.134815 0.0790238 -0.0654881 87 62 253
-0.0106541 -0.432138 0.443414 127 0 255
-0.212948 -0.212787 -0.325773 127 0 255
-0.186116 -0.46089 -0.111003 127 0 255
0.162173 0.0751689 0.462483 89 59 253
-0.0123017 -0.230245 0.445934 127 0 255
-0.193798 -0.426833 -0.212332 127 0 255
-0.111362 0.0789118 -0.26017 87 62 253
-0.203395 -0.347095 0.415795 127 0 255
-0.199246 -0.375487 0.298661 127 0 255
-0.237827 -0.199826 0.462479 127 0 255
-0.189798 -0.45425 0.233338 127 0 255
-0.217118 0.0500103 0.153319 103 37 254
-0.0226056 0.0747047 0.051468 89 59 253
-0.0154101 -0.0813451 0.449745 127 0 255
-0.196562 -0.263721 0.161854 127 0 255
-0.11654 0.0754283 0.074549 89 59 253
-0.203456 -0.0612316 0.194721 127 0 255
0.0430097 -0.477669 0.381209 127 0 255
-0.200956 0.0701262 0.249509 93 53 253
0.0794622 0.0754403 0.257377 89 59 253
-0.213231 -0.0526213 -0.288842 127 0 255
0.112545 -0.27313 0.428669 127 0 255
-0.187359 -0.48598 0.15269 127 0 255
0.122123 0.0757642 0.157928 89 59 253
-0.197704 -0.366614 -0.0831988 127 0 255
-0.195157 -0.435453 0.321501 127 0 255
-0.198372 -0.439622 -0.0309567 127 0 255
0.0493457 0.0750971 0.380224 89 59 253
-0.206741 -0.487853 0.0710989 127 0 255
-0.208777 -0.131443 0.154557 127 0 255
-0.352058 -0.473485 -0.321268 127 0 255
-0.10619 -0.484303 0.215347 127 0 255
-0.201269 -0.151866 -0.124094 127 0 255
-0.17913 -0.260749 0.45131 127 0 255
0.0411706 -0.389219 0.44284 127 0 255
0.0996729 -0.487299 0.249962 127 0 255
0.0584577 0.0758232 0.0284022 89 59 253
0.174673 -0.48729 0.299956 127 0 255
-0.182239 -0.0614711 -0.199936 127 0 255
-0.212308 0.00597988 0.203984 125 3 254
0.194078 0.0750067 0.190135 89 59 253
-0.135884 0.0785317 -0.13439 87 62 253
-0.200706 0.00885989 -0.320174 123 6 254
-0.206188 -0.365055 0.0601621 127 0 255
-0.191051 -0.00184741 0.436425 127 0 255
-0.205224 -0.346847 -0.334827 127 0 255
0.104984 -0.0741096 0.427207 127 0 255
-0.205388 -0.261564 0.0516385 127 0 255
0.0723103 -0.163499 0.423904 127 0 255
0.0591024 -0.324612 0.4731 127 0 255
-0.181407 -0.186694 0.398193 127 0 255
-0.0611053 0.0762718 0.258311 89 59 253
-0.20474 -0.105894 0.0388379 127 0 255
-0.0061887 0.0759111 -0.0302672 89 59 253
-0.186654 -0.144649 -0.227891 127 0 255
-0.181612 -0.0773981 -0.0657734 127 0 255
-0.0808718 -0.272553 0.438348 127 0 255
-0.303094 -0.485694 -0.0731289 127 0 255
-0.209981 -0.296296 0.215034 127 0 255
-0.252922 -0.493633 -0.163481 127 0 255
0.130115 0.0758487 0.105951 89 59 253
-0.0607774 0.0759536 0.183495 89 59 253
0.0374926 0.0789951 0.321124 87 62 253
-0.19845 -0.376768 0.00146757 127 0 255
0.249673 0.0752246 0.0999464 89 59 253
-0.24194 -0.490168 0.0246001 127 0 255
-0.196399 -0.250145 0.287992 127 0 255
0.211208 0.0741835 0.262216 91 56 253
-0.203966 -0.196814 0.021089 127 0 255
0.112173 -0.487311 0.46247 127 0 255
-0.210998 -0.0237872 -0.143662 127 0 255
-0.19958 0.0757856 -0.104613 89 59 253
-0.214096 -0.100438 0.328947 127 0 255
-0.304882 -0.461498 -0.283275 127 0 255
-0.0650276 0.0744873 -0.0700213 89 59 253
-0.0443384 -0.482705 0.322754 127 0 255
-0.210726 -0.244286 0.389978 127 0 255
-0.0378272 -0.487309 -3.19388e-05 127 0 255
-0.207208 0.0332622 0.00441188 111 25 254
-0.264993 -0.487553 0.0975598 127 0 255
-0.0386397 0.0790827 -0.231252 87 62 253
0.0217116 -0.186533 0.426272 127 0 255
-0.211484 -0.165769 0.251627 127 0 255
0.10859 0.0711733 0.404659 91 56 253
-0.212649 -0.0610204 0.244571 127 0 255
-0.19816 -0.435759 -0.292265 127 0 255
-0.207786 -0.482392 -0.0629321 127 0 255
-0.210246 -0.228854 -0.232967 127 0 255
-0.208628 -0.126872 -0.0109824 127 0 255
-0.0602386 -0.181354 0.426416 127 0 255
-0.208469 -0.110309 -0.327129 127 0 255
-0.131672 -0.46396 0.432964 127 0 255
-0.213904 -0.334868 0.297357 127 0 255
-0.199435 -0.424907 0.0798442 127 0 255
-0.245123 -0.487369 0.297415 127 0 255
-0.0427349 0.0752663 0.103999 89 59 253
0.0147173 -0.0499294 0.417659 127 0 255
-0.0892628 0.056485 0.433232 99 43 254
0.0570886 -0.208942 0.479461 127 0 255
-0.0449165 0.076478 0.371086 89 59 253
-0.209756 -0.306492 -0.297565 127 0 255
-0.0784507 -0.0146683 0.444903 127 0 255
-0.0731228 -0.478459 0.371966 127 0 255
0.0632666 0.00054278 0.425234 127 0 255
-0.151945 0.0772185 -0.21365 89 59 253
-0.194304 -0.175717 0.45794 127 0 255
-0.188924 -0.0425963 0.0883998 127 0 255
-0.237827 -0.0623236 0.462478 127 0 255
-0.212007 -0.399816 0.398197 127 0 255
-0.259188 -0.461111 0.165116 127 0 255
-0.198256 0.06812 -0.324324 93 53 253
0.224673 0.0752256 0.0499457 89 59 253
-0.0190456 0.0127044 0.431556 121 9 254
-0.18466 -0.31005 -0.00182206 127 0 255
-0.194459 -0.38726 -0.191788 127 0 255
-0.165733 -0.461482 0.366257 127 0 255
-0.0253272 -0.487307 0.0749667 127 0 255
-0.0767036 -0.1004 0.44287 127 0 255
-0.157692 -0.469751 0.177385 127 0 255
-0.118272 0.0762297 0.380119 89 59 253
-0.18793 -0.00372589 -0.181605 127 0 255
0.237173 -0.287303 -0.325035 127 0 255
-0.146961 0.0208258 0.418778 117 15 254
-0.0593918 0.074317 -0.155191 89 59 253
-0.233408 -0.0564463 0.341956 127 0 255
-0.212312 -0.110008 -0.0966374 127 0 255
0.174673 0.0126704 0.462482 121 9 254
0.166601 -0.173783 0.421551 127 0 255
-0.0871518 0.0786853 0.00668676 87 62 253
0.0785673 -0.481637 0.341414 127 0 255
-0.108943 -0.418371 0.423972 127 0 255
0.0555076 -0.473722 0.427935 127 0 255
0.0996731 0.0752168 -0.0875486 89 59 253
-0.153651 -0.286582 0.446411 127 0 255
-0.21101 -0.107655 -0.208913 127 0 255
-0.205716 0.033565 0.0806168 111 25 254
-0.201946 -0.249505 -0.112784 127 0 255
-0.200995 0.0739613 -0.184633 91 56 253
0.0724115 0.0757761 0.122736 89 59 253
0.0774936 -0.400277 0.465699 127 0 255
-0.0253272 -0.487306 0.149967 127 0 255
-0.215022 -0.297993 0.352775 127 0 255
-0.198997 -0.425767 0.0304957 127 0 255
-0.204154 -0.15802 0.338004 127 0 255
-0.195996 -0.395692 -0.122917 127 0 255
-0.127474 -0.487816 0.297075 127 0 255
0.0233699 0.0787609 -0.072132 87 62 253
-0.207569 -0.2799 -0.247062 127 0 255
-0.206866 -0.107055 0.105172 127 0 255
-0.207671 -0.000354289 -0.0473619 127 0 255
0.0662785 -0.293615 0.433853 127 0 255
-0.179795 0.0736629 0.126579 91 56 253
-0.026669 -0.302621 0.427344 127 0 255
0.0120382 0.0754353 0.184257 89 59 253
-0.237827 0.0626794 0.449976 95 49 253
-0.212343 0.00372133 0.357481 127 0 255
0.133699 -0.4778 0.409838 127 0 255
-0.258206 -0.484932 0.233122 127 0 255
-0.138523 -0.0738396 0.426542 127 0 255
-0.195547 0.0733887 -0.254103 91 56 253
-0.201834 -0.225931 -0.0434396 127 0 255
0.146694 0.0769726 0.262752 89 59 253
-0.100327 -0.487311 -0.0750307 127 0 255
-0.119097 -0.338098 0.465149 127 0 255
-0.19348 -0.115697 0.205224 127 0 255
-0.00178249 0.0703102 0.416014 93 53 253
-0.186406 0.0386914 -0.126691 109 28 254
-0.201446 -0.385306 0.136686 127 0 255
-0.106697 0.0759755 0.162493 89 59 253
-0.208819 -0.221919 0.0908457 127 0 255
-0.211029 -0.421057 0.205337 127 0 255
0.00507791 0.0739321 -0.198131 91 56 253
-0.137827 -0.487311 0.0749693 127 0 255
0.237173 0.0751964 0.337465 89 59 253
-0.197784 -0.26527 0.232109 127 0 255
-0.18548 0.0778972 0.0325912 89 59 253
-0.225162 -0.000469728 0.253689 127 0 255
-0.199375 -0.421378 0.276507 127 0 255
-0.0365652 -0.459446 0.438375 127 0 255
0.151289 0.0576383 0.410046 99 43 254
-0.0689556 0.0739065 -0.28236 91 56 253
-0.213386 -0.0262835 -0.244735 127 0 255
-0.128342 -0.139248 0.443708 127 0 255
-0.195203 -0.292236 0.105649 127 0 255
-0.206502 -0.296732 0.442627 127 0 255
-0.114843 0.0745824 -0.165991 89 59 253
0.174673 -0.112327 0.46248 127 0 255
-0.20247 -0.148867 -0.29258 127 0 255
-0.174024 0.0774542 -0.0728399 89 59 253
-0.237827 -0.249795 -0.350041 127 0 255
0.149673 0.075225 -0.0625539 89 59 253
-0.175494 -0.388533 0.45537 127 0 255
-0.0138762 0.0756521 0.287622 89 59 253
-0.196654 -0.39348 -0.255016 127 0 255
-0.204622 -0.264116 -0.164836 127 0 255
-0.201795 -0.113691 0.431088 127 0 255
-0.195705 -0.0174822 0.156924 127 0 255
-0.380588 -0.485817 -0.292176 127 0 255
-0.225327 -0.487296 -0.32504 127 0 255
-0.334286 -0.485735 -0.17362 127 0 255
-0.145068 0.0619996 0.440082 97 46 253
0.074673 0.0752093 -0.150044 89 59 253
0.0278125 -0.0946017 0.449547 127 0 255
-0.073538 -0.339634 0.43542 127 0 255
0.187173 -0.324804 -0.337535 127 0 255
0.0682602 -0.347177 -0.296373 127 0 255
-0.205679 -0.0398715 0.430878 127 0 255
0.174673 -0.462304 0.462465 127 0 255
0.00597929 -0.35274 0.42676 127 0 255
-0.179448 0.0759166 0.335033 89 59 253
-0.278676 -0.486774 -0.0374806 127 0 255
-0.185788 -0.0316757 0.00190269 127 0 255
-0.200369 -0.327788 0.15642 127 0 255
-0.0576482 -0.237427 0.482975 127 0 255
0.0496729 -0.487304 0.174965 127 0 255
-0.211835 -0.158922 0.39308 127 0 255
0.262173 0.0752151 0.212452 89 59 253
-0.208853 -0.155386 0.0597535 127 0 255
-0.0187344 0.0793306 -0.0960475 87 62 253
-0.215577 -0.121586 0.285915 127 0 255
-0.179507 -0.0613419 -0.106461 127 0 255
-0.202309 0.0681616 0.194387 93 53 253
0.123299 -0.427426 0.434582 127 0 255
-0.205497 -0.199141 0.324264 127 0 255
-0.129825 -0.225619 0.445394 127 0 255
-0.199023 -0.301665 0.282786 127 0 255
0.0947875 -0.122952 0.43316 127 0 255
0.0062891 0.0777074 0.0492429 89 59 253
0.00760259 -0.412028 0.428966 127 0 255
-0.200034 -0.477652 0.0200002 127 0 255
-0.21482 -0.485396 0.177294 127 0 255
-0.197795 -0.100082 -0.278428 127 0 255
-0.205391 -0.235769 0.160881 127 0 255
-0.0179091 -0.157222 0.447659 127 0 255
-0.132442 0.0756277 0.104196 89 59 253
-0.206274 0.0655297 0.386874 95 49 253
0.0770903 0.0773362 -0.00904617 89 59 253
0.065333 0.07561 0.351409 89 59 253
-0.237044 -0.484884 0.344728 127 0 255
0.124673 -0.487296 0.21246 127 0 255
-0.213852 -0.450325 -0.245683 127 0 255
-0.2051 -0.304386 0.0461836 127 0 255
-0.203018 -0.344532 -0.138294 127 0 255
-0.155352 -0.482197 0.238379 127 0 255
-0.0984162 0.0779121 0.207282 89 59 253
-0.195339 -0.170256 0.223291 127 0 255
-0.150327 -0.287326 0.374979 127 0 255
-0.302942 -0.470645 -0.316686 127 0 255
-0.192985 -0.32305 -0.251943 127 0 255
-0.143918 -0.0272255 0.413524 127 0 255
-0.274952 -0.493139 -0.202831 127 0 255
-0.195948 -0.245807 0.00765941 127 0 255
-0.144822 -0.467772 -0.168509 127 0 255
-0.200393 -0.0820498 -0.0178319 127 0 255
-0.203085 -0.171078 -0.114301 127 0 255
-0.00722385 -0.481915 0.406631 127 0 255
-0.213711 -0.449658 -0.145904 127 0 255
0.154313 0.0763828 0.209678 89 59 253
-0.220831 -0.359195 0.241552 127 0 255
-0.187198 -0.473758 0.394252 127 0 255
-0.194699 -0.226726 0.455478 127 0 255
0.152985 -0.265207 0.420989 127 0 255
-0.184187 0.00187152 -0.0889716 127 0 255
-0.204574 -0.38323 -0.0423741 127 0 255
-0.137484 0.0765931 0.278977 89 59 253
-0.101905 0.0752367 0.049317 89 59 253
-0.237827 0.0751981 -0.0375364 89 59 253
-0.286952 -0.486169 -0.134334 127 0 255
-0.22315 0.0474874 -0.186854 103 37 254
0.0669161 -0.453689 0.46489 127 0 255
-0.0503269 0.0751723 0.46248 89 59 253
0.112173 -0.037333 0.462484 127 0 255
-0.0923043 0.0793028 -0.0960868 87 62 253
-0.201883 -0.279496 -0.0661689 127 0 255
-0.0378272 -0.487309 0.199968 127 0 255
0.0169631 -0.232646 0.426797 127 0 255
0.055013 0.0782971 0.292141 87 62 253
-0.203286 -0.248458 -0.316373 127 0 255
-0.110865 -0.302352 0.429395 127 0 255
-0.100327 -0.487325 0.462478 127 0 255
-0.122221 -0.383972 0.427589 127 0 255
-0.195145 0.0409587 0.271782 107 31 254
0.119442 0.0746531 0.0531085 89 59 253
-0.237827 -0.362295 -0.350041 127 0 255
-0.189751 -0.20274 -0.236541 127 0 255
0.129222 0.0752471 0.361424 89 59 253
-0.0611975 0.076443 0.33246 89 59 253
-0.0714633 -0.134261 0.441774 127 0 255
-0.0914476 -0.484305 0.279378 127 0 255
-0.203407 -0.479156 0.2768 127 0 255
-0.103797 0.0791498 -0.22625 87 62 253
-0.236011 -0.475532 -0.0576095 127 0 255
-0.112827 -0.48731 -0.0125308 127 0 255
-0.212774 -0.189309 -0.334151 127 0 255
-0.21478 -0.243777 0.361188 127 0 255
-0.0749668 -0.434695 0.422432 127 0 255
0.0580512 0.0284649 0.425822 113 21 254
-0.205148 0.00829099 0.109534 123 6 254
-0.198887 -0.158881 -0.0486712 127 0 255
-0.0422187 0.0746096 0.0162328 89 59 253
0.274673 0.0752209 0.149949 89 59 253
-0.206224 -0.16325 -0.19156 127 0 255
-0.204964 -0.378135 0.0876653 127 0 255
-0.214664 0.023161 -0.235514 117 15 254
-0.19764 -0.184151 0.12901 127 0 255
-0.203391 -0.00721005 -0.323267 127 0 255
-0.112827 -0.299823 0.337477 127 0 255
-0.00547718 -0.033196 0.446017 127 0 255
-0.0663577 -0.21599 0.440373 127 0 255
0.15127 -0.3346 0.425103 127 0 255
-0.187826 -0.487324 0.462478 127 0 255
-0.20666 -0.0679222 0.271921 127 0 255
-0.202785 0.0203997 0.0416681 117 15 254
-0.188728 -0.352166 0.395712 127 0 255
0.102501 -0.351969 -0.285245 127 0 255
0.11699 0.0773063 0.270401 89 59 253
0.138327 -0.0963445 0.421494 127 0 255
-0.237827 -0.137286 -0.362547 127 0 255
-0.178786 -0.228825 -0.0997906 127 0 255
-0.34818 -0.445466 -0.286383 127 0 255
0.0851419 0.076725 0.155026 89 59 253
-0.216922 -0.437427 0.362516 127 0 255
-0.274553 -0.483388 0.17082 127 0 255
-0.143034 0.079066 -0.0450485 87 62 253
-0.200217 -0.428466 0.143838 127 0 255
-0.271348 -0.487287 0.0180608 127 0 255
-0.0301531 -0.482406 0.365477 127 0 255
0.00448772 0.0759974 0.375317 89 59 253
-0.252694 -0.434518 0.275333 127 0 255
0.0774775 -0.270135 0.468083 127 0 255
-0.0327623 0.0783416 -0.286866 87 62 253
-0.12737 0.0743466 -0.277445 89 59 253
-0.201999 -0.335829 -0.0266535 127 0 255
0.053145 0.0742575 -0.0805259 89 59 253
-0.199054 -0.225254 0.240383 127 0 255
-0.175649 -0.05115 0.451938 127 0 255
-0.183676 -0.0633796 0.0298765 127 0 255
-0.208657 -0.417923 0.454199 127 0 255
-0.0986955 -0.481656 0.39464 127 0 255
-0.216338 -0.0267794 0.388757 127 0 255
-0.209789 -0.0733556 0.186271 127 0 255
-0.17809 -0.299263 -0.0976908 127 0 255
0.112173 0.0626673 0.462484 95 49 253
0.0160552 -0.210371 0.480773 127 0 255
-0.18239 -0.233766 0.39655 127 0 255
-0.138394 0.0791438 0.023135 87 62 253
-0.237827 0.0502256 -0.350054 103 37 254
-0.0474653 0.0760868 0.244168 89 59 253
-0.237827 0.075195 0.0999657 89 59 253
-0.206852 -0.275668 -0.217935 127 0 255
0.174673 0.0752256 0.0624457 89 59 253
-0.0369544 0.0789597 -0.195514 87 62 253
-0.193206 -0.0714831 -0.254355 127 0 255
-0.0559089 0.0772195 0.132296 89 59 253
-0.194776 -0.326719 0.453635 127 0 255
0.0363695 -0.482943 0.298489 127 0 255
-0.188055 -0.482062 0.345979 127 0 255
-0.200915 -0.0924364 0.35495 127 0 255
-0.104587 0.0249704 0.443064 115 18 254
0.0699843 0.0766406 0.0597236 89 59 253
-0.210302 -0.150774 0.171943 127 0 255
-0.204475 -0.0163913 0.214061 127 0 255
-0.202877 -0.41601 -0.102275 127 0 255
0.213047 0.074165 0.258981 91 56 253
-0.0455324 0.0791988 -0.0529438 87 62 253
-0.194963 -0.11387 0.23916 127 0 255
0.0393676 -0.344489 0.441678 127 0 255
-0.17651 -0.468771 -0.249253 127 0 255
-0.0647887 -0.072299 0.448204 127 0 255
-0.193941 0.0412088 -0.0323714 107 31 254
-0.24994 -0.488003 0.0787678 127 0 255
-0.217463 -0.382808 0.322866 127 0 255
-0.207293 -0.349058 -0.225291 127 0 255
-0.206612 -0.0519792 -0.324269 127 0 255
0.00931638 0.0748084 0.0840675 89 59 253
-0.195942 -0.290103 0.168056 127 0 255
-0.132994 -0.191406 0.427528 127 0 255
-0.0753272 -0.487309 0.124968 127 0 255
0.0796725 -0.413989 0.429746 127 0 255
0.0246728 -0.487306 0.0874662 127 0 255
-0.201413 -0.297221 0.321595 127 0 255
-0.342586 -0.486296 -0.204961 127 0 255
0.112173 -0.149832 0.462484 127 0 255
-0.206619 -0.143927 0.104503 127 0 255
-0.162794 0.0792231 0.185849 87 62 253
0.160395 -0.211882 0.420732 127 0 255
-0.205358 -0.179683 0.0147625 127 0 255
0.0338995 0.0786083 -0.0347826 87 62 253
-0.207184 -0.287553 0.409011 127 0 255
0.00806609 0.0740673 -0.143484 91 56 253
-0.0723548 -0.392237 0.429672 127 0 255
-0.211762 -0.0811731 -0.190028 127 0 255
-0.14085 0.0759856 0.344321 89 59 253
-0.17734 -0.136514 0.451593 127 0 255
0.187173 -0.487298 0.424961 127 0 255
0.0653669 -0.0400031 0.428148 127 0 255
-0.204195 -0.0142206 0.305555 127 0 255
0.0834766 0.0720428 0.405504 91 56 253
0.00999255 -0.286874 0.444836 127 0 255
-0.197982 -0.312704 0.23218 127 0 255
-0.209093 -0.0593473 -0.0583776 127 0 255
-0.193891 -0.367336 -0.165213 127 0 255
0.173218 0.0755174 0.1825 89 59 253
-0.206277 0.0303637 0.389278 113 21 254
-0.100327 -0.224825 0.362479 127 0 255
-0.182834 0.0742462 -0.305331 89 59 253
-0.204431 -0.353471 0.0333977 127 0 255
-0.197934 -0.0806679 0.122552 127 0 255
-0.209874 -0.244436 0.0655746 127 0 255
-0.195949 -0.135913 -0.164363 127 0 255
-0.197197 -0.396802 -0.286401 127 0 255
-0.0651992 -0.484269 0.31314 127 0 255
-0.205439 0.0182442 -0.166639 119 12 254
-0.21101 0.0259267 0.167095 115 18 254
-0.206775 -0.343239 0.116664 127 0 255
-0.118607 -0.271893 0.450319 127 0 255
-0.237827 -0.299796 -0.35004 127 0 255
-0.180263 -0.491488 0.192011 127 0 255
-0.0559375 0.0777907 0.0809451 89 59 253
-0.137684 -0.480135 0.364054 127 0 255
0.0477542 -0.481209 0.404015 127 0 255
-0.180577 0.0751709 0.271072 89 59 253
-0.103569 -0.488208 0.235468 127 0 255
-0.212737 -0.177479 0.276607 127 0 255
-0.192719 -0.437259 -0.208209 127 0 255
0.0349523 -0.178961 0.425937 127 0 255
-0.259295 -0.489026 -0.0987302 127 0 255
-0.115146 -0.0577173 0.445269 127 0 255
-0.180209 -0.13657 -0.0771732 127 0 255
-0.199137 -0.418062 0.00037493 127 0 255
-0.195409 0.0091835 -0.278686 123 6 254
-0.0284077 0.0780775 0.189878 89 59 253
-0.0360358 -0.257569 0.435458 127 0 255
-0.213859 -0.342881 0.36642 127 0 255
-0.205945 -0.203366 -0.196334 127 0 255
-0.195815 -0.18574 0.359715 127 0 255
-0.210799 -0.403587 0.181297 127 0 255
-0.279066 -0.464907 -0.297414 127 0 255
0.0256128 0.0327329 0.427477 111 25 254
-0.178149 -0.104155 0.404755 127 0 255
-0.195458 -0.464694 0.0674313 127 0 255
0.0121729 0.0752019 -0.287539 89 59 253
-0.0559458 0.0759289 0.400281 89 59 253
-0.186585 0.0756605 -0.156331 89 59 253
0.187173 0.0501707 0.462481 103 37 254
-0.205512 -0.0179712 0.0521269 127 0 255
-0.200327 0.0751775 0.462477 89 59 253
-0.0355679 -0.412969 0.446912 127 0 255
-0.204494 -0.291668 -0.169906 127 0 255
-0.237826 -0.487321 0.424976 127 0 255
-0.0253272 -0.0623132 0.187471 127 0 255
-0.023018 -0.0931116 0.448902 127 0 255
0.0586999 -0.111379 0.420405 127 0 255
-0.108731 -0.122943 0.425061 127 0 255
-0.184942 -0.0350814 -0.207899 127 0 255
0.149673 -0.487292 0.262457 127 0 255
0.199673 -0.274804 -0.337535 127 0 255
0.110677 -0.278472 0.428731 127 0 255
-0.16776 -0.477914 0.273991 127 0 255
-0.125049 0.0764464 0.243749 89 59 253
0.149673 0.0752255 0.0124457 89 59 253
-0.205302 -0.0659283 -0.137304 127 0 255
-0.094036 0.0747874 -0.0321553 89 59 253
-0.209261 -0.282862 -0.290188 127 0 255
-0.192249 0.0682981 0.065342 93 53 253
-0.179495 -0.401096 0.416864 127 0 255
-0.197767 -0.17782 -0.275204 127 0 255
-0.21314 -0.37609 0.279854 127 0 255
-0.203811 0.0345593 0.317648 111 25 254
-0.196994 -0.126453 0.0377646 127 0 255
0.147512 -0.451135 0.407787 127 0 255
-0.197002 -0.227468 0.127718 127 0 255
-0.128756 0.0747095 -0.0962815 89 59 253
0.146122 0.0753324 0.292328 89 59 253
-0.106163 -0.36994 0.463216 127 0 255
-0.200891 0.0334962 0.233668 111 25 254
0.0151091 0.0758687 0.332009 89 59 253
0.0784487 -0.35186 0.440735 127 0 255
-0.201273 0.0731286 -0.229795 91 56 253
-0.187434 -0.305339 -0.0310979 127 0 255
-0.00628016 0.0758707 -0.0152091 89 59 253
-0.242754 -0.478141 0.13453 127 0 255
-0.20152 -0.347609 -0.33314 127 0 255
-0.260437 -0.484686 0.226655 127 0 255
-0.140059 0.077908 -0.193369 89 59 253
-0.117907 0.0763708 0.393808 89 59 253
-0.199462 -0.255686 0.322067 127 0 255
-0.24079 -0.0437105 0.333735 127 0 255
-0.213033 -0.424447 -0.155921 127 0 255
0.0844491 0.075422 0.256744 89 59 253
-0.0878274 -0.274829 0.399981 127 0 255
-0.050327 0.0752093 -0.362544 89 59 253
0.174673 -0.0498284 0.462481 127 0 255
-0.355839 -0.492389 -0.300773 127 0 255
-0.170689 0.0281892 0.445373 113 21 254
-0.199612 -0.217421 -0.0588891 127 0 255
-0.0693804 -0.0163519 0.445677 127 0 255
-0.207081 -0.0163328 -0.0255809 127 0 255
-0.198498 -0.437754 0.231661 127 0 255
-0.187147 -0.056296 0.393087 127 0 255
0.0539854 -0.253883 0.438397 127 0 255
-0.192867 -0.443743 -0.0756868 127 0 255
-0.208744 0.0252748 -0.0810088 115 18 254
0.0150535 -0.440204 0.429406 127 0 255
-0.217301 -0.117642 -0.241198 127 0 255
-0.0888929 -0.173557 0.44705 127 0 255
-0.207149 -0.366207 0.203122 127 0 255
-0.0128272 -0.487307 0.0249672 127 0 255
-0.0628201 0.0742889 -0.173682 89 59 253
-0.112547 0.0759041 0.149427 89 59 253
0.174673 -0.299815 0.462472 127 0 255
-0.207865 -0.138381 -0.327314 127 0 255
-0.0263591 -0.203443 0.446518 127 0 255
-0.20342 -0.238704 -0.157329 127 0 255
-0.259956 -0.492232 -0.150688 127 0 255
-0.206726 -0.0972577 0.303818 127 0 255
0.0371729 -0.487306 0.224966 127 0 255
-0.209425 -0.104338 -0.0659551 127 0 255
-0.246136 -0.486999 0.293421 127 0 255
0.132402 0.0360114 0.424735 109 28 254
-0.203819 -0.350498 -0.285409 127 0 255
-0.249738 -0.488605 -0.00943158 127 0 255
-0.196332 -0.40631 0.330768 127 0 255
0.107174 0.075684 0.0957746 89 59 253
-0.0358036 0.0761789 0.330985 89 59 253
-0.199489 -0.334028 -0.0940514 127 0 255
-0.0182504 0.0786492 -0.259694 87 62 253
0.0557547 -0.208802 0.479529 127 0 255
-0.161757 -0.240018 0.418028 127 0 255
-0.211697 -0.222798 -0.277271 127 0 255
-0.198316 -0.216386 0.175494 127 0 255
-0.214338 0.0500462 0.12541 103 37 254
-0.204628 -0.321536 0.0866998 127 0 255
-0.193336 -0.445374 0.435025 127 0 255
-0.116705 -0.482309 0.329734 127 0 255
-0.000326967 0.0751686 0.462483 89 59 253
-0.0420107 -0.304141 0.448697 127 0 255
0.0313279 -0.120765 0.450033 127 0 255
-0.198898 0.0765052 0.396896 89 59 253
0.20083 0.0750137 0.234933 89 59 253
-0.208292 -0.0194448 -0.102518 127 0 255
-0.181391 -0.459759 -0.137104 127 0 255
-0.189645 -0.0352209 0.0893287 127 0 255
-0.202978 -0.268277 0.0201262 127 0 255
-0.00368727 0.0741646 -0.115852 91 56 253
-0.237827 0.0751907 0.312468 89 59 253
-0.00265163 0.0758557 0.277132 89 59 253
-0.212139 -0.225907 0.271273 127 0 255
0.013933 -0.0505972 0.417788 127 0 255
-0.150792 -0.474414 0.176578 127 0 255
-0.208157 -0.0812021 -0.324032 127 0 255
-0.209339 -0.119816 0.162054 127 0 255
-0.205687 -0.153592 0.312512 127 0 255
-0.208182 -0.186392 0.0829919 127 0 255
0.187173 -0.487293 0.362458 127 0 255
-0.156453 0.0794693 0.0981289 87 62 253
-0.208115 -0.10329 -0.00275961 127 0 255
0.10949 0.075718 0.153878 89 59 253
-0.210538 -0.163332 0.420105 127 0 255
-0.195861 -0.393995 0.0555614 127 0 255
-0.266786 -0.493381 -0.201302 127 0 255
-0.138325 -0.334465 0.428589 127 0 255
-0.144968 -0.467021 0.427024 127 0 255
-0.19806 -0.207616 -0.00221769 127 0 255
0.107302 0.0747999 0.355684 89 59 253
0.010599 -0.380148 0.445181 127 0 255
-0.0634153 -0.482107 0.397728 127 0 255
-0.206999 0.0379862 -0.307813 109 28 254
0.0996729 -0.4873 0.187462 127 0 255
-0.205692 -0.109412 0.0786385 127 0 255
-0.225234 -0.0220204 0.262654 127 0 255
-0.215471 -0.284425 0.379304 127 0 255
0.112173 -0.199832 0.462483 127 0 255
-0.0988765 0.0791348 -0.124665 87 62 253
0.167113 -0.312515 0.419305 127 0 255
-0.201002 -0.431526 -0.285599 127 0 255
-0.197533 -0.388681 -0.0631019 127 0 255
-0.0067823 0.00430054 0.43068 125 3 254
-0.213587 0.0115746 -0.213273 123 6 254
-0.166558 0.0752521 0.016922 89 59 253
-0.0606092 0.0739948 -0.247336 91 56 253
-0.107782 -0.0164991 0.424804 127 0 255
-0.213264 -0.0888064 0.239048 127 0 255
-0.19846 -0.335671 0.277129 127 0 255
-0.195909 -0.451578 0.290105 127 0 255
-0.0449363 -0.126689 0.446892 127 0 255
-0.193889 -0.349715 0.452391 127 0 255
-0.19522 -0.134948 0.368208 127 0 255
0.162173 -0.39981 0.462469 127 0 255
0.0580888 0.0769126 0.041361 89 59 253
-0.19069 -0.46842 0.0139824 127 0 255
-0.208529 -0.0317838 0.151921 127 0 255
-0.199963 -0.309362 -0.13263 127 0 255
0.000337066 0.0758518 0.183611 89 59 253
-0.194839 -0.228868 0.455458 127 0 255
-0.068233 0.0750411 0.0360439 89 59 253
-0.100327 -0.487312 0.06247 127 0 255
-0.209167 -0.294307 0.196898 127 0 255
-0.28679 -0.486338 -0.065958 127 0 255
-0.17466 -0.0785505 0.449362 127 0 255
-0.213139 -0.0401797 -0.253964 127 0 255
-0.204727 0.0681176 0.224331 93 53 253
0.149673 -0.149828 0.462481 127 0 255
-0.0829907 0.0762193 0.202036 89 59 253
-0.207764 -0.370814 -0.241047 127 0 255
0.00732876 -0.477096 0.395515 127 0 255
-0.200548 -0.391894 0.107128 127 0 255
-0.150095 0.0745694 -0.229999 89 59 253
-0.210994 0.0499302 0.0460949 103 37 254
-0.0576387 0.0599742 0.430683 97 46 253
0.105212 -0.449179 0.432485 127 0 255
-0.202412 -0.175818 -0.08206 127 0 255
0.0437532 0.0757885 0.386429 89 59 253
-0.210718 -0.181699 0.204356 127 0 255
0.131144 -0.254857 0.426781 127 0 255
0.0980211 -0.344963 -0.281913 127 0 255
-0.00246241 0.0758295 0.0160711 89 59 253
-0.132349 -0.489709 0.219929 127 0 255
-0.180068 0.00281991 0.407928 127 0 255
-0.208643 -0.266942 0.084634 127 0 255
0.0621729 0.0752064 -0.175042 89 59 253
0.0792547 -0.322673 0.438955 127 0 255
-0.0502182 -0.365093 0.438094 127 0 255
-0.110969 -0.433042 0.444365 127 0 255
-0.160091 0.0753276 0.145889 89 59 253
-0.0999675 0.0764859 0.258084 89 59 253
-0.182698 -0.0434288 -0.0592409 127 0 255
-0.196621 -0.198075 -0.150315 127 0 255
0.0673288 0.0758041 0.0928685 89 59 253
-0.184665 -0.453643 0.186226 127 0 255
-0.208625 -0.38458 0.395998 127 0 255
-0.0378272 -0.48731 -0.0375309 127 0 255
-0.212159 -0.0310463 -0.188921 127 0 255
-0.209496 -0.244766 -0.21537 127 0 255
-0.19799 -0.333079 -0.187784 127 0 255
-0.197303 0.0707226 -0.0643983 91 56 253
-0.205555 -0.140897 -0.0186637 127 0 255
-0.206582 -0.0316244 0.352483 127 0 255
0.14697 0.0761903 0.183928 89 59 253
-0.200643 -0.333779 0.337924 127 0 255
-0.189132 -0.142336 -0.238443 127 0 255
-0.222192 -0.406662 0.458027 127 0 255
-0.151619 -0.47481 -0.158714 127 0 255
-0.141484 -0.11371 0.442674 127 0 255
-0.166564 -0.482799 0.307615 127 0 255
-0.203327 -0.318133 0.0225386 127 0 255
-0.271281 -0.484525 0.177556 127 0 255
-0.0289273 0.0742814 -0.0610719 89 59 253
-0.13966 0.0746584 -0.139499 89 59 253
0.032577 -0.4525 0.469106 127 0 255
-0.346888 -0.485391 -0.193022 127 0 255
-0.157609 -0.197538 0.42196 127 0 255
-0.152574 0.0655965 0.432594 95 49 253
-0.125327 -0.48731 -0.0875312 127 0 255
-0.00261305 0.0739364 -0.198502 91 56 253
-0.210303 0.00655863 -0.12762 125 3 254
-0.237827 0.0127233 -0.350053 121 9 254
-0.087827 0.0752121 -0.375046 89 59 253
-0.207343 -0.378311 -0.103788 127 0 255
-0.237827 -0.412295 -0.325041 127 0 255
-0.0510487 0.0774988 0.163043 89 59 253
-0.235441 -0.488986 0.329359 127 0 255
0.166285 -0.19403 0.420487 127 0 255
-0.209784 -0.472822 -0.0782938 127 0 255
0.149673 -0.487305 0.462465 127 0 255
-0.201893 -0.264594 -0.0758784 127 0 255
-0.120419 0.0788947 0.0587365 87 62 253
-0.062827 -0.487326 0.46248 127 0 255
-0.0525693 -0.483692 0.316374 127 0 255
-0.0878273 -0.274825 0.337478 127 0 255
0.212173 0.0751832 0.399973 89 59 253
0.149673 0.0752255 -0.0375542 89 59 253
-0.0040603 -0.337549 0.429645 127 0 255
0.0779513 -0.0316149 0.425904 127 0 255
-0.188927 -0.43449 0.369695 127 0 255
-0.213969 -0.41647 0.239878 127 0 255
-0.17749 -0.448027 -0.25712 127 0 255
-0.211112 -0.0994669 -0.0968814 127 0 255
-0.111389 0.0761077 -0.0133435 89 59 253
-0.184493 -0.0533931 0.0308291 127 0 255
-0.0340998 0.0758969 0.0962596 89 59 253
-0.254112 -0.488757 0.0808548 127 0 255
-0.213851 -0.199771 0.385361 127 0 255
-0.209423 -0.328051 0.137972 127 0 255
-0.166905 0.0755383 0.356807 89 59 253
-0.167017 0.0744153 -0.286883 89 59 253
0.0845728 -0.418892 0.460506 127 0 255
-0.204844 -0.381142 -0.0154762 127 0 255
0.0371729 0.0752012 -0.237538 89 59 253
-0.213851 -0.285424 0.236792 127 0 255
-0.0896701 -0.29536 0.448466 127 0 255
-0.342591 -0.485306 -0.315058 127 0 255
-0.208456 -0.0729922 0.408137 127 0 255
-0.196083 -0.144275 0.25059 127 0 255
-0.0519789 -0.183404 0.426338 127 0 255
-0.200095 -0.259453 -0.270849 127 0 255
0.0513524 0.0742549 -0.0817076 89 59 253
-0.210822 -0.0445341 0.207931 127 0 255
0.123031 0.0750744 0.243781 89 59 253
-0.000327155 -0.487305 0.162466 127 0 255
-0.206585 -0.135788 -0.186673 127 0 255
-0.213859 -0.0305531 -0.290396 127 0 255
-0.0191786 0.070334 0.417704 91 56 253
0.0545504 0.0756445 0.323399 89 59 253
-0.196001 -0.398134 -0.192656 127 0 255
-0.193881 -0.00924183 0.111756 127 0 255
-0.0509694 -0.0372489 0.447989 127 0 255
-0.112151 -0.196579 0.446578 127 0 255
0.125568 0.0756706 0.0641892 89 59 253
-0.20681 0.00486079 0.00474496 125 3 254
-0.213626 -0.216215 0.313746 127 0 255
-0.128418 0.0783178 0.19459 87 62 253
-0.0915048 0.0742805 -0.227753 89 59 253
-0.119091 -0.482927 0.25816 127 0 255
-0.193837 0.0758693 -0.122521 89 59 253
-0.237827 0.0126782 0.449977 121 9 254
-0.237827 0.0752236 -0.300053 89 59 253
-0.129619 0.00164053 0.444356 127 0 255
0.00936166 -0.1417 0.443795 127 0 255
-0.180768 -0.297763 0.451135 127 0 255
-0.19325 0.0724945 0.17278 91 56 253
-0.199007 -0.305865 -0.223407 127 0 255
-0.190288 -0.483557 0.14776 127 0 255
-0.207008 0.0337067 0.348433 111 25 254
0.0152278 -0.270985 0.436895 127 0 255
0.0652138 0.0775298 -0.00302612 89 59 253
-0.104945 0.0762741 0.382717 89 59 253
-0.0352806 -0.449362 0.420194 127 0 255
-0.185271 0.0698559 -0.0175845 93 53 253
0.00375314 -0.053519 0.449444 127 0 255
0.131983 0.0748967 0.376584 89 59 253
-0.208491 -0.280724 0.129787 127 0 255
-0.198101 -0.162711 0.142876 127 0 255
-0.187875 -0.145883 0.455709 127 0 255
-0.209317 -0.368657 0.167016 127 0 255
0.112173 -0.349821 0.462476 127 0 255
-0.201515 -0.268374 -0.0288209 127 0 255
0.0605106 0.0565048 0.423 99 43 254
-0.289864 -0.486192 -0.139697 127 0 255
-0.190547 0.0286599 -0.249912 113 21 254
-0.198046 -0.193544 0.0462597 127 0 255
-0.125327 -0.48731 0.0124691 127 0 255
-0.063808 0.0743907 -0.104855 89 59 253
-0.201739 -0.418064 0.0417792 127 0 255
-0.0801859 -0.481406 0.350953 127 0 255
-0.213523 -0.129613 -0.280568 127 0 255
0.071628 0.0767964 0.142561 89 59 253
0.0746729 -0.487303 0.137464 127 0 255
-0.201564 -0.0882736 0.168502 127 0 255
-0.204149 -0.0351765 0.296067 127 0 255
-0.196742 -0.147285 -0.133463 127 0 255
0.0150561 0.0772965 0.0787241 89 59 253
-0.158733 -0.370847 0.42709 127 0 255
0.0624887 -0.128128 0.42155 127 0 255
-0.21507 0.0193902 0.216579 119 12 254
-0.20301 -0.215651 -0.304082 127 0 255
-0.11872 -0.251692 0.446676 127 0 255
-0.206121 -0.240896 0.188459 127 0 255
-0.2649 -0.48791 0.0371358 127 0 255
-0.218964 0.0469973 -0.164994 103 37 254
-0.210261 -0.48277 0.224664 127 0 255
0.249673 0.0752033 0.29996 89 59 253
-0.0694499 0.0739199 -0.280154 91 56 253
-0.201572 -0.263079 -0.128317 127 0 255
0.287173 0.0752165 0.199952 89 59 253
-0.203681 -0.315787 -0.313067 127 0 255
-0.237827 -0.487294 -0.325041 127 0 255
-0.217592 -0.436657 0.312986 127 0 255
-0.338094 -0.452052 -0.285062 127 0 255
-0.197085 -0.383497 0.259948 127 0 255
0.112173 -0.0873329 0.462484 127 0 255
0.212173 0.0752256 0.0374457 89 59 253
-0.0503272 -0.487309 0.0749681 127 0 255
0.138425 -0.476709 0.415093 127 0 255
-0.184054 -0.304027 0.400837 127 0 255
-0.212224 -0.0836916 -0.239821 127 0 255
-0.0756736 0.0754324 0.088542 89 59 253
0.174673 -0.487291 0.312456 127 0 255
-0.0790474 -0.066604 0.427758 127 0 255
-0.103475 0.0747522 -0.0673565 89 59 253
0.112173 0.00016708 0.462484 127 0 255
-0.188329 0.0299157 -0.0675642 113 21 254
-0.18399 -0.0948325 0.0153756 127 0 255
0.0254952 0.0786611 -0.118696 87 62 253
-0.205345 -0.0902648 -0.146891 127 0 255
-0.15267 -0.479528 0.368357 127 0 255
-0.206742 -0.282509 0.31289 127 0 255
0.0811888 0.0750028 0.290915 89 59 253
-0.210567 -0.201046 -0.240142 127 0 255
-0.196151 -0.0880679 0.11472 127 0 255
0.0407817 -0.178372 0.453047 127 0 255
-0.114894 -0.340701 0.428911 127 0 255
-0.210899 -0.335973 0.19932 127 0 255
-0.21046 -0.41136 -0.251296 127 0 255
0.0796936 -0.290831 0.467721 127 0 255
0.148717 0.0415631 0.420037 107 31 254
0.00552241 -0.473909 0.430028 127 0 255
-0.196608 -0.372479 0.344198 127 0 255
-0.127402 -0.417154 0.421798 127 0 255
-0.201558 -0.329949 0.0606795 127 0 255
0.0871729 -0.487301 0.249963 127 0 255
-0.0273671 0.076099 0.32887 89 59 253
-0.183795 -0.034264 -0.102163 127 0 255
-0.20301 -0.17388 -0.0281139 127 0 255
-0.0390116 0.00403104 0.434487 125 3 254
0.00345126 -0.389865 0.427515 127 0 255
-0.203703 -0.0817216 0.353678 127 0 255
-0.0651264 0.0793325 -0.159544 87 62 253
0.0665227 -0.0670146 0.430891 127 0 255
-0.270468 -0.487397 -0.0339242 127 0 255
-0.109578 0.040026 0.440624 107 31 254
0.126191 -0.424938 0.434621 127 0 255
-0.0398795 0.0744591 0.00100755 89 59 253
-0.199398 -0.233033 0.233691 127 0 255
-0.0238979 -0.241115 0.442615 127 0 255
-0.212014 -0.10236 0.207685 127 0 255
-0.200371 -0.413801 0.119681 127 0 255
-0.0496615 0.075846 0.212969 89 59 253
-0.196567 -0.387207 -0.134887 127 0 255
0.0252017 0.0757913 -0.0378587 89 59 253
-0.202444 0.0695025 0.411984 93 53 253
0.0537284 0.00861228 0.424759 123 6 254
-0.209757 -0.486983 0.0612643 127 0 255
-0.237827 -0.337327 0.46248 127 0 255
-0.214012 -0.456932 -0.146989 127 0 255
-0.189206 -0.00959359 0.0410171 127 0 255
-0.202578 -0.346587 -0.0274379 127 0 255
-0.20117 -0.088054 -0.292669 127 0 255
-0.195041 0.067642 0.110381 93 53 253
-0.0753272 -0.487315 -0.112528 127 0 255
-0.0378272 -0.487309 0.212468 127 0 255
0.112173 0.0752171 -0.112549 89 59 253
-0.135615 0.0756336 0.267112 89 59 253
-0.199489 -0.433986 -0.00393554 127 0 255
-0.204142 -0.166291 -0.313611 127 0 255
0.151906 0.0769005 0.273939 89 59 253
-0.292972 -0.464237 -0.308652 127 0 255
-0.197293 0.00786101 0.157216 123 6 254
-0.00592086 0.0757118 0.38478 89 59 253
-0.217453 -0.164462 0.349639 127 0 255
0.153608 -0.249248 0.421418 127 0 255
-0.173352 -0.433894 0.447846 127 0 255
-0.0622776 -0.331496 0.436757 127 0 255
-0.205077 0.0732705 -0.203999 91 56 253
-0.18568 -0.259724 0.390367 127 0 255
-0.0607795 -0.439838 0.444072 127 0 255
-0.117304 -0.136131 0.425991 127 0 255
-0.197907 -0.31123 0.263873 127 0 255
-0.205081 0.0682702 0.246688 93 53 253
-0.00779163 -0.180536 0.446549 127 0 255
-0.122226 0.0745376 -0.200434 89 59 253
-0.127388 -0.487745 0.298439 127 0 255
0.018546 -0.0890166 0.452255 127 0 255
-0.199466 -0.31886 -0.0747886 127 0 255
-0.207092 -0.157053 0.0861479 127 0 255
-0.188404 0.00708745 -0.200978 125 3 254
-0.203014 -0.259214 -0.311129 127 0 255
-0.141195 0.0785951 -0.0923267 87 62 253
0.12144 0.0760728 0.113389 89 59 253
0.0712121 -0.420512 0.429503 127 0 255
-0.0628272 -0.48731 0.012469 127 0 255
-0.230638 -0.484257 0.141493 127 0 255
-0.205048 -0.137785 0.289102 127 0 255
-0.208441 -0.332711 -0.259549 127 0 255
-0.203882 -0.199025 0.419204 127 0 255
-0.205178 -0.443646 0.390103 127 0 255
-0.21372 -0.453063 -0.253457 127 0 255
-0.208749 -0.229994 0.0968728 127 0 255
-0.179364 -0.125176 -0.0907899 127 0 255
0.0825633 -0.345476 -0.284472 127 0 255
-0.185187 -0.0495356 -0.0181105 127 0 255
-0.106324 -0.379448 0.460144 127 0 255
0.164465 -0.322109 0.420916 127 0 255
-0.214368 -0.233185 0.345854 127 0 255
-0.191476 -0.449677 -0.100634 127 0 255
-0.20813 -0.0739196 0.0508472 127 0 255
-0.168451 -0.0222301 0.445557 127 0 255
-0.237827 -0.0497811 -0.35005 127 0 255
-0.206643 -0.0616369 0.2653 127 0 255
-0.376451 -0.486907 -0.297007 127 0 255
-0.196604 -0.245431 0.00245018 127 0 255
-0.262266 -0.487828 -0.0896829 127 0 255
-0.118427 0.0787726 -0.255055 87 62 253
-0.18367 0.0755719 0.335088 89 59 253
-0.19765 -0.192727 -0.182223 127 0 255
-0.108081 -0.472853 0.375431 127 0 255
0.029904 -0.339168 0.442442 127 0 255
0.0121728 -0.487307 0.0499669 127 0 255
-0.202076 -0.226885 -0.107033 127 0 255
-0.0117953 0.0784469 -0.210709 87 62 253
-0.0766294 0.0759537 0.256308 89 59 253
-0.18401 -0.125853 0.39208 127 0 255
0.09749 0.0749063 0.392955 89 59 253
-0.193106 -0.270158 0.453717 127 0 255
-0.149468 0.0752798 0.037379 89 59 253
-0.211841 -0.0030991 0.371771 127 0 255
-0.206556 -0.263456 -0.187405 127 0 255
-0.183971 0.00926885 -0.117206 123 6 254
-0.221623 0.0194166 0.280873 119 12 254
0.0778413 0.0744468 0.0320601 89 59 253
-0.21045 -0.338603 0.39395 127 0 255
-0.118007 -0.0669732 0.445056 127 0 255
-0.210667 -0.0979579 -0.205151 127 0 255
-0.212444 -0.190831 0.262663 127 0 255
-0.213545 -0.4241 -0.176636 127 0 255
-0.0762808 0.0787951 -0.0259031 87 62 253
-0.236167 -0.489676 0.288149 127 0 255
-0.0378272 -0.0623129 0.174971 127 0 255
0.147068 0.0753817 0.208981 89 59 253
-0.202167 -0.360577 -0.308249 127 0 255
-0.207868 -0.0518643 0.12748 127 0 255
-0.043096 -0.117756 0.447181 127 0 255
-0.0242155 0.0780034 0.0531223 89 59 253
-0.187058 -0.0330039 -0.225423 127 0 255
-0.19838 -0.328918 -0.155483 127 0 255
-0.204584 0.0140782 0.0911487 121 9 254
-0.0878273 -0.299825 0.362479 127 0 255
-0.217295 -0.484874 0.187442 127 0 255
0.0433836 -0.269897 0.453739 127 0 255
-0.0878272 -0.487311 -0.0500302 127 0 255
-0.0772974 -0.208641 0.437357 127 0 255
-0.190769 0.0739266 -0.2556 91 56 253
-0.136949 -0.4902 0.208465 127 0 255
-0.199844 -0.183166 0.166763 127 0 255
-0.200299 0.00854834 -0.317437 123 6 254
-0.097765 -0.468154 0.42918 127 0 255
-0.135299 0.0755716 0.0948534 89 59 253
-0.201812 -0.374162 0.0126104 127 0 255
0.162617 -0.182969 0.421925 127 0 255
-0.0592776 0.0771809 0.131703 89 59 253
-0.204086 -0.411957 0.176596 127 0 255
