ply
format ascii 1.0
comment Created by Open3D
element vertex 1190
property double x
property double y
property double z
property uchar red
property uchar green
property uchar blue
end_header
-0.065814 -0.325584 0.00995346 127 0 255
-0.0339678 -0.440305 0.385022 127 0 255
-0.0324545 -0.286946 0.194274 127 0 255
-0.03323 -0.290539 0.304656 127 0 255
-0.0295477 -0.437377 0.254189 127 0 255
-0.0454596 -0.483231 0.183264 127 0 255
-0.134932 -0.289597 0.00487509 127 0 255
-0.012856 -0.389285 0.177003 127 0 255
-0.174597 -0.484256 0.0221173 127 0 255
-0.318901 -0.483269 0.211578 127 0 255
-0.287763 -0.360475 -0.00262817 127 0 255
-0.201879 -0.483496 0.152191 127 0 255
-0.0104238 -0.4722 0.0864237 127 0 255
-0.145775 -0.450321 0.00957198 127 0 255
-0.171132 -0.268074 -0.00522255 127 0 255
-0.287827 -0.437279 0.149948 127 0 255
-0.0284959 -0.323005 0.281452 127 0 255
-0.125327 -0.312274 0.0499457 127 0 255
-0.310018 -0.472737 -0.00565462 127 0 255
-0.0191267 -0.404541 0.00682305 127 0 255
-0.200327 -0.399784 0.149952 127 0 255
-0.350327 -0.399774 0.112446 127 0 255
-0.0765388 -0.483156 0.242814 127 0 255
-0.23787 -0.48162 0.0244793 127 0 255
-0.00953781 -0.460445 0.270142 127 0 255
-0.00692984 -0.360561 0.287841 127 0 255
-0.115255 -0.483679 0.00733378 127 0 255
-0.0143643 -0.465028 0.203427 127 0 255
-0.0363468 -0.284051 0.101431 127 0 255
-0.0228273 -0.279056 0.340076 127 0 255
-0.0168777 -0.390156 0.122326 127 0 255
-0.00861462 -0.282842 0.249898 127 0 255
-0.000326878 -0.262274 0.0624457 127 0 255
-0.0963166 -0.30947 -0.00693212 127 0 255
-0.152637 -0.4832 0.131289 127 0 255
-0.0261644 -0.362655 0.202589 127 0 255
-0.175062 -0.485225 0.365365 127 0 255
-0.0214056 -0.406138 0.341652 127 0 255
-0.314268 -0.319349 0.0270324 127 0 255
-0.0221761 -0.441322 0.00487854 127 0 255
-0.0275661 -0.441379 0.0776393 127 0 255
-0.257431 -0.40544 -0.00315023 127 0 255
-0.100327 -0.249794 0.387458 127 0 255
-0.0541597 -0.483058 0.152312 127 0 255
-0.00632175 -0.272709 0.158062 127 0 255
-0.0878269 -0.312274 0.0999457 127 0 255
-0.120688 -0.345857 -0.00600824 127 0 255
-0.162827 -0.274781 0.07495 127 0 255
-0.240552 -0.482595 0.0727145 127 0 255
-0.0127284 -0.355807 0.100591 127 0 255
-0.0843383 -0.391653 -0.0014547 127 0 255
-0.026121 -0.426916 0.141787 127 0 255
-0.067439 -0.484996 0.388796 127 0 255
-0.105035 -0.483423 0.198208 127 0 255
-0.0261669 -0.483591 0.0401079 127 0 255
-0.33928 -0.456876 0.0230263 127 0 255
-0.0269317 -0.475679 0.408676 127 0 255
-0.0491557 -0.476521 0.223306 127 0 255
-0.250327 -0.349791 0.149957 127 0 255
-0.113479 -0.484516 0.304467 127 0 255
-0.0280807 -0.411373 0.21686 127 0 255
-0.290834 -0.299946 -0.000800222 127 0 255
-0.162827 -0.31228 0.11245 127 0 255
-0.0515879 -0.278535 0.000824205 127 0 255
-0.0267564 -0.271742 0.28137 127 0 255
-0.233178 -0.274534 -0.00333583 127 0 255
-0.0101841 -0.341211 0.169154 127 0 255
-0.312827 -0.31228 0.0749492 127 0 255
-0.0229934 -0.443778 0.356417 127 0 255
-0.013357 -0.475274 0.172252 127 0 255
-0.0744935 -0.478198 0.0028285 127 0 255
-0.28851 -0.481124 0.0664643 127 0 255
-0.193417 -0.355745 -0.00239401 127 0 255
-0.237827 -0.449782 0.137451 127 0 255
-0.325327 -0.412274 0.137446 127 0 255
-0.00969289 -0.363879 0.243925 127 0 255
-0.000326878 -0.249774 0.212446 127 0 255
-0.0628269 -0.399774 0.137446 127 0 255
-0.173243 -0.401776 -0.00228651 127 0 255
-0.18138 -0.293158 -0.000298212 127 0 255
-0.307552 -0.268485 0.00514818 127 0 255
-0.0884822 -0.34983 0.0106245 127 0 255
-0.0335869 -0.482321 0.103232 127 0 255
-0.278055 -0.482487 0.00254296 127 0 255
-0.279073 -0.481559 0.114349 127 0 255
-0.0537637 -0.422105 0.00417893 127 0 255
-0.337827 -0.337293 0.324958 127 0 255
-0.0878269 -0.337281 0.38745 127 0 255
-0.142737 -0.382061 -0.0014254 127 0 255
-0.0292878 -0.354146 0.303461 127 0 255
-0.0628269 -0.312274 0.124946 127 0 255
-0.237827 -0.312291 0.112456 127 0 255
-0.0313734 -0.383881 0.365855 127 0 255
-0.230766 -0.482728 0.239821 127 0 255
-0.300327 -0.362283 0.149951 127 0 255
-0.199189 -0.482702 0.0366905 127 0 255
-0.0254471 -0.308859 0.0044059 127 0 255
-0.190126 -0.483885 0.346834 127 0 255
-0.0196905 -0.327138 0.251321 127 0 255
-0.204369 -0.438408 0.0153262 127 0 255
-0.227173 -0.387045 -0.00195856 127 0 255
-0.175327 -0.374782 0.137451 127 0 255
-0.0326438 -0.284875 0.230872 127 0 255
-0.270359 -0.339191 -0.00308985 127 0 255
-0.133832 -0.483975 0.341994 127 0 255
-0.125595 -0.45034 -0.00318175 127 0 255
-0.0975048 -0.483292 0.157453 127 0 255
-0.0503269 -0.487274 0.449946 127 0 255
-0.200327 -0.312287 0.0874537 127 0 255
-0.125327 -0.424774 0.149946 127 0 255
-0.319513 -0.406651 -0.000993238 127 0 255
-0.0241895 -0.329512 0.357732 127 0 255
-0.0142762 -0.421467 0.290456 127 0 255
-0.149938 -0.31031 0.00128104 127 0 255
-0.275327 -0.312288 0.0624548 127 0 255
-0.0373738 -0.483352 0.261291 127 0 255
-0.350342 -0.473548 0.00643949 127 0 255
-0.181901 -0.465827 -0.00383673 127 0 255
-0.0165655 -0.459558 0.0326084 127 0 255
-0.0319684 -0.315505 0.168712 127 0 255
-0.0540766 -0.483263 0.329142 127 0 255
-0.293127 -0.443457 -0.00153269 127 0 255
-0.203379 -0.481613 0.130654 127 0 255
-0.125359 -0.265346 -0.000849006 127 0 255
-0.325327 -0.324779 0.137449 127 0 255
-0.25325 -0.482026 0.21186 127 0 255
-0.239291 -0.432123 -0.00281619 127 0 255
-0.0123194 -0.420317 0.242576 127 0 255
-0.141354 -0.484029 0.0187631 127 0 255
-0.337827 -0.424774 0.0999457 127 0 255
-0.0157804 -0.427249 0.0672153 127 0 255
-0.265457 -0.483418 0.0434293 127 0 255
-0.0141789 -0.373334 0.146502 127 0 255
-0.187209 -0.316299 0.0156877 127 0 255
-0.0878269 -0.449774 0.387446 127 0 255
-0.245304 -0.32795 0.0179936 127 0 255
-0.0147601 -0.438324 0.112053 127 0 255
-0.0221108 -0.384813 0.0607676 127 0 255
-0.00473329 -0.280586 0.219933 127 0 255
-0.0264188 -0.283407 0.358096 127 0 255
-0.0133088 -0.306979 0.064894 127 0 255
-0.296625 -0.483472 0.209037 127 0 255
-0.0753269 -0.274774 0.0749457 127 0 255
-0.323221 -0.357681 0.0216688 127 0 255
-0.0123871 -0.480775 0.290378 127 0 255
-0.125327 -0.337274 0.137446 127 0 255
-0.188372 -0.263414 0.00742414 127 0 255
-0.022371 -0.370406 0.015662 127 0 255
-0.0145382 -0.435973 0.199114 127 0 255
-0.215107 -0.355671 0.0150762 127 0 255
-0.0663312 -0.454894 0.0158494 127 0 255
-0.333301 -0.483384 0.0380055 127 0 255
-0.0194235 -0.483441 0.153971 127 0 255
-0.0717836 -0.483385 0.297451 127 0 255
-0.033026 -0.4811 0.0677957 127 0 255
-0.234288 -0.483665 0.0988529 127 0 255
-0.114768 -0.39684 -0.000505772 127 0 255
-0.0775895 -0.28009 -0.000291321 127 0 255
-0.0332185 -0.485338 0.392612 127 0 255
-0.0358939 -0.353258 0.377001 127 0 255
-0.0688231 -0.371232 0.00938241 127 0 255
-0.337827 -0.324792 0.412457 127 0 255
-0.0293215 -0.394315 0.293807 127 0 255
-0.278791 -0.421117 0.015922 127 0 255
-0.0714255 -0.484655 0.427154 127 0 255
-0.282424 -0.483524 0.162553 127 0 255
-0.242385 -0.464733 -0.00279656 127 0 255
-0.0301212 -0.311715 0.140292 127 0 255
-0.114165 -0.312804 0.0115207 127 0 255
-0.175327 -0.337284 0.137452 127 0 255
-0.197807 -0.483377 0.0653156 127 0 255
-0.0333312 -0.423665 0.040482 127 0 255
-0.0284909 -0.369406 0.323917 127 0 255
-0.237827 -0.312289 0.0624549 127 0 255
-0.0241416 -0.483118 0.342195 127 0 255
-3.54277e-05 -0.285429 0.145435 127 0 255
-0.0250351 -0.337114 0.0926168 127 0 255
-0.0288262 -0.381422 0.249604 127 0 255
-0.197424 -0.404531 0.0116986 127 0 255
-0.0905907 -0.443498 -0.000129269 127 0 255
-0.340393 -0.430659 0.0195514 127 0 255
-0.0378269 -0.424774 0.424946 127 0 255
-0.158452 -0.358919 -0.00243222 127 0 255
-0.0628269 -0.349774 0.149946 127 0 255
-0.0811201 -0.483066 0.336194 127 0 255
-0.0753269 -0.437274 0.149946 127 0 255
-0.300327 -0.312284 0.0999518 127 0 255
-0.0500626 -0.344041 0.0087997 127 0 255
-0.287515 -0.25436 0.00643124 127 0 255
-0.0344536 -0.273578 0.304504 127 0 255
-0.0232339 -0.472455 0.00157215 127 0 255
-0.225406 -0.287167 0.000530401 127 0 255
-0.141776 -0.430626 0.0103125 127 0 255
-0.0140778 -0.452217 0.250164 127 0 255
-0.112827 -0.387285 0.374953 127 0 255
-0.063861 -0.48335 0.133974 127 0 255
-0.0264039 -0.3717 0.1967 127 0 255
-0.295599 -0.483502 0.0359114 127 0 255
-0.0128475 -0.453943 0.138041 127 0 255
-0.0208739 -0.440954 0.316713 127 0 255
-0.160223 -0.484292 0.366268 127 0 255
-0.0905686 -0.483781 0.207499 127 0 255
-0.0589157 -0.485053 0.370517 127 0 255
-0.112827 -0.287296 0.37496 127 0 255
-0.00119243 -0.287369 0.180268 127 0 255
-0.275402 -0.481423 0.0836412 127 0 255
-0.312797 -0.309352 0.00750157 127 0 255
-0.0251811 -0.322185 0.216533 127 0 255
-0.100327 -0.399774 0.137446 127 0 255
-0.249198 -0.378156 0.00230967 127 0 255
-0.0315479 -0.272011 0.00506179 127 0 255
-0.287827 -0.274785 0.0624528 127 0 255
-0.0288384 -0.33463 0.061307 127 0 255
-0.257573 -0.484097 0.13176 127 0 255
-0.0283051 -0.413102 0.366508 127 0 255
-0.0274654 -0.422186 0.154016 127 0 255
-0.12964 -0.48425 0.281461 127 0 255
-0.00585018 -0.345611 0.281709 127 0 255
-0.162827 -0.27478 0.0499496 127 0 255
-0.0330752 -0.296849 0.0866501 127 0 255
-0.155209 -0.483216 0.129489 127 0 255
-0.097168 -0.48371 0.00784859 127 0 255
-0.153115 -0.484266 0.330864 127 0 255
-0.0299612 -0.327807 0.309016 127 0 255
-0.283387 -0.393435 -0.00232701 127 0 255
-0.0253428 -0.312266 0.0223201 127 0 255
-0.174604 -0.427377 -0.00171078 127 0 255
-0.137827 -0.312274 0.0749457 127 0 255
-0.237827 -0.312292 0.137457 127 0 255
-0.0252416 -0.452538 0.375796 127 0 255
-0.221545 -0.48328 -0.000831684 127 0 255
-0.318289 -0.350316 -0.00022913 127 0 255
-0.227366 -0.335091 -0.00302789 127 0 255
-0.271961 -0.290504 -5.83129e-05 127 0 255
-0.337827 -0.349776 0.112446 127 0 255
-0.0218756 -0.478267 0.201246 127 0 255
-0.16539 -0.384681 0.0136696 127 0 255
-0.0878269 -0.312274 0.137446 127 0 255
-0.150327 -0.412274 0.137446 127 0 255
-0.323969 -0.454638 -0.00247794 127 0 255
-0.0159713 -0.477454 0.105859 127 0 255
-0.0763911 -0.483148 0.240767 127 0 255
-0.0238844 -0.364936 0.116659 127 0 255
-0.237827 -0.412285 0.137452 127 0 255
-0.0172362 -0.41399 0.323279 127 0 255
-0.273652 -0.354792 0.0173823 127 0 255
-0.105511 -0.264967 -0.000117659 127 0 255
-0.0109355 -0.398787 0.255436 127 0 255
-0.0131047 -0.393461 0.174525 127 0 255
-0.0412659 -0.473602 0.309261 127 0 255
-0.0932402 -0.369455 0.0124098 127 0 255
-0.312827 -0.324796 0.39996 127 0 255
-0.164763 -0.483023 0.0284535 127 0 255
-0.0142641 -0.403506 0.113083 127 0 255
-0.225327 -0.362288 0.149954 127 0 255
-0.0246942 -0.401962 0.00404528 127 0 255
-0.080262 -0.482918 0.150691 127 0 255
-0.0717485 -0.325515 0.0113992 127 0 255
-0.233866 -0.263692 -0.00112001 127 0 255
-0.125327 -0.362274 0.149946 127 0 255
-0.0236834 -0.348515 0.350664 127 0 255
-0.0229112 -0.342666 0.0151005 127 0 255
-0.0322563 -0.290959 0.186188 127 0 255
-0.350327 -0.34979 0.362456 127 0 255
-0.0284674 -0.299507 0.325715 127 0 255
-0.327418 -0.386249 0.0150106 127 0 255
-0.233211 -0.482504 0.256647 127 0 255
-0.0838527 -0.485199 0.412884 127 0 255
-0.111208 -0.43152 0.00823568 127 0 255
-0.0288009 -0.44173 0.236783 127 0 255
-0.0502082 -0.479504 0.180555 127 0 255
-0.0307987 -0.294124 0.121453 127 0 255
-0.143497 -0.329135 -0.00259646 127 0 255
-0.0473726 -0.483721 0.0138391 127 0 255
-0.200327 -0.262285 0.0499526 127 0 255
-0.0267208 -0.359446 0.222642 127 0 255
-0.200322 -0.299603 -0.000140981 127 0 255
-0.262827 -0.312291 0.0999565 127 0 255
-0.0264096 -0.365494 0.158293 127 0 255
-0.28228 -0.455434 -0.000679767 127 0 255
-0.325327 -0.324795 0.337459 127 0 255
-0.0178455 -0.453851 0.295634 127 0 255
-0.348067 -0.476404 0.0650624 127 0 255
-0.190459 -0.481691 0.141546 127 0 255
-0.112827 -0.249797 0.374961 127 0 255
-0.0998773 -0.482771 0.34058 127 0 255
-0.0670449 -0.417015 0.0101076 127 0 255
-0.0878269 -0.362278 0.387448 127 0 255
-0.0140732 -0.438844 0.0226623 127 0 255
-0.000326878 -0.262274 0.0249457 127 0 255
-0.296492 -0.485204 0.219141 127 0 255
-0.237827 -0.487305 0.349966 127 0 255
-0.158029 -0.265972 -0.00424029 127 0 255
-0.171506 -0.345967 0.0144861 127 0 255
-0.075327 -0.274785 0.399953 127 0 255
-0.0317804 -0.273311 0.352754 127 0 255
-0.0261189 -0.293499 0.263615 127 0 255
-0.232236 -0.483173 0.0749076 127 0 255
-0.0159668 -0.405672 0.0787366 127 0 255
-0.0231522 -0.453756 0.17495 127 0 255
-0.320239 -0.482732 0.014534 127 0 255
-0.0118136 -0.397316 0.207223 127 0 255
-0.208205 -0.403284 -0.00178829 127 0 255
-0.0418491 -0.483294 0.228678 127 0 255
-0.143822 -0.399629 -0.00151992 127 0 255
-0.0878269 -0.312274 0.0624457 127 0 255
-0.275327 -0.349788 0.149955 127 0 255
-0.273703 -0.316713 0.000952758 127 0 255
-0.0633384 -0.287217 -0.00130661 127 0 255
-0.0205124 -0.444182 0.341302 127 0 255
-0.302362 -0.415454 0.0138415 127 0 255
-0.215264 -0.444442 -0.00425613 127 0 255
-0.240032 -0.483527 0.226327 127 0 255
-0.350327 -0.412274 0.0749457 127 0 255
-0.000326878 -0.487274 0.387446 127 0 255
-0.200327 -0.412282 0.137451 127 0 255
-0.0281047 -0.331824 0.137699 127 0 255
-0.0121584 -0.375056 0.283818 127 0 255
-0.0110547 -0.478485 0.315698 127 0 255
-0.119778 -0.484491 0.311562 127 0 255
-0.112996 -0.351424 0.00959442 127 0 255
-0.0557151 -0.379258 0.0100273 127 0 255
-0.300327 -0.387281 0.14995 127 0 255
-0.107407 -0.483083 0.0254209 127 0 255
-0.243769 -0.482995 0.0203435 127 0 255
-0.178117 -0.477522 -0.00225689 127 0 255
-0.264523 -0.48171 0.150231 127 0 255
-0.0236926 -0.324938 0.236825 127 0 255
-0.0314793 -0.460403 0.0522108 127 0 255
-0.0753269 -0.412274 0.387446 127 0 255
-0.0190654 -0.364716 0.0585793 127 0 255
-0.0489266 -0.485021 0.415076 127 0 255
-0.0170515 -0.291345 0.071374 127 0 255
-0.0292031 -0.423199 0.255991 127 0 255
-0.0295601 -0.31108 0.36215 127 0 255
-0.272665 -0.483673 0.0977773 127 0 255
-0.0377107 -0.438481 0.0028308 127 0 255
-0.204895 -0.345441 -0.00306953 127 0 255
-0.0320513 -0.286066 0.163774 127 0 255
-0.348944 -0.482921 0.0338262 127 0 255
-0.0132549 -0.433418 0.0933744 127 0 255
-0.337827 -0.362275 0.137446 127 0 255
-0.00739477 -0.278408 0.240522 127 0 255
-0.128178 -0.303969 0.00996074 127 0 255
-0.156833 -0.450106 -0.00188805 127 0 255
-0.06515 -0.483816 0.291779 127 0 255
-0.24817 -0.431553 -0.00248545 127 0 255
-0.112827 -0.312274 0.0999457 127 0 255
-0.0279872 -0.325859 0.275746 127 0 255
-0.0257981 -0.379475 0.355635 127 0 255
-0.000326878 -0.249774 0.149946 127 0 255
-0.0140153 -0.424325 0.166253 127 0 255
-0.087827 -0.324783 0.399951 127 0 255
-0.143666 -0.483838 0.00619963 127 0 255
-0.287463 -0.483947 0.0182016 127 0 255
-0.286722 -0.297998 0.014804 127 0 255
-0.275327 -0.437281 0.14995 127 0 255
-0.093375 -0.484176 0.196681 127 0 255
-0.187827 -0.312286 0.0999534 127 0 255
-0.107279 -0.412326 -0.000640709 127 0 255
-0.0847775 -0.30708 0.0112156 127 0 255
-0.150327 -0.324776 0.137446 127 0 255
-0.00799693 -0.274748 0.193124 127 0 255
-0.100327 -0.449774 0.374946 127 0 255
-0.0391485 -0.319387 0.000216137 127 0 255
-0.112827 -0.274774 0.0499457 127 0 255
-0.33882 -0.428875 0.0043945 127 0 255
-0.0164031 -0.275086 0.299635 127 0 255
-0.193051 -0.373554 -0.00227743 127 0 255
-0.021512 -0.382665 0.0194039 127 0 255
-0.271965 -0.259246 0.0060149 127 0 255
-0.012123 -0.352751 0.102092 127 0 255
-0.108506 -0.46913 -0.0024851 127 0 255
-0.0356977 -0.34675 0.37594 127 0 255
-0.220403 -0.316876 0.0175894 127 0 255
-0.337827 -0.362274 0.0749457 127 0 255
-0.0294724 -0.395194 0.325209 127 0 255
-0.186317 -0.482714 0.0541142 127 0 255
-0.303859 -0.375094 0.0141735 127 0 255
-0.0104571 -0.317504 0.150455 127 0 255
-0.00914101 -0.364338 0.252017 127 0 255
-0.175327 -0.449778 0.137448 127 0 255
-0.0165102 -0.327237 0.321847 127 0 255
-0.0143003 -0.436568 0.203929 127 0 255
-0.0397732 -0.476371 0.357154 127 0 255
-0.321351 -0.328877 0.0113811 127 0 255
-0.158967 -0.303641 0.00710276 127 0 255
-0.159737 -0.483925 0.354737 127 0 255
-0.0248997 -0.402669 0.141527 127 0 255
-0.0125064 -0.460961 0.0793421 127 0 255
-0.180862 -0.265132 -0.00430998 127 0 255
-0.0600568 -0.482672 0.00887562 127 0 255
-0.0323338 -0.298564 0.0508072 127 0 255
-0.24378 -0.48053 0.126038 127 0 255
-0.212827 -0.31229 0.137456 127 0 255
-0.0129372 -0.359024 0.180826 127 0 255
-0.307181 -0.448733 0.0135447 127 0 255
-0.191128 -0.451352 0.0126084 127 0 255
-0.0289291 -0.483478 0.0498664 127 0 255
-0.0690923 -0.388907 -0.00195726 127 0 255
-0.0180099 -0.46349 0.00377495 127 0 255
-0.0304635 -0.416283 0.37069 127 0 255
-0.285303 -0.335191 -0.00198348 127 0 255
-0.155712 -0.483108 0.126023 127 0 255
-0.0431838 -0.48129 0.132063 127 0 255
-0.0219882 -0.381331 0.0853959 127 0 255
-0.139333 -0.372108 -0.0019333 127 0 255
-0.0321628 -0.301095 0.198013 127 0 255
-0.25738 -0.387473 0.0109254 127 0 255
-0.241375 -0.296945 0.000743603 127 0 255
-0.0160884 -0.41639 0.0560102 127 0 255
-0.300327 -0.312284 0.137452 127 0 255
-0.0343681 -0.483381 0.242312 127 0 255
-0.163067 -0.414904 0.0119419 127 0 255
-0.0243963 -0.475942 0.406085 127 0 255
-0.0694586 -0.447531 0.00243112 127 0 255
-0.112827 -0.324792 0.374957 127 0 255
-0.0970702 -0.353627 -0.00654461 127 0 255
-0.0281633 -0.414468 0.219797 127 0 255
-0.254458 -0.483537 0.220934 127 0 255
-0.28851 -0.483476 0.0792692 127 0 255
-0.243905 -0.445023 0.0147128 127 0 255
-0.0289894 -0.277027 0.0133161 127 0 255
-0.0878269 -0.349774 0.149946 127 0 255
-0.112827 -0.449774 0.137446 127 0 255
-0.124681 -0.484317 0.286577 127 0 255
-0.312827 -0.412276 0.137447 127 0 255
-0.0628269 -0.262274 0.0624457 127 0 255
-0.0163348 -0.330164 0.0761212 127 0 255
-0.0144019 -0.479824 0.275702 127 0 255
-0.0134774 -0.47396 0.173554 127 0 255
-0.162827 -0.312279 0.0499489 127 0 255
-0.257752 -0.481947 0.000596971 127 0 255
-0.137827 -0.387274 0.149946 127 0 255
-0.184316 -0.331091 -0.00163287 127 0 255
-0.0336762 -0.293084 0.101967 127 0 255
-0.0143023 -0.413009 0.295248 127 0 255
-0.0656404 -0.484812 0.389764 127 0 255
-0.212614 -0.268875 0.00236608 127 0 255
-0.194386 -0.484407 0.013921 127 0 255
-0.0155713 -0.450506 0.116508 127 0 255
-0.112827 -0.412283 0.374951 127 0 255
-0.143852 -0.265226 0.00473062 127 0 255
-0.0628269 -0.387274 0.137446 127 0 255
-0.081824 -0.479786 0.221639 127 0 255
-0.232074 -0.483366 0.0992102 127 0 255
-0.212827 -0.312287 0.0624538 127 0 255
-0.0636401 -0.341517 -0.00103816 127 0 255
-0.133714 -0.482084 0.025524 127 0 255
-0.0119953 -0.36084 0.145017 127 0 255
-0.305675 -0.28205 0.00976911 127 0 255
-0.2948 -0.481907 0.219978 127 0 255
-0.312827 -0.324798 0.424961 127 0 255
-0.212827 -0.349787 0.137454 127 0 255
-0.281412 -0.483881 0.148508 127 0 255
-0.0324669 -0.29307 0.225319 127 0 255
-0.233308 -0.355948 -0.00115537 127 0 255
-0.0152652 -0.457499 0.225861 127 0 255
-0.325574 -0.414304 0.0183448 127 0 255
-0.339671 -0.462082 -0.00158721 127 0 255
-0.0251869 -0.483259 0.091846 127 0 255
-0.0297457 -0.360716 0.0441914 127 0 255
-0.297054 -0.472133 -0.00566034 127 0 255
-0.0398522 -0.485137 0.322529 127 0 255
-0.0307469 -0.424349 0.345229 127 0 255
-0.0165793 -0.409734 0.011835 127 0 255
-0.187827 -0.274787 0.0749536 127 0 255
-0.225327 -0.449782 0.13745 127 0 255
-0.1175 -0.323619 -0.00132766 127 0 255
-0.0270915 -0.3586 0.218666 127 0 255
-0.00907467 -0.316658 0.175799 127 0 255
-0.135464 -0.407858 0.0127524 127 0 255
-0.0154942 -0.362779 0.310492 127 0 255
-0.22273 -0.398028 -0.00225162 127 0 255
-0.0279358 -0.309396 0.291783 127 0 255
-0.278083 -0.402301 -0.0029456 127 0 255
-0.147428 -0.483799 0.332282 127 0 255
-0.257586 -0.318477 0.0174576 127 0 255
-0.341642 -0.483255 0.0482594 127 0 255
-0.000326878 -0.262274 0.0624457 127 0 255
-0.0753269 -0.449774 0.137446 127 0 255
-0.00936454 -0.34681 0.260364 127 0 255
-0.197206 -0.48134 0.0657104 127 0 255
-0.0285908 -0.425973 0.0756642 127 0 255
-0.0934747 -0.391251 -0.00231816 127 0 255
-0.0137763 -0.417968 0.129608 127 0 255
-0.350327 -0.399774 0.112446 127 0 255
-0.109645 -0.277956 0.00942432 127 0 255
-0.0288827 -0.390642 0.253573 127 0 255
-0.0129447 -0.435636 0.272224 127 0 255
-0.337827 -0.337292 0.387457 127 0 255
-0.0468909 -0.478668 0.163524 127 0 255
-0.0229053 -0.280188 0.339786 127 0 255
-0.0798736 -0.484693 0.4216 127 0 255
-0.194378 -0.481674 0.143302 127 0 255
-0.0780575 -0.483194 0.018313 127 0 255
-0.112827 -0.274774 0.0749457 127 0 255
-0.231122 -0.482584 0.250808 127 0 255
-0.26004 -0.270189 -0.00171752 127 0 255
-0.022924 -0.348839 0.0137311 127 0 255
-0.127175 -0.439018 -0.00211258 127 0 255
-0.00240987 -0.275436 0.168365 127 0 255
-0.312827 -0.31228 0.0749492 127 0 255
-0.222083 -0.455886 0.0168245 127 0 255
-0.187827 -0.374784 0.137452 127 0 255
-0.311331 -0.365607 -0.000830389 127 0 255
-0.0753269 -0.299781 0.38745 127 0 255
-0.0143399 -0.38031 0.115448 127 0 255
-0.337827 -0.437274 0.0749457 127 0 255
-0.31291 -0.316939 0.0253465 127 0 255
-0.186852 -0.433443 -0.00149772 127 0 255
-0.0503209 -0.40771 0.00363227 127 0 255
-0.0331294 -0.461159 0.26903 127 0 255
-0.250327 -0.337291 0.137457 127 0 255
-0.158041 -0.375439 0.0143524 127 0 255
-0.00493545 -0.282224 0.224421 127 0 255
-0.0628269 -0.312274 0.0499457 127 0 255
-0.163116 -0.470859 0.0280963 127 0 255
-0.000326878 -0.437274 0.374946 127 0 255
-0.0753269 -0.374774 0.387446 127 0 255
-0.0144174 -0.405616 0.184447 127 0 255
-0.17216 -0.485629 0.364134 127 0 255
-0.0187838 -0.458084 0.328786 127 0 255
-0.100942 -0.483478 0.193247 127 0 255
-0.0265796 -0.289361 0.138658 127 0 255
-0.0395011 -0.468945 0.390207 127 0 255
-0.0175724 -0.4505 0.141131 127 0 255
-0.0149982 -0.451413 0.0272114 127 0 255
-0.0291853 -0.319697 0.331807 127 0 255
-0.0270661 -0.272407 0.284221 127 0 255
-0.26207 -0.352516 -0.00185633 127 0 255
-0.0258806 -0.311188 0.00447066 127 0 255
-0.344297 -0.482934 0.00766935 127 0 255
-0.225327 -0.312289 0.0999552 127 0 255
-0.0676207 -0.298262 -0.0011844 127 0 255
-0.029113 -0.384471 0.2984 127 0 255
-0.153475 -0.341215 -0.00411947 127 0 255
-0.205152 -0.479886 -0.0040897 127 0 255
-0.0708898 -0.482758 0.149665 127 0 255
-0.287827 -0.274785 0.0499525 127 0 255
-0.137827 -0.312274 0.124946 127 0 255
-0.0240271 -0.355125 0.350712 127 0 255
-0.269347 -0.469097 0.020603 127 0 255
-0.0888619 -0.440308 5.59315e-05 127 0 255
-0.337827 -0.324792 0.349957 127 0 255
-0.0238676 -0.393537 0.0336671 127 0 255
-0.0303268 -0.418075 0.319674 127 0 255
-0.0312981 -0.315602 0.174828 127 0 255
-0.0293355 -0.340641 0.0574836 127 0 255
-0.033649 -0.481876 0.191299 127 0 255
-0.150327 -0.437274 0.137446 127 0 255
-0.279982 -0.426721 -0.000993659 127 0 255
-0.219899 -0.308162 0.000109812 127 0 255
-0.0324013 -0.476129 0.00274681 127 0 255
-0.272157 -0.483489 0.111214 127 0 255
-0.250327 -0.412286 0.137453 127 0 255
-0.0223766 -0.312224 0.246375 127 0 255
-0.0273172 -0.334475 0.134643 127 0 255
-0.294296 -0.2594 0.00883318 127 0 255
-0.028263 -0.483111 0.345998 127 0 255
-0.20264 -0.404967 0.0116103 127 0 255
-0.0489511 -0.375358 -0.00049813 127 0 255
-0.0145938 -0.451193 0.195341 127 0 255
-0.321722 -0.350469 0.0218598 127 0 255
-0.128117 -0.483471 0.306294 127 0 255
-0.237334 -0.266913 0.00775677 127 0 255
-0.00701647 -0.34658 0.28994 127 0 255
-0.170093 -0.308802 0.00040248 127 0 255
-0.312827 -0.312281 0.11245 127 0 255
-0.119739 -0.387682 -0.00143506 127 0 255
-0.206477 -0.350001 0.0150009 127 0 255
-0.136288 -0.464238 -0.00225975 127 0 255
-0.28358 -0.330015 0.0184831 127 0 255
-0.275327 -0.312289 0.0749549 127 0 255
-0.0878269 -0.412274 0.399946 127 0 255
-0.100327 -0.399774 0.137446 127 0 255
-0.10176 -0.315997 0.0119559 127 0 255
-0.0327489 -0.428298 0.0412435 127 0 255
-0.300233 -0.483029 0.0268943 127 0 255
-0.0904963 -0.479191 0.00213301 127 0 255
-0.112827 -0.362288 0.374955 127 0 255
-0.100327 -0.287292 0.387457 127 0 255
-0.0307494 -0.469095 0.0829251 127 0 255
-0.150327 -0.312274 0.0874457 127 0 255
-0.0138586 -0.349525 0.167383 127 0 255
-0.133233 -0.280973 0.00542072 127 0 255
-0.029087 -0.420986 0.255598 127 0 255
-0.0878269 -0.312274 0.112446 127 0 255
-0.237827 -0.487305 0.349966 127 0 255
-0.0609105 -0.484659 0.425902 127 0 255
-0.0188447 -0.396934 0.0610977 127 0 255
-0.232255 -0.429553 -0.00270876 127 0 255
-0.112827 -0.449778 0.362448 127 0 255
-0.0158777 -0.475654 0.141012 127 0 255
-0.0327477 -0.483553 0.035011 127 0 255
-0.289821 -0.384554 0.0129969 127 0 255
-0.162827 -0.387278 0.137448 127 0 255
-0.0628269 -0.424774 0.149946 127 0 255
-0.0161616 -0.48337 0.303181 127 0 255
-0.0289047 -0.318506 0.362774 127 0 255
-0.345123 -0.464947 0.0312734 127 0 255
-0.0336692 -0.293072 0.100691 127 0 255
-0.0302864 -0.458624 0.231601 127 0 255
-0.298898 -0.485201 0.217396 127 0 255
-0.184256 -0.377106 0.0101357 127 0 255
-0.0683118 -0.352286 0.00971472 127 0 255
-0.0148553 -0.412334 0.103793 127 0 255
-0.112827 -0.249797 0.374961 127 0 255
-0.0895071 -0.416501 -0.000573062 127 0 255
-0.287827 -0.337287 0.137454 127 0 255
-0.0249713 -0.43485 0.36702 127 0 255
-0.000326878 -0.249774 0.187446 127 0 255
-0.231503 -0.482547 0.0977585 127 0 255
-0.0134423 -0.386284 0.160744 127 0 255
-0.0878269 -0.274774 0.0374457 127 0 255
-0.223728 -0.477852 0.0238394 127 0 255
-0.137827 -0.487294 0.412458 127 0 255
-0.329319 -0.418465 0.0189865 127 0 255
-0.28453 -0.483734 0.0882893 127 0 255
-0.130487 -0.348913 -0.00526254 127 0 255
-0.299423 -0.290626 -0.000196752 127 0 255
-0.137827 -0.312274 0.0499457 127 0 255
-0.0272879 -0.379823 0.357113 127 0 255
-0.0556746 -0.449457 0.00629667 127 0 255
-0.207418 -0.27386 0.00702045 127 0 255
-0.0307909 -0.280662 0.209832 127 0 255
-0.252752 -0.372973 0.00863449 127 0 255
-0.00965622 -0.362938 0.197434 127 0 255
-0.000403746 -0.284383 0.151176 127 0 255
-0.01437 -0.360658 0.100928 127 0 255
-0.0137843 -0.434311 0.165838 127 0 255
-0.225327 -0.399785 0.149953 127 0 255
-0.0240809 -0.476654 0.36689 127 0 255
-0.033742 -0.285254 0.304137 127 0 255
-0.170983 -0.417724 0.0124652 127 0 255
-0.0638046 -0.485032 0.386386 127 0 255
-0.0333614 -0.479518 0.117658 127 0 255
-0.0250367 -0.322927 0.0467467 127 0 255
-0.337827 -0.337293 0.324958 127 0 255
-0.0149176 -0.413041 0.225026 127 0 255
-0.287827 -0.437279 0.149948 127 0 255
-0.187827 -0.43728 0.137449 127 0 255
-0.178604 -0.481125 0.0452598 127 0 255
-0.0298542 -0.336258 0.301645 127 0 255
-0.321207 -0.469158 -0.00550668 127 0 255
-0.0510348 -0.48335 0.317495 127 0 255
-0.112827 -0.337274 0.137446 127 0 255
-0.0312908 -0.38328 0.00251483 127 0 255
-0.0155267 -0.337118 0.22106 127 0 255
-0.271498 -0.44778 0.00163072 127 0 255
-0.147412 -0.483861 0.33698 127 0 255
-0.262827 -0.312291 0.112457 127 0 255
-0.337827 -0.362275 0.137446 127 0 255
-0.291106 -0.35123 -0.00270705 127 0 255
-0.162827 -0.34978 0.137449 127 0 255
-0.124408 -0.483733 0.00787715 127 0 255
-0.0628269 -0.324774 0.137446 127 0 255
-0.255247 -0.30289 0.000713349 127 0 255
-0.337827 -0.424774 0.0999457 127 0 255
-0.0124826 -0.467996 0.0714053 127 0 255
-0.0384526 -0.282608 -0.00035168 127 0 255
-0.0323885 -0.28797 0.355172 127 0 255
-0.0327385 -0.294121 0.0747434 127 0 255
-0.252599 -0.483486 0.132074 127 0 255
-0.162827 -0.27478 0.0499496 127 0 255
-0.017385 -0.441329 0.00992724 127 0 255
-0.041928 -0.481867 0.240508 127 0 255
-0.199752 -0.310148 0.0149207 127 0 255
-0.0136753 -0.456727 0.284597 127 0 255
-0.0873073 -0.482969 0.210503 127 0 255
-0.0263092 -0.295387 0.274467 127 0 255
-0.13626 -0.382913 0.0145742 127 0 255
-0.299559 -0.433986 0.0141543 127 0 255
-0.25871 -0.47677 0.0296761 127 0 255
-0.0856974 -0.375358 -0.00496613 127 0 255
-0.137985 -0.439527 0.00928428 127 0 255
-0.244713 -0.338126 0.0150924 127 0 255
-0.200327 -0.312289 0.137456 127 0 255
-0.0127712 -0.413969 0.278638 127 0 255
-0.0141936 -0.332467 0.123129 127 0 255
-0.163368 -0.284338 -0.00144954 127 0 255
-0.0300781 -0.407841 0.367043 127 0 255
-0.237827 -0.312289 0.0624549 127 0 255
-0.0202848 -0.363416 0.0734019 127 0 255
-0.0554753 -0.309622 0.00753975 127 0 255
-0.0235497 -0.357533 0.328571 127 0 255
-0.20299 -0.443167 0.0146499 127 0 255
-0.100327 -0.312274 0.0749457 127 0 255
-0.0288472 -0.386715 0.253468 127 0 255
-0.252616 -0.413747 -0.00158537 127 0 255
-0.341467 -0.450991 0.00471326 127 0 255
-0.337827 -0.374774 0.0749457 127 0 255
-0.101006 -0.482247 0.0249118 127 0 255
-0.238073 -0.46676 -0.00310922 127 0 255
-0.0150597 -0.438184 0.107479 127 0 255
-0.200173 -0.366893 -0.00200168 127 0 255
-0.0867539 -0.280543 0.00171824 127 0 255
-0.287827 -0.374784 0.149952 127 0 255
-0.0345263 -0.294491 0.148483 127 0 255
-0.000326878 -0.262274 0.0249457 127 0 255
-0.0254315 -0.3246 0.260361 127 0 255
-0.0050902 -0.284126 0.216324 127 0 255
-0.166508 -0.484193 0.365875 127 0 255
-0.0557437 -0.41851 0.00425322 127 0 255
-0.198177 -0.482819 0.0597429 127 0 255
-0.0195848 -0.376281 0.12965 127 0 255
-0.0281203 -0.485259 0.398863 127 0 255
-0.159163 -0.340862 0.0117135 127 0 255
-0.325327 -0.337295 0.424959 127 0 255
-0.320186 -0.384701 0.0181038 127 0 255
-0.125327 -0.412274 0.149946 127 0 255
-0.160848 -0.484158 0.0103532 127 0 255
-0.0247897 -0.358801 0.00878845 127 0 255
-0.0279906 -0.419503 0.148858 127 0 255
-0.0753269 -0.274774 0.0749457 127 0 255
-0.0361992 -0.472092 0.284275 127 0 255
-0.0153025 -0.435466 0.0692147 127 0 255
-0.061471 -0.483853 0.1474 127 0 255
-0.0119002 -0.383479 0.196697 127 0 255
-0.0753269 -0.449774 0.399946 127 0 255
-0.012106 -0.372903 0.283678 127 0 255
-0.0303154 -0.417805 0.322818 127 0 255
-0.250327 -0.437284 0.149952 127 0 255
-0.277198 -0.260391 0.000931396 127 0 255
-0.0143509 -0.464533 0.24536 127 0 255
-0.0628269 -0.362274 0.149946 127 0 255
-0.0274227 -0.353088 0.365236 127 0 255
-0.176471 -0.451797 -0.00107068 127 0 255
-0.325327 -0.412274 0.137446 127 0 255
-0.0185607 -0.335194 0.0829324 127 0 255
-0.276206 -0.40171 0.0144887 127 0 255
-0.125429 -0.483458 0.298863 127 0 255
-0.270889 -0.473635 -0.00389981 127 0 255
-0.043718 -0.482129 0.00884901 127 0 255
-0.112638 -0.454434 -0.00285837 127 0 255
-0.317313 -0.349431 -0.000320177 127 0 255
-0.0345403 -0.48023 0.211097 127 0 255
-0.187827 -0.312285 0.0749529 127 0 255
-0.170515 -0.39499 -0.002262 127 0 255
-0.0229791 -0.391217 0.0829609 127 0 255
-0.0146613 -0.460829 0.172503 127 0 255
-0.221698 -0.397428 -0.00225191 127 0 255
-0.025611 -0.296233 0.0173247 127 0 255
-0.075327 -0.274785 0.399953 127 0 255
-0.091562 -0.398008 0.0103806 127 0 255
-0.303047 -0.471293 0.0233881 127 0 255
-0.337827 -0.349776 0.112446 127 0 255
-0.0628269 -0.312274 0.0749457 127 0 255
-0.0378269 -0.437274 0.424946 127 0 255
-0.0107085 -0.471727 0.096488 127 0 255
-0.0162259 -0.428337 0.19353 127 0 255
-0.301433 -0.298377 0.0177847 127 0 255
-0.139077 -0.309705 0.00190629 127 0 255
-0.274694 -0.352782 0.0173356 127 0 255
-0.344034 -0.483531 0.0422149 127 0 255
-0.137827 -0.449774 0.137446 127 0 255
-0.350327 -0.412274 0.0624457 127 0 255
-0.0821578 -0.341947 0.00998179 127 0 255
-0.0320103 -0.313137 0.173476 127 0 255
-0.175327 -0.312285 0.112452 127 0 255
-0.127438 -0.42133 -0.000296218 127 0 255
-0.028304 -0.299907 0.249015 127 0 255
-0.112827 -0.312294 0.374958 127 0 255
-0.187226 -0.342579 -0.00201355 127 0 255
-0.187827 -0.412281 0.13745 127 0 255
-0.0310163 -0.460526 0.0552023 127 0 255
-0.325327 -0.324794 0.362459 127 0 255
-0.0330843 -0.424215 0.00389893 127 0 255
-0.0503269 -0.487274 0.449946 127 0 255
-0.0878269 -0.424774 0.149946 127 0 255
-0.0238185 -0.484961 0.323583 127 0 255
-0.206531 -0.483989 0.00207345 127 0 255
-0.0301037 -0.301786 0.126859 127 0 255
-0.0160265 -0.389671 0.224392 127 0 255
-0.0367214 -0.483204 0.146356 127 0 255
-0.125327 -0.362274 0.149946 127 0 255
-0.020896 -0.320813 0.346484 127 0 255
-0.00847984 -0.274282 0.185685 127 0 255
-0.0431775 -0.480822 0.367791 127 0 255
-0.112827 -0.387285 0.374953 127 0 255
-0.0232651 -0.383131 0.331163 127 0 255
-0.172328 -0.263588 -0.000522706 127 0 255
-0.0160814 -0.357591 0.053544 127 0 255
-0.0245677 -0.345134 0.253652 127 0 255
-0.0136274 -0.309703 0.072199 127 0 255
-0.0503269 -0.362274 0.412446 127 0 255
-0.212827 -0.374786 0.149953 127 0 255
-0.124157 -0.273799 0.00530218 127 0 255
-0.0252054 -0.325466 0.01621 127 0 255
-0.33722 -0.432846 0.0222358 127 0 255
-0.20862 -0.425663 -0.0017784 127 0 255
-0.343387 -0.48288 0.00614273 127 0 255
-0.22019 -0.344432 -0.00346519 127 0 255
-0.0163687 -0.472635 0.0202416 127 0 255
-0.264359 -0.484119 0.129342 127 0 255
-0.200327 -0.274786 0.0624534 127 0 255
-0.0781921 -0.483569 0.017378 127 0 255
-0.0124605 -0.42366 0.247015 127 0 255
-0.224923 -0.265393 0.00220566 127 0 255
-0.0144325 -0.41135 0.297742 127 0 255
-0.134446 -0.482058 0.0245245 127 0 255
-0.000326878 -0.487274 0.374946 127 0 255
-0.0960662 -0.484226 0.199722 127 0 255
-0.0236077 -0.439878 0.359299 127 0 255
-0.1138 -0.320674 0.00959762 127 0 255
-0.0132572 -0.445124 0.142635 127 0 255
-0.0263123 -0.343426 0.145243 127 0 255
-0.087827 -0.324783 0.399951 127 0 255
-0.195615 -0.304574 0.000586009 127 0 255
-0.0601216 -0.282679 0.00434766 127 0 255
-0.303346 -0.31691 0.00101882 127 0 255
-0.312827 -0.324796 0.39996 127 0 255
-0.0878269 -0.374774 0.137446 127 0 255
-0.155352 -0.367344 -0.00229402 127 0 255
-0.274004 -0.483682 0.0973395 127 0 255
-0.0289286 -0.422952 0.0734374 127 0 255
-0.0512516 -0.347736 0.00541531 127 0 255
-0.0719497 -0.485129 0.406492 127 0 255
-0.290168 -0.396027 -0.00193026 127 0 255
-0.100327 -0.249794 0.387458 127 0 255
-0.000326878 -0.262274 0.0624457 127 0 255
-0.000326878 -0.249774 0.149946 127 0 255
-0.0798866 -0.447762 0.00145162 127 0 255
-0.244742 -0.322647 0.0180509 127 0 255
-0.0162778 -0.417845 0.0302033 127 0 255
-0.160262 -0.448496 0.00918134 127 0 255
-0.0289704 -0.370754 0.307112 127 0 255
-0.0878269 -0.387276 0.399947 127 0 255
-0.0318351 -0.286583 0.232007 127 0 255
-0.0247756 -0.405902 0.138959 127 0 255
-0.304777 -0.441379 -0.00183337 127 0 255
-0.0313172 -0.296431 0.341924 127 0 255
-0.0291022 -0.440377 0.266263 127 0 255
-0.237827 -0.33729 0.137456 127 0 255
-0.0104116 -0.349683 0.215204 127 0 255
-0.287827 -0.312287 0.112454 127 0 255
-0.0297755 -0.329032 0.304904 127 0 255
-0.259297 -0.438689 -0.00201993 127 0 255
-0.0200414 -0.3097 0.19234 127 0 255
-0.252659 -0.272898 0.00766543 127 0 255
-0.112827 -0.312274 0.112446 127 0 255
-0.0323855 -0.289098 0.10688 127 0 255
-0.236122 -0.376388 0.00726809 127 0 255
-0.300327 -0.412279 0.149949 127 0 255
-0.0149059 -0.452949 0.219758 127 0 255
-0.210977 -0.465704 -0.00591433 127 0 255
-0.296496 -0.264098 0.00322392 127 0 255
-0.0395278 -0.445363 0.0236039 127 0 255
-0.187827 -0.349785 0.137453 127 0 255
-0.125327 -0.274774 0.0499457 127 0 255
-0.0240902 -0.36461 0.165366 127 0 255
-0.0346891 -0.479952 0.285491 127 0 255
-0.0330525 -0.478923 0.114764 127 0 255
-0.142596 -0.410265 0.0124339 127 0 255
-0.330037 -0.407282 0.0135637 127 0 255
-0.0317627 -0.297822 0.0610735 127 0 255
-0.212827 -0.449781 0.13745 127 0 255
-0.0277967 -0.400408 0.358352 127 0 255
-0.0883514 -0.309651 0.0110559 127 0 255
-0.027732 -0.276519 0.281818 127 0 255
-0.264431 -0.484298 0.0139227 127 0 255
-0.0123323 -0.371453 0.119428 127 0 255
-0.262827 -0.399786 0.137453 127 0 255
-0.0352248 -0.345755 0.371233 127 0 255
-0.000326878 -0.249774 0.212446 127 0 255
-0.0503269 -0.437274 0.137446 127 0 255
-0.0157639 -0.411157 0.169331 127 0 255
-0.151084 -0.264965 -0.00182615 127 0 255
-0.312827 -0.31228 0.0749492 127 0 255
0.000183725 -0.291426 0.164881 127 0 255
-0.180777 -0.416906 -0.0019739 127 0 255
-0.0760133 -0.375034 0.00956298 127 0 255
-0.22693 -0.439348 0.0156419 127 0 255
-0.0951027 -0.42395 0.00726938 127 0 255
-0.0945324 -0.275061 0.000961325 127 0 255
-0.198301 -0.266689 0.00234698 127 0 255
-0.237827 -0.487305 0.349966 127 0 255
-0.0290832 -0.412985 0.235931 127 0 255
-0.101839 -0.473447 -0.00120832 127 0 255
-0.0264529 -0.404733 0.00369512 127 0 255
-0.0283832 -0.485273 0.397746 127 0 255
-0.0134153 -0.423182 0.107947 127 0 255
-0.212827 -0.312288 0.0999546 127 0 255
-0.337827 -0.362274 0.0624457 127 0 255
-0.272987 -0.340829 -0.00318419 127 0 255
-0.153593 -0.31637 0.000605991 127 0 255
-0.262827 -0.31229 0.062456 127 0 255
-0.0337463 -0.480781 0.183794 127 0 255
-0.00945824 -0.35378 0.259943 127 0 255
-0.112827 -0.337291 0.374956 127 0 255
-0.300327 -0.362283 0.149951 127 0 255
-0.18646 -0.478177 -0.0028198 127 0 255
-0.0878269 -0.437274 0.399946 127 0 255
-0.262827 -0.449781 0.13745 127 0 255
-0.216975 -0.313938 0.0166704 127 0 255
-0.0410073 -0.483169 0.341462 127 0 255
-0.172122 -0.483849 0.359408 127 0 255
-0.0304225 -0.352546 0.0503833 127 0 255
-0.347672 -0.468669 0.0388857 127 0 255
-0.19373 -0.481106 0.0486214 127 0 255
-0.0651703 -0.311469 -0.0014607 127 0 255
-0.175327 -0.312283 0.0499512 127 0 255
-0.100327 -0.312274 0.0499457 127 0 255
-0.13291 -0.388483 0.0144426 127 0 255
-0.0253915 -0.314488 0.22805 127 0 255
-0.137827 -0.487294 0.412458 127 0 255
-0.303505 -0.483203 0.0175485 127 0 255
-0.279484 -0.290736 -0.000442226 127 0 255
-0.0178685 -0.43358 0.286976 127 0 255
-0.0628269 -0.312274 0.124946 127 0 255
-0.0303621 -0.277004 0.350617 127 0 255
-0.316418 -0.358441 -0.000394487 127 0 255
-0.261499 -0.395825 0.0127172 127 0 255
-0.112827 -0.449774 0.137446 127 0 255
-0.112827 -0.412283 0.374951 127 0 255
-0.1919 -0.358941 0.0127564 127 0 255
-0.0577973 -0.482989 0.13745 127 0 255
-0.0240191 -0.386657 0.18367 127 0 255
-0.337827 -0.349792 0.349957 127 0 255
-0.0165906 -0.474979 0.0633844 127 0 255
-0.112827 -0.287296 0.37496 127 0 255
-0.0273192 -0.47683 0.00336495 127 0 255
-0.0296811 -0.358948 0.00497303 127 0 255
-0.0198397 -0.338455 0.115516 127 0 255
-0.331986 -0.448525 -0.00112499 127 0 255
-0.242922 -0.481025 0.00115634 127 0 255
-0.150327 -0.374774 0.137446 127 0 255
-0.00574111 -0.279884 0.227453 127 0 255
-0.025129 -0.450934 0.192068 127 0 255
-0.0283483 -0.340092 0.325771 127 0 255
-0.0292394 -0.288078 0.01715 127 0 255
-0.150327 -0.312275 0.124946 127 0 255
-0.0312116 -0.428829 0.367985 127 0 255
-0.096398 -0.364073 -0.00572862 127 0 255
-0.112827 -0.274774 0.0749457 127 0 255
-0.137562 -0.476274 -0.000507727 127 0 255
-0.0120572 -0.465726 0.111591 127 0 255
-0.0221822 -0.401602 0.0385473 127 0 255
-0.310131 -0.395994 0.0153968 127 0 255
-0.0228193 -0.30819 0.29142 127 0 255
-0.245748 -0.3071 0.000613867 127 0 255
-0.0323804 -0.292678 0.18477 127 0 255
-0.070577 -0.483714 0.0112466 127 0 255
-0.170469 -0.482965 0.0254288 127 0 255
-0.138858 -0.352452 -0.00433541 127 0 255
-0.0224491 -0.385919 0.0794675 127 0 255
-0.0161347 -0.466904 0.236914 127 0 255
-0.0615791 -0.408642 0.00301739 127 0 255
-0.0183282 -0.463665 0.324185 127 0 255
-0.300327 -0.312284 0.137452 127 0 255
-0.350327 -0.412274 0.0999457 127 0 255
-0.0146917 -0.424343 0.210192 127 0 255
-0.0296173 -0.436647 0.059142 127 0 255
-0.0132727 -0.476182 0.156882 127 0 255
-0.0230697 -0.334205 0.0839721 127 0 255
-0.313471 -0.327484 0.0236866 127 0 255
-0.225327 -0.424784 0.149952 127 0 255
-0.0140232 -0.376026 0.302315 127 0 255
-0.176324 -0.294889 0.00123497 127 0 255
-0.0290317 -0.325465 0.148426 127 0 255
-0.162827 -0.412277 0.137448 127 0 255
-0.274802 -0.483486 0.102817 127 0 255
-0.0374451 -0.467992 0.387805 127 0 255
-0.187827 -0.487297 0.287461 127 0 255
-0.0628269 -0.387274 0.137446 127 0 255
-0.217325 -0.385094 -0.000570306 127 0 255
-0.137827 -0.312274 0.0874457 127 0 255
-0.294931 -0.425039 0.0141022 127 0 255
-0.274677 -0.360907 0.0152723 127 0 255
-0.109207 -0.29511 0.0112313 127 0 255
-0.0296779 -0.412196 0.338189 127 0 255
-0.0613409 -0.453186 0.00526335 127 0 255
-0.337827 -0.324791 0.399957 127 0 255
-0.0285833 -0.328984 0.363897 127 0 255
-0.0753269 -0.349774 0.387446 127 0 255
-0.164546 -0.371789 0.0134455 127 0 255
-0.250327 -0.36229 0.149956 127 0 255
-0.134665 -0.434828 -0.00215616 127 0 255
-0.346806 -0.483107 0.0192747 127 0 255
-0.100327 -0.449774 0.374946 127 0 255
-0.223558 -0.350991 0.0137611 127 0 255
-0.0141488 -0.372869 0.150911 127 0 255
-0.0747606 -0.484739 0.411245 127 0 255
-0.0116241 -0.413458 0.266738 127 0 255
-0.256091 -0.429456 0.0117623 127 0 255
-0.114335 -0.398604 0.000315388 127 0 255
-0.100327 -0.349774 0.149946 127 0 255
-0.0140842 -0.410849 0.119291 127 0 255
-0.026882 -0.308346 0.0454175 127 0 255
-0.0504524 -0.37066 0.00919312 127 0 255
-0.0326211 -0.480025 0.0919034 127 0 255
-0.250327 -0.31229 0.0874561 127 0 255
-0.180862 -0.424773 0.0129354 127 0 255
-0.121443 -0.328283 0.000970229 127 0 255
-0.187827 -0.274787 0.0749536 127 0 255
-0.025729 -0.371607 0.205403 127 0 255
-0.0272533 -0.376551 0.356264 127 0 255
-0.225859 -0.484187 0.0119596 127 0 255
-0.0307839 -0.295139 0.125876 127 0 255
-0.259932 -0.484076 0.129041 127 0 255
-0.0516866 -0.334482 0.00437029 127 0 255
-0.274513 -0.261065 0.000995622 127 0 255
-0.0137417 -0.441724 0.161599 127 0 255
-0.271796 -0.308098 0.0128387 127 0 255
-0.000797607 -0.282402 0.155051 127 0 255
-0.0110924 -0.467438 0.275326 127 0 255
-0.0302049 -0.287739 0.0816891 127 0 255
-0.225327 -0.312291 0.137457 127 0 255
-0.233694 -0.265224 -0.00110281 127 0 255
-0.0503269 -0.387274 0.412446 127 0 255
-0.017141 -0.460855 0.0471081 127 0 255
-0.0753269 -0.274774 0.0499457 127 0 255
-0.226595 -0.419004 -0.000459672 127 0 255
-0.0236812 -0.365858 0.0405211 127 0 255
-0.107996 -0.448805 -0.00184651 127 0 255
-0.186603 -0.339401 -0.00170315 127 0 255
-0.29462 -0.483041 0.0265985 127 0 255
-0.0238315 -0.465859 0.365038 127 0 255
-0.0191894 -0.33241 0.248563 127 0 255
-0.0184925 -0.38623 0.27737 127 0 255
-0.0325456 -0.286604 0.20977 127 0 255
-0.130532 -0.285226 0.0041019 127 0 255
-0.0140292 -0.44067 0.0844834 127 0 255
-0.110581 -0.482082 0.0236703 127 0 255
-0.0289482 -0.328854 0.290707 127 0 255
-0.0364942 -0.443074 0.00341021 127 0 255
-0.0974146 -0.347304 0.00807711 127 0 255
-0.0298496 -0.446129 0.250199 127 0 255
-0.275327 -0.337289 0.137455 127 0 255
-0.0278241 -0.27084 0.301136 127 0 255
-0.0318845 -0.293016 0.000930171 127 0 255
-0.182947 -0.26326 0.00310411 127 0 255
-0.169908 -0.484147 0.357851 127 0 255
-0.0321487 -0.483392 0.306441 127 0 255
-0.165598 -0.458149 -0.000340674 127 0 255
-0.112827 -0.399774 0.137446 127 0 255
-0.0611155 -0.483849 0.14492 127 0 255
-0.338769 -0.43425 0.00444603 127 0 255
-0.0197107 -0.424314 0.303876 127 0 255
-0.0308961 -0.466016 0.211583 127 0 255
-0.156727 -0.405166 -0.000884536 127 0 255
-0.0240202 -0.358849 0.0924016 127 0 255
-0.0428023 -0.483744 0.0176042 127 0 255
-0.0753269 -0.299781 0.38745 127 0 255
-0.0528155 -0.484898 0.414002 127 0 255
-0.112827 -0.324774 0.137446 127 0 255
-0.175327 -0.449778 0.137448 127 0 255
-0.0753269 -0.399774 0.387446 127 0 255
-0.0278471 -0.297512 0.252021 127 0 255
-0.287827 -0.262285 0.0499524 127 0 255
-0.0378269 -0.437274 0.424946 127 0 255
-0.0113611 -0.332403 0.133692 127 0 255
-0.20779 -0.44753 -0.00362261 127 0 255
-0.223407 -0.307642 0.000528592 127 0 255
-0.0878269 -0.449774 0.137446 127 0 255
-0.312827 -0.312281 0.0999498 127 0 255
-0.275327 -0.487298 0.324961 127 0 255
-0.293104 -0.351426 0.0144594 127 0 255
-0.0242192 -0.340734 0.0163517 127 0 255
-0.0215098 -0.43453 0.34574 127 0 255
-0.0825281 -0.401239 5.43771e-05 127 0 255
-0.288907 -0.4167 -0.00174875 127 0 255
-0.0165547 -0.372652 0.232313 127 0 255
-0.0211412 -0.418992 0.174309 127 0 255
-0.332485 -0.4831 0.0341427 127 0 255
-0.246666 -0.342631 -0.00108457 127 0 255
-0.182475 -0.380808 -0.00213402 127 0 255
-0.309546 -0.310643 0.0214183 127 0 255
-0.000326878 -0.262274 0.0249457 127 0 255
-0.013826 -0.310449 0.0732976 127 0 255
-0.0356496 -0.4775 0.2627 127 0 255
-0.312827 -0.337282 0.13745 127 0 255
-0.0282112 -0.378607 0.33361 127 0 255
-0.225327 -0.312288 0.0624544 127 0 255
-0.301025 -0.449335 0.0131324 127 0 255
-0.016386 -0.464594 0.130702 127 0 255
-0.0878269 -0.312274 0.0874457 127 0 255
-0.241433 -0.401724 -0.00187348 127 0 255
-0.0162735 -0.417243 0.0457749 127 0 255
-0.15588 -0.468982 0.0217525 127 0 255
-0.187827 -0.337286 0.137453 127 0 255
-0.0116011 -0.350205 0.205412 127 0 255
-0.325327 -0.412274 0.137446 127 0 255
-0.164964 -0.299031 0.00711829 127 0 255
-0.00478719 -0.282415 0.189306 127 0 255
-0.0728915 -0.307953 0.0101455 127 0 255
-0.0162273 -0.395562 0.149698 127 0 255
-0.298594 -0.272769 0.0103995 127 0 255
-0.26728 -0.482983 0.021062 127 0 255
-0.287827 -0.312286 0.062453 127 0 255
-0.325327 -0.337295 0.424959 127 0 255
-0.0628269 -0.349774 0.149946 127 0 255
-0.125327 -0.312274 0.0499457 127 0 255
-0.0345943 -0.482049 0.162608 127 0 255
-0.0333633 -0.295361 0.152316 127 0 255
-0.0320639 -0.477773 0.0712858 127 0 255
-0.112827 -0.362288 0.374955 127 0 255
-0.0279468 -0.340887 0.333968 127 0 255
-0.0287155 -0.410091 0.239935 127 0 255
-0.138092 -0.370357 -0.00150048 127 0 255
-0.105355 -0.418351 -0.000710247 127 0 255
-0.0054422 -0.282385 0.229386 127 0 255
-0.023633 -0.483166 0.336209 127 0 255
-0.0872934 -0.476971 0.0236801 127 0 255
-0.201515 -0.407399 -0.00184402 127 0 255
-0.322499 -0.355568 0.0173181 127 0 255
-0.0146192 -0.431952 0.124855 127 0 255
-0.350327 -0.412274 0.0749457 127 0 255
-0.112827 -0.262297 0.374961 127 0 255
-0.198072 -0.340273 0.0146643 127 0 255
-0.0183381 -0.453679 0.00779006 127 0 255
-0.0301715 -0.418133 0.370065 127 0 255
-0.162827 -0.31228 0.0749492 127 0 255
-0.000326878 -0.487274 0.224946 127 0 255
-0.275327 -0.412283 0.137451 127 0 255
-0.200327 -0.374785 0.137452 127 0 255
-0.0214422 -0.390192 0.0145384 127 0 255
-0.0103954 -0.361721 0.26779 127 0 255
-0.063251 -0.435019 0.0039172 127 0 255
-0.150327 -0.337275 0.137446 127 0 255
-0.247504 -0.461377 0.0161115 127 0 255
-0.021122 -0.325147 0.166401 127 0 255
-0.0267543 -0.298162 0.279941 127 0 255
-0.0329706 -0.286844 0.100257 127 0 255
-0.0317783 -0.287267 0.350641 127 0 255
-0.256276 -0.379978 0.00886378 127 0 255
-0.319854 -0.405339 0.0022826 127 0 255
-0.0824035 -0.362 0.00999097 127 0 255
-0.349298 -0.47687 0.0476718 127 0 255
-0.019771 -0.373468 0.126286 127 0 255
-0.0503269 -0.487274 0.449946 127 0 255
-0.0592785 -0.285205 0.00442013 127 0 255
-0.075327 -0.274785 0.399953 127 0 255
-0.0289745 -0.37923 0.304217 127 0 255
-0.0301848 -0.48531 0.394981 127 0 255
-0.199033 -0.294306 0.000676082 127 0 255
-0.0182659 -0.350819 0.0432479 127 0 255
-0.269976 -0.48349 0.117013 127 0 255
-0.152728 -0.431756 0.0103834 127 0 255
-0.0332948 -0.431669 0.0367913 127 0 255
-0.0527354 -0.380861 -0.000998262 127 0 255
-0.162925 -0.325001 -0.000472368 127 0 255
-0.250327 -0.487303 0.337464 127 0 255
-0.297878 -0.320533 0.00107705 127 0 255
-0.185465 -0.47053 -0.00391347 127 0 255
-0.25426 -0.27337 -0.00150958 127 0 255
-0.0398557 -0.477656 0.186712 127 0 255
-0.337827 -0.374774 0.0874457 127 0 255
-0.298339 -0.379898 0.0126795 127 0 255
-0.0628269 -0.337274 0.412446 127 0 255
-0.212827 -0.412284 0.149952 127 0 255
-0.175327 -0.274784 0.0499521 127 0 255
-0.0360217 -0.474168 0.291146 127 0 255
-0.254272 -0.318588 0.0176176 127 0 255
-0.299205 -0.482925 0.00973286 127 0 255
-0.0222741 -0.400208 0.0570611 127 0 255
-0.300327 -0.387281 0.14995 127 0 255
-0.0150936 -0.435415 0.230806 127 0 255
-0.012273 -0.458858 0.0963519 127 0 255
-0.149181 -0.483823 0.00765205 127 0 255
-0.101217 -0.278357 0.00765661 127 0 255
-0.217604 -0.472971 0.0210457 127 0 255
-0.0753269 -0.412274 0.137446 127 0 255
-0.0195064 -0.342169 0.233848 127 0 255
-0.000326878 -0.249774 0.149946 127 0 255
-0.137827 -0.449774 0.137446 127 0 255
-0.262827 -0.312291 0.112457 127 0 255
-0.278348 -0.449449 0.00798397 127 0 255
-0.0628269 -0.312274 0.0624457 127 0 255
-0.337827 -0.349776 0.124947 127 0 255
-0.021943 -0.310787 0.190976 127 0 255
-0.325327 -0.324795 0.349959 127 0 255
-0.345927 -0.46186 0.0147013 127 0 255
-0.137827 -0.487294 0.412458 127 0 255
-0.0148019 -0.45123 0.199108 127 0 255
-0.237827 -0.449782 0.137451 127 0 255
-0.0437792 -0.483275 0.329698 127 0 255
-0.0244505 -0.379176 0.193722 127 0 255
-0.122162 -0.333889 0.00294799 127 0 255
-0.117346 -0.446422 0.00751276 127 0 255
-0.0264958 -0.318893 0.0154878 127 0 255
-0.0246099 -0.476582 0.00394909 127 0 255
-0.0753269 -0.424774 0.387446 127 0 255
-0.121313 -0.384293 -0.000313286 127 0 255
-0.141995 -0.276686 -0.00101917 127 0 255
-0.222918 -0.443874 -0.00434803 127 0 255
-0.187827 -0.487295 0.274959 127 0 255
-0.0738509 -0.485167 0.411165 127 0 255
-0.175327 -0.312284 0.0999522 127 0 255
-0.337827 -0.437274 0.0624457 127 0 255
