ply
format ascii 1.0
comment Created by Open3D
element vertex 1214
property double x
property double y
property double z
property uchar red
property uchar green
property uchar blue
end_header
-0.362821 -0.4373 0.487462 127 0 255
-0.354843 -0.425581 0.374653 127 0 255
-0.326512 0.0692787 0.260258 93 53 253
-0.223699 -0.366476 -0.191698 127 0 255
0.342122 -0.34807 -0.199963 127 0 255
-0.152162 -0.477356 0.133439 127 0 255
-0.318594 -0.388051 0.106985 127 0 255
-0.320299 -0.437861 0.252535 127 0 255
-0.0585196 -0.478422 0.0668799 127 0 255
0.254642 -0.480064 0.00878536 127 0 255
-0.0253272 -0.487307 0.487467 127 0 255
0.222099 -0.488104 0.278464 127 0 255
-0.352104 0.0166779 -0.105812 119 12 254
0.0935418 -0.0417575 -0.162183 127 0 255
0.258266 -0.442674 -0.197615 127 0 255
-0.287051 -0.357608 0.197556 127 0 255
-0.292202 -0.1693 0.330885 127 0 255
0.143252 -0.479448 -0.142863 127 0 255
-0.279053 -0.372961 -0.100429 127 0 255
0.0679793 -0.234867 -0.191077 127 0 255
-0.293775 -0.126442 -0.0718449 127 0 255
-0.281492 -0.482994 -0.116611 127 0 255
-0.318871 -0.486174 -0.00343714 127 0 255
-0.330527 -0.222777 0.0880944 127 0 255
0.305104 -0.464103 0.114265 127 0 255
-0.134815 -0.452326 -0.185038 127 0 255
-0.291614 -0.482513 0.465959 127 0 255
-0.299484 -0.102242 0.0909823 127 0 255
-0.0984619 -0.0962022 -0.181828 127 0 255
0.127873 -0.470253 -0.0146384 127 0 255
0.205253 -0.395622 0.182808 127 0 255
-0.162827 -0.2123 -0.0500379 127 0 255
0.27573 -0.150086 -0.188759 127 0 255
-0.353618 -0.414429 0.157371 127 0 255
-0.289824 0.0729947 0.135513 91 56 253
0.445662 -0.366983 -0.062651 127 0 255
0.426825 -0.138819 -0.187481 127 0 255
-0.284304 -0.359445 0.303766 127 0 255
0.0102786 -0.354235 -0.164288 127 0 255
-0.217612 -0.243127 -0.180771 127 0 255
-0.25829 -0.485505 0.368515 127 0 255
-0.340661 -0.277033 0.289183 127 0 255
0.207487 -0.348903 -0.156388 127 0 255
-0.0737598 -0.465988 -0.0670514 127 0 255
-0.131691 -0.489447 0.357378 127 0 255
-0.17949 -0.488109 -0.0860046 127 0 255
-0.348042 0.0200443 -0.0365267 117 15 254
0.319228 -0.473265 -0.0106166 127 0 255
-0.308133 -0.0903842 0.471706 127 0 255
0.12197 -0.389714 -0.160724 127 0 255
-0.328574 -0.222853 0.405198 127 0 255
-0.182251 -0.121104 -0.13183 127 0 255
-0.335348 -0.154149 0.156717 127 0 255
-0.287734 0.0760899 0.33854 89 59 253
0.0477074 -0.486872 0.413425 127 0 255
0.210218 -0.4311 0.0862875 127 0 255
-0.269859 0.0623489 -0.00672242 97 46 253
0.145776 -0.121715 -0.188878 127 0 255
0.00388793 -0.48813 -0.141499 127 0 255
-0.133936 -0.49091 0.255455 127 0 255
-0.0561215 -0.483014 0.41942 127 0 255
-0.225373 -0.482462 -0.173116 127 0 255
-0.299015 -0.158894 -0.0147725 127 0 255
-0.0116983 -0.200028 -0.185183 127 0 255
-0.294033 -0.31366 0.38541 127 0 255
0.112001 -0.483777 0.0520428 127 0 255
0.228099 -0.487255 -0.0699352 127 0 255
-0.346402 -0.082986 -0.08529 127 0 255
0.386726 -0.285824 -0.156586 127 0 255
-0.29735 0.0556805 0.475498 99 43 254
-0.34021 -0.00493513 0.139972 127 0 255
-0.309681 -0.284836 -0.18438 127 0 255
0.340669 -0.37526 0.115079 127 0 255
-0.332205 -0.221833 0.184887 127 0 255
-0.120584 -0.48836 0.0153044 127 0 255
0.0723327 -0.484822 0.254633 127 0 255
-0.225183 -0.00778412 -0.168823 127 0 255
-0.28692 -0.486691 0.269914 127 0 255
-0.271299 -0.469643 0.0465269 127 0 255
0.213007 -0.486868 0.212295 127 0 255
0.272443 -0.252461 -0.192567 127 0 255
-0.294311 -0.103333 0.299975 127 0 255
-0.342569 -0.345135 0.452105 127 0 255
-0.129726 -0.484856 0.470395 127 0 255
0.322723 -0.411662 -0.149208 127 0 255
-0.0330076 -0.483467 0.326926 127 0 255
-0.295032 -0.108714 0.185071 127 0 255
-0.362826 0.0752125 0.387454 89 59 253
-0.341302 -0.0454674 -0.153966 127 0 255
-0.22407 -0.48778 0.152607 127 0 255
0.329355 -0.434347 0.188727 127 0 255
-0.071532 -0.429546 -0.139243 127 0 255
-0.312452 -0.256297 -0.00687603 127 0 255
0.17991 -0.42991 -0.176622 127 0 255
0.294193 -0.391415 -0.00107981 127 0 255
-0.0360914 -0.134471 -0.155502 127 0 255
-0.182632 -0.324597 -0.14467 127 0 255
0.094841 -0.307471 -0.190498 127 0 255
0.448508 -0.398949 0.0306056 127 0 255
-0.0801205 -0.470096 0.175842 127 0 255
0.338374 -0.151142 -0.164375 127 0 255
-0.148239 -0.17194 -0.181954 127 0 255
-0.30165 -0.0410554 -0.0208196 127 0 255
-0.0357855 -0.288219 -0.159112 127 0 255
0.102179 -0.483897 0.149766 127 0 255
-0.315733 -0.319992 0.178262 127 0 255
-0.279387 0.0736464 0.192968 91 56 253
-0.333926 -0.229334 0.331007 127 0 255
-0.341272 -0.206754 -0.132132 127 0 255
0.0336438 -0.150412 -0.187424 127 0 255
0.0450769 -0.48576 -0.0283916 127 0 255
-0.33503 -0.338671 -0.0373805 127 0 255
-0.346499 -0.339973 0.352081 127 0 255
0.40469 -0.392333 -0.185938 127 0 255
0.257273 -0.391488 0.209293 127 0 255
-0.275327 0.075225 -0.0875539 89 59 253
-0.123708 -0.0350167 -0.157941 127 0 255
-0.329403 0.0100404 0.0401716 123 6 254
0.38338 -0.442885 -0.10682 127 0 255
0.198036 -0.243813 -0.190467 127 0 255
-0.340911 -0.328142 -0.124171 127 0 255
-0.300213 -0.483994 0.16747 127 0 255
-0.301835 -0.045785 0.3903 127 0 255
0.367242 -0.443386 0.061027 127 0 255
-0.10063 -0.204278 -0.153106 127 0 255
-0.326916 -0.349471 0.0417103 127 0 255
0.187006 -0.484147 -0.113459 127 0 255
-0.100971 -0.367164 -0.186341 127 0 255
0.250779 -0.385544 0.0377608 127 0 255
-0.321292 -0.483125 -0.149656 127 0 255
-0.33521 -0.150604 0.296796 127 0 255
-0.0378496 -0.487376 -0.0451744 127 0 255
-0.307974 -0.143965 -0.174905 127 0 255
-0.359081 -0.402183 0.248177 127 0 255
0.462237 -0.347805 -0.167199 127 0 255
-0.313661 -0.421079 0.468298 127 0 255
0.199554 -0.173864 -0.189836 127 0 255
-0.289753 -0.272442 -0.0947245 127 0 255
0.333094 -0.221101 -0.157549 127 0 255
0.373088 -0.37419 0.157059 127 0 255
-0.306151 -0.291751 0.458141 127 0 255
0.0996731 -0.412275 0.224946 127 0 255
-0.063818 -0.486571 0.278935 127 0 255
-0.162976 -0.489018 0.0597427 127 0 255
0.302985 -0.368312 -0.199208 127 0 255
-0.229364 0.0548568 -0.153446 99 43 254
0.0192744 -0.272334 -0.156807 127 0 255
0.144095 -0.0809365 -0.154352 127 0 255
0.280317 -0.479683 -0.0922012 127 0 255
-0.210723 -0.14785 -0.176756 127 0 255
0.0480206 -0.0373752 -0.157988 127 0 255
0.132279 -0.483663 0.343677 127 0 255
-0.27138 0.0717349 0.270974 91 56 253
-0.243932 -0.334063 -0.192836 127 0 255
-0.292686 -0.211109 0.114666 127 0 255
-0.367994 -0.46071 0.317446 127 0 255
-0.187926 -0.484093 0.381511 127 0 255
0.18514 -0.483185 0.0127731 127 0 255
-0.29186 0.0585001 0.406246 99 43 254
-0.294447 -0.0644506 0.215564 127 0 255
-0.335476 -0.128889 0.0283193 127 0 255
-0.038906 -0.388362 -0.177327 127 0 255
-0.286882 -0.000245614 -0.0939808 127 0 255
-0.252291 -0.488729 0.211896 127 0 255
-0.333261 0.0564347 0.312594 99 43 254
0.0641552 -0.375746 -0.166296 127 0 255
-0.232976 -0.486725 -0.107962 127 0 255
0.387173 -0.312274 -0.0375543 127 0 255
0.0898077 -0.469978 -0.181076 127 0 255
-0.33277 0.0704828 0.122446 91 56 253
-0.269623 -0.389684 -0.155421 127 0 255
-0.291467 -0.179669 0.264023 127 0 255
0.0295474 -0.484634 0.313514 127 0 255
0.352487 -0.368489 -0.113868 127 0 255
0.378898 -0.3749 0.0345068 127 0 255
-0.0357748 -0.488117 0.114742 127 0 255
-0.330986 -0.127231 0.425489 127 0 255
-0.3435 -0.457185 0.130657 127 0 255
0.17875 -0.404511 0.222455 127 0 255
-0.34322 -0.154866 -0.105955 127 0 255
0.389176 -0.325809 -0.200846 127 0 255
-0.336675 -0.271174 0.0822303 127 0 255
-0.024317 -0.00799874 -0.157328 127 0 255
-0.346515 -0.395186 0.389389 127 0 255
-0.0878271 -0.212302 -0.0500361 127 0 255
-0.293439 -0.486931 0.338526 127 0 255
-0.293729 -0.054926 0.289233 127 0 255
-0.362827 0.0502256 -0.175054 103 37 254
-0.33712 -0.0464042 0.12075 127 0 255
-0.314898 -0.42597 0.201475 127 0 255
0.0191434 -0.444821 -0.110288 127 0 255
-0.285743 -0.255147 0.252255 127 0 255
-0.298447 -0.041868 0.0488293 127 0 255
-0.200286 -0.0570509 -0.150755 127 0 255
0.188455 -0.483456 0.307667 127 0 255
-0.236408 -0.482425 0.471023 127 0 255
-0.341484 0.0498369 0.199965 103 37 254
-0.254988 -0.288543 -0.143094 127 0 255
0.00111 -0.10291 -0.156184 127 0 255
0.00604569 -0.483705 0.198726 127 0 255
-0.171548 -0.468957 -0.182202 127 0 255
0.244936 -0.127191 -0.187653 127 0 255
-0.334608 -0.193641 0.014699 127 0 255
-0.0773815 -0.486581 -0.13387 127 0 255
-0.140218 -0.290653 -0.1824 127 0 255
0.216004 -0.373543 -0.185463 127 0 255
-0.334043 -0.111785 0.247733 127 0 255
-0.332308 -0.416359 0.047839 127 0 255
-0.296094 -0.174603 0.396026 127 0 255
0.305588 -0.389635 -0.067909 127 0 255
0.372925 -0.431549 0.146658 127 0 255
-0.306195 -0.021043 -0.16478 127 0 255
0.285276 -0.381681 0.1418 127 0 255
-0.225327 0.0751903 0.412469 89 59 253
0.308074 -0.283538 -0.152399 127 0 255
0.0910708 -0.485375 0.0953306 127 0 255
-0.143335 -0.470968 0.203123 127 0 255
-0.304784 -0.00613408 0.469686 127 0 255
-0.240941 -0.490417 0.0790718 127 0 255
0.223347 -0.456179 -0.195948 127 0 255
-0.162325 -0.490158 0.308621 127 0 255
-0.328295 -0.360497 0.293853 127 0 255
-0.1521 -0.393727 -0.15009 127 0 255
-0.241204 -0.487975 -0.0328192 127 0 255
0.10166 -0.163573 -0.162906 127 0 255
-0.168009 -0.221304 -0.180892 127 0 255
0.384116 -0.142394 -0.19011 127 0 255
-0.336156 -0.160299 0.0938211 127 0 255
-0.30634 -0.204571 0.4723 127 0 255
0.318887 -0.467753 -0.142394 127 0 255
0.0895939 -0.455541 -0.0724509 127 0 255
0.23074 -0.485361 0.14405 127 0 255
0.449511 -0.242224 -0.194019 127 0 255
-0.0898273 -0.476032 0.121146 127 0 255
-0.27561 -0.424582 0.406896 127 0 255
0.000451733 -0.485746 0.398614 127 0 255
-0.294622 -0.00162717 0.22751 127 0 255
0.240731 -0.455449 -0.0360157 127 0 255
-0.295134 -0.342332 -0.0589007 127 0 255
-0.336718 -0.237712 -0.041509 127 0 255
-0.285941 -0.307437 0.221207 127 0 255
0.287956 -0.434339 0.21159 127 0 255
-0.289457 0.0647308 -0.135129 95 49 253
-0.0315285 -0.486951 0.0569314 127 0 255
-0.362821 -0.474793 0.424957 127 0 255
0.134037 -0.486141 0.189337 127 0 255
-0.339832 -0.331751 0.1464 127 0 255
-0.335242 -0.446441 -0.100854 127 0 255
-0.334269 0.0702926 -0.0310696 93 53 253
-0.0812482 -0.127 -0.150261 127 0 255
-0.117521 -0.48716 -0.0593321 127 0 255
0.145026 -0.276025 -0.1921 127 0 255
-0.341927 -0.326707 -0.162392 127 0 255
-0.286741 -0.203683 -0.180036 127 0 255
0.313095 -0.429581 0.0991793 127 0 255
-0.0868866 -0.484857 0.459809 127 0 255
0.439578 -0.376443 0.0752033 127 0 255
-0.333266 -0.230399 0.241134 127 0 255
-0.29767 -0.0817352 0.361062 127 0 255
0.302628 -0.415662 -0.200706 127 0 255
0.0547861 -0.457594 -0.00516964 127 0 255
0.013129 -0.205062 -0.159325 127 0 255
-0.237788 -0.485588 0.311221 127 0 255
0.390138 -0.217124 -0.194236 127 0 255
-0.305794 -0.403616 -0.0212804 127 0 255
-0.33088 0.00321792 0.31167 127 0 255
-0.349681 -0.466837 0.0574285 127 0 255
-0.187827 -0.287294 -0.0750415 127 0 255
-0.149005 0.00534921 -0.180147 125 3 254
-0.29483 -0.146722 0.155236 127 0 255
-0.290443 0.0725828 0.0671628 91 56 253
-0.362823 0.0377067 0.487458 109 28 254
-0.341304 -0.269875 0.41663 127 0 255
-0.232898 -0.392363 -0.126447 127 0 255
-0.0449766 -0.333064 -0.181485 127 0 255
-0.289693 -0.275074 0.107537 127 0 255
-0.207378 -0.489175 0.0221513 127 0 255
0.315036 -0.117028 -0.168543 127 0 255
0.246896 -0.479924 -0.140398 127 0 255
0.247324 -0.481035 0.083396 127 0 255
-0.293543 -0.338193 0.449374 127 0 255
-0.121256 -0.488713 0.387749 127 0 255
0.295317 -0.354269 -0.138327 127 0 255
0.139635 -0.440175 -0.146904 127 0 255
-0.337271 -0.473629 0.28296 127 0 255
0.163341 -0.484763 0.07144 127 0 255
-0.0860787 -0.448764 -0.182735 127 0 255
0.187527 -0.44583 0.239115 127 0 255
0.0855742 -0.478788 0.378364 127 0 255
-0.343972 -0.384893 -0.147841 127 0 255
-0.2601 -0.134254 -0.174319 127 0 255
0.413741 -0.355222 -0.101196 127 0 255
-0.288301 -0.250792 0.184212 127 0 255
0.112173 -0.399774 0.162446 127 0 255
-0.298518 -0.223823 -0.0876898 127 0 255
0.169876 -0.447357 -0.0107579 127 0 255
0.21233 -0.281182 -0.158584 127 0 255
0.34689 -0.376288 -0.0193824 127 0 255
0.0535991 -0.294199 -0.189162 127 0 255
-0.350152 -0.0310428 -0.11222 127 0 255
0.354665 -0.468415 0.00839436 127 0 255
-0.3357 -0.0694789 0.0401893 127 0 255
0.174205 -0.0700365 -0.161177 127 0 255
-0.0870515 -0.483659 0.323883 127 0 255
-0.282679 -0.489508 0.430819 127 0 255
-0.0823706 0.00201265 -0.179168 127 0 255
-0.345712 0.0468483 0.0505303 105 34 254
-0.33964 -0.289675 0.0460169 127 0 255
-0.292785 -0.235488 0.3707 127 0 255
-0.302482 -0.0817861 -0.0374071 127 0 255
-0.288524 -0.34771 0.339021 127 0 255
0.249825 -0.194202 -0.157373 127 0 255
-0.170537 -0.485027 0.453858 127 0 255
-0.322059 -0.482344 -0.0589104 127 0 255
0.218124 -0.393108 -0.147404 127 0 255
0.0101499 -0.452514 -0.182994 127 0 255
0.108248 -0.119175 -0.157601 127 0 255
-0.121606 -0.0721809 -0.180603 127 0 255
-0.356359 -0.397586 0.312004 127 0 255
0.110183 -0.218878 -0.191102 127 0 255
0.100261 -0.485864 0.25881 127 0 255
-0.204777 -0.482939 0.247179 127 0 255
-0.194797 -0.263501 -0.141841 127 0 255
-0.350418 0.0605178 -0.100079 97 46 253
-0.202427 -0.487235 0.105939 127 0 255
-0.334248 0.0516844 0.41665 101 40 254
-0.336995 -0.261375 -0.163954 127 0 255
-0.225326 0.075187 0.474971 89 59 253
-0.237827 0.0752037 0.17496 89 59 253
0.303238 -0.464995 0.175991 127 0 255
0.317926 -0.378425 0.0687055 127 0 255
0.219008 -0.393316 0.148675 127 0 255
0.121398 -0.355258 -0.187244 127 0 255
-0.339186 -0.311913 0.26286 127 0 255
-0.0434979 -0.241202 -0.183741 127 0 255
-0.340198 -0.371502 0.0932241 127 0 255
-0.194703 -0.353083 -0.188316 127 0 255
-0.340658 -0.131179 -0.152186 127 0 255
-0.00482978 -0.471191 -0.0570857 127 0 255
0.312724 -0.185914 -0.192081 127 0 255
0.341468 -0.377363 0.175141 127 0 255
-0.279275 -0.437771 -0.168759 127 0 255
-0.142023 -0.487503 -0.128668 127 0 255
-0.301098 -0.484407 0.0939568 127 0 255
0.443946 -0.175699 -0.186797 127 0 255
-0.247952 -0.0657095 -0.172728 127 0 255
-0.296512 0.0116478 0.123968 123 6 254
0.176564 -0.483019 -0.180327 127 0 255
-0.362823 -0.124795 0.474959 127 0 255
-0.287008 -0.432575 0.335219 127 0 255
-0.0849755 -0.479495 0.0123839 127 0 255
-0.0739944 -0.168145 -0.183426 127 0 255
0.0579789 -0.483712 0.0480189 127 0 255
-0.0759398 -0.380453 -0.147135 127 0 255
-0.345914 -0.020272 -0.0456436 127 0 255
-0.255223 -0.261612 -0.188274 127 0 255
-0.0218439 -0.483498 0.260004 127 0 255
0.0464677 -0.119922 -0.188306 127 0 255
-0.327466 -0.0499578 0.46013 127 0 255
0.262316 -0.431654 0.0625298 127 0 255
0.331685 -0.292737 -0.197346 127 0 255
-0.334307 -0.0723943 0.186193 127 0 255
0.0512813 -0.483881 0.127574 127 0 255
0.15986 -0.485032 0.152091 127 0 255
0.0280928 -0.390937 -0.156336 127 0 255
0.1908 -0.193463 -0.159056 127 0 255
0.408651 -0.380446 -0.157955 127 0 255
-0.339135 -0.388597 0.421534 127 0 255
0.422141 -0.365108 0.0179526 127 0 255
-0.317436 -0.419485 0.134215 127 0 255
-0.334452 -0.157528 -0.0125944 127 0 255
-0.333238 -0.156146 0.329712 127 0 255
-0.262653 -0.456859 -0.0869173 127 0 255
0.232153 -0.487885 0.266101 127 0 255
-0.287442 -0.287462 0.310223 127 0 255
-0.287053 0.0615463 -0.0158915 97 46 253
-0.188809 0.0345641 -0.152525 111 25 254
-0.331792 -0.388895 -0.0762487 127 0 255
-0.290913 -0.0879532 -0.124798 127 0 255
-0.0856434 -0.487153 0.219087 127 0 255
0.00107855 -0.0213711 -0.17519 127 0 255
-0.177911 -0.0887744 -0.178293 127 0 255
-0.198593 -0.487739 0.170851 127 0 255
0.262611 -0.299633 -0.154482 127 0 255
-0.334188 -0.284769 -0.0240861 127 0 255
-0.319859 0.016781 0.364123 119 12 254
-0.10072 -0.280587 -0.154715 127 0 255
0.425748 -0.390424 0.119362 127 0 255
-0.332005 -0.252232 0.136522 127 0 255
-0.233734 -0.484389 0.414461 127 0 255
0.137507 -0.484007 -0.0834572 127 0 255
-0.29184 -0.168823 0.235366 127 0 255
-0.333253 -0.221453 0.0508591 127 0 255
-0.298639 -0.0985993 0.108197 127 0 255
-0.296776 -0.423905 0.258497 127 0 255
-0.343325 -0.46224 -0.00536794 127 0 255
-0.186234 -0.482609 -0.0498112 127 0 255
-0.0556734 -0.484457 0.385544 127 0 255
-0.285828 0.0385116 -0.16399 109 28 254
0.283155 -0.463791 -0.0578419 127 0 255
0.443899 -0.373963 -0.0695066 127 0 255
-0.141615 -0.208387 -0.146463 127 0 255
-0.333131 -0.379468 0.201549 127 0 255
0.0722547 -0.484299 0.209794 127 0 255
-0.0614371 -0.0629687 -0.181243 127 0 255
0.0291393 -0.487519 0.352298 127 0 255
0.424291 -0.291258 -0.199585 127 0 255
0.155252 -0.486515 0.277074 127 0 255
-0.294434 -0.336119 -0.190989 127 0 255
-0.336527 0.0653839 0.157665 95 49 253
-0.330112 -0.0219701 0.250152 127 0 255
0.0855696 -0.275284 -0.16333 127 0 255
-0.36282 -0.474798 0.487461 127 0 255
-0.272434 -0.332613 -0.108412 127 0 255
-0.286819 0.076372 0.282013 89 59 253
0.294543 -0.388764 -0.106867 127 0 255
-0.324998 -0.0850743 0.407449 127 0 255
-0.17956 -0.432262 -0.185988 127 0 255
-0.0259631 -0.486694 -0.171979 127 0 255
-0.142593 -0.482932 0.118025 127 0 255
-0.336835 -0.470824 0.214371 127 0 255
0.0934025 -0.061788 -0.151706 127 0 255
0.263661 -0.10367 -0.165009 127 0 255
-0.333729 -0.207431 0.293603 127 0 255
0.37012 -0.217534 -0.161413 127 0 255
0.183501 -0.312676 -0.160819 127 0 255
0.205974 -0.462257 -0.0863087 127 0 255
-0.253564 -0.167734 -0.142902 127 0 255
-0.327902 -0.0391664 0.323232 127 0 255
0.31684 -0.456958 0.03611 127 0 255
0.241051 -0.391488 0.0312153 127 0 255
-0.296536 0.0408242 0.480893 107 31 254
-0.362823 -0.312297 0.48746 127 0 255
-0.362827 -0.462274 -0.175054 127 0 255
0.269711 -0.341982 -0.193386 127 0 255
-0.303862 -0.328812 0.125104 127 0 255
-0.342317 -0.321766 0.395635 127 0 255
0.0883101 -0.483171 -0.162846 127 0 255
0.0440284 -0.337978 -0.184836 127 0 255
-0.282409 -0.390152 0.448356 127 0 255
0.294696 -0.396864 0.211863 127 0 255
0.00463034 -0.486656 0.00610098 127 0 255
0.240064 -0.4858 0.184121 127 0 255
-0.306221 -0.227702 0.470092 127 0 255
0.459066 -0.329505 -0.180877 127 0 255
0.250977 -0.481567 0.00628394 127 0 255
-0.337085 0.0601839 0.229016 97 46 253
0.295271 -0.463534 -0.164197 127 0 255
0.109672 -0.480998 -0.00490034 127 0 255
0.0389223 -0.487876 0.276865 127 0 255
-0.2859 -0.487656 0.152772 127 0 255
0.18196 -0.3746 -0.187163 127 0 255
-0.332412 -0.143099 0.210652 127 0 255
-0.0992622 -0.483113 0.285262 127 0 255
-0.239631 -0.471845 -0.177058 127 0 255
-0.295354 -0.0483294 0.178074 127 0 255
-0.340167 -0.231483 -0.131401 127 0 255
0.00372 -0.485984 -0.0922263 127 0 255
-0.293674 0.0285125 0.0257973 113 21 254
0.254557 -0.233981 -0.190441 127 0 255
-0.332112 -0.260102 0.333201 127 0 255
0.381179 -0.374565 0.0708282 127 0 255
-0.296774 -0.141561 0.390938 127 0 255
-0.308995 -0.172752 0.0930855 127 0 255
-0.0102805 -0.48786 0.193872 127 0 255
0.208037 -0.130104 -0.156316 127 0 255
0.385309 -0.361056 -0.203083 127 0 255
-0.287337 0.0759574 0.343546 89 59 253
-0.292236 0.00422482 -0.0745582 125 3 254
-0.111003 -0.423625 -0.149753 127 0 255
0.226871 -0.418041 0.11416 127 0 255
-0.292031 -0.375449 0.372993 127 0 255
-0.308003 -0.441865 0.0514814 127 0 255
-0.158849 -0.142206 -0.13895 127 0 255
0.103865 -0.483772 0.30518 127 0 255
-0.337667 -0.296215 -0.103682 127 0 255
-0.133962 -0.488326 -0.021627 127 0 255
-0.290433 0.0731589 0.0987798 91 56 253
0.051818 -0.194078 -0.167131 127 0 255
0.152355 -0.235922 -0.164701 127 0 255
0.0764052 -0.425168 -0.180295 127 0 255
-0.340833 -0.0688772 -0.153288 127 0 255
-0.307156 -0.363644 -0.00515969 127 0 255
-0.187727 -0.482373 -0.120773 127 0 255
0.135308 -0.466754 0.123454 127 0 255
-0.334992 -0.286538 0.220415 127 0 255
-0.296939 0.0758489 0.434776 89 59 253
-0.272993 -0.48687 -0.0002062 127 0 255
-0.285278 -0.379524 0.255977 127 0 255
-0.175327 -0.362286 -0.100046 127 0 255
0.000680251 -0.0867928 -0.154534 127 0 255
-0.280843 -0.410128 -0.0836912 127 0 255
-0.225926 -0.297801 -0.190864 127 0 255
-0.3213 -0.445752 0.423684 127 0 255
-0.335676 -0.411176 -0.173498 127 0 255
-0.337984 -0.0364295 0.104678 127 0 255
-0.0499928 -0.485332 0.447774 127 0 255
0.236093 -0.405097 0.224676 127 0 255
0.122641 -0.0867023 -0.188212 127 0 255
0.341593 -0.449357 0.139459 127 0 255
0.378681 -0.347672 -0.131012 127 0 255
-0.337551 -0.173523 -0.0527243 127 0 255
-0.240624 -0.00141038 -0.152589 127 0 255
-0.330696 -0.478198 -0.126842 127 0 255
-0.33294 0.00198104 0.180584 127 0 255
-0.175948 -0.46443 0.248772 127 0 255
-0.0161885 -0.252524 -0.184988 127 0 255
0.112173 -0.412274 0.262446 127 0 255
0.275686 -0.380292 0.09587 127 0 255
-0.0282908 -0.475929 0.0870112 127 0 255
-0.306127 -0.0186789 0.422624 127 0 255
-0.157992 -0.480798 0.0421082 127 0 255
0.300186 -0.392895 -0.0399412 127 0 255
-0.292101 -0.297261 0.376453 127 0 255
-0.0907179 -0.487539 0.174709 127 0 255
-0.110379 -0.462801 -0.0826131 127 0 255
-0.336858 -0.0586512 0.000936098 127 0 255
0.0763175 -0.449286 -0.105334 127 0 255
-0.306875 -0.117857 0.461222 127 0 255
-0.224914 -0.197671 -0.182706 127 0 255
-0.297687 -0.131499 -0.0911138 127 0 255
-0.173693 -0.483167 0.384342 127 0 255
-0.17774 -0.0378132 -0.17815 127 0 255
-0.291981 -0.18952 0.340561 127 0 255
0.402815 -0.422456 0.0626858 127 0 255
-0.287074 0.074097 0.218188 91 56 253
0.34744 -0.455037 -0.160312 127 0 255
0.204873 -0.485191 0.083468 127 0 255
-0.33399 -0.183366 0.168588 127 0 255
-0.0850661 0.00331992 -0.151427 127 0 255
-0.353809 -0.391902 0.342772 127 0 255
-0.325197 0.0727024 -0.0664908 91 56 253
-0.04655 -0.484306 -0.0106791 127 0 255
0.174123 -0.486056 0.217183 127 0 255
-0.355728 -0.434407 0.203968 127 0 255
-0.268108 -0.238402 -0.135015 127 0 255
-0.0405932 -0.434079 -0.164441 127 0 255
0.375827 -0.161448 -0.166499 127 0 255
-0.0710047 -0.300128 -0.179026 127 0 255
-0.250617 -0.475906 0.232619 127 0 255
0.390743 -0.370173 -0.0617868 127 0 255
-0.0276618 -0.140089 -0.183647 127 0 255
0.258648 -0.416254 -0.196831 127 0 255
-0.29866 -0.187402 0.42532 127 0 255
-0.194053 -0.48302 0.313323 127 0 255
0.364285 -0.27602 -0.154139 127 0 255
-0.103224 -0.205161 -0.1826 127 0 255
-0.00360033 -0.338358 -0.177887 127 0 255
-0.31858 -0.366897 0.0642479 127 0 255
-0.340884 -0.316819 0.312091 127 0 255
0.0782793 -0.486124 0.39147 127 0 255
-0.326324 -0.186435 -0.167802 127 0 255
-0.155316 -0.345259 -0.15632 127 0 255
0.383024 -0.370381 0.127345 127 0 255
-0.096128 -0.477142 0.0751419 127 0 255
-0.306251 -0.482653 0.357649 127 0 255
-0.154017 -0.485061 0.469265 127 0 255
-0.293757 -0.0814769 0.283616 127 0 255
-0.335736 -0.101442 0.137443 127 0 255
-0.250327 -0.437287 0.124954 127 0 255
0.131486 -0.417856 -0.179006 127 0 255
-0.317021 -0.26343 0.0379044 127 0 255
0.185571 -0.42029 0.181443 127 0 255
-0.227634 -0.419395 -0.182379 127 0 255
0.137615 -0.183194 -0.190822 127 0 255
-0.114233 -0.473471 -0.175513 127 0 255
-0.299234 -0.276342 0.447198 127 0 255
0.0628799 -0.0352712 -0.162834 127 0 255
0.328391 -0.124892 -0.189627 127 0 255
0.16114 -0.484655 0.0360746 127 0 255
-0.335076 -0.131576 0.0512816 127 0 255
-0.011302 -0.48396 0.313508 127 0 255
-0.362827 0.075218 0.312451 89 59 253
0.27661 -0.469085 0.10254 127 0 255
0.0288089 -0.482753 -0.159471 127 0 255
-0.129306 -0.12595 -0.182063 127 0 255
0.302529 -0.224812 -0.19255 127 0 255
-0.297532 -0.00638157 0.298637 127 0 255
-0.343398 0.035479 0.0851693 109 28 254
0.369456 -0.412949 -0.18612 127 0 255
-0.331232 -0.321509 0.00105241 127 0 255
0.146685 -0.483656 0.331657 127 0 255
-0.269292 -0.482049 -0.0679391 127 0 255
0.487173 -0.162274 -0.175054 127 0 255
-0.319835 -0.478527 0.269559 127 0 255
-0.244993 -0.482499 0.467281 127 0 255
-0.251312 -0.114725 -0.116462 127 0 255
0.458068 -0.270964 -0.186928 127 0 255
0.207717 -0.483108 -0.156683 127 0 255
-0.0341458 -0.462297 -0.115804 127 0 255
-0.333839 0.0701287 -0.125382 93 53 253
-0.332492 -0.217901 0.215481 127 0 255
0.0480019 -0.481778 0.0859858 127 0 255
0.0459664 -0.480424 -0.0607743 127 0 255
-0.299654 -0.0539614 0.079936 127 0 255
-0.144262 -0.476429 0.180403 127 0 255
0.123905 -0.483431 -0.129835 127 0 255
0.318071 -0.317955 -0.148096 127 0 255
-0.33545 -0.421701 -0.045172 127 0 255
-0.305811 -0.0558702 0.475635 127 0 255
-0.289471 -0.250015 0.144688 127 0 255
0.278035 -0.384633 0.173334 127 0 255
-0.320018 -0.356407 0.469943 127 0 255
0.206671 -0.430505 0.00845242 127 0 255
0.0929509 -0.354604 -0.186845 127 0 255
-0.287044 -0.363137 0.208889 127 0 255
-0.295973 -0.047199 -0.117066 127 0 255
-0.362823 -0.174795 0.474959 127 0 255
0.0342645 -0.487346 0.163066 127 0 255
-0.333632 -0.0773264 0.245485 127 0 255
-0.32355 -0.113749 0.368497 127 0 255
-0.238484 0.0569411 -0.159814 99 43 254
-0.332568 -0.474999 0.136752 127 0 255
-0.329984 0.00992294 0.01673 123 6 254
-0.333444 -0.112668 -0.0402757 127 0 255
0.17137 -0.365495 -0.151048 127 0 255
-0.313517 -0.217276 -0.00764696 127 0 255
0.372148 -0.373969 -0.00077886 127 0 255
0.23954 -0.486543 0.231412 127 0 255
-0.126488 -0.483645 0.324993 127 0 255
-0.333327 -0.304538 0.168166 127 0 255
0.447581 -0.370869 0.0491895 127 0 255
0.0278399 -0.255529 -0.16099 127 0 255
-0.222781 -0.480494 0.0388898 127 0 255
-0.256068 -0.484287 0.307214 127 0 255
0.182547 -0.483484 -0.0416039 127 0 255
-0.32465 -0.483353 0.0251165 127 0 255
-0.11742 -0.405962 -0.185987 127 0 255
-0.296084 0.0287623 0.177688 113 21 254
-0.289665 -0.20584 0.297983 127 0 255
0.195823 -0.0881136 -0.162723 127 0 255
-0.245323 -0.367409 -0.193425 127 0 255
-0.338401 -0.362983 -0.119702 127 0 255
-0.28273 -0.47758 -0.174025 127 0 255
-0.222879 -0.116564 -0.174568 127 0 255
0.263463 -0.159639 -0.157986 127 0 255
-0.0226397 -0.472384 0.131877 127 0 255
0.336382 -0.423882 0.0790035 127 0 255
-0.0254591 -0.483199 0.400429 127 0 255
-0.285792 -0.298897 0.255395 127 0 255
-0.238313 -0.488406 0.113061 127 0 255
-0.332192 0.0550182 0.362877 99 43 254
-0.0305715 -0.0382488 -0.157122 127 0 255
-0.294207 -0.139457 0.197186 127 0 255
0.275863 -0.412244 -0.148626 127 0 255
0.148968 -0.476435 -0.187178 127 0 255
-0.0144666 -0.386648 -0.179267 127 0 255
-0.144866 -0.286626 -0.180697 127 0 255
-0.19265 -0.489119 -0.0213826 127 0 255
-0.0416347 -0.171471 -0.153933 127 0 255
-0.349817 0.0465354 -0.0306874 105 34 254
-0.335451 -0.296311 -0.0550718 127 0 255
0.386269 -0.266607 -0.19887 127 0 255
-0.153246 0.0243954 -0.15479 115 18 254
-0.334042 -0.242372 0.426791 127 0 255
-0.300463 -0.248527 -0.184252 127 0 255
0.375083 -0.421401 0.160396 127 0 255
0.327352 -0.359057 -0.200269 127 0 255
0.443684 -0.378066 -0.0487893 127 0 255
-0.0604212 -0.489292 0.253619 127 0 255
-0.304247 0.0144222 -0.15759 121 9 254
0.300311 -0.384234 0.0136386 127 0 255
-0.126839 -0.487524 0.403138 127 0 255
0.0745238 -0.0918209 -0.188474 127 0 255
-0.338371 -0.328636 0.0906762 127 0 255
-0.0780306 -0.468813 -0.0400829 127 0 255
-0.225327 -0.27479 -0.0625438 127 0 255
0.402274 -0.138417 -0.189218 127 0 255
-0.327527 -0.042686 0.380569 127 0 255
-0.292937 -0.198219 0.128968 127 0 255
-0.206741 -0.198712 -0.144862 127 0 255
-0.335366 -0.14965 0.271156 127 0 255
-0.275777 0.0663855 0.0439533 95 49 253
0.290973 -0.4612 -0.0845781 127 0 255
-0.0751022 -0.105426 -0.153958 127 0 255
0.106649 -0.483114 0.0516701 127 0 255
-0.308412 -0.450737 0.465228 127 0 255
0.110534 -0.288647 -0.165364 127 0 255
0.215497 -0.233433 -0.189453 127 0 255
0.286325 -0.473086 0.196448 127 0 255
-0.190943 -0.43993 -0.146658 127 0 255
-0.284409 -0.370407 0.30614 127 0 255
-0.225327 0.075194 0.362466 89 59 253
-0.349392 -0.44446 0.351261 127 0 255
-0.237918 -0.48406 0.374884 127 0 255
-0.219527 -0.325614 -0.137268 127 0 255
-0.0908833 -0.350931 -0.184907 127 0 255
0.0242395 -0.483717 0.234347 127 0 255
-0.359645 -0.424618 0.245183 127 0 255
0.103958 -0.488204 -0.0682632 127 0 255
0.355596 -0.371775 -0.0930815 127 0 255
-0.0661617 -0.481418 -0.173458 127 0 255
-0.337902 -0.226569 -0.088478 127 0 255
-0.316 -0.319304 -0.182846 127 0 255
0.270456 -0.299537 -0.193811 127 0 255
-0.300076 -0.0351295 -0.0393653 127 0 255
-0.317676 -0.398557 0.142729 127 0 255
-0.341172 -0.143331 -0.152025 127 0 255
0.454384 -0.210197 -0.189178 127 0 255
0.0199557 -0.17679 -0.186959 127 0 255
-0.147151 -0.0510065 -0.156176 127 0 255
-0.220349 -0.483169 0.203857 127 0 255
-0.00346884 -0.477181 0.0346284 127 0 255
0.208003 -0.411904 -0.150565 127 0 255
0.0121729 -0.4873 0.462463 127 0 255
0.149789 -0.0602873 -0.174494 127 0 255
0.10147 -0.484367 0.153672 127 0 255
-0.295299 0.00978375 0.264503 123 6 254
-0.165963 -0.475947 0.10411 127 0 255
0.386404 -0.422352 -0.150028 127 0 255
-0.0778314 -0.484086 0.356394 127 0 255
-0.101091 -0.484802 0.461787 127 0 255
-0.306088 0.0228723 0.407613 117 15 254
-0.350082 -0.0321806 -0.115075 127 0 255
0.198838 -0.485583 0.143555 127 0 255
0.0716466 -0.485452 0.315043 127 0 255
-0.341081 -0.437066 0.0822458 127 0 255
-0.341748 0.0145041 0.131976 121 9 254
-0.21205 -0.488771 -0.0828355 127 0 255
-0.269605 -0.422437 0.432367 127 0 255
-0.325756 -0.206335 0.376268 127 0 255
0.406056 -0.319497 -0.158883 127 0 255
-0.299549 0.0179383 0.47947 119 12 254
-0.314947 -0.117044 0.00722536 127 0 255
-0.259815 -0.0793712 -0.173324 127 0 255
-0.0675894 -0.267436 -0.155899 127 0 255
-0.138778 -0.486548 0.265 127 0 255
0.331617 -0.458047 -0.126111 127 0 255
-0.105006 -0.156217 -0.147281 127 0 255
0.218538 -0.483581 -0.108776 127 0 255
-0.324301 -0.484574 0.183999 127 0 255
0.228265 -0.413332 0.0754051 127 0 255
0.192713 -0.416265 0.235294 127 0 255
-0.274492 -0.420626 -0.114651 127 0 255
-0.362827 -0.0747873 0.324954 127 0 255
-0.28837 -0.234845 0.220157 127 0 255
-0.186314 -0.467576 0.445864 127 0 255
-0.307514 -0.173774 0.471668 127 0 255
-0.0573872 -0.487896 0.168305 127 0 255
-0.340286 -0.467163 -0.054039 127 0 255
-0.284466 -0.440721 0.299275 127 0 255
-0.183686 -0.143414 -0.179547 127 0 255
0.129737 -0.483882 0.237638 127 0 255
-0.337106 0.0528927 0.263772 101 40 254
-0.336356 -0.083031 0.0774469 127 0 255
0.296556 -0.462172 0.0532915 127 0 255
-0.289788 0.0728956 0.149837 91 56 253
0.0774331 -0.228909 -0.16512 127 0 255
-0.33043 -0.390971 0.006223 127 0 255
-0.341143 -0.316163 0.446885 127 0 255
-0.278849 -0.323177 -0.104451 127 0 255
-0.146359 -0.24618 -0.150611 127 0 255
-0.341379 -0.424365 -0.148734 127 0 255
-0.0629537 -0.47552 0.0294237 127 0 255
0.201036 -0.466777 -0.195207 127 0 255
0.0519304 -0.409452 -0.152763 127 0 255
-0.328185 -0.401726 0.458322 127 0 255
0.291305 -0.468346 0.15033 127 0 255
0.225068 -0.181523 -0.189284 127 0 255
0.00184041 -0.317006 -0.161466 127 0 255
0.152001 -0.273149 -0.19218 127 0 255
0.3297 -0.378715 0.175854 127 0 255
0.0029023 -0.488097 0.357897 127 0 255
-0.292987 -0.15349 0.314326 127 0 255
-0.298888 -0.182298 -0.0979023 127 0 255
-0.333395 -0.186059 0.0552377 127 0 255
0.0760098 -0.483167 0.0144355 127 0 255
-0.0462764 -0.394533 -0.145133 127 0 255
0.135798 -0.142756 -0.189419 127 0 255
0.296752 -0.226765 -0.158436 127 0 255
0.253077 -0.360196 -0.152746 127 0 255
0.17618 -0.485483 0.311994 127 0 255
-0.29044 -0.40729 0.361785 127 0 255
-0.334202 -0.265942 0.112966 127 0 255
-0.257097 -0.491297 0.161285 127 0 255
-0.294602 -0.0898023 -0.0718372 127 0 255
-0.271166 0.063189 -0.00116081 95 49 253
0.0198612 -0.0815575 -0.185814 127 0 255
-0.340864 -0.357561 0.139267 127 0 255
0.212078 -0.3927 0.171634 127 0 255
-0.145653 -0.489432 -0.107733 127 0 255
-0.218633 -0.0502059 -0.147814 127 0 255
-0.292599 -0.264782 0.372571 127 0 255
-0.297832 -0.0355756 0.113412 127 0 255
0.419377 -0.369213 0.101847 127 0 255
-0.343948 -0.300606 -0.148686 127 0 255
-0.162827 -0.2373 -0.0500377 127 0 255
-0.30092 -0.338673 -0.0421441 127 0 255
0.290418 -0.430707 -0.198666 127 0 255
0.196135 -0.483365 0.00551822 127 0 255
-0.293235 -0.134473 0.251672 127 0 255
-0.329417 -0.355674 0.267283 127 0 255
-0.22165 -0.253709 -0.18091 127 0 255
-0.0461844 -0.481839 -0.099936 127 0 255
-0.332832 -0.252901 0.27084 127 0 255
-0.205276 -0.48135 -0.167279 127 0 255
-0.280358 -0.487462 0.392359 127 0 255
-0.293374 -0.40129 -0.174666 127 0 255
-0.0854176 -0.476303 0.111816 127 0 255
0.235067 -0.0945466 -0.163891 127 0 255
-0.0482453 -0.210882 -0.183694 127 0 255
-0.335087 -0.0176907 0.0261964 127 0 255
0.148359 -0.471103 0.086223 127 0 255
0.343124 -0.377032 0.042762 127 0 255
-0.26843 -0.487371 0.0730942 127 0 255
-0.186999 -0.370118 -0.182651 127 0 255
-0.300074 0.0331333 0.336674 111 25 254
-0.298782 -0.0893275 0.403678 127 0 255
-0.296859 0.0764642 0.430362 89 59 253
-0.0990459 -0.0536129 -0.15627 127 0 255
0.368173 -0.44407 0.0713301 127 0 255
0.0734712 -0.48635 0.215347 127 0 255
0.159548 -0.327296 -0.160964 127 0 255
0.0610842 -0.458802 -0.180993 127 0 255
-0.332401 -0.0329852 0.228983 127 0 255
0.33609 -0.274312 -0.197154 127 0 255
0.457489 -0.326733 -0.182301 127 0 255
-0.346222 -0.376025 0.394827 127 0 255
-0.129251 -0.467183 -0.0334454 127 0 255
-0.221257 0.0179234 -0.169864 119 12 254
0.347245 -0.181433 -0.191964 127 0 255
0.0937556 -0.486153 0.379312 127 0 255
0.0897368 -0.160472 -0.163312 127 0 255
-0.334643 -0.132116 0.173869 127 0 255
0.162742 -0.483482 -0.115347 127 0 255
-0.334458 0.0255051 -0.148017 115 18 254
-0.334257 0.0707152 0.0760559 91 56 253
0.317527 -0.377697 0.10519 127 0 255
-0.341391 -0.0046112 -0.0661311 127 0 255
0.300308 -0.389346 -0.0857892 127 0 255
0.266842 -0.420764 0.224415 127 0 255
-0.279063 -0.269402 -0.113938 127 0 255
0.139712 -0.483911 -0.0103638 127 0 255
-0.250327 0.0752077 0.0999574 89 59 253
-0.216086 -0.469962 0.476148 127 0 255
-0.352556 -0.426409 0.159631 127 0 255
-0.300124 -0.0366835 0.344323 127 0 255
-0.287346 -0.286974 0.30367 127 0 255
-0.315245 -0.471243 -0.170687 127 0 255
0.171176 -0.485632 0.181002 127 0 255
-0.33821 -0.0888396 -0.102778 127 0 255
-0.308639 -0.247189 -0.0280438 127 0 255
-0.168488 -0.487706 0.156574 127 0 255
-0.0940048 -0.336756 -0.155751 127 0 255
-0.00990716 -0.0154284 -0.157177 127 0 255
-0.279195 -0.466245 0.234133 127 0 255
-0.362823 -0.262296 0.47496 127 0 255
-0.12426 0.0145913 -0.156047 121 9 254
-0.0193498 -0.487258 -0.0403492 127 0 255
-0.282497 -0.482554 -0.0961241 127 0 255
-0.33515 -0.187784 0.107217 127 0 255
0.277666 -0.471065 -0.14954 127 0 255
0.387173 -0.312274 -0.0625543 127 0 255
0.398352 -0.344359 -0.20265 127 0 255
-0.33596 -0.0449891 0.159961 127 0 255
-0.269454 -0.185531 -0.174271 127 0 255
-0.297301 -0.336907 0.416908 127 0 255
0.408385 -0.228814 -0.196518 127 0 255
0.237765 -0.284548 -0.157793 127 0 255
0.235279 -0.487498 0.257452 127 0 255
-0.212827 0.0751859 0.462472 89 59 253
0.294116 -0.118875 -0.166967 127 0 255
-0.119899 -0.486911 0.223059 127 0 255
-0.286544 0.0752079 0.28174 89 59 253
-0.311062 -0.311677 0.0249614 127 0 255
-0.316696 -0.0637623 -0.164196 127 0 255
0.0786928 -0.365104 -0.164161 127 0 255
0.346276 -0.431509 0.180176 127 0 255
-0.0255022 -0.486649 0.290602 127 0 255
-0.0340933 -0.107067 -0.183272 127 0 255
-0.192113 -0.288544 -0.141403 127 0 255
-0.335324 -0.381773 -0.0952954 127 0 255
-0.16511 -0.488459 0.0188115 127 0 255
0.14916 -0.209234 -0.191259 127 0 255
0.327526 -0.383116 -0.15117 127 0 255
-0.362825 0.000208632 0.424957 127 0 255
-0.219942 -0.482374 0.273472 127 0 255
-0.281347 -0.484239 -0.0175658 127 0 255
-0.350838 -0.443022 0.295627 127 0 255
-0.246551 -0.374191 -0.129125 127 0 255
-0.172224 -0.196068 -0.180026 127 0 255
0.253093 -0.38521 0.116031 127 0 255
0.230424 -0.480465 -0.0407061 127 0 255
0.0612178 -0.050769 -0.149073 127 0 255
0.0844637 -0.455869 -0.0637 127 0 255
-0.33102 -0.357924 0.213433 127 0 255
-0.195213 -0.487368 0.365367 127 0 255
0.410167 -0.41537 0.113824 127 0 255
-0.337653 -0.439783 0.39602 127 0 255
-0.176307 -0.405845 -0.150284 127 0 255
0.0090808 -0.223292 -0.159302 127 0 255
-0.0325619 -0.488782 0.212393 127 0 255
-0.285851 -0.286654 0.219639 127 0 255
-0.340972 -0.192859 -0.150831 127 0 255
0.0621494 -0.484017 0.119175 127 0 255
-0.284605 0.0739045 0.192844 91 56 253
-0.304283 -0.14203 -0.0255396 127 0 255
0.112173 -0.399774 0.212446 127 0 255
0.24201 -0.482301 0.119268 127 0 255
-0.350456 0.0608629 -0.09257 97 46 253
-0.0910738 -0.486831 -0.14126 127 0 255
-0.307884 -0.0780126 0.471077 127 0 255
-0.337923 -0.396038 0.0643208 127 0 255
-0.333644 -0.125392 0.313774 127 0 255
-0.00039851 -0.482199 0.0717247 127 0 255
-0.313332 -0.482567 0.102214 127 0 255
-0.340901 -0.317174 0.311606 127 0 255
-0.0722551 -0.486367 0.398124 127 0 255
0.247244 -0.473585 0.0310436 127 0 255
-0.277851 -0.0176077 -0.129524 127 0 255
0.06625 -0.481944 -0.120709 127 0 255
-0.3319 -0.210898 0.328403 127 0 255
0.422292 -0.148978 -0.188487 127 0 255
-0.332743 -0.264441 0.175745 127 0 255
-0.334571 -0.00310436 0.0729981 127 0 255
0.154588 -0.420763 -0.176729 127 0 255
0.261783 -0.384973 -0.195513 127 0 255
0.410963 -0.369229 0.021194 127 0 255
-0.336815 0.021498 0.216608 117 15 254
-0.106719 -0.488395 0.0499625 127 0 255
-0.339847 -0.3656 -0.164946 127 0 255
-0.00695793 -0.471477 -0.18258 127 0 255
-0.290385 -0.200526 0.21996 127 0 255
-0.259699 0.0605651 -0.154424 97 46 253
0.431153 -0.354691 -0.0758739 127 0 255
-0.266537 -0.273874 -0.189079 127 0 255
-0.268435 -0.132531 -0.174219 127 0 255
-0.136949 -0.435256 -0.188284 127 0 255
-0.336201 -0.139008 0.108739 127 0 255
-0.334516 0.0560549 -0.00776135 99 43 254
-0.339545 -0.295524 0.393571 127 0 255
-0.299284 -0.135549 0.421526 127 0 255
-0.337478 -0.204985 -0.0653465 127 0 255
0.340155 -0.452177 0.0386482 127 0 255
-0.294311 -0.0520229 0.207086 127 0 255
-0.299615 -0.309468 0.132619 127 0 255
0.119255 -0.317374 -0.190127 127 0 255
-0.176784 -0.0808682 -0.152278 127 0 255
-0.332614 -0.227165 0.049526 127 0 255
0.0410941 -0.486382 0.39185 127 0 255
-0.103725 -0.250021 -0.177481 127 0 255
0.124673 -0.412274 0.149946 127 0 255
-0.0629268 0.00440314 -0.159648 125 3 254
-0.306227 -0.224538 0.470363 127 0 255
0.0347098 -0.48524 -0.0194183 127 0 255
0.230547 -0.4554 -0.125539 127 0 255
0.294787 -0.173782 -0.191238 127 0 255
-0.0293 -0.309909 -0.160603 127 0 255
-0.337959 -0.273922 -0.0800643 127 0 255
-0.271827 -0.482588 0.46204 127 0 255
0.0197061 -0.402271 -0.179154 127 0 255
-0.276171 -0.213792 -0.12589 127 0 255
0.183664 -0.487152 0.268643 127 0 255
0.313427 -0.324777 -0.196393 127 0 255
-0.147266 -0.485718 0.304829 127 0 255
-0.239427 -0.48769 0.0192582 127 0 255
-0.233884 -0.482461 -0.127885 127 0 255
0.400965 -0.386733 -0.193528 127 0 255
0.056018 -0.13318 -0.169741 127 0 255
0.000817915 -0.483732 0.146423 127 0 255
0.190588 -0.459221 0.0811584 127 0 255
-0.359694 -0.410098 0.230097 127 0 255
0.20981 -0.229965 -0.160815 127 0 255
-0.237827 0.0751988 0.324963 89 59 253
0.26914 -0.403763 0.0302705 127 0 255
0.0605227 -0.293993 -0.15687 127 0 255
0.368111 -0.209071 -0.161789 127 0 255
-0.122341 -0.147749 -0.182295 127 0 255
0.0508005 -0.48373 0.264261 127 0 255
-0.334491 -0.0788294 0.0230968 127 0 255
-0.33004 0.064335 0.383008 95 49 253
-0.325831 -0.483217 0.0409609 127 0 255
-0.303196 0.0161437 -0.0710256 119 12 254
0.172021 -0.124095 -0.166399 127 0 255
-0.185007 -0.487856 0.0799402 127 0 255
-0.338125 0.0618299 0.173999 97 46 253
-0.335944 -0.134217 -0.0925355 127 0 255
0.195906 -0.449363 0.19571 127 0 255
-0.334563 -0.192354 0.260672 127 0 255
-0.0695004 -0.487214 -0.0640783 127 0 255
-0.295822 -0.115181 0.346685 127 0 255
0.0977547 -0.23291 -0.191206 127 0 255
-0.188448 -0.481364 0.2076 127 0 255
-0.297458 -0.382288 -0.0706746 127 0 255
-0.362827 0.0627256 -0.175054 95 49 253
0.208644 -0.321636 -0.156402 127 0 255
-0.332544 -0.0972725 0.2217 127 0 255
0.34429 -0.37642 -0.00900392 127 0 255
0.381549 -0.384868 0.160101 127 0 255
-0.157915 -0.482382 -0.0674866 127 0 255
-0.307739 -0.480981 0.288664 127 0 255
-0.00724301 -0.485872 -0.128258 127 0 255
-0.298109 0.0282564 0.481779 113 21 254
-0.294861 -0.0435704 0.295105 127 0 255
0.119604 -0.484928 0.100518 127 0 255
-0.0778953 -0.413667 -0.183368 127 0 255
-0.311732 -0.145921 0.0498832 127 0 255
-0.362822 -0.487288 0.374954 127 0 255
-0.127736 -0.320741 -0.179958 127 0 255
0.112681 -0.0519766 -0.161977 127 0 255
-0.31494 -0.43553 0.194338 127 0 255
-0.285935 -0.331711 0.287177 127 0 255
-0.333347 -0.203298 0.165876 127 0 255
0.218163 -0.446266 -0.193869 127 0 255
-0.215577 -0.484546 0.428365 127 0 255
-0.35439 -0.399122 0.339198 127 0 255
-0.362822 -0.412301 0.487462 127 0 255
-0.0991014 -0.472807 0.165574 127 0 255
0.351863 -0.447758 0.118997 127 0 255
0.0919555 -0.42581 -0.153422 127 0 255
-0.192706 0.0340933 -0.151999 111 25 254
-0.318833 -0.411577 0.0211611 127 0 255
0.316777 -0.263182 -0.154342 127 0 255
-0.286568 -0.24203 0.271581 127 0 255
-0.328935 -0.480613 -0.0733878 127 0 255
-0.0364762 -0.484107 0.347694 127 0 255
0.269248 -0.38483 0.160957 127 0 255
-0.240927 -0.372804 -0.192804 127 0 255
-0.292054 -0.222953 0.112968 127 0 255
-0.00814744 -0.1348 -0.159197 127 0 255
0.116576 -0.485974 0.346049 127 0 255
-0.274629 -0.402381 0.435195 127 0 255
-0.233523 -0.485862 -0.0464016 127 0 255
-0.148957 -0.484377 0.408653 127 0 255
-0.319818 -0.22143 -0.17726 127 0 255
-0.304446 -0.0436964 0.422504 127 0 255
0.170045 -0.483713 -0.0686754 127 0 255
-0.0761116 -0.0564425 -0.180664 127 0 255
0.445625 -0.372053 0.0558907 127 0 255
-0.160792 -0.480051 -0.165124 127 0 255
-0.343512 -0.0244939 -0.0291988 127 0 255
-0.295051 -0.12391 0.172056 127 0 255
0.367914 -0.354773 -0.12825 127 0 255
-0.255921 -0.477832 0.348881 127 0 255
-0.337155 -0.329783 -0.0929266 127 0 255
-0.362826 -0.174792 0.399957 127 0 255
-0.309098 -0.294011 -0.0136624 127 0 255
-0.0590024 -0.485036 0.442813 127 0 255
-0.311188 -0.313554 0.46255 127 0 255
0.150315 -0.367157 -0.187365 127 0 255
-0.332187 0.0708817 0.107089 91 56 253
0.0633633 -0.483852 0.183242 127 0 255
0.447661 -0.233492 -0.194522 127 0 255
-0.337212 -0.297958 0.0923167 127 0 255
0.259995 -0.263818 -0.192349 127 0 255
-0.307749 -0.111201 -0.169479 127 0 255
-0.221271 -0.475011 0.119698 127 0 255
0.255171 -0.461298 -0.0625262 127 0 255
0.331287 -0.458559 -0.12689 127 0 255
-0.293956 -0.175743 0.367545 127 0 255
-0.0940075 -0.483024 0.278593 127 0 255
-0.278092 -0.323365 -0.15003 127 0 255
-0.184344 -0.185813 -0.14424 127 0 255
-0.28685 -0.363201 0.216594 127 0 255
0.318435 -0.394679 0.199172 127 0 255
0.296609 -0.331595 -0.144249 127 0 255
0.0413436 -0.334701 -0.184884 127 0 255
0.216091 -0.180554 -0.157085 127 0 255
-0.333109 0.0541355 0.316716 101 40 254
0.0971904 -0.47746 -0.176212 127 0 255
-0.144286 -0.37731 -0.179719 127 0 255
0.186014 -0.402131 0.217993 127 0 255
0.380029 -0.31285 -0.200008 127 0 255
-0.299956 -0.0795773 0.0889702 127 0 255
-0.291481 -0.0230425 -0.165156 127 0 255
-0.294878 0.00859497 0.237929 123 6 254
0.128131 -0.486112 0.183564 127 0 255
-0.293333 -0.311729 0.376425 127 0 255
-0.263211 -0.481555 -0.170932 127 0 255
-0.0492884 -0.487653 0.0476814 127 0 255
0.2507 -0.483179 0.169969 127 0 255
0.0468645 -0.488474 0.312495 127 0 255
-0.332387 0.0532997 0.026538 101 40 254
0.0826835 -0.483656 -0.0282514 127 0 255
0.339975 -0.372577 -0.202362 127 0 255
-0.33417 -0.249545 0.366655 127 0 255
-0.294446 -0.485077 0.427696 127 0 255
-0.334581 -0.171724 -0.0212841 127 0 255
0.17132 -0.263312 -0.162844 127 0 255
-0.332676 -0.0786737 0.281562 127 0 255
-0.337009 -0.0785587 -0.0365056 127 0 255
-0.341135 -0.411475 0.108822 127 0 255
-0.0901639 -0.178836 -0.183291 127 0 255
-0.143658 -0.0953587 -0.181545 127 0 255
-0.30209 0.0588285 -0.120717 97 46 253
-0.324861 -0.396538 0.284788 127 0 255
0.0747754 -0.483724 0.0568135 127 0 255
-0.114881 -0.46154 -0.0950035 127 0 255
0.194292 -0.456144 0.127058 127 0 255
-0.322436 -0.482184 -0.124994 127 0 255
0.276778 -0.382781 0.0765095 127 0 255
-0.340739 -0.279593 -0.15207 127 0 255
-0.277943 -0.487981 0.175774 127 0 255
0.353149 -0.142877 -0.190761 127 0 255
0.302925 -0.46336 0.124 127 0 255
0.390192 -0.414091 -0.154684 127 0 255
0.0101183 -0.226952 -0.186292 127 0 255
-0.325621 -0.346637 0.046419 127 0 255
-0.0405827 -0.368031 -0.180034 127 0 255
-0.323379 -0.483529 -0.000946436 127 0 255
-0.305002 -0.0399112 0.474152 127 0 255
-0.29697 0.025407 0.120167 115 18 254
-0.338648 -0.308756 0.261999 127 0 255
-0.338421 -0.468458 0.248056 127 0 255
0.0333974 -0.0367689 -0.162555 127 0 255
0.236129 -0.0949197 -0.163916 127 0 255
0.135069 -0.19681 -0.167116 127 0 255
-0.189994 -0.48439 0.316078 127 0 255
-0.225327 0.0751913 0.399968 89 59 253
-0.285323 0.0732787 0.226407 91 56 253
-0.334823 -0.394788 -0.0222751 127 0 255
-0.199206 -0.32638 -0.140286 127 0 255
0.0369808 -0.472336 -0.0705451 127 0 255
-0.332149 -0.369987 0.17259 127 0 255
-0.287446 -0.434391 0.340102 127 0 255
-0.274659 -0.410111 -0.175757 127 0 255
-0.285294 0.0615441 -0.0133129 97 46 253
-0.170636 -0.0212078 -0.155338 127 0 255
0.239094 -0.428477 0.227635 127 0 255
-0.0952228 -0.481557 0.0080089 127 0 255
-0.238314 -0.294739 -0.191981 127 0 255
0.431181 -0.407179 0.0748538 127 0 255
0.168981 -0.44249 -0.147808 127 0 255
-0.230082 -0.153208 -0.146131 127 0 255
-0.290243 -0.235035 0.338264 127 0 255
0.153498 -0.471411 0.0250846 127 0 255
-0.362825 -0.0747914 0.399957 127 0 255
-0.289109 0.0752233 0.335347 89 59 253
0.21169 -0.358441 -0.18426 127 0 255
-0.362824 0.0627085 0.462457 95 49 253
0.455049 -0.325965 -0.18446 127 0 255
0.334864 -0.375761 0.0988242 127 0 255
0.0875391 -0.143046 -0.189192 127 0 255
-0.362827 -0.0247744 -0.175054 127 0 255
-0.335579 -0.0662833 0.137643 127 0 255
-0.327232 -0.171989 0.451478 127 0 255
-0.0175248 -0.483524 0.252718 127 0 255
-0.31923 -0.347449 -0.182139 127 0 255
-0.298775 -0.190274 -0.0643351 127 0 255
-0.0942208 -0.48572 0.3432 127 0 255
0.164862 -0.0681607 -0.161232 127 0 255
-0.128939 -0.48485 0.460124 127 0 255
-0.330276 -0.00127881 0.307344 127 0 255
-0.274016 -0.0861788 -0.123738 127 0 255
-0.0537044 -0.263426 -0.183352 127 0 255
0.255578 -0.481598 -0.126383 127 0 255
-0.342182 -0.361395 0.430536 127 0 255
0.216689 -0.444687 0.0433408 127 0 255
0.0882578 -0.485307 0.279705 127 0 255
0.202266 -0.410668 0.154064 127 0 255
0.406195 -0.356255 -0.108005 127 0 255
-0.216773 -0.240001 -0.152307 127 0 255
0.172521 -0.485449 0.313816 127 0 255
0.436628 -0.176424 -0.18784 127 0 255
-0.0865782 -0.481296 0.118763 127 0 255
0.0223588 -0.48751 0.0113147 127 0 255
0.424673 -0.324774 -0.0125543 127 0 255
-0.330152 -0.438916 -0.0997529 127 0 255
-0.326588 -0.25643 0.0242791 127 0 255
-0.324756 -0.101131 0.462334 127 0 255
-0.333449 -0.173971 0.229748 127 0 255
0.349779 -0.243961 -0.195343 127 0 255
0.275039 -0.175983 -0.158641 127 0 255
-0.0310764 -0.17193 -0.154868 127 0 255
-0.229203 -0.0477779 -0.17125 127 0 255
0.236203 -0.405359 -0.14584 127 0 255
-0.252781 -0.482642 0.250226 127 0 255
0.166415 -0.486124 0.240845 127 0 255
-0.307783 -0.0404266 0.00139664 127 0 255
-0.302377 -0.0297918 0.373594 127 0 255
-0.00315173 -0.418062 -0.182401 127 0 255
-0.309047 -0.413175 0.467843 127 0 255
-0.120406 -0.223761 -0.181349 127 0 255
-0.285489 -0.367306 0.316458 127 0 255
-0.3512 0.059024 -0.0701411 97 46 253
0.279695 -0.468044 0.0712436 127 0 255
0.304175 -0.38665 -0.103144 127 0 255
0.263665 -0.480398 0.220376 127 0 255
-0.151907 -0.472177 0.202071 127 0 255
-0.0239556 -0.468937 -0.0663434 127 0 255
-0.296049 0.0752121 0.416426 89 59 253
-0.0779062 -0.105203 -0.182336 127 0 255
-0.183592 -0.489149 0.00298894 127 0 255
-0.112129 0.00432499 -0.152561 125 3 254
0.406574 -0.384146 0.136898 127 0 255
-0.023135 -0.47281 0.128514 127 0 255
-0.300864 -0.278786 0.448366 127 0 255
0.268789 -0.438112 -0.198083 127 0 255
-0.278816 -0.489237 0.125478 127 0 255
-0.279308 -0.367378 -0.100615 127 0 255
-0.349369 -0.0457503 -0.120449 127 0 255
0.0292106 -0.48587 0.379172 127 0 255
-0.334624 -0.253252 0.227964 127 0 255
-0.29118 -0.17975 0.282591 127 0 255
0.255044 -0.334896 -0.192289 127 0 255
-0.244394 -0.444644 -0.139516 127 0 255
0.0949464 -0.398895 -0.160392 127 0 255
0.0556137 -0.0891319 -0.188325 127 0 255
-0.342073 0.0208849 0.137575 117 15 254
0.123305 -0.466524 0.134873 127 0 255
0.0670774 -0.180534 -0.164815 127 0 255
-0.0878425 -0.468254 -0.1779 127 0 255
-0.337488 -0.471828 0.31375 127 0 255
-0.341591 -0.204961 -0.115487 127 0 255
-0.296617 -0.114639 0.232994 127 0 255
0.0298692 -0.483628 0.210217 127 0 255
0.404284 -0.26644 -0.172777 127 0 255
0.122003 -0.475954 -0.046473 127 0 255
-0.109974 -0.393844 -0.155445 127 0 255
-0.15026 -0.481137 0.0907878 127 0 255
-0.286575 0.0462873 -0.164131 105 34 254
-0.147783 -0.313115 -0.154867 127 0 255
-0.289825 -0.259837 0.119244 127 0 255
-0.326511 -0.0735844 0.332843 127 0 255
