ply
format ascii 1.0
comment Created by Open3D
element vertex 1195
property double x
property double y
property double z
property uchar red
property uchar green
property uchar blue
end_header
0.193543 -0.247029 0.0205088 60 194 255
-0.0137089 -0.48747 -0.078941 0 255 255
0.195559 -0.109999 0.107054 96 159 255
-0.272405 -0.486839 -0.278808 0 255 255
0.194429 -0.250314 -0.256044 60 194 255
-0.212315 -0.407222 -0.320392 20 235 255
-0.0942933 -0.129382 -0.331144 92 163 255
0.197392 -0.332212 0.00646044 40 215 255
-0.267192 -0.358949 -0.246189 32 222 255
-0.103967 -0.487325 0.182672 0 255 255
0.1301 -0.458832 0.335417 7 248 255
-0.149174 -0.487182 0.0899376 0 255 255
-0.123526 -0.487156 -0.123973 0 255 255
0.193717 -0.410104 -0.223193 20 235 255
-0.268444 -0.426041 -0.201051 16 239 255
0.195101 -0.454763 0.0827582 8 247 255
0.105715 -0.48708 -0.0859569 0 255 255
0.108746 -0.310463 -0.296369 44 210 255
0.182194 -0.223314 -0.329692 67 188 255
-0.299928 -0.356434 -0.0211083 32 222 255
0.17765 -0.275407 -0.197614 54 201 255
-0.368542 -0.342005 0.110499 36 218 255
-0.216437 -0.487104 -0.0747276 0 255 255
0.0497766 -0.487084 0.0310286 0 255 255
-0.201328 -0.487037 0.312157 0 255 255
-0.306793 -0.487529 0.0378706 0 255 255
0.148267 -0.486599 -0.168489 0 255 255
0.111891 -0.276109 0.310428 54 201 255
0.191462 -0.434077 -0.0530428 14 241 255
0.0340247 -0.332056 0.333036 40 215 255
-0.268436 -0.48518 0.23702 0 255 255
-0.0966447 -0.406628 -0.327091 21 234 255
0.180478 -0.249181 0.220289 60 194 255
0.0248783 -0.487123 -0.302186 0 255 255
0.193725 -0.0858567 0.284989 103 152 255
-0.372265 -0.350753 -0.123488 35 220 255
0.0773677 -0.374241 -0.143865 29 226 255
0.187525 -0.417736 0.215395 18 237 255
-0.217849 -0.384493 0.125724 26 229 255
0.190727 -0.391323 -0.328187 24 231 255
0.172864 -0.196487 -0.250796 73 181 255
0.0161473 -0.438615 0.301168 12 243 255
0.19137 -0.0761106 0.164375 105 150 255
0.175871 -0.332941 -0.102555 39 216 255
-0.0693426 -0.487687 0.021022 0 255 255
0.195514 -0.150269 0.206216 86 169 255
0.105418 -0.2091 -0.32499 71 184 255
0.190418 -0.073841 -0.260108 105 149 255
-0.313973 -0.486859 -0.15295 0 255 255
-0.103012 -0.276775 0.330571 54 201 255
-0.163134 -0.485483 -0.216995 0 255 255
0.0870606 -0.409558 -0.339919 20 235 255
-0.0246188 -0.487282 0.163748 0 255 255
-0.180848 -0.402453 0.280037 22 233 255
0.117068 -0.486743 -0.0188842 0 255 255
0.144054 -0.326902 -0.202113 40 214 255
-0.0713031 -0.178669 0.324898 79 176 255
0.177603 -0.128961 -0.208811 92 163 255
-0.345874 -0.446989 0.120929 10 245 255
0.0654361 -0.405258 -0.249232 21 234 255
-0.223682 -0.487549 0.0385789 0 255 255
-0.30349 -0.344857 0.0680084 36 219 255
-0.165939 -0.312256 0.280754 44 210 255
0.0615165 -0.154423 -0.337002 85 170 255
0.0762576 -0.310649 -0.339559 44 210 255
0.0554937 -0.0990622 0.282696 99 156 255
-0.404942 -0.339003 0.0299963 38 217 255
0.17841 -0.157182 -0.33192 84 171 255
-0.132911 -0.264112 -0.324878 56 198 255
0.147888 -0.358244 0.234458 32 222 255
0.1952 -0.281622 0.0716774 52 202 255
0.183664 -0.0859351 -0.0356259 103 152 255
-0.380969 -0.380769 -0.186326 27 228 255
0.0131158 -0.487231 0.267057 0 255 255
-0.360483 -0.346747 -0.0500983 36 219 255
0.152314 -0.326138 -0.338422 40 214 255
-0.0424436 -0.389998 0.34486 25 230 255
-0.0965799 -0.487127 -0.211692 0 255 255
-0.267153 -0.407591 0.00793129 20 235 255
-0.205574 -0.448527 -0.266609 10 245 255
-0.0766564 -0.487169 0.274754 0 255 255
0.121746 -0.148622 0.308611 87 168 255
0.175854 -0.428605 0.107072 15 240 255
0.192873 -0.292644 0.189674 50 205 255
0.194993 -0.149623 0.0797602 86 169 255
-0.125476 -0.345238 0.333725 36 219 255
-0.0880464 -0.4873 -0.0511068 0 255 255
0.170596 -0.227092 -0.0794648 67 188 255
-0.399249 -0.401797 -0.0877199 22 233 255
0.112648 -0.278301 0.241143 52 202 255
0.0495458 -0.484397 0.336664 1 254 255
0.190185 -0.0770851 0.0725865 105 150 255
0.0303861 -0.277826 0.289817 54 201 255
-0.151276 -0.454921 -0.337696 8 247 255
0.190693 -0.404928 -0.161156 21 234 255
-0.225048 -0.44484 0.23244 11 244 255
-0.0288766 -0.203084 -0.328298 73 182 255
0.126502 -0.390299 0.321387 25 230 255
-0.169488 -0.355836 -0.313691 34 221 255
0.193603 -0.148494 -0.106357 87 168 255
0.067679 -0.0927043 -0.331977 101 154 255
0.0257329 -0.361765 -0.340712 32 223 255
0.172362 -0.215749 -0.192379 69 186 255
0.156009 -0.443445 -0.240889 11 244 255
-0.411958 -0.36014 0.121143 32 223 255
0.194349 -0.351621 -0.071444 35 220 255
0.116414 -0.486982 0.17753 0 255 255
-0.194027 -0.4885 0.130443 0 255 255
0.198391 -0.481454 -0.120517 1 254 255
-0.113815 -0.14305 0.305371 88 167 255
-0.22143 -0.375216 -0.248131 29 226 255
0.0891861 -0.487084 -0.131923 0 255 255
0.13821 -0.138897 0.226875 89 166 255
-0.102366 -0.344066 -0.335114 36 218 255
0.180403 -0.336321 0.289319 39 216 255
0.0256475 -0.218378 0.320127 69 186 255
-0.030986 -0.487197 -0.251943 0 255 255
-0.133768 -0.19851 -0.319599 73 181 255
0.083224 -0.340129 -0.267978 38 217 255
-0.0146417 -0.140598 0.293026 89 166 255
0.178079 -0.414866 0.0314344 18 237 255
-0.0515195 -0.4874 -0.152196 0 255 255
0.196595 -0.484994 -0.246931 0 255 255
-0.268835 -0.443124 -0.0968404 11 244 255
0.139566 -0.352582 -0.0632209 34 221 255
-0.337738 -0.458536 -0.20551 7 248 255
0.0414912 -0.487247 0.136184 0 255 255
-0.0314701 -0.278445 0.336503 52 202 255
0.193989 -0.410779 0.258352 19 236 255
-0.0681848 -0.487799 0.0858765 0 255 255
-0.361077 -0.3677 0.161861 31 224 255
0.195282 -0.401353 -0.281012 22 233 255
-0.0268349 -0.391501 -0.33811 24 231 255
-0.024235 -0.144563 -0.336331 88 167 255
-0.0400897 -0.263652 -0.335242 56 198 255
0.0895893 -0.486741 -0.240019 0 255 255
-0.126 -0.215953 0.316589 69 186 255
0.193075 -0.26824 -0.04828 56 199 255
0.0828042 -0.402667 0.253526 22 233 255
-0.270898 -0.36746 0.163793 31 224 255
0.182642 -0.237514 0.0802213 64 191 255
0.132354 -0.207754 0.290284 71 184 255
0.175009 -0.486637 0.202619 0 255 255
0.19417 -0.31598 -0.135106 44 211 255
-0.202297 -0.48724 -0.155801 0 255 255
-0.298849 -0.431702 -0.256489 14 241 255
0.195111 -0.176194 0.24229 80 175 255
0.0378835 -0.403009 0.329369 21 234 255
-0.362961 -0.392018 -0.0227324 24 231 255
0.127353 -0.403146 -0.165256 21 234 255
0.108826 -0.486468 0.283537 0 255 255
0.195045 -0.156855 0.0244744 84 171 255
0.125167 -0.137487 -0.112635 89 166 255
0.0658933 -0.486782 -0.0911948 0 255 255
0.132525 -0.319163 -0.134804 43 211 255
0.171768 -0.486254 -0.318009 0 255 255
-0.135162 -0.487337 0.262099 0 255 255
0.0317979 -0.442165 -0.33998 11 244 255
-0.204722 -0.486938 -0.0273822 0 255 255
-0.0878254 -0.442526 -0.336923 11 244 255
0.0931439 -0.310446 0.316422 44 210 255
0.19422 -0.261781 0.275319 58 197 255
0.178846 -0.309331 -0.282403 44 210 255
0.190762 -0.361889 0.182685 32 223 255
0.194061 -0.124377 -0.25173 93 162 255
0.195111 -0.18013 -0.049214 79 176 255
0.190211 -0.0800177 0.224765 104 151 255
0.135594 -0.124765 -0.334916 93 162 255
-0.311614 -0.358377 -0.0991699 32 222 255
-0.162333 -0.387487 -0.212635 25 230 255
0.0042827 -0.487764 0.0885664 0 255 255
-0.41828 -0.374904 -0.120276 29 226 255
-0.284129 -0.484981 0.13549 0 255 255
-0.0427242 -0.232411 0.29909 65 190 255
0.0309658 -0.326207 -0.315765 40 214 255
0.16426 -0.486872 0.0482025 0 255 255
0.187818 -0.0794934 -0.0992513 104 151 255
0.117657 -0.394708 -0.263474 24 231 255
-0.115912 -0.487008 -0.269584 0 255 255
0.184133 -0.380627 0.107801 27 228 255
-0.248228 -0.441077 0.0602242 12 243 255
-0.286032 -0.48692 -0.208677 0 255 255
0.175606 -0.456107 -0.0445944 8 247 255
-0.0285545 -0.487387 -0.0181331 0 255 255
0.194187 -0.306924 0.126728 46 209 255
-0.204141 -0.350752 0.0926146 35 220 255
0.189211 -0.0776637 0.00935565 105 150 255
0.180632 -0.117368 0.148857 95 160 255
0.0933695 -0.236617 -0.336719 64 191 255
-0.41403 -0.37387 -0.0447144 29 226 255
-0.0621634 -0.487338 -0.0966335 0 255 255
-0.0773096 -0.379959 0.313738 27 228 255
-0.300527 -0.341143 0.112446 36 218 255
-0.217436 -0.484563 0.313783 1 254 255
-0.123522 -0.484479 0.341504 1 254 255
-0.0281726 -0.456093 0.34266 8 247 255
-0.187329 -0.487304 0.17751 0 255 255
0.137024 -0.0751351 0.296311 105 150 255
0.195336 -0.189048 0.136059 76 179 255
0.192535 -0.180401 -0.198751 78 177 255
0.129903 -0.450456 0.239413 9 246 255
0.0798628 -0.434693 -0.149163 13 242 255
0.120221 -0.486994 0.0968398 0 255 255
-0.318003 -0.473898 0.0893897 3 252 255
0.074287 -0.487044 0.000321206 0 255 255
0.186739 -0.433969 0.30062 14 241 255
-0.393376 -0.409906 -0.166774 20 235 255
-0.323446 -0.467298 -0.0824706 5 250 255
0.112113 -0.486822 -0.279762 0 255 255
0.0291179 -0.173222 -0.327335 80 175 255
-0.112588 -0.140581 -0.330795 89 166 255
0.178936 -0.382699 -0.0184575 27 228 255
-0.263591 -0.413762 -0.146955 19 236 255
-0.0689947 -0.487428 0.163358 0 255 255
-0.350471 -0.422198 0.0203323 17 238 255
0.0147578 -0.487569 0.211782 0 255 255
0.193193 -0.289876 0.0219499 50 205 255
0.174072 -0.0771673 -0.329764 105 150 255
-0.153252 -0.485571 -0.155314 0 255 255
-0.149445 -0.487297 0.0326098 0 255 255
0.181156 -0.414228 0.160901 19 236 255
0.194361 -0.18011 -0.300986 79 176 255
-0.284335 -0.38971 -0.0594474 25 230 255
-0.329585 -0.349847 -0.203929 35 220 255
0.161325 -0.48671 -0.203452 0 255 255
0.038409 -0.111071 0.315233 96 159 255
-0.181863 -0.487093 -0.328886 0 255 255
0.102721 -0.349367 -0.340294 35 220 255
0.0405114 -0.487153 -0.204436 0 255 255
0.110916 -0.386154 -0.0796585 26 229 255
0.17263 -0.434856 -0.107016 13 242 255
-0.253784 -0.487061 -0.123082 0 255 255
-0.238019 -0.431208 0.181027 14 241 255
0.196528 -0.244229 -0.0864821 62 193 255
-0.327747 -0.344039 0.0107167 36 218 255
-0.177545 -0.264665 -0.323169 56 198 255
0.193495 -0.269651 -0.175606 56 199 255
-0.034226 -0.445461 -0.336614 11 244 255
0.0681874 -0.220044 0.275715 68 187 255
-0.363602 -0.406091 0.150709 21 234 255
0.193393 -0.337795 -0.215854 38 217 255
0.0371857 -0.315816 0.287365 44 211 255
-0.130711 -0.487212 -0.0611021 0 255 255
0.0480342 -0.257 -0.338505 59 195 255
0.181594 -0.266071 0.171258 56 198 255
-0.186171 -0.378361 -0.328198 28 227 255
-0.00679574 -0.487337 -0.267898 0 255 255
-0.267109 -0.368408 -0.196425 30 225 255
-0.0433044 -0.330588 0.341001 40 215 255
0.0717756 -0.359535 0.324942 32 222 255
0.18979 -0.0764849 -0.199898 105 150 255
-0.25634 -0.487323 0.0847553 0 255 255
0.135233 -0.28174 -0.336874 52 202 255
-0.0479195 -0.487429 0.254603 0 255 255
0.189811 -0.196248 0.2988 73 181 255
-0.336167 -0.360228 0.0799925 32 223 255
0.0501667 -0.324987 -0.175135 40 214 255
0.156767 -0.346009 -0.181908 36 219 255
-0.238624 -0.426019 -0.301152 16 239 255
-0.0752044 -0.265577 0.301463 56 198 255
0.142268 -0.470025 0.335807 4 251 255
-0.0828506 -0.201086 -0.323961 73 182 255
0.123956 -0.167168 -0.335585 81 173 255
-0.0620936 -0.329311 -0.334773 40 215 255
-0.12828 -0.48749 0.122305 0 255 255
0.192863 -0.337938 0.263846 38 217 255
-0.143989 -0.408066 0.330563 20 235 255
0.193635 -0.129738 -0.0590364 91 163 255
-0.164931 -0.486882 -0.258904 0 255 255
0.196204 -0.48503 -0.0660148 0 255 255
0.161073 -0.256986 -0.0972648 59 195 255
-0.27803 -0.486765 -0.0310522 0 255 255
0.139113 -0.306964 0.236778 46 209 255
0.139206 -0.408881 -0.339567 20 235 255
0.160871 -0.121953 0.274678 93 162 255
-0.0158024 -0.109482 -0.336667 97 158 255
0.181078 -0.345823 0.0761106 36 219 255
-0.134386 -0.408468 -0.33663 20 235 255
-0.0300702 -0.168647 0.326649 81 174 255
-0.275295 -0.486865 -0.262107 0 255 255
0.194633 -0.235596 -0.273439 64 191 255
-0.137546 -0.315957 -0.334459 44 211 255
0.196668 -0.461215 -0.317732 7 248 255
0.194333 -0.429651 0.0274651 15 240 255
-0.416028 -0.347059 0.0886262 36 219 255
0.192503 -0.377203 -0.0922884 28 227 255
-0.37924 -0.348523 -0.175375 35 220 255
-0.291344 -0.45263 0.174379 9 246 255
0.0455182 -0.369286 -0.301612 30 225 255
0.190631 -0.45399 0.211294 8 247 255
-0.00801969 -0.487423 -0.132865 0 255 255
-0.0255252 -0.487238 0.0394837 0 255 255
-0.078214 -0.486962 -0.296774 0 255 255
-0.376296 -0.443382 -0.151492 11 244 255
0.104879 -0.486747 -0.177693 0 255 255
0.18566 -0.201583 -0.0132592 73 182 255
0.0985905 -0.342749 -0.12188 36 218 255
0.180294 -0.225234 0.215126 67 188 255
-0.0997368 -0.487253 0.213296 0 255 255
-0.223743 -0.457464 0.116083 8 247 255
0.0611049 -0.45738 0.345737 8 247 255
0.0718744 -0.48693 0.176787 0 255 255
-0.399012 -0.338413 -0.00742964 38 217 255
0.19094 -0.124974 -0.155681 93 162 255
-0.0844488 -0.43696 0.346694 13 242 255
0.190564 -0.330927 -0.324015 40 215 255
-0.281069 -0.373812 0.0546885 29 226 255
-0.188175 -0.319978 -0.302819 43 211 255
0.151038 -0.33275 -0.255433 39 216 255
0.116832 -0.48686 -0.0617413 0 255 255
0.104624 -0.0852254 0.263206 103 152 255
0.0700901 -0.486566 -0.299214 0 255 255
0.0533632 -0.277772 0.32431 54 201 255
0.192549 -0.394509 -0.206378 24 231 255
0.0894263 -0.357514 0.259004 32 222 255
-0.186107 -0.487135 -0.0647034 0 255 255
0.165541 -0.25372 0.306735 60 195 255
0.177787 -0.487025 0.122866 0 255 255
-0.288527 -0.372839 -0.251954 29 226 255
-0.215637 -0.487062 -0.219074 0 255 255
0.0941404 -0.0889579 -0.329949 102 153 255
0.164564 -0.401599 0.285624 22 233 255
-0.148701 -0.249756 0.297897 60 194 255
0.0724224 -0.487112 0.0777197 0 255 255
0.196125 -0.112335 0.0432274 96 159 255
0.194442 -0.125452 -0.306831 93 162 255
-0.174833 -0.399987 0.149865 22 233 255
0.00557209 -0.296606 -0.338948 48 206 255
0.0287382 -0.487401 -0.0140151 0 255 255
-0.218564 -0.487117 0.247054 0 255 255
0.06883 -0.48694 0.267412 0 255 255
-0.35083 -0.440542 -0.0366105 12 243 255
0.180377 -0.150769 0.187633 86 169 255
0.195429 -0.181439 0.0926282 78 177 255
0.191032 -0.194652 -0.147489 75 179 255
-0.0618844 -0.487109 -0.218567 0 255 255
-0.132082 -0.16639 0.306762 81 173 255
-0.0301568 -0.101547 0.309942 99 156 255
0.0144239 -0.176968 0.293176 79 176 255
-0.336558 -0.355204 -0.131155 34 221 255
0.194958 -0.452077 -0.179453 9 246 255
0.151024 -0.328106 0.302487 40 214 255
0.0107892 -0.369485 0.339134 30 225 255
0.17605 -0.171573 -0.268347 81 174 255
-0.116285 -0.237952 -0.334861 64 191 255
0.141016 -0.486717 0.0249625 0 255 255
-0.134839 -0.348205 0.300765 36 219 255
0.153043 -0.453396 -0.150341 9 246 255
-0.23044 -0.421374 0.240154 17 238 255
0.11635 -0.162389 0.254167 83 172 255
-0.378006 -0.340931 0.153024 36 218 255
0.195074 -0.454749 0.0863624 8 247 255
0.00356641 -0.231852 -0.329501 65 190 255
0.181217 -0.0728966 0.285787 105 149 255
0.128384 -0.48665 0.229138 0 255 255
0.166249 -0.337454 -0.0615967 38 217 255
-0.400682 -0.377585 0.0421191 28 227 255
0.099455 -0.243879 0.260156 62 193 255
0.174108 -0.179901 -0.0858853 79 176 255
0.160202 -0.369999 0.210364 30 225 255
-0.201544 -0.487314 0.0878377 0 255 255
0.0236677 -0.406922 -0.340201 20 235 255
-0.258127 -0.486988 -0.164948 0 255 255
-0.345787 -0.416605 -0.213902 18 237 255
-0.109918 -0.487221 -0.00653011 0 255 255
-0.0636629 -0.121641 -0.33246 94 161 255
0.0960608 -0.432806 -0.263627 14 241 255
-0.092387 -0.487034 -0.143141 0 255 255
0.194177 -0.264338 -0.218596 56 198 255
-0.233161 -0.487179 -0.312398 0 255 255
0.194651 -0.392866 -0.259623 24 231 255
-0.143527 -0.487058 0.298633 0 255 255
-0.295993 -0.420871 -0.0243477 17 238 255
0.195808 -0.140478 0.275742 89 166 255
0.180777 -0.0783233 0.202134 105 150 255
0.0698182 -0.396177 -0.158524 23 232 255
-0.192175 -0.43648 -0.28253 13 242 255
0.0117227 -0.487112 0.296826 0 255 255
-0.0122839 -0.486554 -0.333567 0 255 255
0.192156 -0.312914 0.214098 44 210 255
-0.212333 -0.312487 0.312365 44 210 255
0.0825857 -0.194158 0.312636 75 179 255
-0.0805729 -0.196383 0.299629 73 181 255
-0.278864 -0.487021 0.0451702 0 255 255
-0.365838 -0.420129 -0.0958882 17 238 255
0.163038 -0.408381 -0.193235 20 235 255
0.189202 -0.404535 -0.0443167 21 234 255
0.19438 -0.2614 0.125263 58 197 255
0.19346 -0.296921 -0.00798448 48 206 255
0.0748632 -0.448172 0.257643 10 245 255
0.168366 -0.266402 -0.316506 56 199 255
0.183062 -0.204653 0.0484582 72 183 255
-0.0454687 -0.487446 0.124197 0 255 255
0.188723 -0.0784917 0.132705 105 150 255
-0.230063 -0.388161 0.164731 25 230 255
0.0420299 -0.487129 -0.151616 0 255 255
-0.224141 -0.487367 0.175901 0 255 255
0.181083 -0.486115 0.29595 0 255 255
0.182755 -0.417141 -0.336536 18 237 255
0.190105 -0.0738186 -0.250475 105 149 255
0.115994 -0.486705 -0.322697 0 255 255
0.122101 -0.485195 0.139008 0 255 255
-0.408744 -0.349592 -0.0845604 35 220 255
0.193953 -0.286834 -0.126154 51 204 255
0.194566 -0.356535 0.149453 32 222 255
-0.199833 -0.399987 -0.187635 22 233 255
0.197238 -0.483262 -0.233148 1 254 255
-0.0145049 -0.487453 -0.0720342 0 255 255
-0.362848 -0.412664 0.0850435 19 236 255
0.117768 -0.437522 0.329983 13 242 255
-0.0815916 -0.394413 -0.336439 24 231 255
0.191506 -0.373137 0.0180256 29 226 255
0.0895956 -0.413738 -0.339973 19 236 255
0.197094 -0.0820021 -0.0836385 104 151 255
-0.198211 -0.487222 0.0156567 0 255 255
0.113624 -0.335064 -0.218552 39 216 255
-0.0176152 -0.248205 0.332436 60 194 255
0.154841 -0.207825 -0.335662 71 184 255
-0.302351 -0.486856 -0.122143 0 255 255
0.00212791 -0.486974 -0.214094 0 255 255
-0.188129 -0.47559 0.32693 3 252 255
0.0574072 -0.310494 -0.316036 44 210 255
-0.211455 -0.383668 0.0799614 26 229 255
0.187455 -0.484732 0.171405 1 254 255
0.197859 -0.484351 -0.137372 1 254 255
-0.0734581 -0.485448 0.328328 0 255 255
0.0904207 -0.459234 -0.208007 7 248 255
-0.0159728 -0.48778 0.181373 0 255 255
0.0579543 -0.178645 -0.32713 79 176 255
0.195488 -0.287205 -0.266063 51 204 255
-0.146036 -0.487488 0.22546 0 255 255
-0.336109 -0.436749 0.153537 13 242 255
0.156961 -0.188028 0.306689 77 178 255
0.041836 -0.0962778 0.285783 100 155 255
0.0397488 -0.0999223 -0.332336 99 156 255
-0.286887 -0.370515 -0.149615 30 225 255
-0.23671 -0.383636 -0.295611 26 229 255
-0.0575127 -0.302052 0.30214 47 208 255
-0.265351 -0.483933 0.22343 1 254 255
-0.12355 -0.487186 0.0845852 0 255 255
-0.181061 -0.487166 -0.121277 0 255 255
0.184229 -0.294268 0.0657558 48 206 255
0.190786 -0.386211 -0.142628 26 229 255
0.183164 -0.290536 0.297846 50 205 255
-0.32103 -0.341884 0.128884 36 218 255
-0.100958 -0.288612 -0.334624 51 204 255
0.0835663 -0.486447 -0.0769283 0 255 255
0.175807 -0.365056 -0.297454 31 224 255
-0.329836 -0.485406 -0.195435 0 255 255
0.192651 -0.158384 -0.205093 84 171 255
-0.136414 -0.487019 -0.20102 0 255 255
-0.132757 -0.486995 -0.306002 0 255 255
-0.00686267 -0.45041 0.342399 9 246 255
0.0543693 -0.376588 0.271566 28 227 255
0.193711 -0.137229 -0.01577 89 165 255
0.142278 -0.360017 -0.133006 32 223 255
0.193741 -0.226546 -0.0244114 67 188 255
0.143951 -0.486521 -0.246457 0 255 255
0.196865 -0.486995 0.0433101 0 255 255
-0.339447 -0.347474 -0.0519829 36 219 255
-0.0824713 -0.13709 0.31657 89 165 255
-0.275451 -0.388201 0.00811785 25 230 255
0.0514321 -0.48677 -0.264994 0 255 255
0.180198 -0.214434 0.187499 70 185 255
0.174825 -0.40577 0.313043 21 234 255
-0.0557612 -0.167825 -0.336221 81 173 255
0.149988 -0.288925 -0.108264 51 204 255
0.181592 -0.0977931 -0.147011 100 155 255
0.0654115 -0.281828 0.276232 52 202 255
-0.145199 -0.198111 -0.330208 73 181 255
-0.0839216 -0.349893 0.333808 35 220 255
0.0463768 -0.487 0.0404448 0 255 255
-0.26995 -0.486922 -0.07429 0 255 255
0.183379 -0.402023 0.0912019 22 233 255
-0.245842 -0.461099 0.0353052 7 248 255
0.135535 -0.486958 -0.0228914 0 255 255
-0.136138 -0.351587 -0.335271 35 220 255
-0.206203 -0.412696 0.263106 19 236 255
-0.252301 -0.451432 -0.145356 9 246 255
0.112667 -0.0874873 0.212365 102 153 255
-0.0405141 -0.287514 -0.331121 51 204 255
0.137389 -0.487086 -0.101888 0 255 255
0.157566 -0.438867 0.232249 12 243 255
0.175112 -0.228788 -0.153934 65 189 255
-0.101972 -0.487235 -0.084685 0 255 255
-0.416308 -0.357583 -0.132129 32 222 255
0.181197 -0.137606 0.106689 89 166 255
0.19521 -0.449826 0.133319 9 246 255
-0.396942 -0.381703 0.10331 27 228 255
-0.161319 -0.306426 0.288032 46 209 255
0.0718258 -0.388915 -0.1988 25 230 255
0.192687 -0.369601 0.24457 30 225 255
-0.208577 -0.344584 -0.288561 36 219 255
0.0805116 -0.414603 0.319711 19 236 255
-0.0883454 -0.473483 -0.340973 3 252 255
0.185758 -0.0756814 -0.31186 105 150 255
0.193616 -0.305828 -0.0733812 46 209 255
0.193155 -0.482223 0.238966 1 254 255
0.12292 -0.324131 -0.338332 42 213 255
0.0699936 -0.461386 -0.341248 7 248 255
-0.0509283 -0.48721 0.033025 0 255 255
0.195271 -0.226485 -0.302019 67 188 255
0.125167 -0.162487 -0.175135 83 172 255
-0.344615 -0.344296 0.0545775 36 218 255
-0.163557 -0.418005 -0.318518 18 237 255
-0.250819 -0.358497 0.129385 32 222 255
0.000765677 -0.373515 0.300087 29 226 255
0.0255716 -0.48724 0.122318 0 255 255
0.193343 -0.334503 -0.179105 39 216 255
0.191324 -0.0789804 0.07039 104 151 255
-0.160642 -0.487412 0.17459 0 255 255
-0.311617 -0.431037 -0.231812 14 241 255
0.197494 -0.459291 -0.278625 7 248 255
0.0542945 -0.486407 0.212951 0 255 255
0.19533 -0.119851 0.166013 94 161 255
-0.105552 -0.225137 0.323865 67 188 255
-0.234367 -0.48695 -0.245997 0 255 255
0.100093 -0.398306 -0.316566 23 232 255
0.192736 -0.267359 0.231831 56 199 255
0.0750612 -0.486505 0.325443 0 255 255
0.10518 -0.245711 0.304894 62 193 255
0.00784702 -0.395156 -0.322171 23 232 255
-0.136341 -0.44039 0.332572 12 243 255
-0.237333 -0.362487 0.299865 32 223 255
-0.233966 -0.484918 0.296293 1 254 255
-0.0292012 -0.487305 0.260109 0 255 255
-0.0145019 -0.309979 0.33786 44 210 255
0.151457 -0.484355 -0.33438 1 254 255
0.148947 -0.149032 0.308889 87 168 255
0.195098 -0.179909 0.240492 79 176 255
0.0800243 -0.348314 -0.260131 35 220 255
0.18188 -0.233671 0.104183 65 190 255
0.0976122 -0.407149 -0.101035 20 235 255
0.0596069 -0.151872 0.286669 86 169 255
-0.322151 -0.472165 0.0942791 4 251 255
0.132589 -0.140863 -0.323963 89 166 255
-0.0205472 -0.198274 0.327696 73 181 255
-0.0455334 -0.223053 -0.334042 68 187 255
-0.257189 -0.399193 -0.213624 22 233 255
0.118459 -0.486988 0.0575957 0 255 255
0.0611505 -0.221419 -0.337401 68 187 255
-0.0119082 -0.336738 -0.33882 38 217 255
0.196465 -0.33389 0.0613077 39 216 255
0.0963733 -0.293478 -0.315713 50 205 255
0.189085 -0.399283 0.1888 22 233 255
-0.0498029 -0.487042 -0.296018 0 255 255
-0.041217 -0.127083 0.295337 92 163 255
0.186634 -0.0806998 -0.00527269 104 151 255
-0.0250767 -0.487588 -0.153077 0 255 255
0.126922 -0.334481 0.291954 39 216 255
-0.40138 -0.390504 -0.0560485 25 230 255
-0.227071 -0.487143 -0.0370719 0 255 255
0.0228218 -0.471046 -0.341955 4 251 255
-0.231337 -0.48757 0.13933 0 255 255
-0.0533035 -0.4874 -0.0491968 0 255 255
-0.262986 -0.426868 -0.103165 15 240 255
-0.225147 -0.410697 0.0487329 20 235 255
-0.0887461 -0.412996 0.343821 19 236 255
0.155234 -0.486644 -0.152205 0 255 255
0.178686 -0.12726 0.22429 92 163 255
0.105364 -0.0940646 0.310411 101 154 255
-0.0508052 -0.415488 -0.326279 18 237 255
0.194587 -0.334582 -0.253292 39 216 255
0.132699 -0.486312 0.271326 0 255 255
0.191878 -0.485105 -0.0401375 0 255 255
0.194515 -0.325559 0.129017 40 214 255
-0.405792 -0.36134 0.141883 32 223 255
0.0360245 -0.228382 0.319103 65 189 255
-0.122804 -0.157651 -0.32805 84 171 255
0.193767 -0.171934 -0.251337 81 174 255
0.150856 -0.48671 0.155553 0 255 255
-0.355737 -0.417249 0.014482 18 237 255
-0.141056 -0.358276 0.329504 32 222 255
-0.346032 -0.39397 -0.093744 24 231 255
0.145588 -0.428258 -0.24033 15 240 255
-0.0558207 -0.487354 0.197448 0 255 255
-0.252824 -0.454228 -0.296702 8 247 255
0.182748 -0.147362 0.0589217 87 168 255
-0.209019 -0.34588 0.0942283 36 219 255
0.187049 -0.269322 -0.323721 56 199 255
-0.183946 -0.469058 -0.339132 5 250 255
-0.359165 -0.454102 -0.157144 8 247 255
-0.160943 -0.487249 -0.0160629 0 255 255
-0.0835848 -0.487192 -0.186624 0 255 255
-0.406224 -0.337351 0.0621058 38 217 255
0.125167 -0.187487 0.199865 77 178 255
0.195535 -0.0766818 -0.213203 105 150 255
0.191103 -0.40574 -0.0689416 21 234 255
-0.0197309 -0.384662 0.343834 26 229 255
0.0379235 -0.487328 -0.107004 0 255 255
0.193887 -0.325119 -0.031397 40 214 255
0.196326 -0.235933 -0.121139 64 191 255
0.00211857 -0.144333 -0.33599 88 167 255
-0.296327 -0.365013 -0.0478164 31 224 255
0.15024 -0.368246 -0.339004 30 225 255
-0.348261 -0.378327 -0.206389 28 227 255
-0.281484 -0.486886 -0.00320079 0 255 255
0.185068 -0.24011 0.0220304 63 192 255
0.192933 -0.235255 -0.205548 64 191 255
-0.0984997 -0.487075 0.294752 0 255 255
-0.264416 -0.484959 0.259989 1 254 255
0.0499269 -0.328347 0.331111 40 214 255
0.0859512 -0.486998 -0.0256512 0 255 255
0.100218 -0.0876035 -0.331995 102 153 255
0.159777 -0.405379 -0.130199 21 234 255
0.136265 -0.323748 -0.0860471 42 213 255
0.0748828 -0.339643 -0.33984 38 217 255
-0.0943596 -0.487439 0.109675 0 255 255
-0.190352 -0.486998 -0.191897 0 255 255
-0.237241 -0.446483 0.112899 10 245 255
-0.151792 -0.265534 -0.331357 56 198 255
0.010702 -0.48732 -0.0162285 0 255 255
0.187667 -0.124987 -0.350135 93 162 255
-0.179935 -0.48711 0.248607 0 255 255
0.00172273 -0.281887 0.294899 52 203 255
0.190613 -0.166484 -0.131763 81 173 255
0.197474 -0.479127 -0.106773 2 253 255
-0.13712 -0.487174 -0.248165 0 255 255
0.182542 -0.23153 0.298717 65 190 255
-0.276229 -0.360501 -0.24662 32 223 255
-0.136899 -0.294178 0.316469 48 206 255
-0.0873334 -0.0874873 -0.337635 102 153 255
-0.134401 -0.190831 0.305145 76 179 255
0.186799 -0.0819154 -0.0608699 104 151 255
0.0866069 -0.347311 -0.154826 36 219 255
-0.402218 -0.383479 -0.166802 26 229 255
-0.0176647 -0.438509 0.310365 12 243 255
0.193629 -0.283817 0.157534 52 203 255
0.00829579 -0.487187 0.0626902 0 255 255
-0.17571 -0.487315 0.0662056 0 255 255
-0.0840361 -0.343628 -0.336438 36 218 255
0.165103 -0.193069 -0.316487 75 179 255
0.107404 -0.48674 -0.222171 0 255 255
-0.0937491 -0.487711 0.0342708 0 255 255
0.187712 -0.466139 0.0567852 5 250 255
0.194363 -0.419101 -0.260313 17 238 255
-0.344672 -0.35249 -0.143461 34 221 255
-0.320194 -0.419714 0.158108 17 238 255
-0.262333 -0.299987 0.112365 48 207 255
0.182234 -0.156379 -0.0376987 85 170 255
0.194013 -0.395215 0.264906 23 232 255
0.179869 -0.114653 -0.20044 95 160 255
-0.327581 -0.344021 0.00954483 36 218 255
0.194243 -0.335871 -0.127142 39 216 255
0.193574 -0.39941 0.0353801 22 233 255
-0.198026 -0.486969 -0.285347 0 255 255
-0.21304 -0.487168 -0.112271 0 255 255
0.126374 -0.298717 0.242218 48 207 255
-0.0765645 -0.297228 0.334288 48 206 255
0.180494 -0.485834 0.310317 0 255 255
-0.338236 -0.456222 -0.0876129 8 247 255
-0.396669 -0.339695 0.00501213 38 217 255
0.00629186 -0.487089 -0.242745 0 255 255
0.180288 -0.18895 0.143133 76 179 255
0.17566 -0.313796 -0.233178 44 211 255
-0.217156 -0.403952 -0.259271 21 234 255
-0.145515 -0.443739 -0.33748 11 244 255
-0.13117 -0.486931 -0.102826 0 255 255
-0.295928 -0.4869 -0.211252 0 255 255
-0.343855 -0.348991 0.157107 35 220 255
0.16718 -0.247913 -0.083976 60 194 255
-0.276529 -0.484182 0.18597 1 254 255
0.0683688 -0.142696 -0.336605 88 167 255
0.0755342 -0.337829 0.266497 38 217 255
0.0529507 -0.38132 -0.339999 27 228 255
0.0848319 -0.486932 -0.120168 0 255 255
0.187049 -0.148328 0.301284 87 168 255
-0.254386 -0.388561 0.176081 25 230 255
0.139047 -0.108619 0.23986 97 158 255
0.197715 -0.465416 -0.322255 6 249 255
0.0246726 -0.110269 0.315792 96 159 255
-0.288111 -0.347665 0.0706211 36 219 255
-0.187696 -0.318477 -0.303401 43 211 255
0.191513 -0.384799 -0.326406 26 229 255
0.0547445 -0.487143 0.243926 0 255 255
0.194329 -0.117218 -0.261495 95 160 255
0.0986772 -0.234836 -0.336607 65 190 255
0.191731 -0.418545 -0.191961 18 237 255
0.0430448 -0.420128 0.331336 17 238 255
0.160262 -0.384916 -0.0668895 26 229 255
0.069845 -0.424023 -0.17851 16 239 255
0.166492 -0.07399 0.292853 105 149 255
0.0164604 -0.200361 0.29214 73 182 255
0.191818 -0.403378 0.119488 21 234 255
-0.0044237 -0.18542 -0.336455 77 178 255
0.146139 -0.0838784 -0.326455 103 152 255
-0.0332007 -0.486282 0.322789 0 255 255
-0.0918757 -0.243503 -0.334837 62 193 255
0.110812 -0.165466 0.310364 81 173 255
0.191018 -0.485024 0.0156488 0 255 255
0.170719 -0.486838 -0.205197 0 255 255
0.152238 -0.374407 0.224444 29 226 255
-0.0465436 -0.48757 -0.096392 0 255 255
0.116344 -0.486991 0.195436 0 255 255
0.183106 -0.345786 0.0132744 36 219 255
0.0626666 -0.337487 -0.0751351 38 217 255
0.174723 -0.315544 -0.171037 44 211 255
0.0845948 -0.424102 -0.250016 16 239 255
-0.00705497 -0.276941 -0.329786 54 201 255
-0.376776 -0.402789 0.136102 22 233 255
0.123449 -0.324528 -0.277398 42 213 255
-0.167777 -0.475193 0.337185 3 252 255
0.191519 -0.329459 0.18034 40 215 255
0.186091 -0.302506 0.291998 47 208 255
-0.379057 -0.397057 0.0381298 23 232 255
0.183712 -0.256269 0.0575768 59 195 255
-0.0190096 -0.487404 0.11659 0 255 255
0.113483 -0.485014 0.318975 0 255 255
-0.298804 -0.357244 -0.188735 32 222 255
-0.393517 -0.344177 -0.0772101 36 218 255
0.14284 -0.445911 -0.339334 11 244 255
-0.097117 -0.487486 0.211498 0 255 255
0.184306 -0.246416 -0.0345977 62 193 255
0.148371 -0.228085 0.285802 65 189 255
-0.06319 -0.487208 -0.22639 0 255 255
0.187177 -0.325194 -0.327497 40 214 255
0.195877 -0.107859 -0.096383 97 158 255
0.075921 -0.487086 0.0896269 0 255 255
-0.0813095 -0.236343 0.300626 64 191 255
0.102575 -0.401342 0.31985 22 233 255
-0.0978354 -0.487303 -0.0245332 0 255 255
0.0451959 -0.486574 -0.291286 0 255 255
0.0812776 -0.0902879 0.274417 102 153 255
0.0927707 -0.275645 0.313723 54 201 255
0.0346323 -0.487237 0.167558 0 255 255
0.189669 -0.0786579 0.138352 105 150 255
0.184347 -0.177416 0.0197529 79 176 255
-0.163314 -0.48742 0.131518 0 255 255
-0.31056 -0.486876 -0.157453 0 255 255
-0.199833 -0.337487 -0.200135 38 217 255
0.176234 -0.440092 0.242381 12 243 255
-0.255472 -0.420886 -0.186198 17 238 255
-0.298766 -0.484161 0.141598 1 254 255
0.0153214 -0.487182 -0.180265 0 255 255
-0.173877 -0.371991 -0.330376 29 226 255
0.189679 -0.417195 -0.128861 18 237 255
-0.28531 -0.354495 0.143638 34 221 255
-0.00200034 -0.10761 -0.332154 97 158 255
0.166367 -0.48608 -0.284382 0 255 255
0.0620535 -0.281291 -0.33876 52 202 255
0.194078 -0.215173 -0.257681 70 185 255
-0.403508 -0.4008 -0.101081 22 233 255
0.195681 -0.227688 0.149712 65 189 255
0.195676 -0.0827722 -0.169275 103 152 255
-0.227459 -0.443872 0.231257 11 244 255
-0.102336 -0.171352 -0.321869 81 174 255
-0.285438 -0.434041 -0.268341 14 241 255
-0.269742 -0.405993 0.00489392 21 234 255
0.152995 -0.486612 -0.0685 0 255 255
-0.120586 -0.487157 -0.159398 0 255 255
0.194773 -0.156827 -0.305722 85 170 255
0.176387 -0.403327 -0.0181757 21 234 255
0.191864 -0.223262 0.237264 67 188 255
0.120129 -0.443262 -0.130797 11 244 255
0.148385 -0.486845 0.118858 0 255 255
-0.0449052 -0.440401 -0.336653 12 243 255
-0.137519 -0.364987 0.300354 31 224 255
-0.289279 -0.383001 -0.0840461 27 228 255
0.176145 -0.151602 -0.0995383 86 169 255
-0.244604 -0.487148 0.0536155 0 255 255
0.166377 -0.355522 -0.249886 34 221 255
-0.210333 -0.425342 -0.320909 16 239 255
0.0155764 -0.332363 0.294735 40 215 255
-0.0207113 -0.0985779 0.304189 99 156 255
0.191406 -0.0799018 0.0307346 104 151 255
0.0935474 -0.486986 0.039981 0 255 255
-0.168194 -0.487292 -0.0511316 0 255 255
0.0804121 -0.44786 0.257035 10 245 255
0.100302 -0.338246 -0.208346 38 217 255
-0.207512 -0.370639 0.11862 30 225 255
-0.0479718 -0.368212 -0.332796 30 225 255
0.111999 -0.178108 -0.335707 79 176 255
0.19199 -0.308444 0.230904 46 209 255
-0.0588571 -0.373915 0.310747 29 226 255
0.183625 -0.373923 0.0657389 29 226 255
-0.0173733 -0.487029 -0.298367 0 255 255
-0.244415 -0.487062 -0.204801 0 255 255
-0.343013 -0.341388 0.102513 36 218 255
-0.00721097 -0.487312 0.238617 0 255 255
-0.243018 -0.480578 -0.319767 2 253 255
0.193618 -0.287603 -0.0877644 51 204 255
0.195334 -0.174334 0.103631 80 175 255
-0.063733 -0.174753 0.325845 80 175 255
-0.139782 -0.23044 0.302715 65 189 255
0.180775 -0.0798919 0.202292 104 151 255
-0.23197 -0.461408 0.151211 7 248 255
-0.267229 -0.487094 -0.0839324 0 255 255
0.192688 -0.241878 -0.160103 63 192 255
0.189029 -0.075342 -0.280947 105 150 255
0.0985897 -0.239611 0.261281 63 192 255
-0.124055 -0.395552 -0.33569 23 232 255
0.0261953 -0.428597 -0.338435 15 240 255
-0.368856 -0.343987 -0.166717 36 218 255
0.140955 -0.318388 -0.141704 43 211 255
0.165087 -0.342705 0.299814 36 218 255
-0.237333 -0.399987 0.312365 22 233 255
0.195255 -0.150026 0.24982 86 169 255
0.1651 -0.269273 -0.336323 56 199 255
0.174971 -0.447668 0.150388 10 245 255
0.0166224 -0.48732 -0.0684037 0 255 255
-0.0821323 -0.487503 0.147288 0 255 255
-0.0989031 -0.487195 0.25822 0 255 255
0.0602507 -0.48696 -0.210951 0 255 255
-0.126442 -0.487135 0.0424387 0 255 255
0.0549078 -0.178909 0.311855 79 176 255
-0.153451 -0.296211 -0.331593 48 206 255
-0.242177 -0.485852 0.280805 0 255 255
-0.337925 -0.427475 0.100012 15 240 255
0.191937 -0.165737 -0.181479 81 173 255
-0.356839 -0.425082 -0.0197084 16 239 255
0.111893 -0.40196 -0.184483 22 233 255
-0.118857 -0.487097 -0.320514 0 255 255
0.192966 -0.201133 -0.0633281 73 182 255
0.0267089 -0.227867 -0.329919 65 189 255
-0.0528582 -0.487374 -0.00503813 0 255 255
0.192172 -0.372535 -0.191144 29 226 255
0.0359494 -0.486734 0.30076 0 255 255
0.159321 -0.486733 -0.00319339 0 255 255
-0.138365 -0.43371 0.316509 14 241 255
0.176315 -0.350817 -0.0391383 35 220 255
0.19503 -0.27078 -0.244556 55 200 255
0.199168 -0.481722 -0.21606 1 254 255
0.19579 -0.107815 -0.0353794 97 158 255
0.114143 -0.146534 0.25144 87 168 255
0.115381 -0.386218 -0.0765497 26 229 255
0.196215 -0.443203 0.103875 11 244 255
0.193551 -0.274946 -0.0150526 54 201 255
0.169328 -0.424226 -0.31509 16 239 255
0.00491883 -0.252678 0.295069 60 195 255
0.189285 -0.365969 0.205292 31 224 255
-0.0604043 -0.451734 0.346268 9 246 255
-0.353719 -0.345824 -0.0127808 36 219 255
0.177607 -0.204249 -0.332699 72 183 255
-0.234488 -0.401066 0.0366621 22 233 255
0.0482373 -0.0989027 -0.331793 99 156 255
0.114589 -0.486593 -0.279961 0 255 255
0.0856533 -0.370601 0.319418 30 225 255
-0.172178 -0.487016 -0.218058 0 255 255
0.183917 -0.3122 0.0904333 44 210 255
-0.0716724 -0.124911 -0.332352 93 162 255
-0.414397 -0.341141 0.0655633 36 218 255
0.119393 -0.486723 -0.174892 0 255 255
0.180425 -0.142811 0.140879 88 167 255
0.197278 -0.484654 -0.0758498 1 254 255
-0.376466 -0.433754 -0.173312 14 241 255
-0.0244586 -0.16481 0.294179 81 173 255
-0.212885 -0.487328 0.199827 0 255 255
-0.089016 -0.309027 0.303556 46 209 255
-0.250685 -0.370213 -0.280113 30 225 255
-0.303484 -0.362574 -0.136393 32 223 255
-0.0886251 -0.487022 -0.26311 0 255 255
-0.162333 -0.362487 -0.225135 32 223 255
0.192308 -0.483835 0.223089 1 254 255
0.113183 -0.386722 -0.339261 26 229 255
0.175279 -0.436638 0.30277 13 242 255
0.193643 -0.358905 -0.104507 32 222 255
0.183132 -0.122413 0.0297567 93 162 255
-0.0630224 -0.282121 -0.334089 52 203 255
0.176824 -0.116367 0.302861 95 160 255
-0.0727533 -0.487288 -0.133487 0 255 255
-0.320706 -0.407187 -0.234523 20 235 255
-0.051437 -0.48723 0.0786181 0 255 255
0.193765 -0.224092 0.0702971 67 188 255
0.0869443 -0.486974 0.136168 0 255 255
0.0717849 -0.389865 0.258013 25 230 255
0.0998638 -0.486916 -0.072146 0 255 255
0.0710337 -0.402444 -0.265727 22 233 255
-0.208444 -0.487018 0.00309124 0 255 255
0.125167 -0.174987 -0.112635 80 175 255
-0.0620856 -0.246981 0.33271 60 194 255
-0.00435644 -0.360739 -0.339273 32 223 255
0.191858 -0.394772 0.148774 24 231 255
0.114717 -0.292269 -0.337559 50 205 255
0.180846 -0.265187 0.195433 56 198 255
0.188033 -0.0852205 0.100572 103 152 255
-0.387358 -0.377045 0.154055 28 227 255
-0.228813 -0.352134 0.0747867 35 220 255
0.169729 -0.106989 -0.335124 97 158 255
0.19514 -0.21327 0.271335 70 185 255
-0.00487466 -0.416475 0.30516 18 237 255
-0.309752 -0.48418 -0.0636431 1 254 255
0.194439 -0.456705 -0.0159026 8 247 255
0.162667 -0.487487 -0.350135 0 255 255
0.156007 -0.29324 0.307028 50 205 255
0.0685659 -0.48611 -0.163918 0 255 255
0.0490461 -0.318107 -0.314815 43 211 255
-0.395467 -0.344619 -0.133076 36 219 255
0.0441748 -0.48708 0.00592446 0 255 255
0.0620371 -0.466241 -0.342585 5 250 255
0.196268 -0.31797 0.0396203 43 211 255
-0.161818 -0.487054 -0.284585 0 255 255
0.176371 -0.141071 -0.212524 89 166 255
0.0150011 -0.294303 0.330824 48 206 255
0.197277 -0.469572 -0.160644 4 251 255
-0.281138 -0.487053 0.0198026 0 255 255
-0.0493384 -0.2033 -0.334958 73 182 255
0.142573 -0.486585 0.200647 0 255 255
0.135405 -0.0792782 0.305817 104 151 255
-0.311786 -0.353672 -0.0729642 34 221 255
0.181823 -0.370753 0.290793 30 225 255
-0.260173 -0.486982 -0.160987 0 255 255
-0.162593 -0.48597 0.223912 0 255 255
0.167185 -0.439339 -0.22175 12 243 255
0.023078 -0.128254 0.288374 92 163 255
-0.417201 -0.374191 -0.0535285 29 226 255
0.193615 -0.274984 -0.172586 54 201 255
0.194615 -0.381728 -0.278522 27 228 255
-0.112892 -0.487002 0.324622 0 255 255
-0.137844 -0.217054 -0.332432 69 186 255
-0.0224499 -0.355136 0.343299 34 221 255
0.195662 -0.162142 0.215816 83 172 255
-0.16361 -0.487192 -0.143076 0 255 255
-0.057101 -0.48707 -0.329119 0 255 255
-0.0244784 -0.487106 -0.210734 0 255 255
-0.112362 -0.316723 -0.329812 44 211 255
-0.191101 -0.4849 0.32295 1 254 255
-0.294386 -0.358104 0.0203042 32 222 255
0.0986813 -0.460641 0.343715 7 248 255
-0.246991 -0.467053 0.0945731 5 250 255
0.196262 -0.486278 0.0701835 0 255 255
0.174153 -0.422436 -0.0833402 17 238 255
0.193066 -0.211621 -0.220528 70 185 255
0.195005 -0.0742829 -0.236317 105 149 255
0.113579 -0.486911 -0.00765251 0 255 255
-0.103289 -0.431904 -0.334101 14 241 255
-0.213349 -0.486898 -0.0820762 0 255 255
-0.131155 -0.174161 0.30799 80 175 255
-0.193847 -0.394905 -0.284813 24 231 255
-0.155029 -0.293565 0.291399 50 205 255
0.182468 -0.295026 0.137634 48 206 255
0.107532 -0.273963 0.254118 55 200 255
-0.321705 -0.349998 -0.200515 35 220 255
0.184469 -0.187298 0.00275813 77 178 255
-0.226461 -0.487571 0.126978 0 255 255
0.0337775 -0.487208 0.0859376 0 255 255
0.120913 -0.486727 0.250209 0 255 255
-0.206717 -0.455984 -0.33167 8 247 255
0.00378513 -0.487289 -0.118315 0 255 255
-0.148564 -0.388566 0.326829 25 230 255
-0.0255949 -0.487322 0.204951 0 255 255
-0.366012 -0.343821 0.076406 36 218 255
0.190707 -0.189114 -0.101833 76 179 255
0.0882282 -0.346771 -0.148352 36 219 255
0.0262908 -0.172875 -0.327375 80 175 255
0.19465 -0.273711 -0.300186 55 200 255
-0.263436 -0.48688 -0.273496 0 255 255
0.190925 -0.0776876 -0.0824959 105 150 255
-0.316968 -0.475712 0.0945441 3 252 255
-0.314293 -0.466908 -0.166967 5 250 255
0.0882075 -0.438078 -0.136212 13 242 255
-0.24308 -0.371015 -0.229572 30 225 255
0.0870467 -0.343735 -0.250026 36 218 255
-0.164503 -0.487168 0.0130652 0 255 255
-0.203261 -0.333234 -0.309333 39 216 255
0.0486585 -0.486886 -0.244523 0 255 255
0.151689 -0.486669 -0.123668 0 255 255
0.198345 -0.480977 -0.277177 2 253 255
0.0970346 -0.199616 -0.326872 73 181 255
0.141413 -0.311374 -0.0904783 44 210 255
0.0201331 -0.466466 0.341082 5 250 255
-0.145802 -0.487385 0.147236 0 255 255
-0.0478437 -0.213992 0.298742 70 185 255
0.0358689 -0.360299 0.286636 32 223 255
-0.329481 -0.406932 -0.0364305 20 235 255
-0.115618 -0.487046 -0.222463 0 255 255
0.182546 -0.357092 0.139743 32 222 255
0.145968 -0.418398 -0.267179 18 237 255
0.192116 -0.107594 0.238323 97 158 255
-0.243055 -0.419238 0.177916 17 238 255
0.182413 -0.0984975 -0.151651 99 156 255
-0.0158449 -0.487617 -0.0321261 0 255 255
0.00987628 -0.295844 -0.339152 48 206 255
0.0681888 -0.300911 0.322407 48 207 255
0.191781 -0.3734 -0.022088 29 226 255
0.0818745 -0.487212 0.195339 0 255 255
-0.27573 -0.371326 0.106851 30 225 255
0.192163 -0.198879 0.175198 73 181 255
-0.127636 -0.487392 -0.0469113 0 255 255
0.156379 -0.475668 0.329271 3 252 255
-0.067137 -0.136686 0.318521 89 165 255
0.190132 -0.440681 0.185167 12 243 255
0.193863 -0.304074 -0.216461 47 208 255
0.193051 -0.415986 -0.326064 18 237 255
-0.36429 -0.411413 0.0664495 19 236 255
0.19331 -0.261925 0.254191 58 197 255
0.0799895 -0.420338 -0.339809 17 238 255
-0.170904 -0.274047 -0.317574 54 201 255
0.166893 -0.319982 -0.338055 43 211 255
-0.0858296 -0.383484 0.315485 26 229 255
0.0949844 -0.127833 -0.335747 92 163 255
-0.195725 -0.487071 0.26395 0 255 255
0.072916 -0.196813 0.313305 73 181 255
0.148966 -0.486776 0.0908714 0 255 255
0.190694 -0.406393 0.0545426 21 234 255
-0.109537 -0.357729 -0.336218 32 222 255
-0.0280086 -0.487346 0.283406 0 255 255
0.14328 -0.40471 0.297186 21 234 255
-0.29609 -0.484374 -0.235111 1 254 255
0.0611903 -0.457822 0.276545 7 248 255
0.00200132 -0.415362 -0.338539 18 237 255
0.0627501 -0.487238 -0.0445025 0 255 255
0.0077394 -0.487142 0.141425 0 255 255
0.193962 -0.350426 -0.140847 35 220 255
-0.347081 -0.409281 0.157256 20 235 255
0.0634127 -0.0976237 0.282013 100 155 255
-0.337889 -0.456432 -0.0874052 8 247 255
0.115097 -0.449104 -0.224931 10 245 255
-0.365689 -0.347521 -0.0597305 36 219 255
-0.411868 -0.359621 0.113766 32 222 255
0.195117 -0.12776 0.093806 92 163 255
0.0096462 -0.486924 -0.294812 0 255 255
-0.199833 -0.349987 0.162365 35 220 255
0.17669 -0.222303 -0.310486 68 187 255
0.160581 -0.404364 -0.159666 21 234 255
0.166652 -0.18845 0.30712 76 179 255
0.186297 -0.424179 0.242214 16 239 255
-0.376074 -0.380031 -0.189655 27 228 255
0.0340559 -0.246131 0.322281 62 193 255
-0.0217356 -0.248185 -0.335627 60 194 255
-0.18926 -0.487168 0.0674722 0 255 255
-0.0273657 -0.487396 0.0461425 0 255 255
0.114908 -0.304732 -0.303653 47 208 255
0.195145 -0.338555 -0.29781 38 217 255
0.19245 -0.328468 0.252633 40 214 255
-0.19995 -0.487004 -0.25606 0 255 255
0.19387 -0.150964 -0.25818 86 169 255
0.182232 -0.242463 0.0997527 63 192 255
-0.232382 -0.416539 0.101901 18 237 255
-0.264105 -0.486892 -0.0343278 0 255 255
-0.202564 -0.487141 -0.168535 0 255 255
-0.113135 -0.487429 0.0949807 0 255 255
0.195474 -0.0965157 0.184003 100 155 255
0.115472 -0.35197 0.299841 35 220 255
0.149159 -0.346047 -0.206409 36 219 255
0.192992 -0.272894 -0.0549834 55 200 255
-0.263225 -0.483799 0.232333 1 254 255
-0.128181 -0.48734 0.262367 0 255 255
0.193402 -0.431917 -0.246597 14 241 255
0.141252 -0.486614 -0.311078 0 255 255
0.0886036 -0.146039 0.273304 87 168 255
-0.0394817 -0.323688 -0.333931 42 213 255
-0.12176 -0.24788 0.323277 60 194 255
0.185522 -0.266055 0.0233422 56 198 255
0.0884718 -0.397231 -0.107315 23 232 255
-0.0888818 -0.48729 -0.0979451 0 255 255
0.189467 -0.46998 0.302189 4 251 255
0.17824 -0.158612 -0.331931 84 171 255
-0.280527 -0.381108 -0.156792 27 228 255
-0.0466072 -0.153206 -0.33622 85 170 255
-0.0279853 -0.285847 0.299133 51 204 255
0.173093 -0.431568 -0.0358954 14 241 255
-0.0896976 -0.436822 0.346696 13 242 255
-0.108399 -0.20746 -0.322435 72 183 255
-0.0411897 -0.487291 -0.249923 0 255 255
-0.325546 -0.345751 0.140839 36 219 255
0.106332 -0.362064 -0.339185 32 223 255
0.0579907 -0.304042 0.279659 47 208 255
0.125124 -0.086739 -0.332116 102 153 255
0.159661 -0.253284 0.307152 60 195 255
0.177774 -0.286245 -0.136897 51 204 255
-0.160388 -0.418025 -0.332685 18 237 255
-0.174833 -0.424987 -0.200135 16 239 255
0.188449 -0.0801702 0.0668701 104 151 255
-0.39787 -0.339832 -0.0279136 38 217 255
0.191205 -0.191806 -0.162383 76 179 255
-0.0311593 -0.487344 -0.165038 0 255 255
0.100322 -0.468817 -0.29907 5 250 255
0.0394497 -0.426944 0.332951 15 240 255
-0.00692783 -0.151645 0.320071 86 169 255
0.0569969 -0.237402 -0.329111 64 191 255
-0.265382 -0.48727 0.146238 0 255 255
-0.418142 -0.367384 -0.122627 31 224 255
0.192123 -0.367466 -0.2095 31 224 255
-0.164781 -0.331116 -0.330819 40 215 255
0.193951 -0.352428 0.108906 34 221 255
0.133297 -0.25067 -0.336337 60 195 255
-0.0663107 -0.316799 0.337062 44 211 255
0.125167 -0.212487 0.212365 70 185 255
0.00876344 -0.106475 -0.33444 97 158 255
-0.0884577 -0.487522 0.19795 0 255 255
0.187452 -0.487148 0.129175 0 255 255
0.193808 -0.155849 -0.0328358 85 170 255
0.18173 -0.188701 0.0869781 76 179 255
0.0313825 -0.487256 0.202708 0 255 255
0.194194 -0.106292 -0.303604 97 158 255
0.0845994 -0.486624 0.304276 0 255 255
-0.286608 -0.384793 -0.0582819 26 229 255
-0.386802 -0.422898 -0.151662 16 239 255
-0.0550691 -0.405635 -0.333267 21 234 255
0.189389 -0.42187 -0.131246 17 238 255
-0.176129 -0.486933 -0.329999 0 255 255
0.181112 -0.24126 0.149424 63 192 255
-0.0166515 -0.486888 -0.331057 0 255 255
-0.145285 -0.476713 0.344341 3 252 255
-0.219299 -0.435386 -0.272819 13 242 255
0.0227215 -0.353839 0.335786 34 221 255
0.0237423 -0.342796 -0.31645 36 218 255
-0.172179 -0.4871 -0.0949058 0 255 255
0.160365 -0.486677 -0.165297 0 255 255
0.195679 -0.180058 0.277886 79 176 255
-0.303673 -0.347045 0.0463551 36 219 255
-0.0891301 -0.258593 -0.334629 58 197 255
0.125477 -0.486674 0.0150123 0 255 255
-0.01934 -0.219362 0.329062 68 187 255
0.182251 -0.151438 0.180791 86 169 255
-0.409231 -0.355904 0.0305803 34 221 255
0.138223 -0.0753312 0.295781 105 150 255
-0.031413 -0.103278 0.310443 97 157 255
0.157228 -0.343514 -0.0626168 36 218 255
0.0898317 -0.485947 -0.112114 0 255 255
-0.0757513 -0.487296 -0.0519401 0 255 255
0.0787935 -0.367346 -0.205169 31 224 255
0.176976 -0.256718 -0.186002 59 195 255
-0.290536 -0.424808 -0.262056 16 239 255
0.110779 -0.487048 0.136205 0 255 255
0.192998 -0.300472 0.184593 48 207 255
-0.272252 -0.35925 0.152069 32 222 255
-0.0628976 -0.487516 0.135878 0 255 255
-0.243159 -0.441483 0.0493277 12 243 255
-0.346079 -0.353574 -0.119979 34 221 255
0.1782 -0.4086 0.197325 20 235 255
0.119929 -0.310896 0.306069 44 210 255
-0.224126 -0.487049 0.300454 0 255 255
0.185701 -0.0848988 -0.00552192 103 152 255
0.193012 -0.442062 0.0449988 11 244 255
0.139063 -0.322969 -0.153818 42 213 255
-0.344566 -0.401752 -0.213352 22 233 255
-0.0692003 -0.487292 0.263177 0 255 255
0.0651546 -0.250552 0.277772 60 194 255
-0.287333 -0.337487 -0.262635 38 217 255
-0.296213 -0.486881 -0.130202 0 255 255
0.195312 -0.44297 -0.324953 11 244 255
0.193499 -0.225364 -0.0435477 67 188 255
-0.086422 -0.487047 -0.182606 0 255 255
-0.349137 -0.426423 0.000835883 15 240 255
0.190081 -0.132851 -0.127087 91 163 255
-0.131967 -0.356001 0.332462 34 221 255
0.138321 -0.486531 -0.23864 0 255 255
0.0240256 -0.487108 0.268493 0 255 255
0.0716786 -0.0925981 -0.331404 101 154 255
0.187667 -0.249987 -0.350135 60 194 255
0.123054 -0.344951 -0.268781 36 219 255
-0.112213 -0.48712 0.035532 0 255 255
-0.351773 -0.437796 0.121881 13 242 255
0.193101 -0.320499 -0.0485691 43 211 255
-0.284197 -0.485461 0.037893 0 255 255
0.0564841 -0.48704 0.0380312 0 255 255
0.148878 -0.458746 0.233489 7 248 255
0.13272 -0.131191 0.305861 91 163 255
-0.0881274 -0.48683 -0.300886 0 255 255
0.130274 -0.486753 -0.0650202 0 255 255
0.0293808 -0.373656 -0.339664 29 226 255
-0.0699778 -0.482483 0.344243 1 254 255
-0.0773296 -0.126811 -0.330942 92 163 255
-0.276898 -0.363836 -0.191622 32 223 255
0.19513 -0.136651 0.0513968 89 165 255
-0.172007 -0.487284 0.18896 0 255 255
-0.0367242 -0.377835 0.34443 28 227 255
0.195204 -0.322506 -0.272195 42 213 255
0.145595 -0.399228 -0.095315 22 233 255
-0.206314 -0.354175 0.0882873 34 221 255
0.18369 -0.288879 0.0825651 51 204 255
0.0739154 -0.486928 -0.186938 0 255 255
0.194312 -0.4476 -0.210021 10 245 255
0.194755 -0.109949 -0.241323 97 158 255
0.190413 -0.0950614 0.263157 100 155 255
0.0804829 -0.328081 -0.339682 40 214 255
0.185592 -0.36174 0.0438554 32 223 255
-0.133294 -0.193736 0.31158 75 179 255
-0.0237454 -0.487508 -0.0929884 0 255 255
0.144248 -0.422229 -0.339755 17 238 255
-0.145852 -0.406769 0.305514 21 234 255
0.194253 -0.237221 -0.257186 64 191 255
-0.14372 -0.487146 -0.172364 0 255 255
-0.232048 -0.484646 -0.0437688 1 254 255
-0.00776622 -0.204644 -0.336327 72 183 255
0.125167 -0.149987 -0.162635 86 169 255
0.139552 -0.140272 0.240155 89 166 255
0.122566 -0.434523 0.326573 13 242 255
0.0741984 -0.162799 -0.327151 83 172 255
-0.212333 -0.337487 0.312365 38 217 255
0.177179 -0.359255 -0.336294 32 222 255
0.0713503 -0.390271 -0.156238 25 230 255
0.193447 -0.129083 -0.0711203 92 163 255
-0.26423 -0.485807 -0.219892 0 255 255
0.190648 -0.0795098 -0.18719 104 151 255
0.192261 -0.370641 -0.0626545 30 225 255
-0.188207 -0.368722 -0.326423 30 225 255
0.119951 -0.209181 0.29894 71 184 255
0.183115 -0.193456 0.0460614 75 179 255
-0.228521 -0.486884 -0.317943 0 255 255
0.176458 -0.0756598 -0.324349 105 150 255
0.193354 -0.485515 -0.0661922 0 255 255
-0.133439 -0.315861 0.298322 44 211 255
0.069129 -0.351442 0.266393 35 220 255
