ply
format ascii 1.0
comment Created by Open3D
element vertex 1165
property double x
property double y
property double z
property uchar red
property uchar green
property uchar blue
end_header
-0.181741 -0.383225 -0.401848 29 226 255
-0.186889 -0.254366 -0.100767 62 193 255
-0.196858 -0.191024 0.0492344 79 176 255
-0.116521 -0.24727 0.0440084 64 191 255
-0.194411 -0.316256 0.0473404 47 208 255
-0.094979 -0.345799 -0.0553753 39 216 255
-0.29346 -0.371521 0.0500418 32 223 255
-0.104038 -0.350327 -0.116227 38 217 255
-0.0727752 -0.160339 -0.0554332 87 168 255
-0.18114 -0.476366 -0.205678 6 249 255
-0.0737132 -0.296832 -0.013378 52 203 255
-0.302495 -0.275153 0.0392994 56 198 255
-0.102397 -0.342686 -0.273986 40 215 255
-0.299239 -0.488145 -0.0957643 3 252 255
-0.085934 -0.211946 0.00433015 73 182 255
-0.0876483 -0.270688 -0.0712496 58 197 255
-0.128219 -0.162697 0.0465248 86 169 255
-0.236727 -0.26382 0.032309 60 195 255
-0.351445 -0.487648 0.00204019 3 252 255
-0.146514 -0.425657 -0.234761 19 236 255
-0.071226 -0.445242 0.0276897 14 241 255
-0.20646 -0.432972 -0.359506 17 238 255
-0.0755546 -0.372544 -0.0311513 32 223 255
-0.0735541 -0.360656 0.0427686 35 220 255
-0.375292 -0.48809 -0.0986673 3 252 255
-0.135628 -0.378647 0.0238128 31 224 255
-0.155277 -0.351013 -0.369927 38 217 255
-0.275914 -0.430408 0.0495762 17 238 255
-0.159892 -0.412402 -0.177808 22 233 255
-0.290874 -0.224101 0.0499954 70 185 255
-0.0863432 -0.185002 -0.227368 80 175 255
-0.0734614 -0.481395 -0.375725 4 251 255
-0.0988077 -0.439209 -0.215326 15 240 255
-0.267988 -0.487688 -0.00998133 3 252 255
-0.227172 -0.371131 -0.0798445 32 222 255
-0.0762412 -0.379441 -0.26071 30 225 255
-0.0748443 -0.20009 -0.500397 76 179 255
-0.249201 -0.381566 0.0487496 30 225 255
-0.0955723 -0.41404 -0.151692 22 233 255
-0.16439 -0.481113 -0.123258 4 251 255
-0.0879147 -0.408108 -0.406914 23 232 255
-0.0719715 -0.251918 -0.454227 63 192 255
-0.190437 -0.361618 -0.296072 35 220 255
-0.31226 -0.169163 0.0383417 84 171 255
-0.107044 -0.169872 -0.112238 84 171 255
-0.0750629 -0.324271 -0.149056 44 210 255
-0.389253 -0.463768 0.045442 9 246 255
-0.167937 -0.450265 0.0282531 12 243 255
-0.220112 -0.215995 0.015152 72 183 255
-0.101923 -0.487201 0.0197726 3 252 255
-0.0722632 -0.165297 -0.17458 85 170 255
-0.0743946 -0.447999 -0.0418616 13 242 255
-0.0728248 -0.266884 -0.108235 59 195 255
-0.232439 -0.488295 -0.125859 3 252 255
-0.073633 -0.22528 -0.362261 70 185 255
-0.0883214 -0.440327 -0.360325 15 240 255
-0.0889645 -0.278784 -0.476358 56 199 255
-0.187183 -0.257489 0.0476332 62 193 255
-0.205568 -0.14908 0.00112384 89 166 255
-0.182183 -0.486676 0.0440158 3 252 255
-0.0970245 -0.394602 -0.0282962 27 228 255
-0.269516 -0.335502 0.0357663 42 213 255
-0.365209 -0.352983 0.0409482 36 218 255
-0.0716412 -0.351062 -0.408184 38 217 255
-0.0992547 -0.487845 -0.101448 3 252 255
-0.0889597 -0.181719 -0.270746 81 174 255
-0.325791 -0.481054 0.0476195 4 251 255
-0.230077 -0.459212 -0.278721 10 245 255
-0.193668 -0.487767 -0.0124322 3 252 255
-0.260555 -0.48811 -0.23457 3 252 255
-0.076855 -0.416396 -0.121336 21 234 255
-0.073334 -0.238761 0.0186976 65 189 255
-0.113918 -0.148833 -0.0285959 89 165 255
-0.145252 -0.487959 -0.205365 3 252 255
-0.102099 -0.381932 -0.26665 30 225 255
-0.149658 -0.359211 -0.0788839 36 219 255
-0.207627 -0.42203 -0.164819 20 235 255
-0.195106 -0.357755 -0.142986 36 219 255
-0.072081 -0.234232 -0.050619 68 187 255
-0.0724576 -0.239339 -0.154151 65 189 255
-0.134756 -0.313353 -0.147486 47 208 255
-0.0721311 -0.188696 -0.119591 79 176 255
-0.112597 -0.337763 0.0300961 40 214 255
-0.29913 -0.488246 -0.132313 3 252 255
-0.182123 -0.306143 -0.0558131 48 206 255
-0.394771 -0.487225 0.0207545 3 252 255
-0.0751251 -0.451858 -0.190102 12 243 255
-0.0729616 -0.364977 -0.348664 34 221 255
-0.117052 -0.258822 -0.09312 60 194 255
-0.16788 -0.149975 0.0344656 89 166 255
-0.155572 -0.433851 0.0452301 17 238 255
-0.152212 -0.232098 0.0311458 68 187 255
-0.321072 -0.488248 -0.218066 3 252 255
-0.0850588 -0.457181 -0.298907 11 244 255
-0.0747689 -0.304051 -0.31732 50 205 255
-0.0723161 -0.39165 -0.479169 27 228 255
-0.233258 -0.319904 0.048579 46 209 255
-0.186485 -0.227795 -0.0280698 69 186 255
-0.321435 -0.231947 0.050312 68 187 255
-0.106192 -0.424306 -0.321392 19 236 255
-0.0727938 -0.235162 -0.425367 67 188 255
-0.093133 -0.145659 0.0406139 89 165 255
-0.215097 -0.484831 -0.173395 3 252 255
-0.219571 -0.456479 0.0314127 11 244 255
-0.0898152 -0.196732 -0.366547 77 178 255
-0.101272 -0.337986 -0.344847 40 214 255
-0.0737765 -0.301516 -0.236241 50 205 255
-0.102122 -0.482288 -0.366144 4 251 255
-0.18747 -0.301852 0.00945286 50 205 255
-0.0738593 -0.481776 -0.0752214 4 251 255
-0.168653 -0.487956 -0.304748 3 252 255
-0.0911242 -0.289106 -0.396755 54 201 255
-0.0926897 -0.346044 -0.469267 39 216 255
-0.0739085 -0.198421 -0.307991 77 178 255
-0.238886 -0.488189 -0.0704937 3 252 255
-0.0869212 -0.169856 -0.0161464 84 171 255
-0.336222 -0.359733 0.0501633 36 219 255
-0.182556 -0.418897 -0.315556 20 235 255
-0.24304 -0.211446 0.0498839 73 182 255
-0.0776167 -0.397073 -0.208863 26 229 255
-0.173791 -0.347552 0.0461808 39 216 255
-0.311835 -0.488202 -0.27671 3 252 255
-0.0884514 -0.253403 -0.314054 63 192 255
-0.389093 -0.487483 -0.0252706 3 252 255
-0.0740115 -0.480725 -0.226744 5 250 255
-0.274785 -0.17755 0.0336212 81 173 255
-0.0718184 -0.315371 -0.415034 47 208 255
-0.112947 -0.444992 -0.181654 14 241 255
-0.114833 -0.443979 0.031652 14 241 255
-0.101227 -0.33019 -0.175196 43 211 255
-0.073531 -0.244084 -0.209285 65 190 255
-0.215547 -0.39694 0.029505 26 229 255
-0.0736355 -0.475574 -0.123602 6 249 255
-0.0741131 -0.362165 -0.308719 35 220 255
-0.158563 -0.351072 -0.182339 38 217 255
-0.359534 -0.319885 0.0408275 46 209 255
-0.0743655 -0.331223 0.00214364 43 211 255
-0.101543 -0.388119 -0.417402 28 227 255
-0.0716609 -0.293045 0.0406203 52 202 255
-0.367182 -0.488167 -0.123821 3 252 255
-0.0728337 -0.473603 0.0279535 6 249 255
-0.167795 -0.404913 -0.414817 24 231 255
-0.119221 -0.233251 -0.124204 68 187 255
-0.143637 -0.333133 -0.248926 42 213 255
-0.124054 -0.467639 -0.293065 8 247 255
-0.0781343 -0.354695 -0.103194 36 218 255
-0.192552 -0.419788 -0.077045 20 235 255
-0.0725948 -0.288148 -0.0476274 54 201 255
-0.127149 -0.485234 -0.0300248 3 252 255
-0.21212 -0.378785 -0.242804 31 224 255
-0.261165 -0.256174 0.0498337 62 193 255
-0.121847 -0.438967 -0.38292 15 240 255
-0.17763 -0.371038 -0.341207 32 222 255
-0.186145 -0.315797 -0.109344 47 208 255
-0.0719147 -0.388799 0.0436834 28 227 255
-0.305603 -0.29709 0.0498674 52 203 255
-0.153056 -0.488145 -0.140085 3 252 255
-0.198906 -0.488002 -0.237119 3 252 255
-0.0704014 -0.438883 -0.395689 15 240 255
-0.094074 -0.228652 -0.426173 69 186 255
-0.0713342 -0.223289 0.0382879 70 185 255
-0.0950053 -0.412653 -0.266666 22 233 255
-0.195028 -0.354234 0.00702707 36 218 255
-0.168581 -0.180186 -0.0978888 81 174 255
-0.110135 -0.377872 -0.159049 31 224 255
-0.0967758 -0.443673 -0.0984285 14 241 255
-0.148684 -0.292153 0.0451791 52 202 255
-0.101539 -0.197887 -0.154765 77 178 255
-0.0712337 -0.387832 -0.445273 28 227 255
-0.252004 -0.486655 -0.307328 3 252 255
-0.087772 -0.21404 -0.0470925 73 182 255
-0.11983 -0.390131 -0.309597 28 227 255
-0.166168 -0.167707 0.0486217 85 170 255
-0.144451 -0.487488 0.0282083 3 252 255
-0.0719778 -0.466088 -0.349906 8 247 255
-0.335862 -0.48762 0.0226212 3 252 255
-0.313023 -0.488137 -0.183823 3 252 255
-0.181576 -0.1745 -0.050306 83 172 255
-0.218791 -0.442657 -0.227049 14 241 255
-0.0855528 -0.250967 -0.00302003 63 192 255
-0.282 -0.184605 0.0512901 80 175 255
-0.0886082 -0.382518 -0.374705 30 225 255
-0.203293 -0.153238 0.0356425 88 167 255
-0.0734602 -0.299959 -0.101311 51 204 255
-0.376332 -0.44124 0.0430369 15 240 255
-0.0943988 -0.487807 -0.236592 3 252 255
-0.215469 -0.443158 0.0464823 14 241 255
-0.285968 -0.14774 0.0363485 89 165 255
-0.0716951 -0.291983 -0.474182 52 202 255
-0.216277 -0.391784 -0.30934 27 228 255
-0.0731606 -0.434105 -0.286063 16 239 255
-0.0984971 -0.369929 -0.069697 32 222 255
-0.125593 -0.339651 -0.396667 40 214 255
-0.101557 -0.321445 -0.306353 44 210 255
-0.0731359 -0.303903 -0.185174 50 205 255
-0.301931 -0.428403 0.0505408 18 237 255
-0.235362 -0.487673 0.0129311 3 252 255
-0.107187 -0.47055 -0.245538 7 248 255
-0.0743058 -0.164854 -0.240412 85 170 255
-0.175449 -0.314632 0.0313487 47 208 255
-0.197052 -0.184302 0.018685 80 175 255
-0.341219 -0.286998 0.0404516 54 201 255
-0.0770634 -0.341544 -0.252456 40 215 255
-0.199844 -0.33759 -0.400397 40 214 255
-0.19687 -0.486633 -0.100686 3 252 255
-0.156187 -0.436424 -0.349971 16 239 255
-0.121962 -0.322329 -0.0747998 44 210 255
-0.0749602 -0.175507 -0.333507 83 172 255
-0.0974763 -0.48756 -0.151501 3 252 255
-0.0747488 -0.431714 -0.221163 17 238 255
-0.132171 -0.270934 0.0327418 58 197 255
-0.0826716 -0.488142 -0.3091 3 252 255
-0.10041 -0.327037 -0.440186 44 211 255
-0.0751475 -0.461822 -0.42216 9 246 255
-0.346191 -0.390254 0.0429363 28 227 255
-0.162779 -0.246935 -0.0731036 64 191 255
-0.268382 -0.477913 0.047246 5 250 255
-0.0783892 -0.419582 -0.0724328 20 235 255
-0.0740349 -0.322674 -0.0463436 44 210 255
-0.157449 -0.341075 -0.295035 40 215 255
-0.246106 -0.488133 -0.196412 3 252 255
-0.114636 -0.331416 0.0435495 43 211 255
-0.376587 -0.487998 -0.0733354 3 252 255
-0.0901699 -0.327576 -0.382702 44 211 255
-0.0720058 -0.168286 -0.143808 85 170 255
-0.229448 -0.352883 0.0408487 36 218 255
-0.152062 -0.486893 -0.0600276 3 252 255
-0.0873709 -0.302542 -0.135209 50 205 255
-0.143944 -0.149427 -0.0655679 89 166 255
-0.121381 -0.392883 0.044833 27 228 255
-0.0739892 -0.204055 -0.462829 75 179 255
-0.181049 -0.345876 -0.217801 39 216 255
-0.0747699 -0.44186 -0.0032126 14 241 255
-0.176516 -0.218225 0.0475434 72 183 255
-0.313328 -0.213968 0.039447 73 182 255
-0.102517 -0.373359 -0.225639 32 223 255
-0.0719073 -0.22471 -0.0931309 70 185 255
-0.299832 -0.487676 -0.011185 3 252 255
-0.0875809 -0.247869 -0.145326 64 191 255
-0.0734928 -0.187236 -0.397187 80 175 255
-0.193138 -0.272948 -0.0290591 58 197 255
-0.210849 -0.387716 0.0476676 28 227 255
-0.0862106 -0.176113 -0.201726 83 172 255
-0.193013 -0.488188 -0.158655 3 252 255
-0.217565 -0.488054 -0.283883 3 252 255
-0.226468 -0.161334 0.0496541 86 169 255
-0.220535 -0.304561 0.0305284 50 205 255
-0.0934601 -0.163356 -0.0743103 86 169 255
-0.156652 -0.383209 -0.146413 29 226 255
-0.328462 -0.48813 -0.135072 3 252 255
-0.277397 -0.488146 -0.0659823 3 252 255
-0.157031 -0.487953 -0.251255 3 252 255
-0.0744391 -0.142343 0.00242087 91 163 255
-0.0890005 -0.263705 -0.26799 60 195 255
-0.200616 -0.39207 -0.103235 27 228 255
-0.123941 -0.381893 -0.453761 30 225 255
-0.172067 -0.48794 -0.332196 3 252 255
-0.0853672 -0.285407 -0.00769959 55 200 255
-0.0718277 -0.323242 -0.464203 44 210 255
-0.0729924 -0.199472 -0.0300053 77 178 255
-0.0966869 -0.437921 0.0459441 15 240 255
-0.265298 -0.221764 0.0334207 71 184 255
-0.0737118 -0.246042 -0.341947 65 190 255
-0.141652 -0.274416 -0.11403 56 198 255
-0.0945771 -0.371444 -0.0107022 32 222 255
-0.110155 -0.186506 0.0449995 80 175 255
-0.0746597 -0.487081 -0.0511626 3 252 255
-0.279155 -0.488157 -0.155676 3 252 255
-0.104631 -0.440228 -0.122827 15 240 255
-0.0850831 -0.29977 -0.489959 51 204 255
-0.0723 -0.271558 -0.421662 58 197 255
-0.171321 -0.345715 -0.0611373 39 216 255
-0.339064 -0.459648 0.0502358 10 245 255
-0.245533 -0.423692 0.0400514 19 236 255
-0.291169 -0.333165 0.0493279 42 213 255
-0.164402 -0.407466 0.031571 23 232 255
-0.180664 -0.225303 0.0205872 70 185 255
-0.129164 -0.484968 -0.191883 3 252 255
-0.229976 -0.147798 0.0284212 89 165 255
-0.0842253 -0.391191 -0.49195 27 228 255
-0.0919822 -0.253431 -0.452303 63 192 255
-0.190757 -0.460258 -0.144698 10 245 255
-0.196207 -0.488076 -0.0464897 3 252 255
-0.128178 -0.487764 -0.313341 3 252 255
-0.201852 -0.390779 -0.369292 28 227 255
-0.224601 -0.413997 -0.271271 22 233 255
-0.0990765 -0.43738 -0.419809 16 239 255
-0.083074 -0.449096 -0.15313 13 242 255
-0.0749953 -0.380364 0.00558637 30 225 255
-0.0990556 -0.282157 0.0413435 55 200 255
-0.154922 -0.18802 0.0337954 79 176 255
-0.151734 -0.487724 -0.0083866 3 252 255
-0.0988964 -0.426627 -0.345747 18 237 255
-0.0735563 -0.218901 -0.229064 72 183 255
-0.0944314 -0.233803 -0.388254 68 187 255
-0.332896 -0.488375 -0.252977 3 252 255
-0.0773246 -0.310247 -0.279495 48 207 255
-0.0746222 -0.39536 -0.295975 26 229 255
-0.14711 -0.42891 -0.255505 18 237 255
-0.0990159 -0.487815 -0.0684688 3 252 255
-0.158776 -0.327186 -0.197406 44 211 255
-0.323739 -0.487019 -0.0684394 3 252 255
-0.0731809 -0.467781 -0.254636 8 247 255
-0.0999397 -0.325895 -0.223947 44 211 255
-0.070866 -0.382142 -0.417525 30 225 255
-0.212739 -0.262483 0.0176889 60 195 255
-0.0786986 -0.367339 -0.18609 34 221 255
-0.0829893 -0.190259 -0.429307 79 176 255
-0.177781 -0.470991 -0.34725 7 248 255
-0.21292 -0.338777 -0.0759022 40 214 255
-0.179121 -0.395707 -0.211539 26 229 255
-0.19318 -0.223644 -0.0902557 70 185 255
-0.131309 -0.23265 0.0451117 68 187 255
-0.131784 -0.144703 0.0426427 91 163 255
-0.30192 -0.305158 0.039833 48 206 255
-0.0775272 -0.487945 -0.365392 3 252 255
-0.222706 -0.255667 0.0490787 62 193 255
-0.223993 -0.486524 0.044862 3 252 255
-0.0787152 -0.437002 -0.445074 16 239 255
-0.234856 -0.461987 -0.330307 9 246 255
-0.0865368 -0.354393 -0.431586 36 218 255
-0.289196 -0.487877 -0.286541 3 252 255
-0.0949351 -0.37557 -0.117433 31 224 255
-0.120788 -0.210022 -0.101754 73 181 255
-0.0975511 -0.219505 -0.195205 71 184 255
-0.317987 -0.368543 0.0387104 32 222 255
-0.319258 -0.446528 0.0355189 13 242 255
-0.0740263 -0.236136 -0.280984 67 188 255
-0.106183 -0.485951 0.0470859 3 252 255
-0.334058 -0.191027 0.0412118 79 176 255
-0.0912332 -0.148496 -0.0335525 89 165 255
-0.19681 -0.471586 -0.248274 7 248 255
-0.292911 -0.253337 0.0403457 63 192 255
-0.126139 -0.329949 -0.330046 43 211 255
-0.0735827 -0.292844 -0.348628 52 202 255
-0.280749 -0.488118 -0.220732 3 252 255
-0.0729231 -0.41319 0.043991 22 233 255
-0.0929769 -0.450126 -0.253247 12 243 255
-0.107619 -0.323784 -0.114462 44 210 255
-0.359788 -0.488176 -0.15096 3 252 255
-0.0737032 -0.340138 0.0419002 40 214 255
-0.219151 -0.151554 -0.014291 89 166 255
-0.210774 -0.430932 -0.19534 17 238 255
-0.0991636 -0.40222 -0.240026 25 230 255
-0.0725271 -0.348408 -0.376184 38 217 255
-0.144945 -0.488076 -0.10765 3 252 255
-0.187274 -0.427361 0.023265 18 237 255
-0.174458 -0.33221 -0.147255 43 211 255
-0.0721115 -0.419199 -0.340317 20 235 255
-0.0732646 -0.194098 0.0095938 78 177 255
-0.074296 -0.157076 -0.112457 87 168 255
-0.0750631 -0.41839 -0.0211074 20 235 255
-0.166278 -0.249032 -0.0280446 64 191 255
-0.219441 -0.297843 0.0485535 51 204 255
-0.0735604 -0.26628 -0.0617626 59 195 255
-0.0938528 -0.142847 0.0147552 91 163 255
-0.0759993 -0.160419 -0.188039 87 168 255
-0.0858565 -0.271934 -0.218728 58 197 255
-0.146941 -0.485766 0.0446387 3 252 255
-0.0758515 -0.205846 -0.143627 75 179 255
-0.3421 -0.48825 -0.194154 3 252 255
-0.156441 -0.359534 0.0323599 36 219 255
-0.10579 -0.457046 -0.161761 11 244 255
-0.0741598 -0.199311 -0.348814 77 178 255
-0.0963441 -0.447717 -0.0733467 13 242 255
-0.101153 -0.361326 -0.35531 35 220 255
-0.227514 -0.488228 -0.0920128 3 252 255
-0.0973206 -0.487798 -0.189169 3 252 255
-0.189527 -0.487691 0.015147 3 252 255
-0.0777541 -0.398672 -0.164574 26 229 255
-0.248581 -0.488453 -0.245878 3 252 255
-0.0741231 -0.196725 -0.277973 77 178 255
-0.128152 -0.413968 -0.395526 22 233 255
-0.161662 -0.308399 -0.0800704 48 206 255
-0.196399 -0.175315 -0.0811185 83 172 255
-0.263912 -0.399975 0.0404397 25 230 255
-0.0730359 -0.24623 -0.472531 65 190 255
-0.0784637 -0.382072 -0.0660723 30 225 255
-0.0739221 -0.342761 -0.329605 40 215 255
-0.224171 -0.48821 -0.153735 3 252 255
-0.249711 -0.487446 -0.0080146 3 252 255
-0.1823 -0.346626 -0.0163948 39 216 255
-0.0985543 -0.446432 -0.307645 13 242 255
-0.218681 -0.201662 0.0493425 76 179 255
-0.153527 -0.427351 -0.101268 18 237 255
-0.134857 -0.370633 -0.22678 32 222 255
-0.256227 -0.354072 0.0490039 36 218 255
-0.0716414 -0.205477 -0.0619288 75 179 255
-0.12787 -0.327697 -0.27001 44 211 255
-0.104981 -0.163558 -0.105252 86 169 255
-0.0715933 -0.366404 -0.466885 34 221 255
-0.192164 -0.413685 -0.39043 22 233 255
-0.0966837 -0.280719 -0.155785 56 199 255
-0.0750649 -0.446999 -0.10698 13 242 255
-0.200098 -0.368559 -0.261209 32 222 255
-0.345013 -0.487794 -0.0251151 3 252 255
-0.105416 -0.487242 -0.0130986 3 252 255
-0.332984 -0.417528 0.0507837 21 234 255
-0.330379 -0.241 0.0408677 65 189 255
-0.0735307 -0.257171 -0.0195134 62 193 255
-0.163438 -0.255641 0.0461369 62 193 255
-0.292164 -0.48748 0.0193528 3 252 255
-0.179814 -0.488076 -0.191517 3 252 255
-0.209509 -0.400675 -0.162368 25 230 255
-0.0826073 -0.488396 -0.284143 3 252 255
-0.097185 -0.225604 0.0275962 70 185 255
-0.364319 -0.487478 0.0390878 3 252 255
-0.0946548 -0.40062 -0.20193 25 230 255
-0.276464 -0.487387 -0.121174 3 252 255
-0.168262 -0.38254 -0.360361 30 225 255
-0.0899417 -0.399037 -0.44406 25 230 255
-0.0880167 -0.261789 -0.103414 60 194 255
-0.0910661 -0.277567 -0.435801 56 198 255
-0.186208 -0.408743 0.0464699 23 232 255
-0.279594 -0.348666 0.0356797 38 217 255
-0.0710117 -0.417488 -0.381858 21 234 255
-0.185938 -0.28258 -0.100864 55 200 255
-0.120238 -0.329214 -0.186504 43 211 255
-0.146338 -0.322703 0.0341919 44 210 255
-0.0930516 -0.474457 -0.375784 6 249 255
-0.16357 -0.379048 -0.0893824 31 224 255
-0.299963 -0.160648 0.0508001 86 169 255
-0.0743887 -0.267406 -0.31956 59 195 255
-0.0858406 -0.314335 -0.0311324 47 208 255
-0.184516 -0.410443 -0.278868 23 232 255
-0.08758 -0.390327 -0.317041 28 227 255
-0.250892 -0.187187 0.0315746 80 175 255
-0.255922 -0.257709 0.0343843 62 193 255
-0.0721494 -0.301771 -0.387909 50 205 255
-0.0750613 -0.179996 0.0384941 81 173 255
-0.0775403 -0.327178 -0.0927262 44 211 255
-0.0798635 -0.348721 -0.223099 38 217 255
-0.0756178 -0.48714 0.0227321 3 252 255
-0.125459 -0.48777 -0.269537 3 252 255
-0.0882185 -0.216524 -0.310418 72 183 255
-0.0783745 -0.358898 -0.28351 36 219 255
-0.0737549 -0.253522 -0.384055 63 192 255
-0.071089 -0.418227 -0.434114 21 234 255
-0.147973 -0.363178 -0.423097 35 220 255
-0.0737452 -0.471325 -0.201711 7 248 255
-0.196981 -0.356988 -0.176299 36 219 255
-0.319333 -0.267501 0.0505677 59 195 255
-0.143034 -0.376309 -0.27177 31 224 255
-0.0740121 -0.2922 0.00997008 52 202 255
-0.0736368 -0.301347 -0.14603 50 205 255
-0.310042 -0.376885 0.0502023 31 224 255
-0.28825 -0.465732 0.0487688 8 247 255
-0.0771982 -0.393296 -0.126599 27 228 255
-0.140996 -0.195721 0.0468073 77 178 255
-0.0981084 -0.39516 0.0251699 26 229 255
-0.0789058 -0.340365 -0.493328 40 215 255
-0.210527 -0.488022 -0.317549 3 252 255
-0.158458 -0.453277 -0.204583 12 243 255
-0.215277 -0.406105 -0.339496 24 231 255
-0.156819 -0.348085 -0.120875 38 217 255
-0.206296 -0.322208 -0.0442187 44 210 255
-0.263035 -0.148233 0.0332208 89 165 255
-0.0824406 -0.311679 -0.445833 48 207 255
-0.171501 -0.487988 -0.271413 3 252 255
-0.143621 -0.465367 -0.331077 8 247 255
-0.0722669 -0.181189 -0.0877503 81 174 255
-0.200276 -0.373207 0.0125526 32 223 255
-0.0760761 -0.170455 -0.300345 84 171 255
-0.103095 -0.466844 -0.106941 8 247 255
-0.0893339 -0.200643 -0.243796 76 179 255
-0.184848 -0.290297 0.0472437 52 202 255
-0.13857 -0.416829 0.0454612 21 234 255
-0.176923 -0.358801 -0.315101 36 219 255
-0.306081 -0.199766 0.050887 76 179 255
-0.0733929 -0.478908 -0.319352 5 250 255
-0.146451 -0.147701 -0.0502874 89 165 255
-0.0833021 -0.180258 -0.386171 81 174 255
-0.0886674 -0.283005 -0.290093 55 200 255
-0.229438 -0.488073 -0.220448 3 252 255
-0.187694 -0.223538 -0.0615313 70 185 255
-0.0761119 -0.340109 -0.165659 40 214 255
-0.209503 -0.287835 0.0106787 54 201 255
-0.325667 -0.488108 -0.112741 3 252 255
-0.192584 -0.485554 -0.0749245 3 252 255
-0.149743 -0.406585 -0.158138 24 231 255
-0.135849 -0.337479 -0.355572 40 214 255
-0.365414 -0.359689 0.0412678 36 219 255
-0.0876356 -0.249077 -0.176604 64 191 255
-0.140671 -0.48799 -0.176606 3 252 255
-0.0739801 -0.480417 -0.135902 5 250 255
-0.073035 -0.171907 -0.0429411 84 171 255
-0.174452 -0.366242 0.0461625 34 221 255
-0.204696 -0.164944 0.0490229 85 170 255
-0.0897366 -0.249478 0.0397326 64 191 255
-0.211679 -0.19808 0.0146878 77 178 255
-0.0760257 -0.460398 0.0404366 10 245 255
-0.277646 -0.488108 -0.184045 3 252 255
-0.117329 -0.296479 0.0323939 52 203 255
-0.0924728 -0.257559 -0.398107 62 193 255
-0.0731913 -0.469895 -0.0335274 7 248 255
-0.0748559 -0.336611 0.0123109 40 214 255
-0.100476 -0.413273 -0.367564 22 233 255
-0.355786 -0.421858 0.0411662 20 235 255
-0.283255 -0.278745 0.0491499 56 199 255
-0.0716807 -0.386156 -0.377823 29 226 255
-0.204987 -0.461321 0.025481 10 245 255
-0.232805 -0.477426 -0.281958 5 250 255
-0.356859 -0.487949 -0.0594489 3 252 255
-0.0933174 -0.317135 -0.197842 46 209 255
-0.0912938 -0.204068 -0.0945421 75 179 255
-0.0908356 -0.239576 -0.231254 65 189 255
-0.0949364 -0.318867 -0.398625 46 209 255
-0.0729399 -0.407563 -0.47445 23 232 255
-0.0780375 -0.434515 -0.0619322 16 239 255
-0.137146 -0.154669 0.0286611 88 167 255
-0.254831 -0.215096 0.0500819 73 182 255
-0.0750508 -0.423907 -0.244494 19 236 255
-0.0751289 -0.348293 -0.0352447 38 217 255
-0.234154 -0.352872 0.0316798 36 218 255
-0.327045 -0.329117 0.0421854 43 211 255
-0.0860507 -0.291139 -0.0778558 52 202 255
-0.151336 -0.301516 -0.117617 50 205 255
-0.0729525 -0.230746 -0.41835 69 186 255
-0.0911632 -0.368027 -0.471377 32 222 255
-0.144721 -0.182263 -0.0968407 81 174 255
-0.0762972 -0.197986 -0.173889 77 178 255
-0.103992 -0.358812 -0.146672 36 219 255
-0.218512 -0.467558 -0.189879 8 247 255
-0.128789 -0.373547 0.0448233 32 223 255
-0.124539 -0.487796 -0.0594351 3 252 255
-0.0725216 -0.269204 -0.476201 59 195 255
-0.0919683 -0.487729 -0.344897 3 252 255
-0.0747899 -0.286612 -0.255154 54 201 255
-0.394861 -0.486997 0.0376412 3 252 255
-0.212077 -0.426785 -0.305163 18 237 255
-0.128056 -0.35211 -0.0804121 36 218 255
-0.101996 -0.487769 -0.124853 3 252 255
-0.197982 -0.450409 0.0450318 12 243 255
-0.109599 -0.339943 -0.448517 40 214 255
-0.203944 -0.369488 -0.212375 32 222 255
-0.251769 -0.486796 -0.0594156 3 252 255
-0.224555 -0.242498 0.0216427 65 189 255
-0.186677 -0.422154 -0.124456 20 235 255
-0.125461 -0.487843 -0.219822 3 252 255
-0.207739 -0.231907 0.0486643 68 187 255
-0.247386 -0.309041 0.0386727 48 207 255
-0.123421 -0.380738 -0.402837 30 225 255
-0.130308 -0.369784 -0.307393 32 222 255
-0.143201 -0.486363 -0.346505 3 252 255
-0.273466 -0.487197 -0.293104 3 252 255
-0.0755263 -0.388702 -0.0287354 28 227 255
-0.13322 -0.41116 -0.209618 22 233 255
-0.0953172 -0.168223 0.0265337 85 170 255
-0.0956589 -0.325295 -0.271845 44 211 255
-0.0868056 -0.226451 -0.0283871 70 185 255
-0.150506 -0.228856 -0.10233 69 186 255
-0.289669 -0.486515 -0.00491774 3 252 255
-0.0808474 -0.214576 -0.46286 73 182 255
-0.160819 -0.436714 -0.36999 16 239 255
-0.0950243 -0.439073 -0.157216 15 240 255
-0.0728273 -0.251686 -0.117528 63 192 255
-0.133711 -0.487543 0.000902699 3 252 255
-0.30774 -0.40112 0.0347252 25 230 255
-0.0795685 -0.374995 -0.240622 32 223 255
-0.119146 -0.39723 -0.447367 26 229 255
-0.263542 -0.45002 0.0479078 12 243 255
-0.0872469 -0.434428 0.0088966 16 239 255
-0.1771 -0.462933 -0.284282 9 246 255
-0.101875 -0.189484 -0.138448 79 176 255
-0.0953201 -0.318569 0.0413737 46 209 255
-0.210351 -0.487867 -0.0214101 3 252 255
-0.0883961 -0.301976 -0.360234 50 205 255
-0.0917973 -0.453069 -0.2822 12 243 255
-0.176231 -0.488008 -0.221074 3 252 255
-0.187252 -0.488246 -0.123662 3 252 255
-0.100967 -0.246201 -0.135201 65 190 255
-0.262332 -0.168048 0.0496578 85 170 255
-0.0778048 -0.443637 -0.320139 14 241 255
-0.0745625 -0.487969 -0.092063 3 252 255
-0.187344 -0.16259 -0.125397 86 169 255
-0.0866336 -0.43898 -0.396972 15 240 255
-0.0798084 -0.170127 -0.267102 84 171 255
-0.226443 -0.488068 -0.260481 3 252 255
-0.221925 -0.413104 0.0479915 22 233 255
-0.143023 -0.404265 0.0304953 24 231 255
-0.0911023 -0.422264 -0.458756 20 235 255
-0.0792534 -0.395274 -0.0939526 26 229 255
-0.122769 -0.326834 -0.223528 44 211 255
-0.0713778 -0.357279 -0.416812 36 219 255
-0.330614 -0.488393 -0.258275 3 252 255
-0.197722 -0.172732 -0.00494743 83 172 255
-0.207883 -0.338421 0.0159478 40 214 255
-0.213049 -0.38108 -0.303918 30 225 255
-0.259061 -0.487597 0.0255748 3 252 255
-0.076228 -0.149094 -0.0485771 89 166 255
-0.0718247 -0.341633 -0.481509 40 215 255
-0.17187 -0.244442 0.0318645 65 190 255
-0.101352 -0.396006 -0.338573 26 229 255
-0.0824785 -0.176656 -0.346547 81 173 255
-0.188988 -0.329408 -0.10869 43 211 255
-0.0710024 -0.294412 0.04041 52 203 255
-0.183481 -0.293526 -0.0365577 52 203 255
-0.16343 -0.486993 -0.0209195 3 252 255
-0.338058 -0.21588 0.0413095 72 183 255
-0.0973113 -0.445636 -0.226388 14 241 255
-0.245615 -0.488235 -0.126056 3 252 255
-0.137874 -0.446786 0.034319 13 242 255
-0.0860936 -0.236473 -0.0716207 67 188 255
-0.0876031 -0.338331 -0.11646 40 214 255
-0.204378 -0.444711 -0.348623 14 241 255
-0.20042 -0.338867 0.0426964 40 214 255
-0.0763979 -0.163886 -0.145504 86 169 255
-0.073663 -0.204494 -0.388954 75 179 255
-0.0730025 -0.222609 0.0100568 71 184 255
-0.31526 -0.487655 0.0308932 3 252 255
-0.177284 -0.170009 0.0492609 84 171 255
-0.0717569 -0.302559 -0.44689 50 205 255
-0.0726994 -0.387732 0.0435315 28 227 255
-0.0972639 -0.350967 -0.0605163 38 217 255
-0.318638 -0.303174 0.0504996 50 205 255
-0.118528 -0.296377 -0.133232 52 203 255
-0.0957517 -0.328362 -0.317885 44 211 255
-0.209251 -0.427813 0.0257984 18 237 255
-0.166128 -0.342788 -0.258582 40 215 255
-0.118846 -0.487005 0.0415339 3 252 255
-0.0879362 -0.26699 -0.34205 59 195 255
-0.123215 -0.228293 0.0329841 69 186 255
-0.337787 -0.488255 -0.212375 3 252 255
-0.213589 -0.41318 -0.227788 22 233 255
-0.303317 -0.488156 -0.0884824 3 252 255
-0.361586 -0.47875 0.0472548 5 250 255
-0.13689 -0.347692 -0.172347 39 216 255
-0.188689 -0.256529 -0.0967212 62 193 255
-0.0748443 -0.23759 -0.500397 67 188 255
-0.364459 -0.488112 -0.106567 3 252 255
-0.178962 -0.147318 -0.0418823 89 165 255
-0.26366 -0.379336 0.0493805 30 225 255
-0.178038 -0.246072 -0.00725457 65 190 255
-0.0988491 -0.423504 -0.116101 19 236 255
-0.073269 -0.455208 -0.234927 11 244 255
-0.0738114 -0.151343 0.00960657 89 166 255
-0.191007 -0.384123 -0.389839 29 226 255
-0.078421 -0.31523 -0.230215 47 208 255
-0.354781 -0.487633 0.00961127 3 252 255
-0.29457 -0.150395 0.0364473 89 166 255
-0.0873619 -0.230604 -0.285494 69 186 255
-0.173893 -0.371942 -0.0752461 32 223 255
-0.248849 -0.488148 -0.305148 3 252 255
-0.228333 -0.488153 -0.183978 3 252 255
-0.16172 -0.310497 0.0459694 48 207 255
-0.191849 -0.469582 -0.15258 7 248 255
-0.0758159 -0.429061 -0.156456 18 237 255
-0.0737641 -0.456644 -0.425176 11 244 255
-0.0754241 -0.340908 -0.294494 40 215 255
-0.291113 -0.488136 -0.230389 3 252 255
-0.15751 -0.455104 -0.242636 11 244 255
-0.098461 -0.161537 0.0438724 86 169 255
-0.0734487 -0.428624 -0.284591 18 237 255
-0.0755468 -0.164423 -0.23323 86 169 255
-0.21002 -0.153401 0.0222635 88 167 255
-0.251303 -0.288094 0.0494789 54 201 255
-0.0900034 -0.25945 -0.472367 60 194 255
-0.109522 -0.333167 -0.38418 42 213 255
-0.14101 -0.487958 -0.146701 3 252 255
-0.131081 -0.282017 -0.0943443 55 200 255
-0.0984258 -0.388297 -0.301742 28 227 255
-0.0909219 -0.460987 -0.0188961 10 245 255
-0.227985 -0.423863 -0.266074 19 236 255
-0.0840828 -0.281352 -0.187898 56 199 255
-0.294754 -0.427552 0.0505101 18 237 255
-0.0895227 -0.215481 -0.361307 72 183 255
-0.292087 -0.203246 0.0372702 76 179 255
-0.118011 -0.487694 -0.298055 3 252 255
-0.098155 -0.366307 -0.200997 34 221 255
-0.111899 -0.351727 0.0301225 38 217 255
-0.0727026 -0.371585 -0.352814 32 223 255
-0.333143 -0.26976 0.0424459 59 195 255
-0.0733168 -0.480962 -0.371918 4 251 255
-0.0827936 -0.193218 -0.432434 78 177 255
-0.0968121 -0.1563 -0.0577524 88 167 255
-0.153458 -0.14729 0.0424133 89 165 255
-0.097231 -0.21134 -0.173144 73 182 255
-0.31049 -0.488141 -0.167593 3 252 255
-0.199734 -0.208573 0.0372662 73 181 255
-0.174877 -0.486061 0.043506 3 252 255
-0.283368 -0.235094 0.049743 67 188 255
-0.0911644 -0.487823 -0.24789 3 252 255
-0.135837 -0.460867 -0.30253 10 245 255
-0.0757171 -0.42521 -0.198133 19 236 255
-0.136748 -0.260152 0.0450775 60 194 255
-0.160978 -0.48815 -0.08376 3 252 255
-0.165407 -0.398445 -0.416958 26 229 255
-0.201596 -0.272549 0.0403187 58 197 255
-0.0882688 -0.397386 -0.395965 26 229 255
-0.324718 -0.487884 -0.0432348 3 252 255
-0.121122 -0.387631 -0.262453 28 227 255
-0.0969111 -0.487806 -0.171593 3 252 255
-0.106888 -0.42442 0.0452179 19 236 255
-0.170272 -0.389958 -0.194605 28 227 255
-0.0943728 -0.228522 -0.421458 69 186 255
-0.193552 -0.205661 -0.0938698 75 179 255
-0.32645 -0.346252 0.0501232 39 216 255
-0.101725 -0.437301 -0.40886 16 239 255
-0.353097 -0.488173 -0.155031 3 252 255
-0.240578 -0.153028 0.0422183 88 167 255
-0.0757059 -0.349907 -0.063951 38 217 255
-0.117971 -0.240065 -0.0936791 65 189 255
-0.0868836 -0.193743 -0.0605344 78 177 255
-0.0731975 -0.273144 -0.0231741 58 197 255
-0.0999296 -0.357306 -0.404469 36 219 255
-0.0816929 -0.321607 -0.49278 44 210 255
-0.0917336 -0.388079 -0.161602 28 227 255
-0.0745435 -0.30983 -0.320208 48 207 255
-0.0735245 -0.204375 0.0388011 75 179 255
-0.191066 -0.471333 -0.311535 7 248 255
-0.181322 -0.391726 -0.33409 27 228 255
-0.0924856 -0.445063 -0.347609 14 241 255
-0.217537 -0.372556 0.0479214 32 223 255
-0.199714 -0.356383 -0.0594024 36 219 255
-0.0749417 -0.258538 -0.253458 60 194 255
-0.073929 -0.318527 -0.121158 46 209 255
-0.0719001 -0.302858 -0.400614 50 205 255
-0.283636 -0.303866 0.0392215 50 205 255
-0.072185 -0.214477 -0.449091 73 182 255
-0.312339 -0.434406 0.0344706 16 239 255
-0.188378 -0.361005 -0.120658 35 220 255
-0.213311 -0.488217 -0.065402 3 252 255
-0.174683 -0.306829 0.0312419 48 206 255
-0.0740612 -0.480638 -0.161855 5 250 255
-0.211333 -0.487267 0.0409687 3 252 255
-0.111208 -0.45984 -0.147162 10 245 255
-0.123912 -0.326776 -0.313243 44 211 255
-0.0971777 -0.360031 -0.245998 35 220 255
-0.0709684 -0.432202 -0.375832 17 238 255
-0.0759718 -0.42731 -0.101685 18 237 255
-0.072433 -0.158803 -0.109673 87 168 255
-0.0733459 -0.24887 -0.365257 64 191 255
-0.223293 -0.466999 -0.251381 8 247 255
-0.390784 -0.464456 0.0452439 9 246 255
-0.0825304 -0.141964 -0.0216827 91 163 255
-0.0878378 -0.344863 -0.36031 39 216 255
-0.0952226 -0.487251 0.0129761 3 252 255
-0.130091 -0.339365 -0.1402 40 214 255
-0.146188 -0.161572 -0.088259 86 169 255
-0.348107 -0.382247 0.041277 30 225 255
-0.261815 -0.488316 -0.0998014 3 252 255
-0.0893823 -0.297755 -0.460313 51 204 255
-0.0758209 -0.199752 -0.219566 76 179 255
-0.0731922 -0.372868 -0.485651 32 223 255
-0.0900857 -0.225005 -0.12491 70 185 255
-0.210633 -0.376609 -0.267457 31 224 255
-0.0714596 -0.351185 0.0408471 38 217 255
-0.0958892 -0.380298 0.0103136 30 225 255
-0.102915 -0.460759 -0.379173 10 245 255
-0.0906901 -0.389282 -0.0702912 28 227 255
-0.176421 -0.487833 -0.295061 3 252 255
-0.212635 -0.400476 -0.19772 25 230 255
-0.0736392 -0.29115 -0.155927 52 202 255
-0.145205 -0.352365 -0.400452 36 218 255
-0.0733845 -0.159658 -0.168437 87 168 255
-0.201054 -0.428013 -0.3699 18 237 255
-0.0729718 -0.467174 -0.264066 8 247 255
-0.352809 -0.333748 0.0408097 42 213 255
-0.105624 -0.474713 -0.228504 6 249 255
-0.089269 -0.237402 -0.318565 67 188 255
-0.0873818 -0.269492 -0.0617574 59 195 255
-0.0723679 -0.259708 -0.436894 60 194 255
-0.182824 -0.41695 -0.0892219 21 234 255
-0.0760689 -0.389336 -0.213057 28 227 255
-0.0946735 -0.403911 -0.270755 24 231 255
-0.103852 -0.465579 -0.0888715 8 247 255
-0.0783738 -0.331324 -0.189296 43 211 255
-0.315505 -0.181188 0.0382626 81 174 255
-0.167359 -0.441172 0.0452825 15 240 255
-0.099751 -0.487772 -0.0510383 3 252 255
-0.0732205 -0.259701 0.0154642 60 194 255
-0.0844518 -0.319469 0.00627236 46 209 255
-0.106721 -0.322752 -0.101379 44 210 255
-0.111234 -0.32401 -0.254282 44 210 255
-0.171408 -0.488148 -0.161711 3 252 255
-0.264358 -0.41238 0.0492305 22 233 255
-0.178466 -0.486869 0.0096724 3 252 255
-0.0842206 -0.369047 -0.444632 32 222 255
-0.073751 -0.395794 -0.334623 26 229 255
-0.18355 -0.351125 -0.240681 38 217 255
-0.179578 -0.382554 0.0317809 30 225 255
-0.0876171 -0.246323 -0.199909 65 190 255
-0.255645 -0.315469 0.0492749 47 208 255
-0.0777285 -0.350881 -0.143839 38 217 255
-0.266774 -0.487977 -0.0373188 3 252 255
-0.236056 -0.195973 0.0297266 77 178 255
-0.101954 -0.202031 0.0305559 76 179 255
-0.1116 -0.316762 -0.169857 47 208 255
-0.194686 -0.172979 -0.061091 83 172 255
-0.302093 -0.488311 -0.272439 3 252 255
-0.0731768 -0.191425 -0.0239189 79 176 255
-0.183954 -0.257696 -0.0544735 62 193 255
-0.16386 -0.422513 -0.153546 19 236 255
-0.199844 -0.33759 -0.412897 40 214 255
-0.0738657 -0.442201 -0.444915 14 241 255
-0.0739835 -0.306039 -0.056825 48 206 255
-0.202871 -0.488036 -0.216314 3 252 255
-0.146919 -0.357924 -0.346954 36 219 255
-0.167449 -0.329433 -0.155329 43 211 255
-0.0757866 -0.172099 -0.323627 84 171 255
-0.073891 -0.481757 0.0202038 4 251 255
-0.198302 -0.318599 -0.0688256 46 209 255
-0.0782315 -0.402013 0.0145446 25 230 255
-0.205081 -0.233279 0.0111672 68 187 255
-0.0741287 -0.211993 -0.163303 73 182 255
-0.203874 -0.314335 0.0129511 47 208 255
-0.143098 -0.336498 0.0447718 40 214 255
-0.269152 -0.488215 -0.14883 3 252 255
-0.367282 -0.488079 -0.0692918 3 252 255
-0.330215 -0.45564 0.0500239 11 244 255
-0.0720185 -0.333659 -0.403817 42 213 255
-0.146139 -0.434687 -0.388221 16 239 255
-0.0730828 -0.276342 -0.100164 56 198 255
-0.236941 -0.2822 0.0328932 55 200 255
-0.224464 -0.449132 -0.208647 13 242 255
-0.101994 -0.163514 -0.100534 86 169 255
-0.321247 -0.390049 0.0501496 28 227 255
-0.0941848 -0.434909 -0.198118 16 239 255
-0.16828 -0.18184 0.0379543 81 174 255
-0.10502 -0.29497 0.0424438 52 203 255
-0.180214 -0.398222 -0.231615 26 229 255
-0.0867757 -0.428323 -0.0261854 18 237 255
-0.0888543 -0.206959 -0.257351 75 179 255
-0.220433 -0.380574 0.0322533 30 225 255
-0.258383 -0.488109 -0.252418 3 252 255
-0.140963 -0.484264 -0.102082 4 251 255
-0.0741979 -0.464841 -0.0933977 9 246 255
-0.225544 -0.1521 -0.00262269 89 166 255
-0.0740924 -0.480313 -0.202897 5 250 255
-0.124769 -0.487729 -0.345399 3 252 255
-0.0759988 -0.283598 -0.289661 55 200 255
-0.0747037 -0.353385 -0.00860447 36 218 255
-0.202193 -0.381907 -0.158296 30 225 255
-0.103482 -0.392333 -0.192013 27 228 255
-0.18469 -0.222977 0.0478986 71 184 255
-0.286921 -0.264458 0.0390684 60 195 255
-0.0930759 -0.14277 0.0134095 91 163 255
-0.0986587 -0.254586 0.027274 62 193 255
-0.073974 -0.209363 -0.326157 73 181 255
-0.147912 -0.327861 -0.213882 44 211 255
-0.313708 -0.185239 0.0505839 80 175 255
-0.227383 -0.483216 -0.318648 4 251 255
-0.0738757 -0.200088 -0.119984 76 179 255
-0.237472 -0.487681 -0.00652205 3 252 255
-0.23979 -0.465477 0.0469438 8 247 255
-0.133127 -0.17495 0.0470282 83 172 255
-0.127372 -0.370445 -0.448842 32 222 255
-0.0847269 -0.379388 -0.487491 30 225 255
-0.132835 -0.34896 -0.0995898 38 217 255
-0.0993756 -0.386796 0.0430158 29 226 255
-0.14443 -0.45544 -0.191943 11 244 255
-0.182231 -0.420038 -0.306626 20 235 255
-0.0708633 -0.382362 -0.418868 30 225 255
-0.0719054 -0.225963 -0.0548392 70 185 255
-0.28111 -0.488085 -0.198463 3 252 255
-0.314003 -0.487677 0.000578989 3 252 255
-0.191253 -0.48798 -0.262805 3 252 255
-0.211149 -0.488258 -0.120874 3 252 255
-0.30005 -0.338579 0.0388884 40 214 255
-0.098111 -0.433091 -0.302536 17 238 255
-0.0923387 -0.227982 -0.451267 69 186 255
-0.10694 -0.324871 -0.346907 44 211 255
-0.248649 -0.241975 0.0325904 65 189 255
-0.187265 -0.436053 0.0322721 16 239 255
-0.0740468 -0.487595 -0.33027 3 252 255
-0.113313 -0.483863 -0.0228356 4 251 255
-0.122444 -0.487838 -0.203773 3 252 255
-0.168067 -0.347235 -0.283885 39 216 255
-0.071043 -0.452617 0.0335923 12 243 255
-0.196393 -0.155429 0.0389157 88 167 255
-0.0883937 -0.467523 -0.379721 8 247 255
-0.131419 -0.487384 0.0238736 3 252 255
-0.192218 -0.374629 -0.362316 32 223 255
-0.232238 -0.260007 0.0493292 60 194 255
-0.092681 -0.383566 -0.106359 29 226 255
-0.0927435 -0.352456 -0.294779 36 218 255
-0.0894462 -0.209072 -0.384351 73 181 255
-0.101237 -0.408299 -0.428078 23 232 255
-0.0761552 -0.332624 -0.443296 42 213 255
-0.158507 -0.487632 -0.342089 3 252 255
-0.119082 -0.212878 -0.122785 73 182 255
-0.119236 -0.487883 -0.100778 3 252 255
-0.0749049 -0.403123 -0.27198 24 231 255
-0.339381 -0.302918 0.042412 50 205 255
-0.0777067 -0.264506 -0.137858 60 195 255
-0.0848888 -0.287188 -0.220798 54 201 255
-0.0725992 -0.290462 -0.478894 52 202 255
-0.159922 -0.313991 -0.0796665 47 208 255
-0.0801497 -0.420157 -0.468216 20 235 255
-0.137623 -0.487836 -0.271895 3 252 255
-0.167262 -0.270616 0.0365805 58 197 255
-0.0749192 -0.27806 -0.376124 56 199 255
-0.327154 -0.488232 -0.134302 3 252 255
-0.0744948 -0.484594 -0.0122767 4 251 255
-0.0801309 -0.159087 -0.0838462 87 168 255
-0.200383 -0.37112 0.0121683 32 222 255
-0.0737499 -0.342296 -0.338312 40 215 255
-0.135607 -0.368617 -0.144397 32 222 255
-0.231026 -0.190923 0.0422794 79 176 255
-0.245382 -0.434327 0.039683 16 239 255
-0.206255 -0.303518 0.048099 50 205 255
-0.183908 -0.488182 -0.0605457 3 252 255
-0.274137 -0.350974 0.0494066 38 217 255
-0.323953 -0.256133 0.0399582 62 193 255
-0.0765749 -0.405205 -0.0526582 24 231 255
-0.304073 -0.488064 -0.062338 3 252 255
-0.357667 -0.44591 0.0430446 13 242 255
-0.077941 -0.323792 -0.251438 44 210 255
-0.0741625 -0.223994 -0.473439 70 185 255
-0.354569 -0.487645 -0.00589249 3 252 255
-0.0815488 -0.241424 0.0390606 65 189 255
-0.11344 -0.281183 -0.126019 56 199 255
-0.0905001 -0.295412 -0.313711 52 203 255
-0.180198 -0.442833 -0.256075 14 241 255
-0.27119 -0.150598 0.0426419 89 166 255
-0.121977 -0.438244 0.0454229 15 240 255
-0.0858091 -0.221947 -0.00482171 71 184 255
-0.0717688 -0.407441 0.043186 23 232 255
-0.282655 -0.487583 0.0362751 3 252 255
-0.187026 -0.346749 -0.183585 39 216 255
-0.322088 -0.488218 -0.2165 3 252 255
-0.0923974 -0.447512 -0.115333 13 242 255
-0.137814 -0.399898 0.0299332 25 230 255
-0.106558 -0.338888 -0.450872 40 214 255
-0.0776947 -0.356902 -0.0859406 36 219 255
-0.119203 -0.358391 -0.212707 36 219 255
-0.100875 -0.348232 0.0420826 38 217 255
-0.211464 -0.488024 -0.316293 3 252 255
-0.207367 -0.413311 -0.156373 22 233 255
-0.0845 -0.375066 -0.382707 32 223 255
-0.202341 -0.488054 -0.182929 3 252 255
-0.135474 -0.296862 0.0342068 52 203 255
-0.125634 -0.151202 -0.0734048 89 166 255
-0.276105 -0.21989 0.0354905 71 184 255
-0.0888763 -0.152324 0.0405539 89 166 255
-0.214196 -0.391921 -0.331741 27 228 255
-0.0741678 -0.20272 -0.288747 76 179 255
-0.0767292 -0.402587 -0.137074 25 230 255
-0.0773324 -0.446108 -0.0704179 13 242 255
-0.090393 -0.308005 -0.41546 48 206 255
-0.18576 -0.28538 -0.09904 55 200 255
-0.179574 -0.207538 -0.100751 73 181 255
-0.275415 -0.400969 0.0407014 25 230 255
-0.172409 -0.340311 0.0461265 40 215 255
-0.0763327 -0.179696 -0.374023 81 173 255
-0.0846457 -0.486716 0.0426223 3 252 255
-0.345325 -0.488088 -0.095713 3 252 255
-0.158959 -0.487967 -0.228484 3 252 255
-0.0851607 -0.312412 -0.0192093 48 207 255
-0.0939661 -0.30183 -0.171648 50 205 255
-0.0727054 -0.213598 -0.0838498 73 182 255
-0.179371 -0.204426 0.0301385 75 179 255
-0.0731767 -0.170953 0.00639281 84 171 255
-0.0854161 -0.182773 -0.210719 81 174 255
-0.102502 -0.487697 -0.265112 3 252 255
-0.146559 -0.458432 -0.332047 10 245 255
-0.282166 -0.180972 0.0513373 81 174 255
-0.184218 -0.429089 -0.118039 18 237 255
-0.11684 -0.344818 -0.283934 39 216 255
-0.168149 -0.414259 0.0458423 22 233 255
-0.132693 -0.48106 -0.161259 4 251 255
-0.0885918 -0.256355 -0.257041 62 193 255
-0.0775419 -0.368834 -0.247441 32 222 255
-0.105868 -0.362657 -0.37992 35 220 255
-0.20747 -0.271733 0.011549 58 197 255
-0.0744702 -0.257094 -0.317565 62 193 255
-0.0860802 -0.30345 -0.0683638 50 205 255
-0.0778441 -0.412894 -0.413217 22 233 255
-0.166129 -0.147155 -0.0420803 89 165 255
-0.0728608 -0.246284 -0.406209 65 190 255
-0.0714376 -0.368015 -0.455844 32 222 255
-0.159 -0.48629 0.0444609 3 252 255
-0.231071 -0.487644 0.0167307 3 252 255
-0.188358 -0.31908 -0.0179553 46 209 255
-0.254415 -0.221746 0.0499987 71 184 255
-0.338543 -0.488186 -0.180035 3 252 255
-0.116421 -0.409706 -0.224246 23 232 255
-0.085987 -0.281923 0.00928043 55 200 255
-0.0747762 -0.487718 -0.29507 3 252 255
-0.0938455 -0.486311 -0.2199 3 252 255
-0.0771035 -0.351037 -0.178211 38 217 255
-0.160492 -0.41092 -0.409784 22 233 255
-0.37085 -0.487626 0.0194394 3 252 255
-0.364194 -0.357024 0.0408405 36 219 255
-0.239701 -0.488098 -0.227058 3 252 255
-0.289624 -0.488195 -0.117381 3 252 255
-0.0890404 -0.396189 -0.0119857 26 229 255
-0.0846828 -0.254605 -0.0391999 62 193 255
-0.186712 -0.465972 -0.193928 8 247 255
-0.109538 -0.155264 0.0251803 88 167 255
-0.342379 -0.410296 0.0419877 23 232 255
-0.0737914 -0.481033 -0.056676 4 251 255
-0.0971565 -0.378576 -0.337972 31 224 255
-0.0916141 -0.457415 -0.336528 11 244 255
-0.216039 -0.385002 -0.246192 29 226 255
-0.249844 -0.43759 -0.350397 16 239 255
-0.304764 -0.227549 0.0502826 69 186 255
-0.0952974 -0.230604 -0.401432 69 186 255
-0.189139 -0.237959 -0.0326757 67 188 255
-0.221057 -0.488148 -0.153099 3 252 255
-0.0719239 -0.415373 -0.352375 21 234 255
-0.0740508 -0.480319 -0.145883 5 250 255
-0.129125 -0.235644 0.0449361 67 188 255
-0.0731058 -0.324254 -0.483784 44 210 255
-0.232702 -0.487447 -0.0417515 3 252 255
-0.0726514 -0.33559 -0.379639 42 213 255
-0.212125 -0.412429 0.047519 22 233 255
-0.25175 -0.332092 0.0343575 43 211 255
-0.0896306 -0.207628 -0.342515 73 181 255
-0.0738492 -0.231519 -0.152975 68 187 255
-0.0912307 -0.17948 -0.120446 81 173 255
-0.0926924 -0.464787 -0.162312 9 246 255
-0.265114 -0.488144 -0.30066 3 252 255
-0.103306 -0.380961 -0.463066 30 225 255
-0.0991987 -0.422107 -0.0920507 20 235 255
-0.313509 -0.330811 0.0500915 43 211 255
-0.0755824 -0.418769 -0.237942 20 235 255
-0.0879274 -0.30385 -0.106474 50 205 255
-0.17806 -0.487653 -0.0163771 3 252 255
-0.0768075 -0.171699 -0.295857 84 171 255
-0.126531 -0.464144 -0.284848 9 246 255
-0.1347 -0.33498 -0.0734627 42 213 255
-0.0735206 -0.294314 0.0409811 52 203 255
-0.0765144 -0.213874 -0.200458 73 182 255
-0.318302 -0.486159 0.0442647 3 252 255
-0.192657 -0.48595 -0.0865157 3 252 255
-0.0746998 -0.445214 -0.00320758 14 241 255
-0.169196 -0.160416 -0.086282 87 168 255
-0.0741489 -0.365333 -0.308607 34 221 255
-0.0730082 -0.405628 -0.476489 24 231 255
-0.0728508 -0.200775 -0.453017 76 179 255
-0.0765087 -0.166434 -0.241836 85 170 255
-0.0773434 -0.458899 -0.424527 10 245 255
-0.18902 -0.337813 -0.121143 40 214 255
-0.103894 -0.408698 -0.388935 23 232 255
-0.244525 -0.149981 0.0312144 89 166 255
-0.165414 -0.363866 -0.327146 34 221 255
-0.141135 -0.391971 -0.169597 27 228 255
-0.284923 -0.486647 0.0110834 3 252 255
-0.0830059 -0.183199 -0.028789 81 174 255
-0.27879 -0.488175 -0.0769771 3 252 255
-0.154562 -0.460273 0.0306846 10 245 255
-0.0799446 -0.447966 -0.273764 13 242 255
-0.180307 -0.405376 -0.0833664 24 231 255
-0.193401 -0.25924 0.0479515 60 194 255
-0.0902798 -0.282585 -0.460707 55 200 255
-0.0747975 -0.264289 -0.229326 60 195 255
-0.100236 -0.357051 -0.105184 36 219 255
-0.218825 -0.354406 0.0444798 36 218 255
-0.168065 -0.368935 -0.405253 32 222 255
-0.0784093 -0.402527 -0.18392 25 230 255
-0.0758895 -0.159832 -0.17094 87 168 255
-0.324844 -0.15009 0.0496033 89 166 255
-0.221294 -0.463192 -0.283842 9 246 255
-0.267005 -0.272782 0.0495922 58 197 255
-0.351086 -0.487847 -0.0437339 3 252 255
-0.140482 -0.354713 -0.234814 36 218 255
-0.0730322 -0.479889 -0.365925 5 250 255
-0.135711 -0.488087 -0.0701642 3 252 255
-0.131749 -0.366084 0.0448422 34 221 255
-0.0881056 -0.251541 -0.0934793 63 192 255
-0.107426 -0.487713 -0.131737 3 252 255
-0.292 -0.488163 -0.252151 3 252 255
-0.224257 -0.203879 0.0494613 75 179 255
-0.30694 -0.405224 0.0505082 24 231 255
-0.184662 -0.256717 -0.0768126 62 193 255
-0.0873468 -0.253728 -0.358807 63 192 255
-0.361121 -0.488137 -0.117266 3 252 255
-0.112321 -0.485929 0.0471442 3 252 255
-0.186712 -0.462174 -0.343691 9 246 255
-0.0925136 -0.315663 -0.365088 47 208 255
-0.210608 -0.378858 -0.301966 31 224 255
-0.254011 -0.487119 -0.193907 3 252 255
-0.0887943 -0.212975 0.0400667 73 182 255
-0.0724828 -0.267604 -0.47554 59 195 255
-0.112693 -0.487604 -0.31197 3 252 255
-0.238305 -0.488199 -0.0986849 3 252 255
-0.0744799 -0.331467 -0.0375709 43 211 255
-0.12625 -0.325585 0.0329573 44 211 255
-0.072023 -0.321183 -0.426423 44 210 255
-0.0707905 -0.421931 -0.394541 20 235 255
-0.101436 -0.193693 -0.145402 78 177 255
-0.143017 -0.215286 0.0377457 72 183 255
-0.0716813 -0.357639 0.0371368 36 219 255
-0.107168 -0.432766 0.0323165 17 238 255
-0.204793 -0.300906 0.0305896 51 204 255
-0.154621 -0.229915 -0.101963 69 186 255
-0.188962 -0.357093 -0.00434141 36 219 255
-0.186337 -0.376308 0.0465958 31 224 255
-0.286538 -0.449542 0.0491369 13 242 255
-0.160186 -0.370339 -0.111626 32 222 255
-0.176002 -0.450221 -0.226273 12 243 255
-0.0762882 -0.336102 -0.273458 42 213 255
-0.225023 -0.48807 -0.27384 3 252 255
-0.0955786 -0.339559 -0.145845 40 214 255
-0.173247 -0.156593 0.0354826 88 167 255
-0.122393 -0.487604 -0.0231912 3 252 255
-0.193924 -0.357266 -0.223094 36 219 255
-0.0780181 -0.440254 -0.31866 15 240 255
-0.205414 -0.169822 -0.0033855 84 171 255
-0.0739309 -0.149525 -0.0194927 89 166 255
-0.0918329 -0.32566 -0.464511 44 211 255
-0.0878066 -0.219211 -0.0562754 71 184 255
-0.284734 -0.369551 0.0419381 32 222 255
-0.0762301 -0.229407 -0.241108 69 186 255
-0.143011 -0.336119 -0.31246 42 213 255
-0.0781585 -0.3338 -0.217869 42 213 255
-0.37857 -0.450755 0.0438865 12 243 255
-0.202338 -0.421499 -0.37181 20 235 255
-0.0734644 -0.192987 -0.399476 78 177 255
-0.0958432 -0.426402 -0.265976 18 237 255
-0.153509 -0.304211 -0.117678 50 205 255
-0.0765247 -0.375589 -0.0495623 31 224 255
-0.0737813 -0.471487 -0.198641 7 248 255
-0.113641 -0.264429 0.0436418 60 195 255
-0.331502 -0.488301 -0.239318 3 252 255
-0.0896369 -0.487842 -0.0831905 3 252 255
-0.0723059 -0.175461 -0.0843824 83 172 255
-0.163872 -0.331601 -0.195732 43 211 255
-0.297475 -0.288847 0.0392331 54 201 255
-0.184119 -0.482672 -0.130202 4 251 255
-0.100864 -0.327738 -0.416948 44 211 255
-0.0729541 -0.298198 -0.366887 51 204 255
-0.077223 -0.25289 -0.181334 63 192 255
-0.282828 -0.488121 -0.166164 3 252 255
-0.0735124 -0.252093 -0.0177806 63 192 255
-0.209048 -0.441784 0.0282605 15 240 255
-0.137252 -0.187288 -0.0989995 80 175 255
-0.279088 -0.172314 0.0339411 83 172 255
-0.223833 -0.208995 0.0191069 73 181 255
-0.0769552 -0.438322 -0.131746 15 240 255
-0.183796 -0.350831 -0.063156 38 217 255
-0.148331 -0.170155 0.0475999 84 171 255
-0.0990435 -0.448094 -0.384136 13 242 255
-0.18429 -0.487959 -0.325362 3 252 255
-0.165288 -0.281114 0.0461392 56 199 255
-0.1607 -0.366913 -0.370682 34 221 255
-0.0780707 -0.371118 -0.123195 32 222 255
-0.0747446 -0.318809 0.0147066 46 209 255
-0.0710581 -0.400032 -0.443423 25 230 255
-0.232706 -0.172105 0.0487314 84 171 255
-0.0748443 -0.20009 -0.487897 76 179 255
-0.210091 -0.24125 0.0401346 65 189 255
-0.114645 -0.325124 -0.2438 44 211 255
-0.0737493 -0.218101 -0.355616 72 183 255
-0.0818229 -0.270284 -0.402683 58 197 255
-0.0889159 -0.186618 -0.268445 80 175 255
-0.0860694 -0.28797 -0.261671 54 201 255
-0.239129 -0.385231 0.0483522 29 226 255
-0.0843633 -0.41757 0.044068 21 234 255
-0.212832 -0.39944 -0.200461 25 230 255
-0.0891698 -0.403923 -0.353725 24 231 255
-0.128374 -0.403006 -0.436024 24 231 255
-0.0743341 -0.315902 -0.32176 47 208 255
-0.104172 -0.348366 -0.173933 38 217 255
-0.0729719 -0.21691 0.00878218 72 183 255
-0.158547 -0.488211 -0.122358 3 252 255
-0.140339 -0.283015 -0.0905712 55 200 255
-0.336574 -0.487625 0.0302731 3 252 255
-0.0758064 -0.436158 -0.191744 16 239 255
-0.154199 -0.435884 -0.36297 16 239 255
-0.183031 -0.306288 -0.0428069 48 206 255
-0.142936 -0.487971 -0.190548 3 252 255
-0.213668 -0.426767 -0.29335 18 237 255
-0.0739704 -0.481385 -0.253099 4 251 255
