ply
format ascii 1.0
comment Created by Open3D
element vertex 1200
property double x
property double y
property double z
property uchar red
property uchar green
property uchar blue
end_header
-0.211114 -0.214821 0.179661 70 185 255
0.359353 -0.338055 -0.120685 38 217 255
0.37439 -0.458905 0.0537603 7 248 255
0.0523063 -0.423043 0.0247967 16 239 255
0.222552 -0.486954 -0.142218 0 255 255
0.289226 -0.487096 0.17259 0 255 255
0.256203 -0.363118 -0.0486131 32 223 255
-0.0890529 -0.487091 -0.233239 0 255 255
-0.231152 -0.356968 0.14343 32 222 255
0.143639 -0.338555 0.0235278 38 217 255
0.0842403 -0.487041 0.160206 0 255 255
-0.179744 -0.486331 -0.133942 0 255 255
0.0570077 -0.486403 0.252498 0 255 255
0.031907 -0.487 0.413985 0 255 255
0.254302 -0.486978 0.0319937 0 255 255
0.183968 -0.484378 -0.236584 1 254 255
-0.226832 -0.387878 -0.0861032 25 230 255
0.032225 -0.343891 -0.0124745 36 218 255
0.0996643 -0.486839 -0.231939 0 255 255
-0.227441 -0.227053 0.249569 67 188 255
-0.0380605 -0.48717 0.412919 0 255 255
0.122958 -0.386947 -0.0369818 26 229 255
-0.145076 -0.36354 -0.0335169 32 223 255
0.0660898 -0.487131 0.327967 0 255 255
-0.157677 -0.2921 0.254147 50 205 255
-0.169944 -0.486913 0.214432 0 255 255
0.249764 -0.487216 0.117196 0 255 255
-0.11025 -0.486947 -0.152671 0 255 255
-0.183249 -0.486504 0.0566796 0 255 255
0.172803 -0.486913 0.0438279 0 255 255
-0.227055 -0.219218 -0.0627744 69 186 255
0.129882 -0.48697 -0.0954244 0 255 255
-0.214502 -0.486839 -0.245543 0 255 255
-0.176566 -0.437526 -0.0112288 13 242 255
0.0120711 -0.487091 -0.166237 0 255 255
-0.0396313 -0.486155 0.0774082 0 255 255
0.170649 -0.408175 -0.204568 20 235 255
0.252549 -0.486981 -0.06417 0 255 255
0.076516 -0.34789 0.0233619 36 219 255
0.28124 -0.486801 -0.191674 0 255 255
-0.116568 -0.375115 0.251076 29 226 255
0.430847 -0.3986 0.0305303 23 232 255
-0.22531 -0.328711 -0.0489089 40 214 255
-0.211461 -0.400045 0.042632 22 233 255
0.096307 -0.486513 0.0572156 0 255 255
-0.0547979 -0.487052 -0.0738098 0 255 255
0.06142 -0.486874 -0.0172667 0 255 255
0.336818 -0.486833 0.134411 0 255 255
-0.217514 -0.27609 0.135494 54 201 255
0.0226663 -0.271115 0.270745 55 200 255
0.310645 -0.368669 -0.156524 30 225 255
0.031869 -0.487231 -0.258485 0 255 255
0.139796 -0.487033 -0.157973 0 255 255
0.14719 -0.25016 -0.27209 60 194 255
-0.118028 -0.487221 0.407291 0 255 255
0.125477 -0.339727 0.255333 38 217 255
0.197988 -0.395583 -0.0860012 23 232 255
-0.232106 -0.299294 0.0664234 48 207 255
-0.230973 -0.403961 -0.0404554 21 234 255
0.162667 -0.274987 -0.112635 54 201 255
-0.163133 -0.486751 0.12134 0 255 255
0.295928 -0.376136 -0.00993713 28 227 255
-0.226435 -0.39406 0.216956 24 231 255
-0.215534 -0.369564 0.110326 30 225 255
0.422686 -0.408165 -0.0451539 20 235 255
-0.0244452 -0.48734 0.216381 0 255 255
0.211166 -0.414384 -0.250399 19 236 255
0.315728 -0.487032 -0.041896 0 255 255
0.390427 -0.350332 -0.0918021 35 220 255
-0.16282 -0.480177 0.00745121 2 253 255
0.088725 -0.235866 0.264283 64 191 255
-0.119077 -0.487363 0.232178 0 255 255
-0.121427 -0.486973 -0.272018 0 255 255
-0.213525 -0.449832 0.364473 10 245 255
-0.214887 -0.435641 0.135825 13 242 255
0.162667 -0.399987 0.274865 22 233 255
-0.218891 -0.221379 -0.122789 68 187 255
0.309425 -0.375877 -0.0795904 28 227 255
0.209522 -0.486322 -0.18456 0 255 255
0.10618 -0.400226 0.0244315 22 233 255
-0.0931626 -0.487144 0.149076 0 255 255
0.236134 -0.381036 0.0102854 27 228 255
-0.191498 -0.455294 -0.0819573 8 247 255
-0.18316 -0.228951 0.260136 65 189 255
0.147197 -0.487078 0.128684 0 255 255
0.388083 -0.477003 -0.07829 3 252 255
-0.0301951 -0.395046 0.254277 24 231 255
-0.17188 -0.486027 0.431163 0 255 255
-0.212798 -0.310767 0.187069 44 210 255
-0.132815 -0.486868 0.0746864 0 255 255
0.38935 -0.3973 0.0870272 23 232 255
0.286646 -0.486931 -0.118218 0 255 255
-0.200493 -0.379216 -0.0823374 28 227 255
-0.220839 -0.472576 0.250748 4 251 255
0.0178169 -0.37618 -0.0433872 28 227 255
0.347149 -0.368584 0.028701 30 225 255
0.0126666 -0.487487 0.474865 0 255 255
0.0412568 -0.487077 -0.118726 0 255 255
-0.205988 -0.289666 -0.054095 51 204 255
0.171305 -0.340973 -0.0321371 36 218 255
0.144701 -0.337352 -0.281599 38 217 255
0.162667 -0.224987 0.249865 67 188 255
0.0803807 -0.487018 0.214316 0 255 255
-0.167098 -0.486838 0.353671 0 255 255
0.212667 -0.262487 -0.175135 56 198 255
0.0528299 -0.308222 0.267053 46 209 255
0.175167 -0.287487 0.037365 51 204 255
0.260185 -0.377632 -0.0970416 28 227 255
0.416113 -0.451179 0.0129955 9 246 255
-0.00276065 -0.487057 -0.0411558 0 255 255
-0.0137843 -0.487217 0.310675 0 255 255
0.225185 -0.486938 -0.0204528 0 255 255
0.0936755 -0.487231 -0.174656 0 255 255
-0.218261 -0.220587 0.0541408 68 187 255
-0.0548088 -0.228679 0.259499 65 189 255
0.346166 -0.486456 -0.178736 0 255 255
0.0792633 -0.476611 -0.290133 3 252 255
-0.226404 -0.298672 -0.121758 48 207 255
-0.0890595 -0.328512 0.2628 40 214 255
-0.224771 -0.408922 0.00109765 20 235 255
0.185923 -0.486741 0.086801 0 255 255
0.409074 -0.35903 -0.0245155 32 222 255
0.137667 -0.324987 -0.125135 40 214 255
-0.219939 -0.223662 -0.0283788 67 188 255
-0.216521 -0.458582 -0.163856 7 248 255
0.352747 -0.487031 0.0582181 0 255 255
-0.141003 -0.486846 -0.201878 0 255 255
-0.218908 -0.220519 0.128045 68 187 255
0.00975815 -0.365838 0.0130526 31 224 255
-0.0462099 -0.487225 -0.257678 0 255 255
-0.061282 -0.487035 0.441305 0 255 255
0.228919 -0.362283 -0.144937 32 223 255
-0.203599 -0.416847 0.251073 18 237 255
0.233347 -0.487057 0.209155 0 255 255
0.383011 -0.34993 -0.175167 35 220 255
-0.101 -0.487223 0.349922 0 255 255
-0.21927 -0.486444 -0.082285 0 255 255
-0.229772 -0.426143 0.0793971 16 239 255
0.151635 -0.487023 0.304002 0 255 255
0.136244 -0.486912 0.221158 0 255 255
-0.10073 -0.486891 -0.0277965 0 255 255
0.01733 -0.22875 0.252238 65 189 255
0.107989 -0.486979 -0.0652388 0 255 255
-0.0679586 -0.487333 0.235546 0 255 255
0.329701 -0.331239 -0.133588 40 215 255
-0.0269476 -0.487284 -0.130891 0 255 255
-0.224117 -0.213428 0.214457 70 185 255
-0.141583 -0.487135 0.177356 0 255 255
0.187714 -0.327468 -0.27377 40 214 255
0.222577 -0.355877 -0.0391584 34 221 255
0.412667 -0.487487 -0.125135 0 255 255
0.193111 -0.486886 -0.110433 0 255 255
-0.0876928 -0.424634 0.247356 16 239 255
0.0212066 -0.48667 0.0290397 0 255 255
0.0859405 -0.486952 0.133455 0 255 255
0.0110337 -0.487238 0.39051 0 255 255
0.27172 -0.486466 -0.217024 0 255 255
-0.21179 -0.484845 0.435398 1 254 255
-0.204791 -0.418408 -0.0994518 18 237 255
-0.227827 -0.467975 0.184769 5 250 255
0.175885 -0.487124 -0.280319 0 255 255
-0.108487 -0.263025 0.261897 56 198 255
-0.180631 -0.486704 0.261744 0 255 255
0.0251666 -0.299987 0.0248649 48 207 255
0.0376667 -0.424987 0.274865 16 239 255
-0.215517 -0.362537 0.0650938 32 223 255
-0.22629 -0.359744 0.241791 32 222 255
0.347684 -0.486931 -0.0289762 0 255 255
0.157044 -0.275019 -0.205978 54 201 255
-0.217973 -0.455748 0.0223445 8 247 255
0.173821 -0.352371 -0.147248 34 221 255
-0.0196248 -0.322057 0.267307 42 213 255
-0.212637 -0.399141 0.153535 22 233 255
0.137347 -0.486857 -0.0213373 0 255 255
0.310762 -0.486987 0.0447433 0 255 255
-0.229966 -0.276769 0.206565 54 201 255
0.410827 -0.348663 -0.118339 35 220 255
0.153111 -0.312931 -0.0426759 44 210 255
0.361759 -0.440829 0.0746969 12 243 255
-0.116166 -0.487325 0.277612 0 255 255
-0.0870058 -0.48707 -0.192941 0 255 255
0.248379 -0.487072 0.0737111 0 255 255
0.225167 -0.287487 0.0123649 51 204 255
0.0421315 -0.486172 0.216983 0 255 255
-0.227167 -0.473816 0.307761 3 252 255
0.353311 -0.361891 -0.0448643 32 223 255
-0.132812 -0.48657 -0.125078 0 255 255
0.0234348 -0.487308 -0.1922 0 255 255
0.264981 -0.486888 -0.142584 0 255 255
0.131473 -0.400886 0.00221988 22 233 255
0.175558 -0.383183 -0.295805 27 228 255
0.0306674 -0.487145 0.32169 0 255 255
-0.196167 -0.278233 0.253819 52 202 255
0.41489 -0.405691 -0.0771668 21 234 255
-0.116498 -0.486762 0.0165679 0 255 255
0.0883025 -0.321086 -0.00276563 42 213 255
0.450167 -0.349987 0.0248649 35 220 255
0.292585 -0.482021 -0.0223992 1 254 255
0.300167 -0.487487 -0.275135 0 255 255
-0.227819 -0.344438 -0.0267188 36 218 255
0.124014 -0.483383 -0.192191 1 254 255
-0.192594 -0.486633 0.150097 0 255 255
0.0390244 -0.453466 0.00611161 9 246 255
0.346935 -0.485631 -0.121516 0 255 255
-0.208224 -0.486746 -0.209492 0 255 255
0.310755 -0.48705 0.157707 0 255 255
0.115128 -0.273341 0.252624 55 200 255
-0.162611 -0.486914 -0.300076 0 255 255
-0.200107 -0.213504 0.27367 70 185 255
-0.0391713 -0.487042 -0.0374977 0 255 255
-0.0743905 -0.48728 0.391735 0 255 255
-0.200793 -0.486344 0.377416 0 255 255
0.149864 -0.351301 -0.0704889 35 220 255
0.0731993 -0.48705 0.284171 0 255 255
0.0618349 -0.48665 0.0553921 0 255 255
-0.229232 -0.294907 0.122391 48 206 255
-0.0601515 -0.487055 -0.108203 0 255 255
0.123029 -0.364305 0.253084 31 224 255
-0.231614 -0.282628 -0.0144231 52 203 255
-0.186945 -0.486298 -0.0294204 0 255 255
0.0394946 -0.38127 0.0250801 27 228 255
0.428282 -0.394371 0.0600668 24 231 255
-0.109263 -0.487127 0.086443 0 255 255
0.174173 -0.487047 -0.17677 0 255 255
0.294103 -0.370485 0.0408596 30 225 255
0.057754 -0.487019 -0.0751737 0 255 255
-0.0188954 -0.487499 0.24633 0 255 255
0.189577 -0.349197 0.0182106 35 220 255
-0.218585 -0.329257 -0.11774 40 215 255
-0.018059 -0.487039 0.0401609 0 255 255
0.0581184 -0.231389 0.267275 65 190 255
-0.213572 -0.351224 0.28648 35 220 255
-0.229336 -0.456205 0.105586 8 247 255
0.189309 -0.282288 -0.248436 52 203 255
0.205139 -0.486615 0.0242627 0 255 255
0.0998293 -0.464674 0.00207401 6 249 255
0.198407 -0.387347 -0.188113 26 229 255
-0.169847 -0.410673 -0.019767 20 235 255
-0.223963 -0.267335 0.063634 56 199 255
-0.144233 -0.487051 0.445229 0 255 255
0.215753 -0.486408 -0.269429 0 255 255
-0.201409 -0.311531 -0.0605745 44 210 255
-0.0454177 -0.48729 0.344516 0 255 255
-0.210197 -0.486413 -0.121437 0 255 255
0.162667 -0.437487 0.262365 13 242 255
-0.0155037 -0.27181 0.272439 55 200 255
0.450167 -0.349987 -0.0751351 35 220 255
-0.171848 -0.486821 0.311326 0 255 255
-0.231607 -0.328586 0.151387 40 214 255
0.381844 -0.364596 0.0367865 31 224 255
0.151152 -0.48693 0.188825 0 255 255
-0.092312 -0.48698 -0.269754 0 255 255
-0.218015 -0.252303 -0.0537726 60 195 255
-0.120693 -0.488601 0.214526 0 255 255
-0.216921 -0.284097 0.284381 52 203 255
0.138325 -0.23984 -0.246904 63 192 255
0.128355 -0.487176 -0.272421 0 255 255
-0.182579 -0.486337 0.0489765 0 255 255
-0.222317 -0.238887 -0.133251 64 191 255
-0.0873334 -0.199987 0.249865 73 182 255
0.137656 -0.486865 0.0253055 0 255 255
-0.217879 -0.330642 0.0226197 40 215 255
-0.230684 -0.244834 0.156187 62 193 255
0.305689 -0.368915 -0.048625 30 225 255
0.269741 -0.487147 0.178 0 255 255
-0.230386 -0.435409 0.158242 13 242 255
0.170994 -0.303475 -0.182497 47 208 255
-0.229078 -0.439341 0.279758 12 243 255
0.0277065 -0.487028 -0.260645 0 255 255
-0.210995 -0.331049 0.232899 40 215 255
0.109201 -0.349108 0.0207047 35 220 255
0.329244 -0.39189 0.0684489 24 231 255
0.317545 -0.486999 -0.156386 0 255 255
0.137358 -0.307931 -0.272759 46 209 255
0.290696 -0.487006 -0.0639646 0 255 255
0.109619 -0.486793 0.0945244 0 255 255
-0.22626 -0.440974 -0.0617329 12 243 255
0.17325 -0.48672 -0.0667721 0 255 255
-0.0513928 -0.487167 -0.162919 0 255 255
-0.0868631 -0.487257 0.143381 0 255 255
0.387606 -0.459076 -0.0655401 7 248 255
0.223853 -0.362154 -0.0776419 32 223 255
-0.2295 -0.225287 -0.00903387 67 188 255
0.152107 -0.477202 -0.129029 3 252 255
0.425167 -0.487487 0.162365 0 255 255
-0.230736 -0.353485 0.0908667 34 221 255
-0.219052 -0.421297 0.210232 17 238 255
0.366431 -0.48691 0.0336905 0 255 255
0.0322718 -0.325599 0.249265 40 214 255
-0.151198 -0.479558 -0.0308559 2 253 255
0.262742 -0.392786 0.0311486 24 231 255
0.375167 -0.349987 -0.212635 35 220 255
-0.230953 -0.38537 -0.0478526 26 229 255
0.310401 -0.487182 0.120899 0 255 255
-0.0405597 -0.402402 0.252221 22 233 255
0.350167 -0.487487 -0.237635 0 255 255
0.201846 -0.364768 -0.259751 31 224 255
0.382393 -0.336624 -0.142903 39 216 255
-0.0887052 -0.2832 0.26478 52 203 255
0.0167998 -0.486963 -0.0833852 0 255 255
0.108357 -0.487044 0.283607 0 255 255
0.157495 -0.387717 0.024052 25 230 255
-0.219989 -0.22192 0.0787929 68 187 255
0.157432 -0.4007 -0.0622689 22 233 255
-0.0919932 -0.482451 -0.0562778 1 254 255
0.418148 -0.451141 0.0383028 9 246 255
-0.0949336 -0.48694 0.0472917 0 255 255
0.252949 -0.486842 -0.248861 0 255 255
0.257704 -0.48696 0.00352529 0 255 255
0.166277 -0.486739 0.113343 0 255 255
0.250167 -0.262487 -0.187635 56 198 255
-0.0968161 -0.48709 0.455386 0 255 255
-0.156659 -0.486794 -0.199543 0 255 255
-0.162615 -0.364549 -0.0322905 31 224 255
0.0085985 -0.486717 0.268615 0 255 255
-0.0952104 -0.487191 0.302429 0 255 255
-0.147385 -0.251359 0.255117 60 195 255
0.162719 -0.382195 -0.166637 27 228 255
-0.0154186 -0.487043 0.422562 0 255 255
-0.179321 -0.486829 0.213529 0 255 255
0.0959311 -0.421726 0.0241393 17 238 255
0.0739477 -0.486849 0.329677 0 255 255
-0.224079 -0.21331 0.18535 70 185 255
-0.193993 -0.465449 0.410626 6 249 255
-0.209078 -0.48658 0.0944706 0 255 255
0.179829 -0.420139 -0.2767 17 238 255
-0.225415 -0.407962 0.0304352 20 235 255
-0.22886 -0.465198 -0.1575 6 249 255
0.422351 -0.393504 0.00117122 24 231 255
0.306107 -0.353699 -0.152904 34 221 255
-0.215808 -0.354518 0.187498 34 221 255
0.109495 -0.483538 -0.106802 1 254 255
-0.0964074 -0.349858 0.2524 35 220 255
-0.0204068 -0.487085 -0.271864 0 255 255
0.176819 -0.343577 -0.103664 36 218 255
0.047398 -0.487214 0.3888 0 255 255
-0.195434 -0.399059 -0.0680731 23 232 255
0.0721855 -0.48709 0.170882 0 255 255
0.162667 -0.262487 -0.300135 56 198 255
-0.214782 -0.2831 -0.123076 52 203 255
-0.209815 -0.459274 0.321395 7 248 255
0.0639123 -0.457726 -0.0312253 7 248 255
0.0898494 -0.487267 -0.205629 0 255 255
0.450167 -0.474987 0.0873649 3 252 255
-0.205122 -0.48632 0.0172852 0 255 255
0.322686 -0.486854 -0.0938157 0 255 255
-0.124163 -0.487172 0.389992 0 255 255
0.249008 -0.480648 -0.0507518 2 253 255
0.414908 -0.383763 -0.108856 26 229 255
-0.100342 -0.422662 0.249562 16 239 255
0.309193 -0.365699 0.00378659 31 224 255
0.0318128 -0.487085 -0.150826 0 255 255
0.0391578 -0.339109 -0.0109035 38 217 255
-0.193064 -0.486638 -0.285288 0 255 255
-0.00167828 -0.217818 0.269617 69 186 255
-0.181867 -0.486156 -0.0806769 0 255 255
0.233958 -0.487058 0.209489 0 255 255
0.00227987 -0.364335 0.25842 31 224 255
-0.0122047 -0.48717 0.345298 0 255 255
0.230616 -0.486889 -0.143679 0 255 255
0.235023 -0.358867 -0.0170033 32 222 255
-0.213692 -0.408335 0.100037 20 235 255
-0.232476 -0.301042 0.0520463 48 207 255
-0.195563 -0.486684 0.456822 0 255 255
0.335822 -0.485774 0.0882258 0 255 255
0.344838 -0.485671 -0.191144 0 255 255
0.168143 -0.486878 -0.0280406 0 255 255
0.114226 -0.242505 0.257126 63 192 255
-0.0114948 -0.486886 -0.00752439 0 255 255
-0.230832 -0.223075 -0.0857121 68 187 255
0.364004 -0.486199 -0.0274565 0 255 255
0.400778 -0.352639 -0.0596303 34 221 255
-0.175034 -0.486402 -0.13645 0 255 255
-0.203038 -0.240294 0.283125 63 192 255
0.14857 -0.337722 0.0217893 38 217 255
-0.163724 -0.486915 0.131894 0 255 255
0.145278 -0.486542 -0.235263 0 255 255
-0.0637086 -0.487359 0.210854 0 255 255
0.139163 -0.486968 0.309372 0 255 255
-0.231615 -0.293088 0.157167 50 205 255
-0.220645 -0.257677 0.00847521 59 195 255
-0.228418 -0.376746 0.251409 28 227 255
0.414849 -0.408363 0.0776062 20 235 255
-0.206814 -0.486756 -0.229852 0 255 255
0.00999871 -0.487042 0.218618 0 255 255
0.292768 -0.365985 -0.0820598 31 224 255
0.178004 -0.486748 0.0681278 0 255 255
0.296187 -0.485481 0.0126143 0 255 255
-0.137447 -0.486724 -0.290275 0 255 255
0.288357 -0.487221 0.203319 0 255 255
-0.22994 -0.230573 0.125715 65 189 255
0.257866 -0.487073 0.0851753 0 255 255
0.112091 -0.486273 0.18171 0 255 255
-0.113976 -0.486813 -0.167261 0 255 255
0.132315 -0.396937 -0.0217463 23 232 255
0.0237935 -0.398098 0.0208966 23 232 255
-0.0556597 -0.261982 0.269873 58 197 255
0.0629165 -0.487027 -0.271646 0 255 255
0.345959 -0.41546 0.0625048 18 237 255
0.162667 -0.224987 -0.187635 67 188 255
-0.210003 -0.331522 -0.0296008 40 215 255
-0.223587 -0.458947 -0.0471877 7 248 255
0.237869 -0.465089 -0.279562 6 249 255
-0.143844 -0.486628 0.0301992 0 255 255
-0.222806 -0.271173 0.240257 55 200 255
-0.230612 -0.377512 0.133061 28 227 255
0.00838877 -0.365234 -0.0301169 31 224 255
-0.0397688 -0.487258 0.273921 0 255 255
-0.220077 -0.469845 0.233495 4 251 255
0.362667 -0.349987 0.099865 35 220 255
0.380724 -0.385947 0.00594457 26 229 255
0.304054 -0.486336 -0.21186 0 255 255
0.199445 -0.486897 -0.089075 0 255 255
0.334318 -0.487461 0.149533 0 255 255
-0.230277 -0.277741 -0.0751756 54 201 255
-0.0317091 -0.487074 -0.0853757 0 255 255
-0.148873 -0.485606 0.276558 0 255 255
0.07447 -0.486905 0.0249904 0 255 255
-0.210921 -0.311824 0.284932 44 210 255
-0.0865007 -0.487028 -0.227303 0 255 255
0.0716488 -0.322005 -0.0137007 42 213 255
-0.213951 -0.486497 0.143555 0 255 255
0.0497301 -0.310643 0.267082 44 210 255
-0.212745 -0.370736 0.0146189 30 225 255
0.17593 -0.487067 -0.291486 0 255 255
0.244831 -0.367604 -0.120867 31 224 255
0.148425 -0.312957 -0.0398435 44 210 255
-0.218255 -0.365455 -0.0940059 31 224 255
0.0617739 -0.486899 -0.126523 0 255 255
0.0851184 -0.376716 0.0239588 28 227 255
0.417715 -0.449214 0.00760352 10 245 255
0.188633 -0.346395 -0.280507 36 219 255
0.0994604 -0.486944 0.252273 0 255 255
-0.209302 -0.307677 0.207701 46 209 255
0.419822 -0.41651 -0.068119 18 237 255
0.450167 -0.362487 0.0748649 32 223 255
-0.0708874 -0.323844 0.26226 42 213 255
0.198017 -0.486985 -0.178036 0 255 255
-0.095953 -0.48618 0.000964718 0 255 255
0.259326 -0.486993 -0.0991131 0 255 255
-0.0373538 -0.487238 0.384787 0 255 255
0.170494 -0.37822 -0.0333253 28 227 255
-0.147058 -0.487117 0.182948 0 255 255
0.211887 -0.40209 -0.275521 22 233 255
-0.230725 -0.325822 0.0829932 40 214 255
-0.21653 -0.412971 -0.103478 19 236 255
0.224394 -0.35943 0.0255503 32 222 255
-0.13077 -0.487064 0.334984 0 255 255
-0.140119 -0.485866 0.10358 0 255 255
0.186793 -0.409315 -0.191943 20 235 255
-0.230954 -0.409889 0.159102 20 235 255
0.233118 -0.486608 0.0442332 0 255 255
0.118585 -0.480724 -0.0348348 2 253 255
0.175167 -0.324987 0.262365 40 214 255
-0.21937 -0.447615 0.0164608 10 245 255
0.0973932 -0.486962 0.0702339 0 255 255
-0.0621884 -0.487112 0.441077 0 255 255
0.0963758 -0.487167 -0.165177 0 255 255
0.16308 -0.296461 -0.185686 48 206 255
0.202044 -0.486937 -0.0129929 0 255 255
0.0126666 -0.387487 0.287365 25 230 255
0.199077 -0.352942 -0.142158 34 221 255
0.147046 -0.242812 -0.266965 63 192 255
0.349318 -0.354849 -0.143534 34 221 255
0.0187947 -0.486859 -0.026967 0 255 255
-0.215623 -0.449786 0.340684 10 245 255
-0.232455 -0.240584 0.0480639 63 192 255
-0.188096 -0.486704 0.257531 0 255 255
-0.067222 -0.487002 -0.121969 0 255 255
-0.230032 -0.419172 0.0794573 17 238 255
0.35305 -0.363234 -0.0407079 32 223 255
0.287245 -0.486891 -0.151189 0 255 255
0.14283 -0.487 0.129649 0 255 255
0.097638 -0.270043 0.261791 56 199 255
0.367277 -0.485733 -0.111414 0 255 255
-0.0283551 -0.223011 0.257573 68 187 255
0.153611 -0.48699 0.211017 0 255 255
0.0397964 -0.487046 0.269061 0 255 255
0.275167 -0.424987 0.0748649 16 239 255
0.0216804 -0.487405 -0.184392 0 255 255
-0.201364 -0.345791 -0.0657123 36 219 255
-0.0285977 -0.349173 0.249019 35 220 255
-0.12826 -0.486665 -0.131756 0 255 255
-0.222816 -0.274633 0.0833815 54 201 255
0.165473 -0.486951 -0.148693 0 255 255
-0.159118 -0.269728 0.25394 56 199 255
0.269642 -0.384579 -0.0705555 26 229 255
-0.215964 -0.361705 0.283824 32 223 255
-0.186552 -0.454928 -0.00454117 8 247 255
0.0788269 -0.437549 0.0230637 13 242 255
0.115505 -0.357592 0.255076 32 222 255
-0.0879384 -0.487251 0.134938 0 255 255
0.108644 -0.486738 -0.238039 0 255 255
0.379783 -0.440616 0.0779193 12 243 255
-0.222885 -0.486402 0.0855296 0 255 255
0.0479247 -0.487226 0.400157 0 255 255
-0.0720809 -0.412826 0.245417 19 236 255
-0.219338 -0.426633 0.232315 15 240 255
-0.215824 -0.456756 -0.14812 8 247 255
-0.138553 -0.487038 0.446628 0 255 255
-0.0758918 -0.487334 0.320758 0 255 255
0.0502081 -0.477887 -0.106551 2 253 255
-0.172016 -0.486697 -0.242287 0 255 255
0.289539 -0.371846 -0.013675 29 226 255
-0.21826 -0.344972 0.118993 36 219 255
0.148892 -0.295949 -0.287829 48 206 255
-0.128654 -0.48731 0.238546 0 255 255
-0.227192 -0.219363 -0.0613477 69 186 255
-0.195681 -0.486723 0.336872 0 255 255
0.0600456 -0.487201 0.203253 0 255 255
0.273952 -0.487078 0.10858 0 255 255
-0.231087 -0.39116 -0.0411551 25 230 255
0.144524 -0.487041 -0.0964686 0 255 255
0.197747 -0.356197 -0.0654779 32 222 255
0.0326632 -0.224085 0.263321 67 188 255
-0.0685159 -0.487053 -0.174383 0 255 255
-0.198197 -0.215076 0.27495 70 185 255
-0.229968 -0.453216 0.287382 9 246 255
-0.0161846 -0.487148 -0.26265 0 255 255
0.339091 -0.486381 -0.019059 0 255 255
0.42587 -0.381096 -0.0402753 27 228 255
0.0674074 -0.337508 0.0194325 38 217 255
0.0766196 -0.478451 -0.291874 2 253 255
0.30719 -0.485673 0.0532432 0 255 255
-0.226689 -0.261109 -0.118962 58 197 255
-0.224139 -0.21539 0.218233 70 185 255
0.0765487 -0.486843 0.325839 0 255 255
0.148504 -0.487173 -0.204576 0 255 255
-0.0193543 -0.487283 -0.128858 0 255 255
0.0793796 -0.486895 -0.060906 0 255 255
0.34787 -0.366479 0.00128899 31 224 255
-0.212573 -0.397502 0.0655963 23 232 255
-0.155608 -0.486821 0.0628271 0 255 255
0.300167 -0.487487 0.287365 0 255 255
-0.231322 -0.275606 0.163636 54 201 255
-0.00182254 -0.305458 0.270732 46 209 255
-0.220137 -0.220176 0.108117 68 187 255
0.129003 -0.486853 0.00841345 0 255 255
-0.216301 -0.382445 0.202422 27 228 255
-0.231564 -0.291976 -0.0244453 50 205 255
0.0012586 -0.487128 0.329771 0 255 255
-0.0964334 -0.487379 0.196245 0 255 255
-0.0804856 -0.487058 -0.264534 0 255 255
-0.196119 -0.486354 -0.0326002 0 255 255
0.170037 -0.400066 -0.279338 22 233 255
-0.203168 -0.305073 -0.0693204 47 208 255
0.162667 -0.249987 -0.137635 60 194 255
0.198547 -0.371349 0.0276965 30 225 255
0.00986297 -0.461679 -0.00612683 6 249 255
0.389508 -0.340162 -0.134251 38 217 255
-0.197657 -0.4258 -0.0750256 16 239 255
-0.0751743 -0.487281 0.392511 0 255 255
0.250167 -0.299987 0.0248649 48 207 255
-0.072833 -0.487009 -0.0708328 0 255 255
0.147357 -0.487024 0.292601 0 255 255
-0.205458 -0.48498 0.449325 1 254 255
0.183282 -0.487027 0.0966285 0 255 255
-0.206353 -0.387843 -0.00254461 25 230 255
-0.091367 -0.240859 0.259959 63 192 255
0.333172 -0.486381 -0.071332 0 255 255
0.414576 -0.426759 -0.0103415 15 240 255
0.379696 -0.368245 0.0684446 30 225 255
0.0755189 -0.487028 0.158347 0 255 255
0.242226 -0.485969 -0.167478 0 255 255
0.194681 -0.460517 -0.283037 7 248 255
0.262789 -0.368175 0.0311707 30 225 255
0.0521147 -0.486879 -0.00371309 0 255 255
0.158682 -0.335152 -0.292362 39 216 255
-0.226049 -0.329809 0.267443 40 215 255
0.0566977 -0.268884 0.26751 56 199 255
0.137598 -0.350877 -0.025374 35 220 255
-0.218583 -0.342176 0.0432751 36 218 255
0.263269 -0.486974 -0.0158057 0 255 255
0.178399 -0.29139 -0.207511 50 205 255
-0.20774 -0.486619 0.192115 0 255 255
-0.152603 -0.486842 -0.202818 0 255 255
0.326189 -0.361717 -0.0675365 32 223 255
0.262667 -0.274987 -0.175135 54 201 255
0.427275 -0.439072 0.0568551 12 243 255
-0.0891809 -0.379853 0.250389 27 228 255
0.389286 -0.47934 -0.069994 2 253 255
-0.0819584 -0.487075 0.243295 0 255 255
0.259623 -0.485921 -0.262143 0 255 255
-0.231207 -0.228902 0.0213373 65 189 255
-0.216892 -0.339172 0.161167 38 217 255
-0.211118 -0.486086 0.0429629 0 255 255
-0.223546 -0.214221 0.178393 70 185 255
0.360467 -0.486873 0.0340786 0 255 255
-0.0978671 -0.312336 0.258447 44 210 255
0.0997312 -0.486965 0.102025 0 255 255
-0.165531 -0.480984 0.00498953 2 253 255
0.185173 -0.486974 0.0384964 0 255 255
0.187667 -0.287487 0.037365 51 204 255
0.125167 -0.424987 0.274865 16 239 255
0.1576 -0.400561 -0.0623099 22 233 255
-0.110724 -0.487093 0.362756 0 255 255
0.0978245 -0.486972 -0.125174 0 255 255
0.375167 -0.487487 -0.225135 0 255 255
0.215791 -0.486887 -0.110409 0 255 255
-0.174489 -0.486864 0.300933 0 255 255
0.141102 -0.478446 -0.287989 2 253 255
0.338487 -0.486135 0.118477 0 255 255
-0.219989 -0.323901 -0.116991 42 213 255
0.320891 -0.487008 -0.152014 0 255 255
0.281302 -0.487041 0.200851 0 255 255
-0.178199 -0.486329 -0.134214 0 255 255
0.401264 -0.359136 -0.020959 32 222 255
0.326075 -0.391143 0.0668931 25 230 255
-0.215552 -0.429145 0.190487 15 240 255
0.162623 -0.393431 -0.187228 24 231 255
-0.22155 -0.224966 -0.126736 67 188 255
0.174826 -0.269747 -0.271008 56 199 255
-0.0248334 -0.412487 0.0248649 19 236 255
-0.0981419 -0.486902 0.0369773 0 255 255
0.170833 -0.347874 -0.126492 36 219 255
-0.0212208 -0.487322 0.223907 0 255 255
-0.223578 -0.450093 -0.0252801 9 246 255
0.0304738 -0.357742 0.0185462 32 222 255
-0.0266297 -0.484099 -0.0365923 1 254 255
-0.221305 -0.259222 0.22509 58 197 255
0.00429174 -0.487039 0.288359 0 255 255
0.450167 -0.462487 -0.0251351 6 249 255
-0.22944 -0.457057 0.103581 8 247 255
-0.176325 -0.485154 0.193121 0 255 255
0.229401 -0.356973 -0.0312354 32 222 255
0.114049 -0.486916 0.0407119 0 255 255
-0.210981 -0.266037 0.286499 56 198 255
0.121585 -0.344485 0.0225048 36 219 255
-0.217564 -0.486857 -0.179247 0 255 255
0.198377 -0.486911 -0.0375401 0 255 255
-0.221064 -0.296208 0.0218855 48 206 255
-0.0156979 -0.260953 0.272807 58 197 255
-0.0989279 -0.486817 -0.0481516 0 255 255
0.241223 -0.375112 -0.0965505 29 226 255
-0.193287 -0.486724 0.360138 0 255 255
0.281515 -0.486616 -0.204841 0 255 255
0.385381 -0.360612 -0.0692687 32 223 255
0.367247 -0.398072 0.0258275 23 232 255
-0.223009 -0.297378 0.106198 48 206 255
0.162667 -0.274987 0.249865 54 201 255
0.269401 -0.486866 0.0280255 0 255 255
0.0118633 -0.487221 0.395489 0 255 255
0.0679866 -0.41239 0.0307634 19 236 255
-0.104193 -0.486175 0.10621 0 255 255
-0.230694 -0.297621 0.193573 48 207 255
-0.201912 -0.486338 -0.0819978 0 255 255
0.292557 -0.487004 -0.1096 0 255 255
-0.191067 -0.486647 -0.283773 0 255 255
-0.227852 -0.433553 0.273739 14 241 255
-0.102135 -0.486945 -0.203504 0 255 255
0.157665 -0.48694 0.207238 0 255 255
-0.151005 -0.486881 0.425479 0 255 255
-0.138453 -0.25291 0.256112 60 195 255
0.181887 -0.338512 -0.261711 38 217 255
-0.0723008 -0.487068 0.442982 0 255 255
-0.217958 -0.254863 -0.0529003 59 195 255
0.362667 -0.424987 -0.0626351 16 239 255
0.389055 -0.348977 -0.165888 35 220 255
0.11703 -0.252345 0.258706 60 195 255
0.0206747 -0.482752 -0.125117 1 254 255
-0.0303125 -0.37197 0.244809 29 226 255
-0.228347 -0.376591 0.251944 28 227 255
0.385693 -0.470492 0.0547381 4 251 255
0.319566 -0.369357 0.0278567 30 225 255
-0.225522 -0.416391 0.0393895 18 237 255
-0.055438 -0.487337 0.341166 0 255 255
0.0410858 -0.455282 0.0173168 8 247 255
0.143611 -0.48689 -0.0651106 0 255 255
0.0620787 -0.486772 0.268844 0 255 255
-0.215481 -0.370332 0.109876 30 225 255
-0.221785 -0.354344 -0.071351 34 221 255
-0.230776 -0.248556 0.119052 60 194 255
0.412667 -0.349987 0.099865 35 220 255
-0.223822 -0.418369 -0.090913 18 237 255
-0.180214 -0.486658 0.165673 0 255 255
0.00845759 -0.360583 -0.0125001 32 223 255
-0.161732 -0.486049 0.0876894 0 255 255
-0.211011 -0.318021 0.235855 43 211 255
0.061819 -0.486998 -0.286824 0 255 255
0.13299 -0.487023 -0.153384 0 255 255
0.212526 -0.382286 -0.27171 27 228 255
-0.212601 -0.338164 -0.00638549 38 217 255
-0.167701 -0.468935 -0.0271741 5 250 255
0.289373 -0.487001 -0.0532557 0 255 255
0.313811 -0.487231 0.158124 0 255 255
-0.119908 -0.486693 -0.136662 0 255 255
-0.225645 -0.432626 0.134683 14 241 255
0.0619856 -0.236981 0.268585 64 191 255
0.4071 -0.348091 -0.111924 36 219 255
0.157676 -0.486123 -0.23366 0 255 255
0.137884 -0.396669 0.012672 23 232 255
0.137976 -0.247483 -0.259019 60 194 255
0.233349 -0.365601 -0.13382 31 224 255
0.045664 -0.486906 -0.0447491 0 255 255
0.0462065 -0.487102 0.217955 0 255 255
-0.204947 -0.485105 0.24886 0 255 255
0.237071 -0.486752 0.0700695 0 255 255
-0.157542 -0.486804 -0.26256 0 255 255
-0.0523764 -0.313176 0.265557 44 210 255
0.0774112 -0.321078 -0.00915878 42 213 255
-0.113698 -0.487159 0.292618 0 255 255
0.434975 -0.433939 0.0129365 14 241 255
-0.219767 -0.212897 0.259907 70 185 255
-0.0300032 -0.487239 0.283908 0 255 255
0.341194 -0.487099 -0.183586 0 255 255
-0.215291 -0.383102 0.166866 27 228 255
0.199725 -0.358229 -0.0139901 32 222 255
-0.0271341 -0.487051 0.423748 0 255 255
0.223654 -0.48584 -0.0782967 0 255 255
0.350566 -0.354945 -0.123542 34 221 255
-0.195122 -0.388902 -0.0410013 25 230 255
0.108369 -0.464792 -0.00232972 6 249 255
-0.230358 -0.232374 -0.00800208 65 190 255
0.0886707 -0.48703 -0.175309 0 255 255
-0.0761076 -0.488245 0.210888 0 255 255
-0.203384 -0.486761 -0.218691 0 255 255
0.217274 -0.486554 0.011115 0 255 255
0.0501667 -0.412487 0.274865 19 236 255
-0.221574 -0.482293 0.308615 1 254 255
-0.230628 -0.292949 -0.0686536 50 205 255
-0.216253 -0.23091 0.0751574 65 189 255
0.173365 -0.300864 -0.184143 48 207 255
0.325516 -0.383989 -0.0366839 26 229 255
-0.0873334 -0.412487 0.287365 19 236 255
0.207346 -0.486933 -0.174366 0 255 255
0.245071 -0.486139 -0.25328 0 255 255
0.0251666 -0.299987 0.0123649 48 207 255
0.0866341 -0.487059 0.309669 0 255 255
-0.0584202 -0.23239 0.264701 65 190 255
-0.230077 -0.242578 0.170884 63 192 255
-0.2307 -0.223357 -0.102658 67 188 255
-0.127932 -0.485179 -0.00506094 0 255 255
-0.224502 -0.413675 -0.011215 19 236 255
0.0493993 -0.487094 0.392605 0 255 255
0.179033 -0.349733 -0.0621392 35 220 255
-0.154152 -0.484712 -0.112656 1 254 255
0.189569 -0.376042 -0.167236 28 227 255
-0.224711 -0.456003 -0.153163 8 247 255
-0.137078 -0.48704 0.352357 0 255 255
0.262721 -0.379381 0.0384484 28 227 255
-0.2181 -0.462036 0.038851 6 249 255
0.00719619 -0.486799 0.00349903 0 255 255
0.173662 -0.372483 -0.294291 29 226 255
0.4199 -0.387115 0.01655 26 229 255
0.419764 -0.411303 -0.0664687 19 236 255
0.0175966 -0.236403 0.250736 64 191 255
-0.206166 -0.484582 0.437274 1 254 255
0.375796 -0.485898 -0.0484774 0 255 255
-0.177059 -0.245147 0.253599 62 193 255
0.166137 -0.486986 -0.116524 0 255 255
-0.23146 -0.335819 0.0717945 39 216 255
-0.17341 -0.486255 0.126333 0 255 255
-0.121957 -0.486736 0.450325 0 255 255
-0.0637921 -0.487033 -0.129479 0 255 255
-0.146703 -0.487119 0.237098 0 255 255
0.175167 -0.337487 0.0623649 38 217 255
0.026492 -0.487134 -0.158168 0 255 255
0.0884674 -0.486885 -0.0904183 0 255 255
-0.0361985 -0.487004 -0.044156 0 255 255
0.359312 -0.430418 0.0724194 14 241 255
0.0393637 -0.30674 0.266631 46 209 255
-0.220508 -0.486479 0.118139 0 255 255
-0.23154 -0.331472 0.159285 40 215 255
0.181804 -0.487044 0.094737 0 255 255
-0.223114 -0.467434 -0.0521746 5 250 255
0.0305655 -0.485814 0.31257 0 255 255
0.260875 -0.371455 -0.054518 30 225 255
0.185264 -0.288287 -0.271923 51 204 255
-0.114998 -0.487074 0.0567334 0 255 255
0.0853847 -0.487045 0.16804 0 255 255
0.0321048 -0.392063 0.0240832 24 231 255
0.128369 -0.487106 -0.273627 0 255 255
0.268133 -0.486882 -0.153479 0 255 255
0.0577864 -0.486898 0.0285762 0 255 255
0.150167 -0.274987 -0.125135 54 201 255
0.270465 -0.487057 0.189558 0 255 255
-0.214391 -0.403002 -0.105628 22 233 255
-0.23003 -0.405335 0.08983 21 234 255
-0.226252 -0.362728 0.219772 32 223 255
0.144776 -0.393467 -0.0594791 24 231 255
0.309005 -0.485517 0.0475578 0 255 255
-0.217802 -0.270659 -0.019629 55 200 255
-0.224846 -0.301965 0.263154 47 208 255
-0.0998334 -0.199987 0.249865 73 182 255
0.216048 -0.473023 -0.285095 4 251 255
-0.0960709 -0.487231 0.128719 0 255 255
-0.20955 -0.463208 0.361441 6 249 255
0.158627 -0.487098 -0.189949 0 255 255
-0.0766178 -0.37446 0.256725 29 226 255
0.0147693 -0.487112 -0.100799 0 255 255
0.14221 -0.486873 -0.0279894 0 255 255
-0.224223 -0.279994 -0.12357 52 202 255
0.102142 -0.386468 0.020366 26 229 255
0.212667 -0.437487 0.0248649 13 242 255
0.124638 -0.486839 0.28719 0 255 255
0.19204 -0.398333 -0.198752 23 232 255
-0.031917 -0.487159 0.36264 0 255 255
0.336626 -0.486892 0.117923 0 255 255
0.200167 -0.249987 -0.175135 60 194 255
0.200167 -0.287487 0.0123649 51 204 255
0.118762 -0.487087 0.110678 0 255 255
-0.0869005 -0.265597 0.266356 56 198 255
-0.226678 -0.219049 -0.0680089 69 186 255
0.260122 -0.487083 0.0931227 0 255 255
0.373478 -0.365806 0.033847 31 224 255
-0.232314 -0.301302 0.0579466 48 207 255
-0.151646 -0.486508 -0.156282 0 255 255
-0.217523 -0.284413 0.155386 52 203 255
0.19549 -0.422859 -0.279041 16 239 255
-0.180744 -0.48656 0.0717322 0 255 255
-0.23092 -0.412109 0.161451 19 236 255
0.162667 -0.412487 0.262365 19 236 255
0.217252 -0.376198 -0.0734465 28 227 255
-0.21985 -0.438716 0.228417 12 243 255
0.350167 -0.487487 0.237365 0 255 255
0.0318874 -0.352934 -0.0212372 34 221 255
-0.204324 -0.313577 -0.0784668 44 211 255
-0.222522 -0.377894 0.0275347 28 227 255
0.00852255 -0.487035 0.23004 0 255 255
-0.0954901 -0.487037 -0.213282 0 255 255
-0.0271649 -0.310938 0.25178 44 210 255
-0.220211 -0.220513 0.0354104 68 187 255
0.253316 -0.486885 -0.0510785 0 255 255
0.315125 -0.386016 0.0121038 26 229 255
0.36843 -0.486852 -0.0841965 0 255 255
0.422563 -0.365055 -0.0467633 31 224 255
-0.213952 -0.486611 -0.145769 0 255 255
0.362667 -0.337487 -0.212635 38 217 255
0.0971791 -0.248179 0.245246 60 194 255
-0.159896 -0.486907 0.275015 0 255 255
0.326087 -0.361701 -0.0666267 32 223 255
-0.0357982 -0.394334 0.254012 24 231 255
0.187248 -0.344412 -0.124397 36 218 255
0.0992637 -0.486945 0.0608826 0 255 255
0.137667 -0.299987 0.037365 48 207 255
-0.222344 -0.47496 0.197536 3 252 255
-0.230958 -0.388516 -0.0468296 25 230 255
-0.0800532 -0.487063 -0.0412124 0 255 255
0.310888 -0.486616 -0.190718 0 255 255
-0.201018 -0.443821 0.00945474 11 244 255
-0.0123333 -0.412487 -0.0251351 19 236 255
0.0659577 -0.487052 -0.27296 0 255 255
0.450167 -0.349987 -0.112635 35 220 255
-0.18291 -0.486642 -0.202744 0 255 255
-0.12124 -0.487211 0.417146 0 255 255
0.186006 -0.486444 0.0518298 0 255 255
-0.0939747 -0.487377 0.202987 0 255 255
0.24508 -0.486857 -0.125759 0 255 255
-0.230731 -0.347929 0.12901 36 219 255
0.181364 -0.379777 0.00898369 27 228 255
-0.0953213 -0.487278 0.321588 0 255 255
-0.0284983 -0.487028 -0.0916226 0 255 255
-0.214725 -0.318082 -0.0115111 43 211 255
-0.0620237 -0.487045 -0.155759 0 255 255
-0.227083 -0.264041 0.207357 56 198 255
0.0699681 -0.349661 0.0237147 35 220 255
-0.229736 -0.446889 0.0806076 10 245 255
-0.21621 -0.450441 0.321097 9 246 255
-0.169079 -0.484683 0.020076 1 254 255
0.315853 -0.486986 -0.045597 0 255 255
-0.218624 -0.237492 -0.131256 64 191 255
0.42798 -0.400861 0.0553968 22 233 255
0.146672 -0.277564 -0.282835 54 201 255
0.343788 -0.356343 -0.132461 32 222 255
-0.0503217 -0.487276 0.25099 0 255 255
-0.230468 -0.23039 0.0858037 65 189 255
0.103914 -0.487216 -0.204872 0 255 255
-0.208533 -0.486349 -0.089621 0 255 255
0.0402504 -0.454594 -0.00930074 8 247 255
0.351457 -0.486576 0.0531341 0 255 255
0.353705 -0.385332 0.0747277 26 229 255
-0.095468 -0.300714 0.26069 48 207 255
0.0608701 -0.487028 0.217054 0 255 255
-0.0367964 -0.487072 0.430829 0 255 255
0.0755533 -0.487004 -0.0670409 0 255 255
0.240466 -0.359094 -0.00332493 32 222 255
0.158669 -0.481975 -0.114735 1 254 255
-0.212422 -0.343919 0.228536 36 218 255
0.384127 -0.349511 -0.168221 35 220 255
-0.188139 -0.4818 0.211534 1 254 255
-0.224242 -0.217326 0.225489 69 186 255
0.187857 -0.48646 -0.273617 0 255 255
0.247964 -0.486959 0.0268148 0 255 255
-0.222723 -0.305827 0.117168 46 209 255
-0.226639 -0.2703 0.0315474 55 200 255
-0.229833 -0.232702 0.152903 65 190 255
-0.170262 -0.268282 0.253158 56 199 255
0.129159 -0.486831 0.0135646 0 255 255
-0.150153 -0.486965 0.31696 0 255 255
-0.114452 -0.487279 0.247019 0 255 255
0.291294 -0.486975 -0.109321 0 255 255
-0.199394 -0.364111 -0.0550022 31 224 255
-0.173676 -0.486629 0.132047 0 255 255
-0.136025 -0.484519 -0.0241269 1 254 255
0.300704 -0.371292 0.0431435 30 225 255
0.162334 -0.3037 -0.190231 47 208 255
-0.0156368 -0.277812 0.272175 54 201 255
-0.224563 -0.417601 0.258482 18 237 255
0.205894 -0.37831 -0.259463 28 227 255
-0.171375 -0.486876 0.449176 0 255 255
-0.0822812 -0.411906 0.246858 19 236 255
0.190544 -0.486892 -0.0258842 0 255 255
-0.00693007 -0.486054 0.325366 0 255 255
-0.103637 -0.486997 0.0304883 0 255 255
-0.204208 -0.486731 -0.234193 0 255 255
0.00891666 -0.335141 0.249747 39 216 255
0.345776 -0.389317 -0.00118328 25 230 255
0.172373 -0.396173 -0.0705743 23 232 255
0.0441647 -0.487034 0.401858 0 255 255
0.397497 -0.352618 -0.0665569 34 221 255
-0.215431 -0.37841 0.082439 28 227 255
-0.216909 -0.366049 0.180174 31 224 255
0.196979 -0.486883 -0.118129 0 255 255
0.0799576 -0.486846 0.319318 0 255 255
-0.0643858 -0.487354 0.39726 0 255 255
-0.224366 -0.274676 0.252659 54 201 255
0.0966185 -0.48696 -0.121682 0 255 255
0.159783 -0.315751 -0.289749 44 211 255
-0.218038 -0.445537 -0.0987386 11 244 255
-0.208152 -0.375628 -0.000768959 29 226 255
0.286377 -0.369583 -0.0576251 30 225 255
0.269791 -0.487045 0.194508 0 255 255
-0.213836 -0.437314 0.175404 13 242 255
0.162667 -0.299987 0.249865 48 207 255
-0.216593 -0.381725 -0.0995221 27 228 255
-0.0796786 -0.486348 -0.0753183 0 255 255
-0.200865 -0.48622 0.362284 0 255 255
-0.203319 -0.486384 0.0450551 0 255 255
0.374179 -0.445071 0.0781408 11 244 255
0.131489 -0.370079 0.0219849 30 225 255
0.046409 -0.279898 0.263518 52 202 255
0.267779 -0.486913 -0.0140856 0 255 255
-0.215283 -0.300657 -0.121404 48 207 255
0.256808 -0.485481 -0.262834 0 255 255
-0.225922 -0.373159 0.265514 29 226 255
0.0308395 -0.487095 0.258333 0 255 255
0.434077 -0.416926 0.0104747 18 237 255
0.153796 -0.243971 -0.267197 62 193 255
0.183679 -0.354976 -0.150949 34 221 255
0.313606 -0.487138 0.123035 0 255 255
-0.218457 -0.345924 0.0440994 36 219 255
-0.0188879 -0.487228 -0.124341 0 255 255
-0.215492 -0.420715 0.116014 17 238 255
0.295263 -0.486513 -0.206041 0 255 255
-0.195777 -0.486727 0.289037 0 255 255
-0.220085 -0.227998 -0.0266522 65 189 255
0.159281 -0.351479 -0.0341261 35 220 255
0.144356 -0.477734 -0.288103 2 253 255
-0.089039 -0.345393 0.253733 36 219 255
0.177212 -0.385648 -0.295841 26 229 255
0.012608 -0.485982 -0.0511205 0 255 255
0.0900174 -0.485711 -0.0113566 0 255 255
0.100951 -0.486885 0.274584 0 255 255
0.00016664 -0.324987 0.0123649 40 214 255
-0.218808 -0.222984 0.128286 68 187 255
-0.147657 -0.48661 0.175904 0 255 255
0.211964 -0.365225 0.0280573 31 224 255
-0.223524 -0.328321 -0.0664567 40 214 255
0.315908 -0.486936 -0.1395 0 255 255
-0.195324 -0.222709 0.273128 68 187 255
0.137667 -0.324987 -0.112635 40 214 255
0.160341 -0.487067 -0.184652 0 255 255
0.0754849 -0.397886 0.0277941 23 232 255
0.162667 -0.224987 0.262365 67 188 255
0.24057 -0.486897 -0.162207 0 255 255
0.416371 -0.357664 -0.106075 32 222 255
-0.178147 -0.46788 -0.0267877 5 250 255
-0.137158 -0.486646 -0.164279 0 255 255
0.00691763 -0.239201 0.275633 63 192 255
-0.102677 -0.487152 0.351058 0 255 255
-0.225492 -0.422934 0.0484143 16 239 255
-0.00892861 -0.376155 0.254756 28 227 255
0.150167 -0.237487 -0.175135 64 191 255
-0.166582 -0.486738 -0.260315 0 255 255
0.0787617 -0.487084 -0.290474 0 255 255
0.293675 -0.485756 0.0421054 0 255 255
0.337667 -0.424987 -0.0626351 16 239 255
0.126923 -0.486967 -0.0702599 0 255 255
-0.137829 -0.486844 0.0741658 0 255 255
0.0977486 -0.337981 0.017451 38 217 255
-0.223879 -0.44051 -0.0244111 12 243 255
-0.231391 -0.322751 0.173949 42 213 255
-0.103644 -0.240666 0.260489 63 192 255
-0.22444 -0.279478 0.0817894 52 202 255
-0.215368 -0.389178 0.214807 25 230 255
-0.100862 -0.48708 0.44878 0 255 255
0.425167 -0.487487 0.149865 0 255 255
0.113237 -0.263315 0.258679 56 198 255
-0.0235391 -0.487349 0.225473 0 255 255
0.156686 -0.487007 0.108621 0 255 255
0.0351626 -0.486953 -0.141012 0 255 255
0.437667 -0.487487 0.0623649 0 255 255
-0.124833 -0.349987 -0.000135067 35 220 255
-0.169225 -0.486286 -0.11302 0 255 255
-0.202601 -0.485481 0.433708 0 255 255
-0.0401277 -0.48722 0.328553 0 255 255
0.415649 -0.403389 -0.0648142 21 234 255
0.232721 -0.48329 -0.0645077 1 254 255
0.372377 -0.375575 0.0764482 29 226 255
0.0587077 -0.486953 0.0239675 0 255 255
-0.0965789 -0.486939 -0.20732 0 255 255
-0.231032 -0.275861 -0.0266846 54 201 255
0.165496 -0.392706 -0.186725 24 231 255
0.375167 -0.487487 0.212365 0 255 255
-0.212685 -0.483758 0.14297 1 254 255
0.255312 -0.487077 0.08706 0 255 255
0.190007 -0.301643 -0.269889 47 208 255
0.225167 -0.274987 0.0248649 54 201 255
0.0460658 -0.486915 -0.0900416 0 255 255
0.370547 -0.486291 -0.078412 0 255 255
0.269272 -0.373108 -0.0878733 29 226 255
-0.228637 -0.446504 0.290871 10 245 255
-0.226942 -0.258082 -0.0932136 59 195 255
-0.118282 -0.486179 0.118466 0 255 255
-0.205207 -0.344132 0.268329 36 218 255
0.112667 -0.424987 0.249865 16 239 255
0.187289 -0.377854 -0.0918364 28 227 255
0.250167 -0.287487 -0.175135 51 204 255
-0.228341 -0.312967 0.0163598 44 210 255
0.137326 -0.487076 -0.231661 0 255 255
-0.103851 -0.486038 -0.00248437 0 255 255
0.261002 -0.363414 0.0224173 32 223 255
0.160729 -0.281724 -0.219375 52 202 255
-0.0290533 -0.487025 -0.0403501 0 255 255
-0.199685 -0.486835 0.219945 0 255 255
-0.214283 -0.258511 0.28273 58 197 255
-0.195028 -0.483025 0.0958901 1 254 255
0.361 -0.485476 0.0829548 0 255 255
-0.230126 -0.282584 0.202347 52 203 255
0.18152 -0.48696 0.0608223 0 255 255
-0.222216 -0.456719 -0.157753 8 247 255
0.172259 -0.486724 -0.0679826 0 255 255
0.00703513 -0.363267 -0.00868087 32 223 255
-0.0597287 -0.289896 0.268501 50 205 255
0.133436 -0.397919 0.00605198 23 232 255
-0.163885 -0.486729 -0.208085 0 255 255
-0.0269337 -0.487191 0.281747 0 255 255
-0.223335 -0.215109 0.181508 70 185 255
0.339411 -0.359815 -0.0586982 32 222 255
-0.230901 -0.400449 -0.0504166 22 233 255
-0.232321 -0.237137 0.0458259 64 191 255
0.0747901 -0.323273 -0.00568039 42 213 255
0.0208912 -0.487044 0.394773 0 255 255
0.212728 -0.401844 -0.27247 22 233 255
-0.203261 -0.302781 -0.0626041 47 208 255
0.0950966 -0.486952 0.0570724 0 255 255
-0.115063 -0.487262 0.250286 0 255 255
0.312048 -0.487039 -0.0474176 0 255 255
0.330296 -0.486982 -0.169428 0 255 255
-0.221371 -0.225626 -0.127039 67 188 255
0.0251666 -0.412487 -0.0751351 19 236 255
-0.230557 -0.357422 0.12599 32 222 255
0.116478 -0.487041 -0.164581 0 255 255
0.174165 -0.348613 -0.00118409 35 220 255
0.129995 -0.486838 0.293935 0 255 255
0.0409154 -0.23097 0.268416 65 189 255
0.346207 -0.366419 -0.00134537 31 224 255
0.226156 -0.369329 -0.119789 30 225 255
0.423952 -0.405505 0.0618557 21 234 255
0.0509267 -0.453451 0.0177337 9 246 255
0.137667 -0.437487 -0.287635 13 242 255
0.35201 -0.35454 -0.127055 34 221 255
0.208482 -0.48691 -0.165064 0 255 255
0.247051 -0.361771 -0.0464974 32 223 255
0.0553252 -0.487076 0.21136 0 255 255
-0.218478 -0.293841 0.143228 48 206 255
0.198245 -0.486892 -0.0139469 0 255 255
0.395604 -0.358558 -0.0346934 32 222 255
-0.0123333 -0.424987 0.274865 16 239 255
-0.040172 -0.487177 0.378534 0 255 255
-0.208733 -0.433807 0.0208134 14 241 255
-0.123727 -0.260373 0.259101 58 197 255
-0.128838 -0.48721 0.198362 0 255 255
-0.229473 -0.457257 0.103057 8 247 255
0.280756 -0.487202 0.197785 0 255 255
-0.210042 -0.348162 -0.032858 36 219 255
0.249253 -0.486948 -0.0914245 0 255 255
-0.0509158 -0.487115 -0.144814 0 255 255
-0.148418 -0.486901 0.327761 0 255 255
-0.18469 -0.486668 -0.280129 0 255 255
0.283634 -0.484407 0.00754451 1 254 255
-0.215333 -0.386698 0.0464477 26 229 255
0.326823 -0.383345 0.0640019 27 228 255
-0.21701 -0.330259 -0.109841 40 215 255
0.251133 -0.479032 -0.263776 2 253 255
0.0645313 -0.458917 -0.026916 7 248 255
0.0907528 -0.254708 0.265194 59 195 255
-0.197541 -0.394589 -0.0629987 24 231 255
-0.21481 -0.417104 0.238443 18 237 255
-0.127495 -0.486625 -0.133609 0 255 255
0.431568 -0.437581 0.00983108 13 242 255
0.16873 -0.355861 -0.291719 34 221 255
-0.224851 -0.301704 0.262816 47 208 255
0.412193 -0.352748 -0.126127 34 221 255
-0.104901 -0.486936 0.0507554 0 255 255
-0.231461 -0.334434 0.0726242 39 216 255
-0.228622 -0.404389 0.119465 21 234 255
-0.0317892 -0.229813 0.260558 65 189 255
-0.227309 -0.468872 0.302143 5 250 255
0.172786 -0.46083 -0.285505 7 248 255
0.158461 -0.481196 -0.126484 1 254 255
-0.188764 -0.482887 0.0127966 1 254 255
-0.230802 -0.248605 0.106556 60 194 255
-0.230701 -0.232046 0.00282997 65 190 255
0.0372113 -0.365291 0.0222815 31 224 255
-0.224317 -0.23733 0.244707 64 191 255
0.0101446 -0.487029 0.295185 0 255 255
-0.223708 -0.457955 -0.0845901 7 248 255
0.35216 -0.486556 0.0522968 0 255 255
-0.218426 -0.236317 -0.0729914 64 191 255
0.148114 -0.246481 -0.26963 62 193 255
-0.0103457 -0.361601 0.258573 32 223 255
0.190917 -0.39492 -0.194454 24 231 255
0.382985 -0.480631 -0.0779078 2 253 255
-0.212811 -0.330931 0.208565 40 215 255
0.130471 -0.486762 -0.00424891 0 255 255
-0.0563665 -0.48739 0.220115 0 255 255
0.0126964 -0.461261 -0.00407919 7 248 255
-0.171484 -0.486712 0.175083 0 255 255
-0.0766593 -0.40636 0.248179 21 234 255
-0.108754 -0.486931 0.450497 0 255 255
-0.215082 -0.379604 0.159437 27 228 255
0.150167 -0.287487 0.0248649 51 204 255
-0.0648031 -0.486838 -0.0839063 0 255 255
-0.202944 -0.485112 0.448531 0 255 255
0.287667 -0.299987 -0.175135 48 207 255
0.127802 -0.485578 -0.207703 0 255 255
0.0784451 -0.487141 -0.288649 0 255 255
-0.180966 -0.486826 0.275862 0 255 255
-0.237333 -0.487487 0.0123649 0 255 255
0.242238 -0.486966 0.025814 0 255 255
0.412429 -0.383333 -0.00872134 27 228 255
0.266919 -0.377878 0.0384628 28 227 255
-0.164125 -0.486677 0.0546351 0 255 255
-0.229247 -0.311028 -0.031054 44 210 255
0.450167 -0.449987 -0.0501351 9 246 255
0.0728949 -0.487014 0.315639 0 255 255
-0.215362 -0.486787 -0.182502 0 255 255
0.183547 -0.350782 -0.0371427 35 220 255
-0.224547 -0.375973 -0.00929961 28 227 255
0.273523 -0.486882 -0.15374 0 255 255
0.257489 -0.487051 0.0887474 0 255 255
0.0757193 -0.484096 -0.104247 1 254 255
0.162847 -0.301658 -0.189338 47 208 255
0.324582 -0.487151 0.121203 0 255 255
0.42146 -0.390809 -0.0821768 25 230 255
0.0471473 -0.487019 0.395994 0 255 255
-0.0685713 -0.344034 0.257332 36 218 255
0.381969 -0.366955 0.0602379 31 224 255
0.224064 -0.467258 -0.279033 5 250 255
0.17615 -0.486996 0.0845434 0 255 255
0.0451047 -0.487061 0.255951 0 255 255
-0.228706 -0.23462 0.18482 65 190 255
-0.0927524 -0.48722 0.328898 0 255 255
-0.226172 -0.338514 0.264332 38 217 255
-0.177445 -0.253574 0.253567 60 195 255
-0.212991 -0.454907 0.336511 8 247 255
-0.219124 -0.426935 -0.0949836 15 240 255
0.117373 -0.485169 -0.0471462 0 255 255
0.175523 -0.364729 -0.128595 31 224 255
-0.218039 -0.461674 -0.0267803 6 249 255
0.0177062 -0.486997 -0.133662 0 255 255
0.206325 -0.486876 -0.120364 0 255 255
0.150167 -0.287487 -0.112635 51 204 255
-0.184811 -0.483349 -0.0826117 1 254 255
-0.215589 -0.416942 0.185328 18 237 255
0.113209 -0.397688 0.0146847 23 232 255
0.241737 -0.486992 -0.0182967 0 255 255
0.315905 -0.367127 -0.0115647 31 224 255
-0.125586 -0.487282 0.27224 0 255 255
0.0388465 -0.486813 0.0119166 0 255 255
0.437667 -0.487487 0.0123649 0 255 255
0.349134 -0.485771 -0.0496933 0 255 255
-0.219848 -0.470054 0.259961 4 251 255
-0.0742317 -0.260667 0.267999 58 197 255
-0.216773 -0.333918 0.0156461 39 216 255
-0.0626123 -0.487166 0.424472 0 255 255
0.336647 -0.354541 -0.138757 34 221 255
0.226971 -0.371698 -0.00110277 30 225 255
-0.224365 -0.371352 -0.0799469 30 225 255
-0.223743 -0.248967 -0.130745 60 194 255
-0.0896463 -0.486888 -0.0389719 0 255 255
0.288119 -0.486943 -0.10955 0 255 255
0.279148 -0.380555 -0.0851046 27 228 255
0.151561 -0.299211 -0.288242 48 207 255
0.167434 -0.48457 -0.252991 1 254 255
-0.223299 -0.303059 0.0930395 47 208 255
0.121495 -0.486848 0.0278606 0 255 255
0.0284435 -0.346422 -0.0129283 36 219 255
0.0463485 -0.265987 0.268905 56 198 255
-0.160973 -0.486365 0.435309 0 255 255
0.37143 -0.423774 0.0774433 16 239 255
-0.0925346 -0.487342 0.204809 0 255 255
-0.218773 -0.223273 0.127831 68 187 255
-0.030293 -0.485582 -0.0264387 0 255 255
-0.226125 -0.275255 0.0252614 54 201 255
-0.183247 -0.486769 0.332927 0 255 255
-0.214666 -0.44042 0.130746 12 243 255
0.16341 -0.345183 0.0152549 36 219 255
0.0626666 -0.399987 0.274865 22 233 255
