ply
format ascii 1.0
comment Created by Open3D
element vertex 1601
property double x
property double y
property double z
end_header
-0.258991 -0.153644 -0.0166899
0.139647 -0.135678 0.0907849
-0.12172 0.0533853 -0.308873
-0.279313 0.0059666 0.0187914
0.0231385 -0.0642816 -0.337283
-0.20176 -0.046506 -0.00339438
-0.233003 0.116749 0.156493
-0.134769 -0.139505 -0.204936
-0.117196 0.0610188 -0.00797912
-0.146449 0.0551907 -0.18899
-0.250968 -0.0591632 -0.312828
0.185996 -0.103081 -0.082511
-0.166646 -0.011411 -0.345434
0.107108 0.0578055 -0.33242
-0.216073 -0.0836648 0.214173
0.194123 -0.0686388 -0.165663
-0.188879 -0.125909 0.135421
-0.00613497 0.0612519 0.0346086
-0.163388 -0.0208197 0.114738
-0.0557332 -0.0579731 0.127649
0.204047 0.0917959 -0.311963
0.14941 -0.181741 -0.331101
-0.0570745 0.0618303 -0.296563
-0.227029 -0.0970839 -0.125378
0.0385553 0.0188413 -0.186366
-0.214611 -0.134846 -0.190723
-0.0143583 -0.0885917 -0.282464
-0.15214 -0.0675027 -0.195722
0.0845053 -0.139742 0.151587
-0.151338 -0.0991739 -0.0642048
-0.168857 0.0681691 -0.23551
-0.0884427 -0.150713 -0.243558
-0.107348 0.00742042 -0.0797101
-0.163127 -0.157406 0.0915549
0.0749979 -0.0823183 -0.191524
0.0264346 -0.0491872 0.296834
0.133461 0.0148786 0.0075012
-0.0892267 -0.0998266 0.0530402
-0.248059 -0.113751 -0.333544
0.350222 -0.0166084 -0.196174
-0.249515 0.0365421 -0.183717
-0.246059 -0.157482 0.196542
0.0963152 -0.011184 -0.273034
0.244688 -0.137106 -0.143711
-0.233588 -0.0657521 -0.0555803
0.240747 -0.161931 -0.373709
0.081303 -0.0355621 -0.366663
0.0068361 -0.0827531 0.0923606
0.0656458 0.019581 0.0554435
0.165218 -0.109436 -0.33486
-0.158082 0.0791276 -0.0950566
-0.0373622 -0.16352 0.284349
0.337385 -0.105295 -0.224629
-0.221278 -0.118074 0.0671059
-0.0548332 0.00147566 -0.352748
0.0324063 -0.160871 -0.24301
-0.107022 -0.0994706 0.191465
-0.0150757 -0.164572 -0.369044
0.183329 0.0992557 0.0773797
-0.0704771 0.0798331 0.160231
-0.18975 -0.174358 0.278143
0.0427653 0.00202483 -0.134997
0.42954 -0.0140598 -4.34369e-05
0.082662 -0.133414 -0.110461
-0.180604 0.0970922 -0.155575
0.234406 0.00605398 -0.0624394
-0.229501 0.0319177 0.12934
-0.197149 -0.144119 -0.096926
0.206011 -0.0553549 0.0361677
-0.0616169 -0.0374135 0.075214
0.133045 -0.0388074 -0.0766556
0.416357 0.0334733 -0.0788358
-0.194991 -0.0268293 -0.170175
-0.146098 -0.167192 0.176063
-0.0127279 0.0221911 0.166457
-0.272489 -0.118229 0.222673
-0.282922 -0.0325938 -0.024412
-0.213411 -0.0898424 -0.27466
-0.224396 0.0367638 0.056916
-0.210226 0.0617789 -0.072007
0.0703311 -0.0766516 0.0590143
0.258489 -0.132516 -0.250201
0.116679 -0.120663 -0.195945
0.371612 -0.0727817 -0.272593
-0.104274 0.00767139 0.0873651
0.0695655 -0.117664 -0.0412997
0.0224462 -0.151315 -0.163191
0.0130812 0.115104 -0.303832
0.304123 -0.0615293 0.0312432
-0.138735 0.125039 -0.288165
-0.01463 -0.0460383 -0.13113
-0.0586633 -0.115353 -0.183572
-0.234933 -0.00635853 0.19791
-0.230112 0.123858 -0.0705058
-0.0742991 -0.165688 0.228202
0.276683 -0.138226 -0.0511137
0.145198 -0.00155848 -0.136998
0.363754 -0.128557 0.0170947
-0.189934 -0.0279014 0.050812
-0.20369 0.0678443 -0.271494
-0.277775 -0.0553472 -0.148406
-0.157868 -0.0618941 0.209262
-0.157003 0.0925255 0.0193979
-0.212337 0.125023 0.0895325
-0.100065 -0.0702154 -0.0141452
0.414728 -0.0711013 -0.15471
0.270415 -0.0795356 -0.108749
-0.276385 0.069489 0.0333058
0.0281671 0.0642467 -0.296632
0.0534364 -0.0656436 -0.0625259
0.0277255 -0.14658 0.23941
0.239435 -0.081842 -0.291542
-0.272259 -0.0685899 -0.227386
0.248216 -0.0266209 -0.195469
-0.0685757 -0.154836 -0.309465
-0.231877 0.059909 -0.126822
-0.128426 -0.141831 -0.361079
-0.0858606 -0.156062 0.0954085
-0.254973 -0.130605 0.153931
-0.291864 -0.146302 -0.00267486
0.121972 -0.0568119 -0.251233
-0.214221 -0.0343226 -0.102558
-0.147971 -0.151146 0.00612018
-0.195839 0.0557775 0.173195
-0.272564 -0.183131 0.194574
0.344923 0.014976 -0.00182611
0.382594 -0.10746 -0.0811863
0.0955168 -0.179077 -0.356814
0.16235 -0.0180675 -0.354495
-0.00765597 0.0108787 -0.235637
0.0991258 -0.147113 0.000839174
-0.152353 -0.0698994 -0.308852
-0.283765 -0.132031 -0.173113
-0.0679901 -0.0671484 0.29639
0.294493 -0.154674 -0.181712
-0.0345857 -0.148732 -0.132883
-0.0987278 0.039016 -0.255684
0.239431 -0.142026 0.0037652
0.064357 -0.112122 -0.334487
-0.0140408 -0.027469 0.0168602
0.406873 -0.11413 -0.222033
-0.177403 -0.128379 -0.395841
-0.109555 -0.131419 0.145119
0.138955 -0.153285 -0.108355
-0.183279 -0.0705421 -0.224087
-0.0855777 0.120042 -0.309237
0.334987 0.122141 -0.353397
0.259873 -0.136298 0.073264
-0.0604926 -0.0261922 0.154904
-0.291925 -0.136305 0.0962348
-0.281278 0.00529334 0.0686222
0.267191 -0.0150904 0.0376277
0.333868 -0.0244653 -0.277048
-0.13504 -0.181889 0.305978
0.223539 0.0131325 -0.328679
-0.0308427 -0.148581 0.0364655
-0.126693 -0.14429 -0.273046
0.337695 -0.00474253 -0.145769
0.287145 -0.14796 -0.340869
-0.130314 -0.0267337 -0.186034
0.368315 -0.141327 -0.167558
0.0448088 0.0579509 -0.0646259
0.140111 0.110404 -0.316661
-0.275927 0.0706204 0.118611
0.340488 -0.18763 -0.289819
0.127198 -0.166572 -0.208511
-0.288291 -0.0783311 -0.0758243
0.080514 -0.00489244 -0.321328
-0.227452 -0.190745 0.27144
-0.246439 -0.143131 -0.100564
-0.141049 0.0201651 0.0508576
-0.00526312 -0.0331563 -0.0718856
0.414597 -0.0653049 -0.02229
0.137252 -0.129284 0.149404
0.274456 -0.0675852 -0.329483
0.209162 -0.0397307 -0.125442
-0.252018 -0.0596797 0.0543995
-0.050105 0.0125347 0.089035
-0.234067 0.013593 -0.0423951
-0.209738 -0.140194 0.0187848
-0.210637 -0.0386782 -0.289662
0.167732 -0.144106 0.01915
-0.0673502 -0.0116478 -0.294856
0.0198713 0.0767365 0.131696
0.0707408 -0.0755025 -0.133031
-0.194098 -0.0806845 0.125983
-0.101247 -0.0502748 0.0398099
-0.156615 -0.122936 -0.13721
0.180357 0.000153542 -0.0352276
0.152022 -0.0355698 0.0428311
0.125246 -0.174135 -0.277652
-0.147685 0.0909303 0.139643
-0.120826 0.0294594 -0.145837
0.220549 -0.172079 -0.250819
0.00207772 -0.0714777 0.13819
-0.233871 -0.103843 -0.176072
0.183849 -0.14936 -0.0680336
-0.0903009 -0.0585605 -0.342595
0.429153 -0.00364313 -0.0569199
-0.239415 -0.0829605 -0.355244
-0.0357565 0.0948073 -0.343592
-0.264994 -0.118437 -0.278034
0.0488549 0.0162337 0.140816
-0.05438 -0.0969072 -0.0892926
-0.189129 0.107606 -0.258448
0.176924 -0.0333601 -0.260428
0.0705913 0.112727 -0.297878
0.016759 -0.126817 -0.225682
-0.21205 0.127262 0.0392513
0.00421859 -0.0312264 -0.276228
0.123708 -0.0302166 -0.187689
0.0358922 0.116859 -0.195078
0.32788 -0.122493 -0.280606
-0.240575 -0.0242747 0.14058
-0.17074 0.00108844 -0.251501
-0.0770046 -0.0204311 -0.107902
0.223173 0.029194 0.0273287
0.305237 -0.0292733 -0.11934
0.0902059 -0.139313 0.194408
0.0517987 -0.0349372 0.0170489
0.0453341 -0.145786 0.0107418
0.139552 -0.0909041 -0.372122
-0.267515 0.0408252 0.177613
-0.174816 0.0295874 -0.347752
-0.0297418 -0.147166 -0.0747001
0.0300936 0.0525925 -0.345058
0.193954 -0.148408 -0.305054
-0.242436 -0.174594 0.156767
-0.113087 0.064601 -0.334747
-0.173248 0.0375358 0.100336
-0.0459898 -0.119084 0.139515
-0.0720928 -0.0415356 -0.0436402
-0.0323923 -0.110505 -0.38757
-0.147008 -0.176751 0.238893
0.370983 -0.174128 -0.248385
0.0239514 -0.140173 -0.295679
0.2645 -0.190448 -0.348687
-0.267471 0.0888035 -0.0139446
0.0342557 0.0356983 -0.143794
-0.189712 0.139091 -0.0978568
0.126725 0.0291933 0.0567305
0.0244286 -0.145525 0.100129
-0.0909291 0.0564818 0.00756076
-0.0106445 -0.0301382 -0.331997
0.181285 -0.144197 -0.395274
-0.197063 -0.16846 0.150845
-0.0996896 -0.13066 -0.0557452
0.315751 -0.132286 0.0424243
-0.288063 -0.0839244 0.0155489
0.317084 -0.133255 -0.0927225
-0.204891 -0.124977 -0.339688
-0.115759 0.0313331 0.162254
-0.158582 -0.0465557 -0.352105
0.378774 -0.0392287 0.0234863
0.0759717 -0.105713 -0.244394
0.364549 -0.0637421 -0.129895
-0.172996 0.0536745 -0.0126989
0.153488 0.0595172 -0.285157
-0.267232 0.107559 0.084072
-0.18164 -0.0974129 -0.17363
0.135555 -0.0786925 -0.300228
0.0087951 -0.0643176 -0.041169
-0.188838 0.156356 -0.199024
-0.117617 -0.027028 0.184488
-0.196501 0.0540932 -0.201218
0.20956 -0.061575 -0.226684
0.0732468 -0.154799 -0.187473
0.238704 -0.15699 -0.18745
0.192997 -0.0440756 -0.0362206
-0.0128143 -0.0959463 -0.18664
-0.274738 -0.0502298 0.198968
-0.109491 -0.0883934 -0.29766
-0.0735498 0.0666084 0.0925783
-0.28244 -0.145903 -0.0617439
0.263099 -0.184874 -0.290892
0.0168512 0.0320285 0.0393067
0.209219 0.00586823 -0.0964324
0.0149075 -0.123724 -0.368243
0.246404 0.0578723 -0.288983
-0.205864 -0.152346 -0.0253154
-0.0379716 -0.156602 -0.245538
-0.227226 -0.128889 -0.220671
0.192262 -0.150896 -0.131629
-0.261576 0.0609314 -0.116807
-0.236546 -0.014931 -0.154267
0.226425 -0.139542 0.0909326
0.257782 -0.0590335 -0.00889484
0.0710688 -0.149092 -0.0583118
-0.199338 0.029936 -0.0836957
0.0297097 -0.0190078 0.0664017
0.128413 -0.0538718 -0.120991
0.388924 0.0267992 -0.0213606
-0.220804 -0.149823 0.221752
-0.161657 -0.088769 0.218272
0.0712837 0.0601292 0.120239
0.22813 0.144109 -0.32394
-0.207617 0.132614 -0.024736
-0.28305 -0.0775661 0.12694
-0.226012 0.108747 -0.182772
-0.140146 0.0341502 -0.299191
-0.072974 -0.0565621 -0.171192
0.0991159 -0.098688 0.036791
-0.136362 -0.0336649 -0.00463247
-0.253609 0.123077 0.14266
0.373329 -0.0270831 -0.241691
-0.287458 -0.167292 0.0831591
-0.0400746 -0.0669726 -0.27278
0.356734 0.0168762 -0.0963593
-0.0735378 0.0140709 0.142042
0.181589 -0.103001 0.0157298
-0.170022 0.1544 -0.288889
0.244824 0.0188386 -0.0266198
-0.0289823 0.057816 0.0464909
0.275358 0.0082283 -0.282135
-0.272783 -0.0536087 -0.192514
-0.150632 0.0717217 -0.132901
0.102322 0.0161276 -0.219997
-0.179713 0.0163818 0.183031
-0.187307 0.0814418 0.0547979
-0.0725422 0.0101189 -0.204279
-0.201001 0.0273138 -0.289954
-0.129424 -0.146498 -0.105953
-0.112444 -0.0853201 0.147941
0.283548 -0.123236 -0.366307
-0.0225797 -0.153083 0.182092
-0.152657 0.0843405 -0.316695
-0.0967682 -0.147603 0.000678718
-0.106342 -0.106474 -0.373757
-0.206568 -0.161028 0.0755646
0.174888 -0.136054 -0.20925
0.130001 -0.00261101 -0.299069
-0.0102263 -0.146265 -0.0277621
0.264699 -0.0613146 -0.183584
0.0484349 -0.0799174 -0.28585
0.387562 -0.0278931 -0.181216
0.111258 -0.13938 -0.344294
-0.102404 -0.0979432 -0.133282
0.290691 -0.0539578 -0.262469
-0.145194 -0.139092 0.128579
0.0815784 -0.16956 -0.244776
-0.0882625 -0.0163089 -0.351697
0.0486868 0.0295224 -0.384351
-0.153481 0.0257359 -0.203275
0.2696 0.11794 -0.158602
0.416418 -0.0593932 -0.0649776
0.0408965 -0.104205 0.0972981
-0.0151743 -0.114074 -0.133701
-0.279175 -0.022687 0.109275
0.213225 -0.0991545 -0.350358
-0.276452 0.0109651 -0.0738936
-0.0477189 -0.0873156 -0.0260647
-0.116505 -0.0952022 -0.243052
0.254533 -0.122013 -0.0752156
0.153825 -0.0146068 -0.000693016
-0.0805448 -0.174719 0.306479
-0.25536 -0.128559 0.0630336
0.0838442 0.003925 0.122806
0.0211074 -0.0487196 -0.163574
0.183237 -0.186381 -0.352292
0.141019 -0.142409 0.0731973
-0.0253539 0.0538891 -0.347768
0.124223 0.0312957 -0.343171
-0.112996 -0.142685 -0.182466
0.355204 -0.123689 -0.0407159
-0.260145 -0.187903 0.246943
-0.024475 0.0709104 0.150474
-0.20538 -0.141023 -0.138693
-0.066116 -0.0238988 0.021116
0.20118 0.00174114 -0.30058
0.316315 -0.141649 -0.140056
-0.234824 -0.0274712 -0.321968
-0.0321816 -0.159895 -0.301701
0.129734 -0.106043 -0.231496
0.00620622 0.0470501 -0.0711849
0.275538 -0.0111769 -0.1001
-0.117427 0.0811486 0.039779
-0.212677 -0.152375 0.268691
-0.158097 0.0791653 -0.0520652
0.276775 -0.1313 -0.228586
-0.143113 -0.139947 0.0581967
0.198771 0.153637 -0.280978
-0.171314 -0.100566 -0.277093
-0.289359 -0.112317 -0.0909542
0.174282 0.200667 0.0901977
-0.207197 0.00365376 -0.0153439
-0.0318267 -0.0228396 -0.202265
-0.221834 0.00486788 -0.212622
-0.225629 -0.0725576 -0.111559
0.05687 -0.173915 -0.320196
0.0669294 0.129611 -0.321429
0.0669461 -0.0227334 -0.212426
-0.167171 -0.0621927 0.125553
-0.245761 -0.0613004 0.0148146
-0.102736 -0.16341 0.1749
0.060066 -0.0660478 -0.0939322
0.133441 -0.132649 -0.128307
-0.0444767 0.128042 -0.334701
0.0727352 -0.0821371 -0.369107
0.258682 -0.0850201 0.0320689
-0.152838 0.0126753 0.0937358
-0.123606 0.037798 -0.0818948
0.34954 -0.149054 -0.309894
-0.242234 0.104065 -0.131799
0.173488 -0.0422585 -0.195252
0.397796 -0.113708 -0.14986
-0.117964 -0.000573218 -0.268888
0.423979 -0.00739762 -0.100709
-0.192184 -0.0732725 -0.368697
-0.075255 -0.122714 -0.332672
-0.28634 -0.102881 -0.150653
-0.132123 -0.131204 0.209939
0.221223 0.0844725 -0.310149
-0.238084 -0.116555 -0.0414672
0.039902 -0.160288 -0.380575
0.492364 -0.00201219 -0.375805
-0.226934 -0.0999156 0.130233
0.154037 0.0129989 -0.0517344
0.0566403 -0.15207 -0.107708
-0.199321 -0.180221 0.206969
0.187827 0.0218017 0.0721343
-0.17018 -0.136308 -0.232094
0.368665 -0.0862519 -0.205073
0.0174821 0.0274096 0.089694
0.303618 -0.136953 -0.0139005
0.0899006 -0.0213288 -0.0175028
-0.283308 -0.0417065 -0.0981891
-0.252064 -0.0291976 -0.27218
-0.267597 0.0640938 -0.0550238
0.230563 -0.0500905 -0.300917
0.314719 0.00614837 -0.00739143
0.062222 -0.143846 0.0629949
0.0894264 0.0892946 -0.290248
0.402234 -0.177216 -0.270031
0.190744 -0.148169 -0.0334735
-0.159998 -0.127057 -0.0111862
0.037385 -0.0223204 -0.322832
-0.281076 0.0465936 0.0607913
-0.0684222 -0.137602 0.0798758
0.102739 -0.180109 -0.383829
-0.281171 -0.1126 0.171994
-0.199242 -0.0304089 0.202143
-0.16861 -0.0442461 -0.243543
0.204407 -0.0457755 -0.0926759
0.227483 -0.145738 -0.281553
-0.190226 0.0761871 0.139813
-0.185545 0.13325 -0.155046
-0.14892 -0.136906 -0.338417
0.294265 -0.00687224 -0.255371
-0.22474 -0.110399 0.213815
-0.244558 0.0570551 -0.184188
-0.274617 -0.176484 0.150481
0.0681831 0.0284081 -0.149783
-0.286767 -0.079251 0.0782122
0.202415 0.0443158 -0.246484
-0.0477819 0.00565124 -0.254813
0.397388 0.0142182 0.0346901
-0.276512 -0.120778 -0.246597
-0.289919 -0.117134 -0.00972852
-0.275579 0.00137681 0.184983
-0.0769929 -0.169827 0.255885
0.351147 -0.0828872 0.0164247
-0.226885 -0.116249 -0.386965
-0.10703 0.00199991 -0.0561695
0.360001 -0.168109 -0.218763
0.00979161 -0.14927 -0.0726787
0.304037 -0.104913 -0.337192
-0.229536 -0.122214 -0.300824
-0.115108 0.0926975 0.161427
0.380377 -0.115922 -0.269896
0.0997519 0.0250863 -0.265271
-0.222012 0.0405595 0.0241486
0.20264 -0.133076 0.112591
-0.187746 0.0336779 -0.148713
0.107266 -0.0341152 0.0579497
0.220718 -0.0465586 -0.344639
0.116435 -0.149988 -0.0535798
-0.0918013 0.0710431 -0.297643
-0.198998 -0.0205613 0.122829
-0.247404 0.127651 0.0201394
0.0471546 -0.0409351 0.124793
-0.0353621 -0.0448062 -0.355586
0.0242649 0.00548112 -0.216662
-0.253166 0.00578511 -0.142349
-0.22942 0.129711 0.124737
-0.190017 -0.107475 -0.0743023
-0.249294 -0.133194 -0.173639
-0.251241 -0.157176 0.019174
-0.277935 0.00645831 -0.0063349
0.170078 -0.176887 -0.275766
-0.245089 0.0788707 0.174343
-0.192154 -0.0650598 -0.167405
-0.105865 -0.0464453 0.145371
0.336483 -0.0783828 -0.0955997
0.310098 -0.0423443 -0.308419
-0.22263 -0.16684 0.122826
-0.00181555 -0.150807 -0.1687
-0.129921 0.066138 0.0875217
-0.177263 0.153509 -0.235856
0.205631 -0.118933 -0.157109
-0.120526 0.0490764 -0.243878
0.137712 -0.0541315 -0.361854
0.172099 0.0989935 -0.314411
0.177365 -0.0765073 -0.27229
-0.0666663 -0.149542 -0.0912202
0.417005 -0.044328 -0.166319
0.269991 -0.029684 -0.0374007
-0.263225 -0.143755 0.242673
0.0326657 0.0705171 0.0653628
-0.176716 -0.184809 0.274699
-0.228258 -0.102166 0.0121848
-0.196229 0.135029 -0.0671394
-0.195215 -0.0586036 -0.320113
-0.0247331 -0.0886998 -0.309874
0.219906 -0.0168097 0.0284776
0.115354 0.192032 0.0986377
-0.245964 -0.0512191 -0.0457293
-0.0606739 -0.148896 -0.372327
-0.0999559 -0.0495447 -0.260076
-0.00977689 -0.0184702 0.148726
0.353827 -0.0878388 -0.295201
-0.024333 -0.151956 0.00211392
0.326694 -0.188265 -0.326021
0.0174472 -0.00593981 -0.369349
-0.0755401 -0.149198 -0.218498
0.282167 -0.0391741 -0.218248
0.0414138 -0.143284 0.214083
-0.143825 -0.0325689 0.190522
0.295045 -0.134692 0.0572742
-0.202817 -0.011672 0.0429956
-0.179472 0.0926701 -0.120083
0.265814 -0.139304 -0.108087
0.017481 -0.0101347 -0.209746
0.0175733 -0.0548515 -0.221256
-0.0518631 -0.0665148 -0.144833
-0.11407 -0.00359908 -0.18742
0.118914 -0.145529 0.0267386
-0.146517 0.0029963 -0.34282
-0.181085 0.0991639 -0.228323
0.260213 -0.116717 -0.192713
0.00913723 0.0780883 -0.341393
0.0370765 0.00680181 0.0371306
-0.0714489 -0.148265 -0.151338
0.189809 -0.104048 -0.0792388
-0.201767 0.0953994 -0.0339896
0.0938454 0.0424527 0.127267
-0.25526 -0.0803609 -0.183599
0.36019 0.00288332 -0.060909
0.0167008 -0.155227 -0.212914
0.420976 -0.12696 -0.189344
-0.24175 0.0083783 0.0798646
-0.0177561 -0.151816 0.0833043
0.146978 -0.134593 0.145768
0.0888715 -0.153193 -0.138906
0.446643 -0.11089 -0.0569168
0.180915 0.148317 -0.340065
0.303581 -0.174267 -0.248034
0.190942 -0.172192 -0.226323
-0.0573431 0.0671536 0.11573
0.189117 0.0302105 -0.329658
-0.14707 -0.00954524 0.071686
0.0164024 0.0204417 -0.253534
-0.132549 -0.0737972 0.200992
0.235815 -0.13263 -0.327687
-0.151833 0.180702 -0.21768
0.413638 -0.0652598 -0.103178
-0.288687 -0.164322 0.0559851
0.120244 -0.00769261 -0.189797
-0.160042 -0.137815 -0.185488
-0.16636 -0.161607 0.113769
-0.122533 -0.0619365 -0.345237
-0.180692 0.0851278 0.0960367
-0.15223 0.0595964 -0.275404
-0.012213 -0.12547 -0.255907
0.115487 -0.0470352 -0.0746411
0.0237312 0.0520798 0.144302
0.0535652 -0.0830439 0.0545112
-0.176632 -0.0146759 -0.192948
0.158866 -0.091561 0.0405493
-0.00300171 -0.0337363 -0.0721705
0.223743 -0.0222491 -0.175979
-0.147466 -0.145103 -0.0771863
-0.0140297 0.131329 -0.328173
-0.237729 -0.141502 -0.117487
0.270131 -0.0998236 -0.271661
-0.0314348 -0.161974 0.27872
0.369958 -0.129047 -0.115164
-0.235398 0.046957 -0.225903
-0.190796 -0.0283095 -0.355987
-0.193531 -0.156177 0.0351146
-0.0948469 -0.0247389 0.0632294
0.051116 -0.143863 0.150732
-0.247485 -0.0853111 0.0826155
0.0521304 -0.149533 -0.0174218
-0.124208 -0.180793 0.313784
-0.0846859 0.045764 -0.338605
-0.0838619 0.0301322 0.167728
0.280512 -0.00504935 0.0317991
-0.125755 -0.034547 -0.0359728
0.328996 -0.081055 -0.184444
0.114355 -0.041358 -0.300352
-0.0455358 -0.0210305 -0.165326
-0.126127 -0.143938 -0.287107
0.433261 -0.00305966 -0.00879673
-0.204623 -0.0238145 -0.053937
-0.28384 -0.126316 -0.197159
-0.128336 0.0439529 -0.163788
0.139985 0.0396452 -0.228362
-0.18409 -0.117128 0.127943
0.167087 -0.0752604 -0.193131
-0.0824856 -0.102312 -0.253129
-0.153537 -0.135975 -0.371527
-0.247368 -0.0620794 -0.246434
0.253527 -0.00670919 -0.32263
-0.186183 0.0851467 -0.292368
-0.273188 0.0568354 0.152312
0.0804582 -0.0338708 -0.145645
0.26839 -0.0447642 -0.0895623
-0.0904336 -0.157259 0.132571
0.188894 0.00755981 -0.0969515
-0.246665 -0.0442714 0.16193
-0.0332682 -0.0170965 0.0963423
0.0331116 -0.0772422 -0.359811
0.365887 -0.0376226 -0.268014
-0.0164281 -0.164948 -0.334466
0.245054 -0.141338 -0.0316714
0.169167 -0.138932 -0.343594
0.360633 0.0223239 0.0443749
0.385352 -0.0560659 -0.0204193
0.128243 -0.131596 -0.162134
-0.0271433 -0.138562 0.222639
-0.213219 -0.0374545 -0.122856
0.0901366 -0.172744 -0.29013
0.210699 -0.0416843 -0.242658
-0.245271 -0.150246 -0.0417454
-0.171287 -0.169591 0.181187
0.079718 0.0140911 0.011536
-0.264027 -0.0987783 0.222415
-0.0804777 -0.149212 0.0450993
-0.246339 0.130084 0.0583648
-0.0278365 0.0188308 -0.335391
-0.241192 -0.18681 0.220129
0.0519969 -0.127583 -0.179952
-0.090949 0.0611149 0.0385002
-0.125376 0.0235571 -0.106457
-0.25749 -0.114108 -0.317108
-0.273104 0.048537 -0.0180929
-0.202698 -0.130392 -0.243814
0.180692 -0.0863561 -0.369896
-0.136791 0.124649 -0.295074
0.357797 -0.00614068 -0.14577
-0.0111876 -0.12265 -0.389964
-0.20437 0.0296367 -0.30512
0.200123 -0.142184 0.0409139
-0.0270415 -0.0226886 0.0386178
-0.0381891 -0.0855758 0.149126
-0.0637414 -0.0370854 -0.0957179
0.0167713 -0.148442 -0.122285
-0.126862 -0.0678501 0.0111538
-0.189419 0.0745374 0.0167809
0.124304 -0.153292 -0.0942603
0.100857 0.00835145 -0.351689
-0.162327 -0.139726 0.229343
0.204985 0.026042 0.00683346
-0.249101 -0.00456771 -0.243761
0.389496 -0.118814 -0.0118663
-0.211011 -0.0771914 0.214087
-0.260626 0.0173465 -0.0953849
-0.0112841 0.0613368 0.0758426
-0.128693 0.0531312 0.150209
-0.161127 0.0788217 -0.167189
0.154727 -0.0528139 -0.1322
-0.230708 -0.157453 0.16727
0.0944026 -0.0791991 -0.208744
-0.0620401 -0.0849908 -0.344777
-0.0040601 0.0125265 -0.187643
0.0547608 -0.0186486 -0.281606
-0.277152 0.0637929 0.10305
-0.138288 0.0621046 -0.038192
0.236883 -0.153839 -0.378216
0.0155082 -0.080391 -0.142816
0.285462 -0.186629 -0.295802
-0.177912 -0.0110469 -0.277687
-0.0956127 -0.037196 -0.182116
0.078745 -0.141279 -0.380808
-0.250458 -0.160168 0.0997675
0.341878 -0.0180586 -0.219199
-0.0977415 -0.148309 -0.0242362
0.306441 -0.101096 -0.144238
0.182894 -0.184118 -0.311987
0.0195372 -0.0784752 -0.0721486
-0.289827 -0.10963 -0.0532243
-0.236378 0.123078 -0.0523039
0.089706 -0.135329 0.0905589
0.237764 -0.0557404 0.0362578
0.497673 0.0220521 -0.329167
-0.165335 -0.0964322 -0.324348
0.301407 -0.121157 -0.049361
-0.255102 0.0655761 -0.142586
-0.2484 -0.0500802 -0.0968526
-0.208066 -0.127611 0.0561513
0.0670877 0.0543058 -0.329783
-0.281212 -0.0212035 -0.0370167
-0.0172627 -0.151969 0.145739
-0.203194 -0.0468799 0.0156312
-0.12299 -0.177093 0.264473
0.147571 -0.146916 -0.02402
-0.117422 -0.117362 -0.195731
0.13387 -0.0208434 -0.262208
0.405457 -0.101283 -0.222683
-0.191976 0.148791 -0.143562
0.21099 -0.147725 -0.109537
0.0680803 -0.0144787 0.0811562
0.0104081 -0.148556 0.0289656
-0.185703 0.0504104 0.167219
0.0863244 -0.0255341 -0.0845293
-0.213419 -0.0200338 -0.186416
-0.285062 -0.0441837 0.0487006
0.331139 -0.0590855 0.0259453
-0.105179 -0.0338075 -0.30369
-0.0957618 0.0209092 0.110567
-0.142198 0.091901 0.0543805
-0.142115 -0.093077 0.137791
0.0737284 0.212 0.0944309
-0.0980663 -0.149225 -0.327902
0.0363455 0.00316375 -0.140315
-0.225037 -0.0046981 0.197205
-0.0735252 -0.0680651 -0.00595774
0.0221778 -0.165338 -0.264768
0.0165266 0.0650867 0.0323772
0.0713011 -0.0625125 0.112928
-0.0890647 0.106659 -0.327923
-0.125876 -0.144474 0.0820066
-0.181589 -0.151582 -0.0149239
0.340673 -0.152639 -0.174801
-0.144691 0.0538057 -0.338866
0.179079 0.152191 0.0831977
-0.179854 0.0405991 -0.240302
-0.276654 -0.0129754 0.155572
0.149563 -0.1467 -0.248791
-0.0423057 -0.150842 -0.204521
0.185377 -0.0327765 -0.0556837
0.0900452 -0.0410636 -0.00275567
-0.286404 -0.150404 0.141245
0.261255 -0.165629 -0.211906
0.0449411 -0.0781741 -0.293029
0.257886 -0.140702 0.026334
0.244596 -0.0172482 -0.143716
-0.0504986 -0.00216806 0.155419
-0.168705 0.153735 -0.292941
-0.242082 -0.190687 0.268982
0.169673 -0.0665155 -0.315196
-0.0646281 -0.155665 -0.278901
-0.265191 -0.0324668 -0.155016
-0.291433 -0.116287 0.0458959
-0.134218 -0.0287794 0.128022
-0.0769986 -0.163136 0.191938
0.167915 -0.155841 -0.156782
0.325937 -0.0894549 -0.242004
-0.271823 0.09599 0.0643202
-0.153018 -0.143005 -0.14421
-0.231224 -0.10142 -0.0998569
-0.0906625 0.00251868 -0.251869
0.239351 0.0678225 -0.305252
0.336107 -0.0088768 -0.0184788
-0.211464 0.0178419 0.123486
-0.192211 0.101341 -0.0807676
-0.261122 -0.0683259 -0.290121
0.2938 -0.180727 -0.345399
0.383718 -0.187002 -0.285342
0.236594 0.114725 -0.173699
0.418311 -0.00883126 -0.123462
0.0621161 -0.104793 -0.239216
-0.2329 -0.0936511 -0.202417
0.403012 -0.0901606 -0.0756336
0.0964899 -0.0876794 0.030671
0.307797 -0.0319552 -0.149025
-0.21564 0.130835 0.00439175
0.0149262 0.00553221 -0.328281
-0.207861 0.116357 -0.205216
-0.200528 0.0199689 -0.13047
0.00172269 -0.0304526 -0.0350653
0.0961267 -0.162794 -0.210078
0.204938 -0.0222601 -0.281816
-0.286224 -0.158802 0.0191973
0.254309 0.0097256 -0.0311549
0.124912 -0.181629 -0.334388
0.164341 0.00201806 -0.346937
-0.281227 -0.138243 -0.106176
-0.204582 -0.124211 -0.309498
0.168239 0.00205442 -0.130374
-0.245011 -0.0860341 0.143674
0.0287763 -0.169513 -0.359112
0.209204 -0.100775 0.0101604
-0.119468 -0.00567922 -0.0290269
-0.272517 -0.182967 0.193176
0.0343775 0.0224739 0.148343
0.0884466 -0.0388273 -0.36524
0.156664 0.103055 -0.31629
-0.0829109 -0.105668 0.153298
0.152847 0.0180318 0.0208452
-0.217747 0.0983538 0.154128
-0.0419264 -0.148418 -0.11016
0.42985 -0.00323355 -0.0512417
0.248085 -0.0753878 -0.229712
-0.239427 -0.0943 -0.363064
-0.145956 -0.0875604 -0.368951
-0.0476774 -0.062876 0.299949
0.0982078 -0.0884497 -0.332872
0.291253 -0.0166411 -0.306265
-0.131927 0.00757706 -0.296944
0.0442219 -0.14748 -0.0650068
0.330107 -0.150249 -0.256834
0.0847906 0.122825 -0.319768
-0.235914 -0.082049 -0.0497806
-0.193331 -0.112726 0.218607
-0.155913 -0.152769 0.0279267
-0.20651 -0.0395738 -0.260523
-0.145356 0.053101 -0.105482
-0.0205486 -0.0471438 -0.295442
-0.235231 0.0573346 -0.0377319
0.00676361 -0.0302697 0.141329
-0.0960933 -0.0422253 -0.360096
0.415076 0.0227722 0.00486198
0.0245613 0.0705394 0.113809
0.286692 -0.131754 -0.308621
0.165787 -0.140771 0.0888129
-0.285237 -0.131588 -0.158983
-0.0714871 -0.031294 -0.0189426
0.0115086 0.109127 -0.334795
0.382536 -0.0884792 -0.260712
-0.175101 -0.14544 -0.0654634
-1.6287e-05 -0.111632 0.10398
-0.285954 -0.170796 0.111872
-0.056784 -0.168946 0.296998
-0.175278 0.0293966 -0.347537
0.332439 -0.131434 -0.0786135
-0.1638 -0.103348 -0.166968
-0.253894 0.0347343 -0.17207
-0.279483 -0.086407 0.179005
0.049005 -0.0517127 -0.180798
-0.212356 0.123413 0.100153
0.239512 -0.115456 -0.143285
-0.207288 0.0542505 -0.27225
-0.280373 0.00660259 0.0358713
0.169102 -0.151996 -0.0776608
0.163815 -0.138016 -0.381079
0.328485 -0.000208408 -0.0675274
0.108463 -0.150725 -0.0277055
0.184365 0.0729789 0.0747804
-0.267076 0.0611136 -0.0946616
0.138729 0.154279 -0.31217
0.316725 -0.0694761 -0.311418
0.242906 -0.187634 -0.323796
-0.0515305 -0.148 -0.0558441
-0.0588931 0.0575152 0.0731062
-0.214295 -0.135998 0.135123
-0.254743 -0.0305334 0.101273
-0.0363003 0.0438433 0.162851
0.0499827 0.0113727 0.100591
-0.0872907 -0.111621 -0.372218
0.156304 -0.0578783 0.040914
0.249298 -0.0637733 -0.338853
-0.277793 -0.151779 -0.0269977
0.232496 -0.141048 -0.243827
-0.139733 -0.0271534 -0.190068
-0.122765 -0.136819 0.191257
0.389075 -0.0371026 -0.200445
0.0802807 0.0253392 -0.249241
-0.175344 -0.0353163 0.116695
-0.285832 -0.0591897 0.00612964
-0.025417 -0.110967 -0.314884
-0.241039 -0.0497703 -0.328509
-0.0334925 0.0108606 -0.246967
-0.224919 0.0529562 0.0623485
-0.162907 -0.0484196 0.20356
-0.0616419 -0.152406 0.0107894
-0.276852 -0.108177 -0.266449
-0.00710586 0.0117502 0.0539408
-0.118938 0.0641096 -0.00460692
0.414727 -0.069207 -0.139378
-0.202341 -0.18707 0.278074
0.3669 -0.12826 0.014143
-0.205278 -0.122004 -0.388404
0.305882 -0.0391534 0.0333131
0.318646 -0.0147982 -0.255993
0.165913 -0.0748762 -0.237951
-0.155105 -0.0679211 -0.28464
-0.0918457 -0.147632 -0.142737
0.177521 0.0409262 -0.248741
-0.00275613 -0.0649113 -0.357328
-0.283027 -0.0736001 -0.106242
-0.0100618 -0.0524106 -0.197139
-0.0388414 -0.0670695 -0.0406745
-0.217374 -0.138528 -0.14663
0.0921713 -0.137947 0.146001
-0.115177 -0.146073 -0.245362
-0.103046 -0.00378719 0.177616
0.0554277 -0.170484 -0.294482
0.0891467 0.00637421 -0.191842
-0.206425 0.0807401 -0.156399
-0.152004 0.0376243 -0.218973
-0.132695 0.100069 -0.315687
0.23122 -0.0484858 -0.0287395
-0.0578416 -0.11794 -0.195991
-0.275801 0.0567002 0.0114373
0.24194 -0.029268 -0.262739
-0.179869 -0.167271 0.141459
0.411968 -0.0686285 -0.0161977
-0.0627038 0.0743292 -0.336933
-0.227667 -0.101989 0.0278612
0.111623 -0.00154975 0.0520092
-0.00616654 -0.153764 0.244124
0.0800506 -0.0369021 -0.037798
-0.255103 0.121108 0.149825
-0.247628 -0.127225 -0.228088
0.0845632 -0.153219 -0.102119
-0.060311 -0.000142395 0.0792651
0.0860835 -0.143643 0.0441137
-0.126208 -0.126459 -0.0640493
0.371488 -0.153322 -0.19571
-0.167193 -0.134444 -0.302463
0.242606 -0.135368 0.0777919
-0.212216 -0.0595116 -0.151805
-0.207606 0.145236 -0.0868418
-0.0262273 -0.150411 -0.376947
0.216344 -0.0617362 -0.182271
0.174768 0.115527 -0.461115
0.363317 -0.176563 -0.452163
-0.254832 -0.0129241 -0.221922
0.202452 -0.124501 -0.295135
-0.13286 0.0170316 0.0641449
-0.225759 -0.178594 0.183538
0.195714 -0.161786 -0.181622
-0.230928 0.0655534 -0.22247
-0.033985 0.0129756 -0.352231
-0.0981873 -0.0633103 0.149723
0.108495 -0.0523381 -0.272182
-0.184424 -0.134585 -0.202796
0.349081 -0.148766 -0.310015
-0.231382 -0.159303 0.0448772
-0.120262 0.0259363 -0.142068
-0.176441 0.153501 -0.240379
0.0354899 -0.0653066 -0.114737
0.123712 -0.0436749 -0.168267
0.0463537 -0.154802 -0.187845
0.239256 -0.139979 -0.0515389
-0.0440237 -0.0380602 -0.10791
0.254648 0.0244084 -0.307303
-0.200593 -0.0302444 -0.00396609
0.367201 -0.0547352 -0.0814213
-0.275376 -0.143448 0.208769
0.0526879 0.05285 0.062545
0.400426 0.0300368 -0.0491373
0.0281436 -0.0595732 0.132693
-0.190934 -0.0152819 -0.318643
-0.0965263 -0.156943 0.0900445
0.30625 -0.1374 0.00172554
-0.125709 0.0680145 0.12816
0.0366102 -0.121177 -0.332175
-0.065828 -0.0318512 -0.305783
0.0476102 0.116735 -0.195637
0.0754925 0.0913829 -0.291868
0.315652 -0.0413645 -0.189502
0.00434744 -0.150202 -0.0920303
0.0366971 -0.048051 -0.251901
0.301195 -0.143307 -0.146185
0.172182 -0.0450266 -0.100097
0.183762 -0.0280785 -0.346706
-0.182183 -0.182469 0.238448
-0.250685 0.027321 0.150653
-0.0920651 0.0142494 -0.339793
0.200198 -0.0129139 0.0302445
-0.286185 -0.0560891 -0.0668218
0.40443 -0.0257698 0.0141043
-0.28004 -0.0894574 -0.186873
-0.246822 -0.0505386 0.200094
-0.177748 -0.157726 0.0721803
0.0242709 -0.141944 -0.0261718
0.324998 0.121732 -0.352133
-0.218279 -0.146777 -0.0699876
0.0610327 0.0336682 -0.15749
0.352027 0.0138466 -0.102722
-0.228014 0.000388771 -0.0972973
-0.257783 -0.129893 0.103129
0.0903497 -0.170304 -0.244113
-0.0881534 -0.0428986 0.0477389
-0.198302 0.0116297 -0.195553
-0.112194 -0.0971996 -0.298021
0.388598 -0.107338 -0.0231554
0.169574 -0.174914 -0.368859
-0.172941 0.0853181 -0.055222
-0.115133 -0.168266 0.213361
-0.0637221 0.0698912 0.153048
-0.182395 -0.123264 -0.112792
-0.0149301 -0.13273 0.0553622
0.403389 -0.16404 -0.258977
0.00643398 -0.0996922 -0.159381
-0.206974 0.0983724 0.0236749
0.422295 -0.120149 -0.182649
-0.228587 0.112334 -0.159491
0.235041 0.0203921 -0.0126148
0.353601 0.0230226 0.0423768
-0.104266 -0.14546 -0.364791
0.0415467 -0.142777 0.20036
0.27493 -0.0891162 -0.132551
0.101411 -0.107485 -0.376538
-0.171055 0.0720905 -0.216341
-0.0715351 0.0106791 -0.210888
-0.155908 -0.053884 -0.228985
0.0195846 -0.018782 0.0631474
-0.285701 -0.0808479 0.106617
0.317759 -0.110384 -0.207786
-0.11054 0.0480134 -0.278743
0.147807 0.00756058 -0.29259
0.159933 -0.144395 0.0221247
-0.177559 0.0493007 0.0981787
0.0118179 -0.0128668 -0.159089
-0.192979 -0.0920274 0.127925
0.164887 -0.136188 0.127273
-0.121542 -0.0574122 -0.025214
-0.175951 0.114784 -0.300099
-0.000435591 -0.163833 -0.290636
0.153574 -0.167532 -0.233128
0.194083 0.0970278 -0.308754
-0.0469948 -0.133489 0.146229
0.297138 -0.115583 -0.343321
-0.18951 -0.00346005 0.193335
0.129933 -0.00621495 -0.229713
-0.268693 0.100951 0.0988621
-0.256812 -0.0861099 -0.136337
-0.199497 0.066331 -0.110828
0.244976 -0.176574 -0.263649
-0.0220355 -0.00426394 0.166461
-0.0651067 0.111622 -0.31044
-0.131272 -0.18154 0.306363
-0.0088862 -0.154887 -0.223313
0.349727 -0.0424254 -0.288302
0.282819 -0.00874501 -0.107716
-0.0289924 0.0343566 -0.216836
0.147958 -0.0878016 -0.300648
-0.106057 -0.134119 0.00932829
0.0642928 -0.005178 -0.32576
-0.190841 -0.126689 -0.352809
-0.223339 -0.00304458 0.0384037
-0.281402 -0.10503 -0.0211369
0.127685 -0.158213 -0.170471
0.238746 -0.0813834 -0.285161
0.298251 0.0997675 -0.182443
-0.12158 -0.159088 0.125742
0.0460319 -0.0898025 0.0671415
-0.192173 0.154351 -0.181183
0.264788 -0.0820677 0.0324096
0.135318 0.202081 0.0884861
-0.22029 0.00612897 -0.27925
0.0738939 -0.177985 -0.338484
-0.272121 0.0254619 0.10508
-0.223424 -0.101826 -0.245355
0.210321 0.108891 -0.28667
0.134127 0.0584204 -0.330321
0.110901 -0.0248127 -0.136007
-0.23879 0.110248 -0.079492
-0.0948006 -0.14548 -0.102741
-0.249894 -0.1662 0.263604
0.0443335 -0.151082 -0.136439
0.347991 -0.0685101 -0.00472172
-0.103325 0.0709035 0.0688795
-0.045424 -0.0568717 0.150987
0.0270756 0.0794718 -0.33873
-0.0433803 -0.149032 -0.160355
-0.272913 -0.0748408 -0.238193
0.357904 -0.074674 -0.159566
-0.0812029 -0.0327502 -0.187282
-0.223811 -0.153371 -0.0111536
-0.105035 -0.00119552 -0.0565078
-0.14003 -0.0348094 -0.328529
-0.150825 -0.119097 -0.230646
0.137412 -0.0990812 -0.240151
-0.122116 0.0149305 0.172898
0.359667 -0.12069 -0.0696437
0.260734 -0.0323094 -0.206651
0.422814 -0.0382882 -0.0488876
0.280643 -0.000751734 -0.264771
-0.250154 0.0678249 0.176229
-0.0596227 -0.0297886 -0.25664
-0.0104657 0.0199818 0.129661
-0.253821 -0.163595 0.0722754
-0.209679 -0.0493363 0.123207
-0.198004 -0.0691942 -0.199885
0.0839873 -0.0415099 0.0201027
0.198612 -0.144731 -0.0175326
-0.222012 -0.106513 -0.0537015
0.0320158 -0.074353 -0.0831702
-0.0521845 -0.159004 -0.34557
-0.0705149 -0.116479 -0.252726
-0.0650137 -0.0414453 -0.353207
0.15636 -0.181506 -0.310354
0.185381 -0.0380121 -0.217409
-0.141903 0.00794616 -0.225599
0.22605 -0.114882 -0.349523
0.309631 -0.169496 -0.227539
0.0781052 -0.139264 -0.0731942
-0.125784 -0.0456304 0.193854
0.0600377 -0.00804606 0.129119
0.0605083 -0.0815408 -0.155696
-0.255997 -0.137713 -0.142143
0.0472535 -0.0394752 -0.363002
-0.155461 0.0764289 -0.153544
-0.244024 -0.0076704 -0.0401882
0.19745 -0.0512389 -0.142274
-0.202296 0.117367 0.12031
0.267869 -0.0258212 -0.054827
0.139065 -0.0955469 0.0193948
0.252735 -0.140085 -0.089885
0.344925 -0.0947504 -0.302373
0.0385329 -0.143835 0.130147
-0.147743 -0.00447571 0.11354
0.249197 -0.153235 -0.177485
0.411544 -0.0122184 -0.140981
-0.0505342 -0.0662831 -0.1446
-0.178124 0.0634327 -0.00737785
0.0754845 0.0149607 0.0259752
0.00259311 0.0133505 -0.259611
-0.131082 -0.14814 -0.0263609
-0.00436849 -0.135615 -0.0461427
0.0592815 0.057682 0.132493
-0.246825 0.112096 -0.0139853
-0.0333181 0.0734271 -0.325186
-0.222735 -0.186338 0.227763
-0.263269 -0.0261163 -0.116612
-0.195123 0.0494873 -0.312443
-0.163852 0.0524409 -0.0687517
0.10531 -0.155993 -0.381049
-0.272193 -0.04962 -0.184451
-0.249668 -0.0351137 0.0721366
0.383295 -0.0367745 -0.239101
-0.289205 -0.117273 -0.0959467
0.326464 -0.183988 -0.280329
-0.11686 0.0360792 -0.339705
0.144909 -0.013981 0.00296343
-0.248583 -0.114114 -0.330764
0.215828 0.00619993 -0.294899
-0.27852 -0.0711048 0.155421
0.0693163 -0.0176536 -0.250372
-0.0271018 0.0598286 0.106692
-0.197229 0.111207 -0.23369
0.131139 -0.0516075 -0.361177
-0.188212 0.14246 -0.128272
-0.0540125 -0.164003 0.236285
-0.11366 -0.143138 -0.173183
-0.181017 -0.16025 0.187912
0.242113 0.141345 -0.348785
0.0656466 -0.148085 0.000464484
-0.20089 -0.0598131 -0.356576
0.0958541 -0.0594921 -0.103833
-0.292005 -0.126364 0.0669499
-0.131189 0.090054 0.15355
0.139565 -0.147814 -0.0564163
0.296871 -0.110925 -0.25778
-0.191945 -0.0679341 -0.289961
-0.149763 0.0775634 0.0737328
-0.0198005 0.0588561 0.0485789
-0.0356838 -0.152648 0.116427
0.212318 -0.139831 -0.215834
0.215342 -0.186807 -0.332848
-0.171349 -0.134495 -0.267114
0.109247 -0.138898 0.0883024
-0.145999 -0.0650648 0.130632
0.401265 -0.0994232 -0.133959
-0.202166 -0.122585 0.218012
0.15409 -0.152825 -0.112652
0.0663795 -0.0610833 -0.31811
0.185111 -0.141943 0.0746013
-0.209109 0.0395966 -0.170225
0.0299332 -0.156056 -0.381231
-0.11544 0.0754785 0.0231879
0.20428 0.0385062 -0.32463
-0.195262 -0.162758 0.106589
-0.0841843 -0.175586 0.304694
-0.211627 -0.0309218 -0.108493
0.0158578 -0.0287325 -0.0384962
0.396056 -0.108726 -0.0196531
0.0650466 -0.103936 -0.238819
-0.270959 0.0253359 0.176837
0.150626 -0.00892761 -0.161728
0.328956 -0.0208226 -0.213056
-0.213425 0.128548 0.0427866
-0.0517003 -0.0908943 -0.345493
-0.133943 -0.152489 0.0603761
0.213282 0.0155567 -0.0402525
0.294324 -0.0142695 0.037039
-0.145516 0.0991606 -0.286555
0.00548304 0.123041 -0.326929
-0.253023 -0.119485 0.027637
-0.0984868 -0.0636296 -0.280004
-0.150147 -0.104453 -0.376711
-0.197508 -0.135372 -0.169034
-0.207696 -0.00390783 0.126993
0.118512 -0.119562 -0.342833
0.424989 -0.00759903 -0.0947042
-0.226552 0.065032 -0.074644
0.268722 -0.136718 0.0157304
-0.11238 -0.124519 0.152464
0.330084 -0.0821834 -0.0970977
-0.237264 -0.0717193 -0.0118369
0.0956142 -0.129485 -0.182702
0.0173912 -0.149313 0.0735743
-0.184828 0.111105 -0.171985
-0.24488 -0.16978 0.129997
-0.0125279 -0.148466 -0.122757
-0.184081 0.0610432 0.152493
0.214051 -0.0731725 0.0358268
-0.00888418 0.00558802 -0.208731
0.0367492 0.0289738 -0.332325
0.341598 0.0156576 -0.0414515
-0.247573 -0.130529 -0.201341
-0.209812 -0.00424197 -0.328741
0.294528 -0.186061 -0.342155
-0.260509 -0.14748 -0.0658956
0.412762 -0.116821 -0.215169
0.108324 -0.15401 -0.27251
-0.0903068 0.0570388 0.106643
-0.0194007 -0.120496 -0.231808
0.175767 -0.023166 -0.266889
-0.272297 0.037675 -0.0429664
0.196752 -0.0559981 -0.349594
-0.281092 0.0406012 0.0550797
-0.231113 -0.123943 -0.275828
-0.19839 -0.0288459 0.0430039
-0.280203 -0.134421 0.18253
-0.210741 0.136858 -0.0325184
-0.152691 -0.180232 0.267007
0.233136 -0.151149 -0.379588
-0.0349287 -0.15593 0.195497
-0.0422499 -0.0179043 -0.319317
0.384786 0.00674593 0.0378981
0.312791 -0.134494 -0.0463527
0.215948 -0.0463419 -0.062265
-0.115103 -0.145379 -0.329101
0.287108 -0.0564751 -0.320891
0.197853 -0.17447 -0.260514
-0.145536 -0.03008 -0.273645
0.0525431 0.0192073 -0.266078
0.0583685 0.122632 -0.324218
0.0215937 -0.105739 -0.362189
-0.0459784 -0.15071 -0.00695451
-0.255247 0.0713844 -0.132123
0.345064 -0.138437 -0.128142
-0.1663 -0.0640206 0.211631
-0.0863808 -0.0287694 -0.0462968
0.0591739 -0.035307 0.0985506
-0.0658217 -0.155338 -0.290822
-0.224553 -0.127824 0.0997621
0.260558 -0.139611 -0.283309
-0.164945 -0.00662598 -0.184204
0.278062 -0.048007 -0.137029
0.0373915 0.0382858 0.0360666
-0.244121 0.12872 0.098387
-0.21131 -0.105472 -0.127975
0.310906 -0.0572412 -0.261825
-0.138831 0.0412413 -0.0874202
0.165517 -0.0741833 -0.188482
0.0894643 0.0601525 -0.312691
0.344822 -0.177099 -0.320258
-0.212246 0.0231024 -0.236151
-0.291427 -0.129587 -0.0265306
-0.0105056 -0.063899 -0.298431
0.0402633 -0.159049 -0.224395
0.0838843 -0.137876 0.164602
-0.0868706 -0.0151077 0.0705086
-0.222374 0.0697399 0.10584
-0.112485 -0.143357 -0.209589
-0.0907276 0.0664419 -0.297466
0.204067 -0.144117 -0.0685663
-0.280115 -0.0180979 0.0986269
-0.000373267 -0.0628549 0.139219
0.37527 -0.0603031 -0.195878
-0.114447 0.0163192 -0.236778
-0.249634 -0.098621 0.205875
-0.157214 0.0634008 -0.330901
-0.227581 0.0475471 -0.00438158
-0.25626 -0.00768706 0.195448
0.107975 -0.0270745 -0.0823751
0.356819 -0.0481928 0.0249253
0.0867665 -0.149948 -0.0415208
-0.00588728 -0.0710534 -0.0758869
-0.0717371 -0.138932 0.0515935
-0.180933 -0.152422 0.00923477
0.0268374 -0.148398 0.0292264
-0.270773 -0.111906 -0.289421
0.21112 0.152083 -0.279796
0.0409063 -0.0657058 -0.244896
-0.132374 -0.145038 -0.123762
0.0733362 0.0674857 -0.199844
-0.112578 -0.0031918 0.126072
-0.109044 0.115856 -0.309698
0.290285 -0.0139423 -0.00483611
-0.0783776 -0.150289 -0.0499359
-0.171956 0.154107 -0.275468
-0.00563145 0.062299 0.152134
0.00485 -0.167316 -0.322337
-0.190192 0.106397 -0.112781
0.372525 -0.0998455 -0.278832
-0.239565 -0.00608739 -0.171778
-0.237381 -0.0590125 -0.0800399
-0.155935 -0.166331 0.165621
-0.289254 -0.098366 0.0181505
0.3399 -0.162459 -0.202321
0.0784541 -0.00813949 -0.155345
0.248726 -0.0344681 -0.332593
0.0664344 -0.135107 -0.142159
0.136901 0.0076614 -0.328877
0.191855 0.000694513 -0.114463
-0.205515 -0.189106 0.274975
0.418788 0.0210647 0.00348566
0.265157 -0.0203661 -0.171548
0.0503921 0.0606296 0.0862413
-0.149724 0.00836048 -0.300812
-0.250187 -0.0397838 -0.29121
-0.232675 -0.114951 -0.375427
-0.00593202 -0.00805724 0.0433536
-0.0576799 -0.0357459 0.154353
-0.278163 0.00531775 0.00124106
-0.036257 -0.163276 0.28097
0.225743 -0.0752752 -0.265171
0.00116774 -0.150818 -0.165727
0.00368399 -0.0525008 0.307308
-0.0580425 -0.0130786 -0.18209
-0.248673 -0.0869896 0.0911183
-0.269858 -0.183232 0.196329
-0.14915 0.0693882 -0.120518
0.122052 -0.121191 0.0454109
0.268314 -0.137608 -0.11461
-0.244032 0.0692734 -0.175656
0.108367 0.0309848 -0.238301
-0.0997858 -0.108888 -0.372948
-0.00609444 -0.0340764 -0.35666
0.253008 -0.137531 0.0605862
0.157862 -0.131635 -0.145797
0.0159268 -0.091047 0.091637
0.162855 -0.106197 -0.37551
-0.210616 -0.144526 -0.0910784
0.244398 0.0575639 -0.30356
-0.159509 0.0909123 0.0235588
-0.29122 -0.142277 0.101415
0.126316 -0.0572023 -0.242574
0.352881 -0.00661659 -0.113189
0.181362 0.125786 0.0803075
-0.122384 0.00729749 -0.172288
0.0374125 -0.143846 0.21
-0.0626791 -0.0407052 -0.118106
0.221457 -0.0143705 0.0247337
-0.120041 -0.0351306 -0.00657415
-0.286962 -0.116161 -0.143661
-0.168515 -0.0655856 -0.187798
-0.234452 -0.0521311 0.140671
0.367938 -0.127636 0.0127089
0.112043 -0.0126148 0.0506502
0.224433 0.100058 -0.176579
-0.205781 0.0964207 0.0677601
-0.127653 -0.175291 0.244728
-0.114445 -0.0309074 -0.354729
0.144413 0.15038 -0.344847
-0.24253 -0.0522385 -0.222548
-0.25383 0.111599 0.158551
-0.157363 0.0648254 -0.194243
0.0268861 -0.134622 -0.0878141
0.108988 0.110382 -0.319561
-0.209783 0.0592755 -0.257672
0.320592 -0.0229732 -0.288347
-0.0139829 0.0334329 -0.3338
0.0649028 -0.17387 -0.372093
0.203931 -0.0939624 -0.316581
0.417257 -0.0480497 -0.0971683
-0.268951 -0.136939 0.232142
-0.242463 0.0161247 -0.128435
0.196813 0.0341742 -0.256763
-0.14024 0.170677 -0.319044
0.291365 -0.116365 -0.191385
-0.0464424 -0.0964592 0.150204
0.122886 -0.130389 0.139714
-0.243343 -0.155499 0.00986841
0.00946761 -0.0140615 -0.161565
0.401032 -0.17234 -0.268568
-0.227543 0.0294337 0.0868501
0.494502 0.0305341 -0.293661
0.158073 -0.0638917 -0.146459
-0.223919 -0.174009 0.165613
-0.0870064 -0.104111 -0.243274
-0.14576 -0.145487 0.115696
-0.247524 -0.0718907 -0.157817
-0.178437 -0.0923472 -0.323446
0.196535 -0.187365 -0.349746
-0.0496887 -0.139955 -0.379098
0.0594549 -0.0869032 0.0528423
-0.27486 -0.123797 -0.229496
-0.24918 -0.0409982 0.0323447
-0.178722 0.088825 -0.0252392
0.190287 -0.133199 0.111329
-0.0610687 0.0380054 0.166588
0.138911 -0.044015 -0.323983
0.0761017 0.0513645 0.130323
-0.082017 -0.159729 0.156244
0.412727 0.0223983 -0.0701007
-0.0878271 -0.0428162 0.0477988
0.172797 -0.145235 -0.0113184
0.0584677 -0.169031 -0.267031
0.222798 -0.0377001 -0.108019
0.0721156 0.0148971 -0.352572
-0.0524666 -0.122999 -0.150394
0.0358966 -0.0852057 -0.315599
0.134177 -0.162795 -0.200077
-0.0315744 -0.158302 -0.261392
-0.00991767 0.0280934 0.0845051
0.190907 0.00467572 -0.0267411
0.21093 -0.0278689 -0.195375
-0.276672 -0.0320037 0.171557
0.104681 -0.15325 -0.111578
-0.140179 -0.141521 -0.273251
-0.178759 -0.130024 -0.371977
-0.15182 -0.124876 -0.0537797
0.125947 -0.0142434 -0.200488
-0.177017 0.0142962 0.110869
0.267308 -0.136941 -0.0235899
0.234214 -0.184197 -0.292598
-0.205531 -0.0268705 -0.253993
0.386966 -0.0984565 -0.23823
-0.274686 0.0255957 -0.0672877
0.227951 -0.146963 -0.151015
0.0652329 -0.114179 -0.377025
0.288672 -0.0704719 -0.224151
0.000509061 -0.0727469 -0.13986
-0.162844 0.0393339 -0.25042
-0.101812 0.0541035 -0.339805
-0.2703 -0.0622643 -0.0269915
0.500538 0.0168234 -0.353057
0.40552 -0.0812126 -0.0585219
0.268741 0.00822851 -0.299195
-0.244417 -0.190133 0.267517
-0.0183067 -0.0210088 -0.236908
-0.18471 0.0879582 -0.291918
0.327034 -0.113859 -0.312865
-0.282642 -0.164259 0.0584214
-0.194693 0.0141177 -0.154518
-0.182562 -0.13367 -0.207029
-0.260346 -0.118155 0.15371
-0.0630544 0.032261 0.113498
0.272978 -0.16958 -0.22573
-0.163155 -0.07365 0.128264
0.0521501 -0.0242733 -0.2208
0.0669793 -0.0150514 0.000560418
0.287075 -0.112577 -0.0794855
-0.0796491 -0.14746 -0.190682
0.247882 -0.0869258 -0.342237
0.354468 -0.0725146 -0.131141
0.131771 -0.17847 -0.303774
-0.205507 0.143189 -0.0769632
0.186238 0.034519 0.072005
0.164892 0.201209 0.0898797
-0.256371 -0.0812945 -0.317122
0.157697 0.0647985 -0.325659
-0.0289539 -0.0989634 -0.298492
-0.0356951 -0.147327 -0.083368
0.0274517 -0.127334 -0.197351
0.215271 -0.108664 0.0327646
0.320471 0.0111838 0.0279822
0.0391426 0.00524548 0.139791
-0.26299 -0.0970638 -0.0757893
-0.250832 0.0825892 0.0313103
-0.193141 -0.16047 0.0805631
0.0388494 0.0987732 -0.305718
-0.182584 0.112632 -0.201903
-0.11828 -0.105884 0.149765
-0.0574744 -0.0653129 0.298234
0.0305729 -0.0218618 -0.307517
0.309163 -0.131499 0.0331754
-0.166265 -0.00790459 -0.344807
-0.203924 -0.0155436 0.00452939
-0.00551263 -0.149595 0.156602
-0.206056 -0.143712 0.21979
0.0942459 0.21384 0.0967447
-0.272445 0.0541632 0.156777
0.00203319 -0.14215 -0.0148674
0.0746965 -0.141966 0.0825277
0.401983 -0.0494129 0.0029249
-0.121964 0.0263523 -0.14009
0.18726 -0.16991 -0.218656
0.363844 -0.140381 -0.156178
0.127058 -0.171033 -0.375466
-0.14155 -0.150385 0.0354595
-0.0968464 -0.0161517 -0.312406
-0.21005 -0.0383295 -0.141437
-0.016485 -0.162378 -0.366919
0.350113 -0.0190642 -0.159048
-0.150191 0.134163 -0.279972
0.290978 -0.184926 -0.289327
-0.155797 0.196171 -0.121251
-0.114819 -0.0182818 0.181807
-0.0815352 -0.16062 0.238471
-0.285495 -0.0536922 0.0625933
-0.195322 -0.142687 -0.0345083
0.281602 0.11833 -0.157842
0.346446 0.107649 -0.355735
-0.09638 -0.140698 0.0980303
0.272708 -0.0576502 -0.284556
-0.125767 -0.0831641 -0.300177
-0.230957 -0.0105735 0.198663
-0.185765 0.0974054 0.104973
0.111536 -0.149759 -0.0164797
0.0404394 -0.053056 -0.0972974
-0.276249 -0.141238 -0.107817
-0.102717 0.0487634 0.133778
-0.0226731 -0.0872387 -0.361333
-0.207502 -0.127389 -0.278226
-0.273292 0.0828489 0.10208
-0.262014 0.0697147 -0.0953942
0.235494 -0.0651766 -0.193879
0.108872 -0.0969729 -0.233625
-0.093998 -0.0325261 -0.261803
0.356667 -0.173265 -0.238471
0.149589 0.155345 -0.299046
-0.143952 0.0638918 -0.0480383
-0.256176 -0.0249279 -0.0756901
-0.238127 -0.135297 -0.161712
-0.150295 -0.14219 -0.15215
-0.0859929 0.115737 -0.3111
0.251021 -0.0326228 0.0367825
0.198583 -0.00364339 -0.337321
-0.124693 -0.142554 -0.360423
0.179256 -0.122452 -0.328427
-0.196177 0.15282 -0.159477
0.0532795 0.00279751 0.0849622
-0.175757 -0.184858 0.272099
0.344202 -0.00337085 -0.0222989
-0.291183 -0.138527 0.000696003
0.326537 -0.0182582 -0.229497
0.153865 -0.0851279 0.0411727
-0.0994538 -0.131294 -0.067554
-0.132439 -0.138675 0.208482
-0.239644 0.00525424 -0.208161
0.00543889 -0.15043 0.23463
-0.0334643 0.0563544 0.0654158
-0.0167751 -0.000579506 0.165382
0.276991 -0.151016 -0.346615
0.101155 -0.0123813 -0.303202
0.199598 -0.14576 -0.111543
-0.0619761 0.0318806 -0.337985
-0.0709243 -0.0460364 -0.178415
-0.242547 -0.0031321 0.137634
-0.211324 -0.0761963 -0.360162
0.362996 -0.124883 -0.0889045
-0.0515453 -0.149348 0.0633044
-0.278722 -0.0836619 -0.216078
0.139805 -0.148448 -0.0696854
-0.111057 0.0719951 0.0263492
0.0155456 0.0739998 0.136129
0.416754 -0.0343419 -0.159388
-0.120219 0.00143668 0.0885256
-0.241318 -0.180527 0.186349
0.298202 -0.150116 -0.168523
0.427054 -0.0209173 -0.031888
0.419315 -0.12894 -0.202679
0.177664 -0.145655 -0.385525
0.138908 -0.000279516 0.033476
-0.233966 0.106695 -0.157872
-0.226765 -0.0971529 0.130271
0.029348 -0.0673248 -0.057198
0.147204 -0.148352 -0.254763
0.0263297 -0.131001 -0.246624
0.121986 -0.0450399 -0.0923032
-0.15125 -0.0648666 -0.350747
0.0185891 -0.0125076 -0.222091
-0.0542318 0.00513771 -0.25285
-0.0738394 -0.151844 -0.236971
-0.0136753 0.0980434 -0.312003
-0.179217 0.0114811 -0.301793
0.331985 -0.133441 -0.031485
0.272695 -0.0114542 -0.121023
-0.165996 0.0568763 0.0836838
0.225011 -0.126182 -0.177892
-0.0742982 -0.173476 0.301524
0.194415 0.14583 -0.349825
0.20872 -0.14034 0.0861783
0.0682658 -0.176032 -0.328032
0.207487 0.0849352 -0.313047
0.299985 -0.127624 -0.25625
0.0537928 0.0104905 -0.233579
0.335235 -0.0656936 0.023847
-0.233067 -0.129455 -0.0172102
0.24944 -0.0388595 -0.0414852
-0.286126 -0.151321 0.142472
-0.194329 0.0597571 -0.101109
0.0973624 -0.155159 -0.158234
-0.131966 -0.115205 -0.191293
0.104924 -0.0590104 -0.362982
-0.201095 -0.166509 0.139767
-0.165677 -0.0274547 -0.226332
-0.191268 0.0632852 0.156239
-0.0783313 -0.152995 -0.320354
0.189949 -0.0122635 -0.284748
-0.097235 -0.0243596 -0.0556435
-0.209526 -0.0757009 -0.17639
