ply
format ascii 1.0
comment Created by Open3D
element vertex 1177
property double x
property double y
property double z
property uchar red
property uchar green
property uchar blue
end_header
-0.328809 -0.119349 -0.0101394 95 160 255
0.209624 -0.485533 -0.0815733 1 254 255
-0.25348 0.076398 0.0832039 145 110 255
-0.332116 0.0726138 -0.238453 144 111 255
0.145422 0.0130145 -0.269026 128 127 255
0.215449 -0.390525 -0.267679 25 230 255
-0.113204 -0.271368 0.299853 56 199 255
-0.159644 -0.183094 0.300105 78 177 255
0.00503558 -0.486264 -0.152786 1 254 255
-0.273211 0.076503 0.195171 145 110 255
0.100499 -0.486746 0.162429 0 255 255
-0.0415868 -0.267472 -0.256634 56 198 255
-0.30186 -0.367566 -0.0539863 31 224 255
-0.0327193 -0.0511065 -0.26738 112 143 255
0.0373775 -0.423916 -0.24935 17 238 255
0.133903 -0.431849 -0.0687378 15 240 255
-0.338821 0.019463 0.160989 130 125 255
-0.326494 -0.00127783 -0.113691 125 130 255
-0.312642 -0.0397196 0.297742 115 140 255
-0.294608 -0.36166 0.128551 32 222 255
-0.177086 0.0732968 0.199124 144 111 255
-0.22405 -0.284722 0.286298 52 203 255
0.353217 -0.368467 -0.126974 31 224 255
-0.191083 0.0770414 -0.204934 145 110 255
0.0500211 -0.412236 0.112476 20 235 255
0.262649 -0.454893 0.0477565 9 246 255
0.0536102 -0.485834 -0.0382898 1 254 255
-0.181854 -0.486194 0.0313126 1 254 255
-0.327024 -0.0241439 -0.0119831 119 136 255
-0.310412 -0.485857 -0.19331 1 254 255
-0.326453 -0.0473348 0.131132 113 142 255
-0.248767 -0.383002 0.302845 27 228 255
-0.168729 -0.418552 -0.267965 18 237 255
-0.301261 0.0749594 -0.106814 144 111 255
-0.0823869 -0.0860475 0.297136 103 152 255
-0.337831 -0.157481 -0.0813343 85 170 255
-0.166658 0.0764659 0.0224137 145 110 255
-0.332873 -0.332174 0.0454318 40 215 255
0.265975 -0.273132 -0.271155 55 200 255
-0.2639 -0.0499238 -0.267505 112 143 255
-0.0616583 0.014432 0.297629 129 126 255
-0.331099 -0.408777 0.111966 20 235 255
0.254822 -0.466412 -0.263637 6 249 255
0.112521 -0.287236 0.0624756 52 203 255
-0.292641 -0.41397 0.241822 19 236 255
0.139572 -0.360883 -0.249441 32 222 255
-0.0567898 -0.486445 0.0454501 1 254 255
0.25184 -0.156725 -0.263531 85 170 255
-0.227423 -0.458706 0.151102 8 247 255
-0.226547 -0.48564 -0.14912 1 254 255
-0.0242735 -0.4862 0.276077 1 254 255
0.097563 -0.404199 -0.00305264 22 233 255
-0.0131516 0.0539584 -0.265828 139 116 255
-0.326501 -0.110842 0.0755567 97 158 255
-0.197759 -0.186591 -0.256079 77 178 255
0.0501009 -0.485969 -0.235818 1 254 255
-0.174531 0.0153426 0.295872 129 126 255
0.293519 -0.38205 -0.0821833 27 228 255
-0.0397089 -0.171754 -0.257835 81 174 255
-0.334667 -0.252758 0.10346 60 195 255
0.204911 -0.483716 -0.203149 1 254 255
-0.336145 -0.291971 0.303265 50 205 255
-0.326025 -0.484265 0.0410633 1 254 255
-0.340665 -0.23522 -0.246959 65 190 255
-0.0324631 -0.19333 0.302796 76 179 255
0.127972 -0.48605 -0.0818807 1 254 255
-0.332178 0.0688518 0.129844 143 112 255
-0.182605 -0.27133 -0.266867 56 199 255
0.282925 -0.485043 -0.0937999 1 254 255
0.150021 -0.412236 0.112476 20 235 255
0.177201 -0.258039 -0.270038 59 195 255
-0.284602 -0.485398 -0.0718206 1 254 255
0.144733 -0.430494 -0.266141 15 240 255
-0.106113 -0.486109 -0.0510096 1 254 255
-0.236095 -0.184018 0.296609 78 177 255
-0.34065 -0.0574827 -0.131842 110 145 255
-0.129756 -0.48625 0.0944597 1 254 255
-0.33264 -0.340905 -0.104615 38 217 255
0.0622013 -0.070062 0.304278 107 147 255
0.0132943 -0.435614 0.302725 14 241 255
-0.330303 -0.378054 0.190774 28 227 255
0.202314 -0.399367 0.0255727 23 232 255
0.0896773 0.0464834 -0.26111 137 118 255
-0.10935 -0.185417 -0.269014 78 177 255
-0.161687 0.0764734 -0.0454699 145 110 255
-0.337575 -0.106891 0.158982 97 157 255
0.329526 -0.466332 -0.184655 6 249 255
0.0779277 -0.470821 0.0723086 5 250 255
-0.201167 -0.441064 0.27451 12 243 255
-0.336146 -0.453793 0.241682 9 246 255
-0.215805 -0.0588698 0.292972 110 145 255
-0.208771 -0.366768 -0.267012 31 224 255
-0.249358 -0.485944 0.134484 1 254 255
-0.0873646 -0.359217 0.293266 32 222 255
-0.297642 0.0757836 -0.182812 145 110 255
-0.333628 -0.379819 -0.0268186 28 227 255
-0.0814337 -0.435574 -0.269091 14 241 255
0.127427 -0.165479 -0.269165 83 172 255
-0.0539917 0.0767538 -0.174239 145 110 255
-0.335059 0.0525687 0.0343484 139 116 255
-0.327245 -0.310784 -0.257932 46 209 255
0.0404434 -0.486078 0.205581 1 254 255
-0.295104 0.0701674 0.27755 143 112 255
-0.0791427 -0.0840207 -0.266766 104 151 255
0.265755 -0.373793 -0.145943 29 226 255
-0.183637 -0.37174 0.299794 30 225 255
0.160942 -0.0743804 -0.260623 105 149 255
-0.313675 -0.459186 -0.266673 8 247 255
-0.281017 -0.386552 0.0187148 26 229 255
-0.0931782 -0.330574 -0.268392 40 215 255
0.0852446 -0.48614 -0.143471 1 254 255
-0.153904 0.05847 -0.260559 140 114 255
-0.325949 -0.302126 -0.167079 48 207 255
2.11209e-05 -0.412236 -2.44075e-05 20 235 255
0.042117 -0.277323 0.302592 54 201 255
-0.323975 -0.211322 0.262897 71 184 255
-0.247675 -0.420363 -0.0844922 17 238 255
0.137521 -0.037236 0.299976 116 139 255
-0.253929 -0.485714 0.036781 1 254 255
-0.153817 0.076423 0.0767562 145 110 255
0.0400739 -0.152112 0.304464 86 169 255
0.0205548 -0.200178 -0.257921 73 181 255
0.154727 -0.474718 0.112705 4 251 255
0.0128055 -0.0375231 -0.26835 115 140 255
-0.205325 -0.404416 -0.227009 22 233 255
-0.324707 -0.297425 -0.0398694 48 206 255
-0.198945 0.0765458 -0.107269 145 110 255
0.227318 0.000143981 -0.270703 125 130 255
-0.169112 -0.139915 0.293551 89 166 255
-0.337608 0.00663471 -0.247996 127 128 255
-0.185035 -0.485131 0.292804 1 254 255
-0.287947 -0.136316 0.297756 89 165 255
-0.167807 -0.300642 0.297303 48 207 255
-0.272525 -0.286795 0.27837 52 203 255
-0.0952738 -0.486441 -0.205809 1 254 255
-0.00296608 -0.0843669 0.299291 104 151 255
-0.338236 0.0471804 -0.0613358 137 118 255
-0.328713 -0.164522 -0.146851 83 172 255
-0.264455 0.0405474 -0.264012 135 120 255
0.144137 -0.48543 -0.211908 1 254 255
0.124109 -0.24915 -0.248082 60 194 255
-0.0986366 -0.486343 0.263137 1 254 255
-0.26732 0.0750148 -0.00755045 144 111 255
0.0766907 -0.363064 -0.270783 32 223 255
0.204417 -0.379557 -0.190027 28 227 255
0.246539 -0.394815 -0.0433469 24 231 255
-0.327742 -0.0228292 0.184797 119 136 255
0.112521 -0.0247361 -2.44075e-05 119 136 255
-0.249662 -0.462888 -0.268257 7 248 255
-0.0326152 -0.301881 -0.270051 48 207 255
-0.0896933 -0.223865 0.300523 68 187 255
-0.139146 -0.0483102 0.303455 113 142 255
-0.0566857 -0.486083 0.111312 1 254 255
-0.31961 -0.38602 -0.264745 26 229 255
-0.326581 -0.148837 0.212279 87 168 255
0.205744 -0.401738 0.0802822 22 233 255
-0.176982 -0.486074 0.225385 1 254 255
-0.331764 -0.370441 -0.153801 30 225 255
-0.20036 -0.486028 -0.228029 1 254 255
0.0560515 -0.483687 0.297497 1 254 255
-0.0375545 -0.383126 0.296552 27 228 255
-0.0142176 -0.10454 -0.257934 97 157 255
0.271849 -0.209278 -0.257178 72 183 255
-0.07909 0.076619 -0.101076 145 110 255
-0.0320381 0.0187728 -0.254232 130 125 255
0.176741 -0.311073 -0.249295 44 210 255
-0.285734 -0.114057 -0.267276 96 159 255
-0.194277 -0.488546 -0.13031 0 255 255
0.165887 -0.485214 -0.0334332 1 254 255
-0.284649 -0.472059 -0.0166099 4 251 255
0.269443 -0.485718 -0.220881 1 254 255
0.134458 -0.386268 -0.0117159 26 229 255
-0.324424 -0.2355 -0.0619043 65 190 255
-0.323718 -0.295641 0.112907 48 206 255
0.0685682 -0.442541 -0.270128 12 243 255
-0.249681 -0.424912 0.226423 16 239 255
-0.0976695 0.0764338 -0.00875628 145 110 255
-0.343461 -0.0795304 0.266791 105 150 255
0.320798 -0.41916 -0.105014 18 237 255
-0.0380021 -0.27877 0.296931 54 201 255
-0.327757 -0.00256675 0.0835592 124 131 255
-0.235965 0.0767423 -0.237747 145 110 255
-0.119738 -0.486116 0.181067 1 254 255
-0.140742 0.0519711 0.295416 138 117 255
-0.288635 0.0761043 0.146004 145 110 255
0.0596828 -0.249294 -0.268652 60 194 255
0.242935 -0.352735 -0.267415 35 220 255
-0.337827 -0.166842 -0.245791 81 173 255
0.0091739 -0.380684 -0.271648 28 227 255
-0.302729 -0.485834 -0.119816 1 254 255
0.00691837 0.0734563 -0.22819 144 111 255
0.225021 -0.0622361 0.312476 109 146 255
-0.0318089 -0.486217 -0.208873 1 254 255
0.00792354 -0.486207 -0.0507211 1 254 255
-0.266196 -0.485915 0.248275 1 254 255
-0.22847 0.076416 0.0366173 145 110 255
0.0218092 -0.48666 0.146924 1 254 255
-0.133221 -0.436384 -0.240843 13 242 255
-0.327303 -0.176466 0.146769 80 175 255
0.197106 -0.193307 -0.271818 76 179 255
-0.122136 -0.457164 0.300132 8 247 255
0.0890195 -0.0361863 -0.258726 116 139 255
-0.32856 -0.247318 -0.158962 62 193 255
-0.282306 -0.312861 -0.267795 44 210 255
0.17378 -0.476813 -0.269992 3 252 255
-0.326004 -0.28841 0.226309 51 204 255
-0.338062 -0.0964222 0.0421947 100 155 255
-0.329335 -0.217751 0.0469849 69 186 255
-0.240025 0.0767255 -0.149312 145 110 255
-0.201274 -0.48605 0.0847252 1 254 255
-0.122412 -0.372371 0.305521 30 225 255
-0.32307 -0.10824 -0.16806 97 158 255
-0.15198 -0.218706 -0.267427 69 186 255
-0.102727 0.0585698 -0.261955 140 114 255
-0.307159 -0.480218 0.296333 2 253 255
0.076473 -0.18424 0.301333 78 177 255
-0.330433 -0.0716779 -0.0756718 107 147 255
0.02147 -0.486495 0.073227 1 254 255
-0.223858 -0.138223 -0.25275 89 165 255
-0.257677 -0.0483794 0.291523 113 142 255
0.0466332 -0.357816 0.308893 32 222 255
-0.257108 -0.382964 -0.249575 27 228 255
-0.0331605 -0.0131886 0.298278 121 133 255
-0.338995 0.0639486 0.202654 141 113 255
-0.219924 -0.414166 0.118178 19 236 255
0.227993 -0.419808 -0.247057 18 237 255
0.158915 -0.367829 0.0614947 31 224 255
-0.332145 -0.448434 -0.0240387 10 245 255
-0.226807 -0.368279 0.272157 31 224 255
-0.11906 -0.486316 0.0021287 1 254 255
-0.333268 0.00928838 -0.201376 127 128 255
-0.300997 -0.415925 0.173281 19 236 255
0.287392 -0.406994 -0.010331 21 234 255
0.114611 -0.466625 0.0187472 6 249 255
-0.274556 -0.207443 -0.252747 72 183 255
-0.0805794 -0.0179198 -0.266231 121 134 255
-0.211513 -0.43989 0.0247108 12 243 255
-0.198148 0.0705987 0.243175 143 112 255
-0.329704 -0.178089 -0.014182 80 175 255
-0.316242 -0.416723 -0.213569 18 237 255
-0.337295 -0.221544 0.19668 68 187 255
0.183153 -0.378597 -0.0343244 28 227 255
-0.339681 -0.174906 0.298975 80 175 255
-0.0579139 -0.485898 -0.107882 1 254 255
-0.174471 0.0748353 0.145629 144 111 255
-0.301185 0.0727578 0.0642889 144 111 255
-0.335928 -0.0763462 -0.259464 105 149 255
-0.229517 -0.450242 0.299675 10 245 255
0.214282 -0.100921 -0.268039 99 156 255
-0.144953 0.0766827 -0.188407 145 110 255
-0.152815 -0.0833528 -0.268043 104 151 255
0.214771 -0.484979 -0.0444335 1 254 255
0.278785 -0.485757 -0.142632 1 254 255
-0.0804822 -0.252635 -0.268875 60 195 255
-0.344046 -0.0193328 0.244779 120 135 255
-0.10063 -0.133682 0.301335 91 163 255
0.123103 -0.294275 -0.271363 50 205 255
2.92351e-05 -0.225329 0.300332 67 188 255
-0.265344 -0.339721 0.299259 38 217 255
-0.155167 -0.224798 0.300182 68 187 255
-0.187654 -0.307633 -0.252555 46 209 255
0.0584406 -0.486598 0.242009 1 254 255
0.0630158 -0.158667 -0.271652 84 171 255
-0.1873 -0.431878 -0.169596 15 240 255
-0.200981 -0.485904 -0.0652137 1 254 255
-0.300973 0.0050716 0.308568 126 129 255
-0.21879 -0.0379061 -0.251723 115 140 255
-0.331288 -0.365515 0.103526 32 223 255
-0.291911 -0.219046 0.299019 69 186 255
-0.0419944 -0.433568 -0.270477 14 241 255
0.283427 -0.331856 -0.251727 40 215 255
-0.332767 -0.412021 -0.0978769 20 235 255
0.193571 -0.485843 0.0578473 1 254 255
-0.116573 -0.327672 0.28951 40 214 255
0.0370228 -0.485822 -0.108264 1 254 255
0.200021 -0.037236 0.0124756 116 139 255
-0.125998 -0.485972 -0.263164 1 254 255
-0.290199 -0.399959 0.278199 23 232 255
-0.32744 -0.482767 0.106372 2 253 255
-0.250615 0.0764631 -0.0608116 145 110 255
-0.338067 -0.0484057 0.00263558 113 142 255
-0.333206 -0.328883 -0.0135851 40 214 255
0.110184 -0.100945 -0.258834 99 156 255
0.117189 -0.453784 -0.235341 9 246 255
-0.0940603 -0.10384 -0.249902 99 156 255
-0.337613 -0.134265 -0.069019 91 163 255
-0.304447 0.0742921 -0.235116 144 111 255
-0.208444 0.00779656 0.295181 127 128 255
-0.275447 0.0764187 0.234878 145 110 255
-0.279007 -0.386349 0.0619677 26 229 255
-0.000860423 -0.359456 -0.249211 32 222 255
-0.338874 -0.303768 0.287935 47 208 255
0.170069 -0.00999111 -0.269072 123 131 255
-0.044081 -0.486117 0.213813 1 254 255
-0.336275 0.0604317 -0.111682 141 113 255
0.0553318 -0.459267 0.0180205 8 247 255
-0.217763 -0.23866 -0.266791 64 191 255
0.150021 -0.274736 0.0374756 55 200 255
0.136599 -0.2101 -0.248057 71 184 255
-0.118659 -0.486441 -0.152606 1 254 255
-0.332297 0.0493131 0.280091 138 117 255
-0.0141197 -0.236337 -0.259315 65 190 255
0.188235 -0.484822 -0.145791 1 254 255
-0.334676 -0.332389 -0.214454 40 215 255
-0.3345 -0.254367 0.00609103 60 195 255
-0.0430695 0.0768774 -0.222405 145 110 255
-0.335517 -0.206527 -0.105815 72 183 255
-0.333611 -0.460044 0.183394 7 248 255
-0.158589 -0.00414395 -0.263139 124 131 255
-0.320928 -0.0777199 0.29802 105 150 255
0.245757 -0.383311 -0.117189 27 228 255
-0.124302 0.0763902 0.0341753 145 110 255
-0.338446 0.0528243 0.0834384 139 116 255
-0.329663 -0.157659 0.100883 85 170 255
-0.217548 -0.486067 0.198284 1 254 255
-0.324934 -0.340177 0.192719 38 217 255
-0.320003 -0.186921 -0.201154 77 178 255
0.269134 -0.411515 0.0409387 20 235 255
-0.0604598 -0.486789 -0.0289123 0 255 255
0.112431 -0.486579 0.150042 1 254 255
-0.333032 -0.456576 -0.173086 8 247 255
-0.116812 -0.311113 -0.255789 44 210 255
0.0201298 -0.125689 -0.269946 93 162 255
-0.0967274 -0.054293 0.296912 111 144 255
-0.121405 0.0765637 -0.115213 145 110 255
0.024052 0.011675 -0.255092 128 127 255
-0.135816 -0.412256 -0.268318 20 235 255
-0.325276 -0.0835399 0.163146 104 151 255
-0.0228692 -0.155743 0.303564 85 170 255
-0.1779 -0.0918073 0.294722 102 153 255
-0.0184705 -0.344734 0.300858 36 218 255
-0.211984 -0.485982 0.00134011 1 254 255
0.277705 -0.418725 -0.23558 18 237 255
-0.337807 -0.0126888 -0.0704405 121 133 255
0.0447857 -0.486122 -0.194023 1 254 255
-0.334485 -0.252514 -0.262323 60 195 255
-0.251052 -0.485653 -0.184241 1 254 255
-0.124237 -0.449313 0.281183 10 245 255
0.160616 -0.340469 -0.270833 38 217 255
-0.330803 -0.391279 0.0476591 25 230 255
0.146299 -0.420859 -0.0731196 17 238 255
-0.328866 -0.293229 -0.119289 50 205 255
-0.263193 -0.483475 0.103958 1 254 255
-0.215057 0.0296387 -0.25291 133 121 255
0.259797 -0.0966186 -0.266411 100 155 255
-0.0645982 -0.473266 0.304986 4 251 255
-0.327576 -0.43 0.296757 15 240 255
-0.296709 -0.485685 -0.243869 1 254 255
0.215991 -0.252837 -0.269086 60 195 255
-0.216589 -0.241151 0.285239 63 192 255
0.0305413 -0.0300979 0.299145 117 138 255
-0.330151 -0.476437 -0.0518382 3 252 255
-0.325619 -0.299856 0.0542294 48 207 255
0.0476646 -0.486393 -0.25699 1 254 255
-0.32608 -0.113584 0.229048 96 159 255
-0.333538 0.0560115 -0.0174398 139 116 255
-0.338067 -0.0534501 -0.191588 111 144 255
-0.11437 -0.169277 -0.268744 81 173 255
0.136145 -0.425511 0.0730356 16 239 255
0.281898 -0.442126 -0.0433543 12 243 255
0.037942 -0.108324 0.303871 97 158 255
-0.216244 -0.324049 0.301929 42 213 255
-0.334945 -0.230842 0.117165 65 189 255
-0.11284 0.0358477 0.296888 134 121 255
0.0732384 -0.485932 -0.00735121 1 254 255
-0.256976 -0.138487 0.293142 89 165 255
-0.132459 -0.486141 0.113028 1 254 255
-0.239785 0.0765337 0.165286 145 110 255
0.188454 -0.151716 -0.268962 86 169 255
-0.221881 0.0698645 0.288836 143 112 255
0.108845 -0.486309 0.209719 1 254 255
0.321093 -0.365747 -0.15118 31 224 255
0.111882 -0.486089 -0.171606 1 254 255
-0.341407 -0.255151 0.298844 60 195 255
-0.174949 -0.486305 -0.165878 1 254 255
-0.261732 -0.377537 -0.267346 28 227 255
-0.0174439 -0.48641 0.0320527 1 254 255
0.034877 -0.0696176 -0.268558 107 147 255
-0.328138 0.0443346 -0.261674 136 119 255
0.0836685 0.0262246 -0.268783 131 123 255
0.0650034 -0.299422 -0.264882 48 207 255
-0.243995 -0.425061 -0.0769215 16 239 255
-0.326757 0.0111023 0.045322 128 127 255
-0.335767 -0.271046 -0.208513 56 199 255
0.015002 -0.48585 0.268759 1 254 255
-0.276398 -0.0548678 -0.267562 111 144 255
-0.32788 0.0103096 0.228052 128 127 255
-0.326028 -0.483471 0.0492891 1 254 255
0.211495 -0.486175 -0.258572 1 254 255
-0.189049 0.0766554 -0.166647 145 110 255
0.097926 -0.402528 -0.248454 22 233 255
-0.171567 -0.414544 0.277489 19 236 255
-0.273964 -0.48563 0.173454 1 254 255
0.00867208 -0.443638 -0.271489 12 243 255
-0.0881479 -0.30096 0.299919 48 207 255
-0.0540873 -0.370845 -0.269906 30 225 255
0.218626 -0.0185015 -0.254036 120 135 255
-0.33579 -0.145124 0.0200354 88 167 255
2.11209e-05 -0.412236 0.0749756 20 235 255
-0.135445 -0.174977 0.293672 80 175 255
-0.095696 0.0766147 -0.229085 145 110 255
0.182852 -0.393462 -0.267268 24 231 255
-0.0561297 -0.156981 -0.257736 85 170 255
0.122419 -0.486238 0.068869 1 254 255
-0.138536 -0.48616 -0.0901431 1 254 255
-0.310093 -0.37961 -0.0956229 28 227 255
-0.195034 -0.466791 -0.266876 6 249 255
-0.338661 -0.0775705 0.078469 105 150 255
-0.338636 -0.118284 -0.240854 95 160 255
-0.33887 0.0400985 -0.168132 135 120 255
-0.178572 0.0764563 0.103508 145 110 255
0.00710482 -0.486628 0.182433 1 254 255
-0.00672739 -0.479725 0.305806 2 253 255
-0.254017 -0.485625 -0.0809377 1 254 255
-0.295371 -0.363313 0.142201 32 223 255
-0.220509 -0.405704 -0.209937 21 234 255
-0.0387259 -0.054802 0.297922 111 144 255
0.0484403 -0.269502 0.304358 56 199 255
0.146793 -0.48542 -0.0828983 1 254 255
-0.0808664 -0.486714 0.170348 1 254 255
0.210591 -0.44991 0.0793706 10 245 255
-0.293498 -0.358688 -0.232253 32 222 255
-0.28293 0.0765648 -0.138845 145 110 255
-0.187497 -0.0872948 -0.268595 103 152 255
-0.331321 -0.407324 0.216605 21 234 255
0.275622 -0.269818 -0.256835 56 199 255
-0.211138 0.0764327 -0.0106859 145 110 255
0.203069 -0.389436 -0.0614571 25 230 255
-0.340446 -0.0383618 -0.124259 115 140 255
-0.341935 -0.0327497 0.193528 117 138 255
0.282169 -0.484514 -0.0899682 1 254 255
-0.266301 -0.248102 -0.267427 62 193 255
-0.337428 -0.202751 0.239983 73 182 255
0.0895427 -0.2071 -0.270407 72 183 255
-0.138606 -0.486789 0.023938 0 255 255
-0.0589853 -0.220087 0.295746 69 186 255
0.32137 -0.469793 -0.191644 5 250 255
-0.333945 -0.397442 -0.218786 23 232 255
-0.15261 -0.324061 0.286325 42 213 255
-0.340051 -0.116188 -0.140958 95 160 255
-0.221306 -0.316557 -0.265923 44 211 255
-0.224735 -0.424449 0.144771 16 239 255
-0.270375 -0.139727 -0.267642 89 166 255
0.00332712 -0.486379 -0.207553 1 254 255
0.0959912 -0.485257 -0.266153 1 254 255
0.319947 -0.390352 -0.0631616 25 230 255
-0.251687 0.0114185 0.294539 128 127 255
0.279204 -0.399322 -0.26509 23 232 255
-0.088729 0.0765116 -0.0415619 145 110 255
-0.0934436 -0.0101739 -0.250988 121 133 255
-0.3375 -0.156932 0.156947 85 170 255
0.0497183 -0.451741 0.301018 9 246 255
-0.184022 0.074259 0.216863 144 111 255
-0.086497 -0.436886 -0.249394 13 242 255
-0.300112 -0.420092 0.114213 18 237 255
0.25223 -0.148229 -0.26339 87 168 255
-0.176888 -0.179159 -0.265753 79 176 255
-0.0354797 -0.198544 -0.269085 73 181 255
-0.0549369 -0.486399 -0.142398 1 254 255
0.139917 -0.048552 -0.269475 113 142 255
0.240717 -0.461515 -0.00496304 7 248 255
-0.304425 0.0745645 0.0250811 144 111 255
-0.186661 -0.046442 0.293791 113 142 255
-0.3121 -0.409012 -0.0412693 20 235 255
-0.0609119 -0.416837 0.305963 18 237 255
-0.144264 -0.416502 -0.225562 18 237 255
-0.280341 -0.370155 0.263517 30 225 255
0.233378 -0.323639 -0.248437 42 213 255
-0.00670855 -0.295336 0.304717 48 206 255
0.0718103 -0.177033 0.304428 80 175 255
0.238819 -0.485064 -0.161145 1 254 255
0.0618199 -0.486153 0.103092 1 254 255
-0.310257 0.0740934 0.166302 144 111 255
0.0313747 -0.326459 -0.26765 42 213 255
-0.335554 -0.459809 0.253713 7 248 255
-0.180204 -0.385284 0.300276 26 229 255
-0.340148 -0.0264715 -0.23098 118 137 255
-0.325074 -0.294176 0.197672 50 205 255
-0.081137 -0.09852 0.30374 100 155 255
-0.33705 -0.0955412 -0.043233 101 154 255
-0.24645 -0.485034 0.287989 1 254 255
0.0774813 -0.485722 -0.0807423 1 254 255
0.0740715 -0.0442454 0.299744 113 141 255
0.0585287 -0.155781 -0.250301 85 170 255
-0.062909 -0.486801 0.0894699 0 255 255
0.162662 -0.485885 0.0204865 1 254 255
-0.210862 -0.465776 0.0367507 6 249 255
-0.234094 -0.421445 -0.267284 17 238 255
-0.336315 -0.209744 -0.0504479 71 184 255
0.118179 -0.390327 0.077935 25 230 255
0.0489003 0.0615205 -0.259461 141 113 255
-0.137873 0.0756031 -0.249117 144 111 255
-0.297072 -0.32374 0.297558 42 213 255
-0.160547 -0.486331 0.282159 1 254 255
-0.11223 -0.262618 -0.258967 58 197 255
-0.187413 -0.182647 0.298 78 177 255
-0.336337 -0.181911 0.0559173 79 176 255
-0.174408 -0.486033 0.150679 1 254 255
-0.254067 -0.0806618 0.293229 104 151 255
0.103499 -0.346793 -0.252902 36 219 255
0.0502466 -0.384195 0.309682 27 228 255
0.100021 0.0127639 0.0124756 128 127 255
-0.333158 -0.32487 -0.0816563 42 213 255
-0.331096 -0.472396 -0.233235 4 251 255
-0.339239 0.0105569 -0.0196672 128 127 255
0.354644 -0.390434 -0.125605 25 230 255
0.0295344 -0.245785 -0.256977 62 193 255
-0.0404259 0.00745017 -0.266713 127 128 255
0.102587 -0.408098 -0.0118432 21 234 255
-0.333012 -0.462579 0.00937406 7 248 255
-0.333683 -0.324474 0.0990808 42 213 255
-0.172125 -0.364635 -0.250036 32 223 255
0.187521 -0.074736 0.287476 105 149 255
-0.0823392 -0.475432 0.268469 3 252 255
-0.268519 -0.222001 0.297899 68 187 255
-0.339962 -0.0116086 0.133841 121 133 255
-0.115764 0.0766088 -0.146258 145 110 255
-0.337633 -0.151953 0.251688 86 169 255
-0.103967 -0.00162596 0.301038 125 130 255
-0.285836 -0.485665 0.0755636 1 254 255
-0.0492867 -0.486301 -0.255607 1 254 255
-0.274527 -0.428974 0.188397 15 240 255
-0.18344 -0.265253 0.296052 56 198 255
-0.165667 0.061281 0.27286 141 113 255
-0.328357 -0.409298 -0.151435 20 235 255
0.242097 -0.0513791 -0.252914 112 143 255
-0.140195 -0.128039 -0.257767 92 163 255
-0.294842 -0.367208 0.0113518 31 224 255
-0.270853 -0.485508 -0.0182955 1 254 255
0.195352 -0.484664 -0.211696 1 254 255
-0.328931 -0.231832 -0.13037 65 189 255
-0.294071 0.0701883 0.277334 143 112 255
-0.29564 -0.485287 -0.134516 1 254 255
-0.2184 0.0484806 -0.260628 138 117 255
0.136235 0.0128744 -0.255485 128 127 255
-0.330593 -0.0392137 0.291737 115 140 255
0.147255 -0.138941 -0.26025 89 165 255
-0.249532 -0.11647 -0.25242 95 160 255
-0.331879 -0.455131 0.138272 9 246 255
-0.31997 0.0728589 -0.0752078 144 111 255
-0.184138 -0.481514 -0.212906 2 253 255
-0.0611969 -0.312761 -0.257915 44 210 255
0.210484 -0.400198 0.0212258 23 232 255
-0.142582 0.076452 -0.0285921 145 110 255
-0.0208268 0.0770998 -0.211477 145 110 255
-0.336779 -0.246857 0.183687 62 193 255
0.225893 -0.214804 -0.268772 70 185 255
-0.284507 -0.485412 0.234555 1 254 255
-0.339262 0.0590379 -0.230404 140 114 255
0.00715702 -0.486244 -0.119233 1 254 255
-0.0315116 -0.0717971 -0.257137 107 147 255
-0.0764452 -0.159341 0.301897 84 171 255
-0.319099 -0.172823 -0.199043 81 174 255
-0.339072 -0.0225318 0.0611084 119 136 255
-0.00914527 -0.486785 -0.0203894 0 255 255
-0.210316 -0.419878 0.0778669 18 237 255
-0.308494 -0.322211 -0.218998 43 211 255
-0.330032 -0.368904 0.16353 31 224 255
-0.026172 -0.412403 -0.248914 20 235 255
0.00664195 -0.183395 0.304022 78 177 255
0.162036 -0.467017 -0.271781 6 249 255
-0.128842 -0.486256 0.202327 1 254 255
0.174681 -0.485759 0.0879943 1 254 255
0.201595 -0.484767 -0.103307 1 254 255
-0.120245 -0.486075 -0.232017 1 254 255
-0.336333 -0.300168 0.256414 48 207 255
-0.256654 0.0738615 0.129758 144 111 255
-0.333881 -0.264964 0.0504813 56 198 255
-0.259149 0.0766803 -0.211595 145 110 255
-0.180495 -0.270271 -0.251505 56 199 255
0.00250701 -0.158387 -0.269915 85 170 255
-0.212624 -0.133876 0.292261 91 163 255
-0.210411 0.076514 -0.0634863 145 110 255
-0.201233 -0.340168 0.282873 38 217 255
-0.0686867 -0.380716 0.29438 28 227 255
0.0244148 -0.0160103 -0.253142 121 134 255
0.0716647 -0.486903 0.0478617 0 255 255
-0.338623 0.0402323 0.128038 135 120 255
-0.33647 -0.124684 0.107387 93 162 255
-0.214194 -0.474895 -0.100156 4 251 255
-0.334196 -0.103524 0.298438 99 156 255
-0.25098 -0.00917312 -0.253875 123 131 255
0.255792 -0.459464 0.0448857 7 248 255
-0.319141 -0.379343 0.297825 28 227 255
0.106697 -0.486233 -0.192118 1 254 255
-0.328996 -0.162653 -0.106068 83 172 255
-0.0226887 -0.486136 0.140632 1 254 255
-0.331407 -0.376162 0.0121576 29 226 255
0.126732 -0.260616 -0.248359 58 197 255
-0.234029 -0.191701 -0.267331 76 179 255
0.293322 -0.450164 -0.241915 10 245 255
-0.146091 -0.452161 0.299986 9 246 255
-0.0359791 -0.103803 0.297321 99 156 255
0.102616 -0.487226 0.228295 0 255 255
-0.335211 -0.262491 -0.0416583 58 197 255
-0.115213 -0.486322 -0.0539097 1 254 255
-0.112701 -0.264851 0.29446 56 198 255
-0.132827 -0.105663 0.296595 97 157 255
0.264984 -0.374653 -0.139076 29 226 255
-0.171707 -0.486075 0.0746924 1 254 255
-0.0439715 -0.013032 0.301823 121 133 255
-0.0197003 0.0568209 -0.265107 140 114 255
-0.328253 -0.00649945 -0.168056 123 131 255
-0.329516 0.0721703 0.228761 144 111 255
-0.335511 -0.454875 0.286779 9 246 255
-0.325224 -0.485227 -0.0733284 1 254 255
0.188232 -0.398248 0.0834442 23 232 255
-0.229595 -0.460049 0.202853 7 248 255
-0.159277 -0.056348 -0.255128 111 144 255
-0.185118 -0.437288 -0.249583 13 242 255
-0.227036 -0.437794 0.300671 13 242 255
-0.310909 -0.358636 -0.160844 32 222 255
0.200095 -0.414901 -0.246769 19 236 255
-0.042143 -0.485634 0.275525 1 254 255
-0.316985 0.0277038 0.298466 131 123 255
-0.0889917 -0.486276 0.0460001 1 254 255
-0.10121 -0.377179 -0.268687 29 226 255
0.122333 -0.486208 -0.0187728 1 254 255
0.0401665 -0.400098 -0.27143 23 232 255
-0.330731 -0.0516466 -0.0297092 112 143 255
0.0825129 -0.0794366 -0.26007 105 150 255
-0.330144 -0.429692 0.0728169 15 240 255
-0.279076 -0.484551 -0.213318 1 254 255
-0.340231 -0.219257 0.301036 69 186 255
-0.337799 -0.228797 -0.225368 67 188 255
0.150021 -0.299736 0.0624756 48 207 255
-0.329377 -0.386064 -0.259294 26 229 255
-0.0734382 -0.220965 -0.25782 69 186 255
-0.00271829 -0.402219 0.299865 22 233 255
-0.325758 -0.206348 0.187485 72 183 255
0.208324 -0.301787 -0.248773 48 207 255
-0.246871 -0.405183 0.253545 21 234 255
-0.338815 -0.0763303 -0.216582 105 149 255
-0.2575 -0.402692 0.0460115 22 233 255
-0.326753 -0.0707773 0.237886 107 147 255
-0.116168 0.0211973 -0.265145 131 124 255
0.199818 -0.168579 -0.250673 81 173 255
0.0517986 -0.486169 0.18173 1 254 255
0.0194486 -0.0729928 0.301167 105 149 255
0.0311946 -0.473576 0.0113777 4 251 255
0.12896 -0.391655 -0.266762 25 230 255
0.0635008 -0.218799 0.30321 69 186 255
-0.2867 -0.177062 0.297552 80 175 255
-0.338404 -0.0854033 0.150639 103 152 255
-0.257711 -0.485787 0.132422 1 254 255
0.263375 -0.448885 -0.120286 10 245 255
-0.177281 -0.485966 -0.0345552 1 254 255
0.170518 -0.0644676 -0.261278 109 146 255
-0.251543 -0.288347 0.298648 51 204 255
-0.269932 0.0765302 -0.0426263 145 110 255
-0.167881 0.0764534 0.0437666 145 110 255
-0.261249 -0.46557 -0.268145 6 249 255
-0.329539 -0.217418 0.103643 69 186 255
-0.242382 0.0763705 0.233654 145 110 255
-0.236789 -0.253351 -0.252865 60 195 255
-0.338299 0.00491588 -0.109985 126 129 255
-0.333731 -0.143842 -0.0349582 88 167 255
-0.307172 0.074375 0.0991942 144 111 255
-0.312269 0.0740101 -0.177154 144 111 255
0.0769575 -0.485533 0.277646 1 254 255
-0.0946153 -0.471792 -0.268779 4 251 255
-0.14048 0.00593714 0.30062 127 128 255
-0.194911 0.07689 -0.244257 145 110 255
-0.0627634 0.0767145 -0.189644 145 110 255
-0.197706 -0.354102 -0.266793 34 221 255
-0.217746 -0.424421 -0.123654 16 239 255
-0.027589 -0.327316 -0.2699 40 214 255
-0.188365 -0.486075 0.225194 1 254 255
-0.221649 0.075515 -0.134323 144 111 255
-0.306 -0.0840046 -0.266636 104 151 255
0.100021 -0.412236 0.112476 20 235 255
-0.321648 -0.310061 0.144909 46 209 255
-0.337506 -0.271366 -0.136642 56 199 255
0.137262 -0.486152 -0.143551 1 254 255
-0.340444 -0.0881123 -0.136152 103 152 255
-0.0717572 -0.31889 0.300431 43 211 255
0.270383 -0.485729 -0.214359 1 254 255
0.291217 -0.398531 -0.0300452 23 232 255
-0.220793 -0.485455 -0.153326 1 254 255
0.264963 -0.289816 -0.270817 51 204 255
-0.0223898 -0.241639 0.302742 63 192 255
-0.0827685 -0.063027 -0.259782 109 146 255
-0.330792 -0.372181 0.223644 30 225 255
0.00454924 -0.444246 0.302811 11 244 255
0.162201 -0.379136 -0.00908015 28 227 255
-0.145617 -0.375704 0.281648 29 226 255
-0.331656 -0.361183 -0.0590299 32 222 255
-0.284299 -0.43045 0.285174 15 240 255
0.109792 0.0347195 -0.259522 134 121 255
0.106948 -0.265707 -0.271269 56 198 255
-0.0825629 -0.486113 -0.192975 1 254 255
0.150021 -0.0497361 0.312476 112 143 255
0.211507 -0.484984 -0.045206 1 254 255
-0.317486 0.0352645 -0.26328 134 121 255
-0.2477 -0.0100799 0.292469 123 131 255
-0.0820882 -0.485633 0.294136 1 254 255
-0.07535 -0.485968 -0.0924634 1 254 255
-0.336687 -0.239908 0.25475 64 191 255
0.170756 -0.359084 -0.243938 32 222 255
-0.338524 -0.065916 0.0426464 108 147 255
-0.338139 -0.156655 -0.233782 85 170 255
0.0920875 -0.394922 0.0389107 24 231 255
-0.270312 -0.485552 0.0248603 1 254 255
-0.236912 -0.211914 0.28819 71 184 255
-0.18031 0.0765767 0.182436 145 110 255
0.162182 -0.20832 -0.24906 72 183 255
0.0250211 -0.412236 0.112476 20 235 255
-0.333146 -0.454604 -0.179433 9 246 255
-0.333941 -0.452529 0.197921 9 246 255
-0.0707196 -0.124818 -0.267281 93 162 255
0.0145461 -0.27536 -0.267035 55 200 255
-0.147437 -0.297797 -0.266511 48 206 255
-0.0902192 -0.486201 0.145903 1 254 255
0.279126 -0.351898 -0.264975 35 220 255
-0.328411 -0.287469 0.00525427 52 203 255
-0.33947 0.0218761 0.181527 131 124 255
0.25267 -0.0876353 -0.25206 103 152 255
0.254 -0.187407 -0.270398 77 178 255
-0.110408 -0.212421 0.295639 71 184 255
0.0113169 -0.129294 0.304103 92 163 255
0.206499 -0.00128581 -0.269663 125 130 255
0.0172068 -0.312676 0.303312 44 210 255
-0.312083 -0.415584 0.0267298 19 236 255
-0.336403 -0.175079 -0.145474 80 175 255
0.353408 -0.377936 -0.112364 28 227 255
0.102048 -0.486097 0.112479 1 254 255
0.221295 -0.4461 -0.26758 11 244 255
0.240619 -0.387633 -0.101993 26 229 255
-0.183004 0.0764613 0.109092 145 110 255
-0.0175705 -0.486182 -0.256755 1 254 255
-0.0216831 -0.48675 0.0937912 0 255 255
0.0367819 -0.102608 -0.269493 99 156 255
-0.0937417 0.0765911 -0.0956853 145 110 255
-0.301816 -0.225417 -0.263867 67 188 255
-0.343851 -0.0309003 0.244106 117 138 255
0.104158 -0.471933 -0.268476 4 251 255
-0.222058 -0.472091 0.00126764 4 251 255
-0.169822 -0.00653786 -0.263374 123 131 255
-0.192624 0.0258946 0.295285 131 123 255
-0.208089 -0.485955 -0.234308 1 254 255
-0.330785 -0.402601 0.135072 22 233 255
-0.00229015 -0.486011 0.252494 1 254 255
-0.168935 -0.148323 -0.255584 87 168 255
-0.338658 -0.162255 0.190295 84 171 255
-0.334313 -0.330003 -0.190154 40 214 255
0.267911 -0.433319 0.0533551 14 241 255
0.107568 -0.444337 -0.0233795 11 244 255
-0.315587 0.0735471 0.0220813 144 111 255
-0.289492 -0.354775 -0.265108 34 221 255
0.0625211 -0.012236 0.0124756 121 133 255
0.0653922 -0.0361075 0.299605 116 139 255
-0.335152 -0.154043 0.298044 86 169 255
-0.218118 -0.406543 -0.209588 21 234 255
-0.331536 -0.352341 0.0689054 35 220 255
-0.116229 -0.2248 -0.257152 68 187 255
-0.123639 -0.0615434 0.296647 109 146 255
0.074845 -0.0237408 -0.258805 119 136 255
-0.137479 -0.374736 0.187476 29 226 255
0.0418645 -0.486316 -0.142692 1 254 255
0.124894 -0.118424 -0.268867 95 160 255
-0.327578 -0.00473791 0.0143528 124 131 255
-0.229716 -0.372906 0.300423 30 225 255
0.287369 -0.485738 -0.143647 1 254 255
-0.0909776 0.0584809 -0.262395 140 114 255
-0.332653 -0.420958 -0.0793056 17 238 255
-0.0295058 -0.487733 -0.0786262 0 255 255
-0.335514 -0.19824 0.0153991 73 181 255
-0.207802 -0.0776991 0.292905 105 150 255
-0.151105 0.0768711 -0.201422 145 110 255
-0.13641 -0.485842 -0.131166 1 254 255
0.0399693 -0.368264 -0.250993 31 224 255
-0.300659 -0.48583 0.191537 1 254 255
0.00480229 -0.189866 -0.258223 76 179 255
-0.0866566 -0.487713 0.0207493 0 255 255
-0.330871 -0.292556 0.3028 50 205 255
-0.337817 -0.112626 0.0484612 96 159 255
-0.233469 -0.0269093 -0.266924 118 137 255
-0.210125 -0.450674 0.105718 10 245 255
-0.266931 -0.172409 -0.253108 81 174 255
-0.336199 -0.243673 -0.178626 63 192 255
-0.00365194 -0.0273728 0.298299 118 137 255
-0.336962 0.0598979 -0.15524 140 114 255
-0.334545 -0.280788 0.122723 52 202 255
0.0529493 -0.485931 -0.227042 1 254 255
-0.33874 -0.114638 0.250434 96 159 255
0.230097 -0.39739 -0.0303804 23 232 255
0.200021 -0.0247361 0.0124756 119 136 255
0.163931 -0.485343 -0.192133 1 254 255
-0.307807 -0.016674 0.303598 121 134 255
-0.0940225 0.0252169 0.296548 131 123 255
0.304619 -0.427415 -0.0771675 16 239 255
-0.2689 0.0636767 -0.254536 141 113 255
-0.327772 -0.0154399 0.104056 121 134 255
-0.244638 -0.485605 -0.0800303 1 254 255
-0.0308743 -0.0215644 -0.256271 120 135 255
0.160498 -0.452475 0.07486 9 246 255
-0.273785 -0.285925 -0.253388 52 203 255
-0.331069 0.0700951 -0.0790489 143 112 255
-0.32961 -0.108079 -0.0642809 97 158 255
-0.331267 -0.352243 0.26741 35 220 255
-0.0972932 -0.353806 -0.252628 35 220 255
-0.274479 -0.105455 0.297297 97 157 255
-0.0999789 0.0752639 0.0874756 144 111 255
-0.327404 -0.463839 -0.253804 6 249 255
0.102103 -0.344474 -0.271475 36 218 255
-0.10176 -0.377292 0.305494 29 226 255
0.0291787 -0.374388 0.302383 29 226 255
-0.324928 -0.306035 -0.0521923 47 208 255
-0.0349094 -0.485851 -0.178349 1 254 255
-0.341129 0.0283402 0.263101 131 123 255
-0.19097 -0.269409 0.291323 56 199 255
-0.196039 -0.486242 0.282105 1 254 255
-0.188458 -0.48621 0.122635 1 254 255
0.105732 -0.48633 -0.0539346 1 254 255
-0.303307 -0.485867 0.27299 1 254 255
-0.288565 0.0731541 0.226965 144 111 255
0.000405059 0.0745594 -0.225988 144 111 255
-0.339689 -0.0496352 -0.101803 112 143 255
-0.0308695 -0.2543 -0.26684 60 195 255
-0.296257 -0.371108 0.106624 30 225 255
0.210691 -0.369659 -0.268549 30 225 255
-0.165341 -0.419026 -0.268003 18 237 255
-0.184008 -0.166553 0.29261 81 173 255
-0.325667 -0.10789 0.187624 97 158 255
-0.117872 -0.486296 0.236834 1 254 255
0.0547771 -0.21978 -0.257769 69 186 255
0.194507 -0.265938 -0.269274 56 198 255
-0.298249 -0.0106451 -0.256545 121 133 255
0.0692207 -0.445706 0.0487935 11 244 255
-0.00204854 -0.486141 0.192392 1 254 255
0.0184982 -0.440866 -0.247161 12 243 255
-0.287626 -0.402463 0.218961 22 233 255
-0.336052 -0.235105 -0.0807254 65 190 255
-0.111803 -0.485788 0.0908746 1 254 255
0.101305 -0.487081 0.155558 0 255 255
-0.315395 -0.407506 -0.129181 21 234 255
-0.338348 0.0506028 0.0843982 138 117 255
0.048763 -0.481988 0.298954 2 253 255
-0.176157 0.0751939 -0.0166371 144 111 255
0.0527056 -0.158763 0.301417 84 171 255
0.201377 -0.113084 -0.263014 96 159 255
0.270337 -0.39852 -0.239727 23 232 255
-0.336312 -0.268675 -0.251295 56 199 255
0.213754 -0.409305 0.0819075 20 235 255
-0.29867 -0.48535 -0.173446 1 254 255
-0.225953 -0.485812 0.0611879 1 254 255
-0.247324 -0.1087 -0.266962 97 158 255
0.237521 -0.074736 0.299976 105 149 255
-0.191253 0.0733342 0.27261 144 111 255
-0.159244 -0.345655 0.300143 36 218 255
-0.327607 -0.0226364 0.173087 119 136 255
0.0363993 -0.485836 -0.0189146 1 254 255
0.239824 -0.483674 -0.257091 1 254 255
-0.280046 0.0766565 -0.156095 145 110 255
0.130561 -0.379426 0.0738948 28 227 255
-0.179613 -0.425214 -0.188545 16 239 255
-0.282215 0.0741962 0.0901254 144 111 255
-0.0635779 -0.259895 0.300957 59 195 255
-0.191403 -0.200859 -0.266398 73 181 255
-0.32629 -0.136206 0.127608 89 165 255
0.134771 -0.435915 -0.247714 14 241 255
-0.116534 -0.0360263 -0.265375 116 139 255
-0.337138 -0.117252 -0.200769 95 160 255
-0.200807 -0.415066 0.27175 19 236 255
0.312548 -0.367404 -0.148261 31 224 255
-0.332828 -0.340103 -0.138131 38 217 255
-0.328247 -0.476629 0.0710595 3 252 255
0.0252229 -0.486455 0.115014 1 254 255
-0.135893 -0.124341 0.300233 93 162 255
-0.271722 -0.395984 -0.266354 24 231 255
0.112521 -0.287236 0.0374756 52 203 255
0.195029 -0.397473 -0.0608141 23 232 255
-0.0572452 -0.183642 0.295712 78 177 255
-0.327634 -0.224745 0.141037 68 187 255
-0.339389 0.0587083 0.19008 140 114 255
-0.251169 -0.283399 0.28338 52 202 255
-0.1114 -0.455473 0.300833 8 247 255
0.273812 -0.452159 -0.0084 9 246 255
-0.13918 -0.467565 -0.267823 5 250 255
-0.323814 -0.184861 0.258913 78 177 255
-0.019452 -0.141315 -0.258152 89 166 255
0.137521 0.000263943 0.0124756 125 130 255
-0.287069 -0.379248 0.0165416 28 227 255
-0.337697 -0.00375688 -0.060311 124 131 255
-0.20824 -0.305836 -0.266058 47 208 255
-0.167435 -0.486651 0.0318569 1 254 255
-0.180809 -0.0328334 0.300463 117 138 255
-0.202605 0.0766732 -0.169433 145 110 255
0.18661 -0.485575 0.039575 1 254 255
0.247792 -0.0379641 -0.265774 115 140 255
0.122327 -0.486099 -0.104934 1 254 255
0.267446 -0.220217 -0.259818 69 186 255
-0.323231 -0.0466936 -0.218503 113 142 255
-0.114912 0.076415 0.00277067 145 110 255
-0.162776 -0.116272 -0.268435 95 160 255
-0.258125 0.071547 0.275379 143 112 255
-0.252571 -0.48571 0.206782 1 254 255
0.0221716 -0.0656337 -0.268523 108 147 255
-0.0643616 -0.393316 -0.269918 24 231 255
-0.332151 -0.33392 0.00347286 40 215 255
-0.0243916 -0.353881 0.300705 35 220 255
0.114443 -0.0403242 -0.26955 115 140 255
-0.336642 -0.169357 0.0576604 81 173 255
-0.331923 -0.450074 0.00167235 10 245 255
-0.316918 -0.485969 -0.100235 1 254 255
0.14677 -0.167375 -0.269188 81 173 255
-0.328009 -0.428058 0.296078 16 239 255
-0.0769737 -0.486501 -0.0312217 1 254 255
-0.246249 0.0765271 0.162904 145 110 255
-0.131143 -0.412462 -0.240147 20 235 255
-0.10146 -0.0323827 0.303065 117 138 255
0.0725864 0.034064 -0.2683 134 121 255
-0.332628 -0.462567 0.138609 7 248 255
-0.336669 -0.177541 -0.0517022 80 175 255
-0.113047 0.0765997 -0.138511 145 110 255
0.0935538 -0.294359 -0.256458 50 205 255
0.262051 -0.455058 -0.178348 9 246 255
-0.243432 -0.443364 -0.251353 12 243 255
-0.233928 -0.485849 -0.0116673 1 254 255
-0.16318 -0.210904 0.292901 71 184 255
-0.331185 -0.319648 0.215092 43 211 255
-0.192007 -0.486191 -0.128881 1 254 255
-0.257102 -0.359541 0.269045 32 222 255
0.271664 -0.484536 -0.0747642 1 254 255
-0.337107 -0.0895501 -0.00558397 102 153 255
-0.243647 -0.150829 0.29691 86 169 255
0.0632753 -0.217223 0.303032 69 186 255
-0.225356 0.0764955 -0.0892643 145 110 255
-0.0473662 -0.486368 0.203478 1 254 255
-0.0375778 -0.098862 0.297391 100 155 255
-0.0997358 -0.297721 -0.267408 48 206 255
-0.324466 0.0720855 -0.0200719 144 111 255
-0.178238 0.0606268 -0.258699 141 113 255
0.125021 -0.474736 0.287476 4 251 255
-0.0857323 -0.15686 -0.2576 85 170 255
-0.0458541 0.073464 -0.252998 144 111 255
-0.279926 -0.485566 0.126259 1 254 255
-0.333779 -0.345334 -0.243869 36 218 255
-0.129572 -0.486117 0.159984 1 254 255
-0.33444 -0.245586 0.0468264 62 193 255
0.0257137 -0.486056 0.043301 1 254 255
0.252859 -0.143991 -0.263273 88 167 255
0.0861408 -0.391867 -0.270676 25 230 255
-0.179192 -0.423411 0.297327 17 238 255
0.125108 -0.486019 0.0422406 1 254 255
-0.049715 -0.457564 -0.269593 8 247 255
-0.330548 -0.102403 -0.107832 99 156 255
-0.335466 -0.223522 -0.261702 68 187 255
-0.0268511 -0.344188 -0.252369 36 218 255
0.145648 -0.485922 -0.238483 1 254 255
0.0439736 -0.48596 0.242139 1 254 255
-0.330699 -0.422595 -0.196407 17 238 255
0.167194 -0.302454 -0.269699 48 207 255
-0.233733 -0.0726196 -0.256996 107 147 255
-0.127912 -0.486221 -0.179607 1 254 255
0.166465 0.00628987 -0.261371 127 128 255
-0.337984 -0.0896568 0.114239 102 153 255
-0.326574 -0.25278 0.249445 60 195 255
-0.309984 0.074428 -0.21888 144 111 255
0.0598358 -0.46763 -0.26827 5 250 255
-0.159446 -0.243063 -0.266585 63 192 255
-0.33843 -0.00893945 -0.244809 123 131 255
-0.334415 -0.098353 0.298456 100 155 255
0.029478 -0.485778 -0.0960584 1 254 255
0.201485 -0.485123 -0.155672 1 254 255
-0.262188 -0.354148 -0.246946 34 221 255
0.137521 -0.074736 0.287476 105 149 255
-0.22605 0.074831 -0.0133393 144 111 255
-0.00298933 -0.47176 0.306675 4 251 255
0.0735411 -0.1762 -0.270088 80 175 255
0.0367592 -0.114602 0.30342 96 159 255
-0.311255 -0.402816 -0.0544695 22 233 255
-0.273042 -0.233959 0.298342 65 190 255
-0.211314 -0.43071 0.0376922 15 240 255
-0.240444 -0.462831 -0.10579 7 248 255
-0.298271 -0.376365 0.172008 29 226 255
-0.134648 -0.369305 -0.267609 31 224 255
0.319217 -0.387096 -0.0682566 26 229 255
-0.339158 0.00146204 0.0331006 125 130 255
0.167793 -0.397594 0.0123369 23 232 255
0.280907 -0.323299 -0.253648 42 213 255
-0.269985 -0.161924 -0.267557 84 171 255
-0.133227 -0.286399 0.297803 52 203 255
-0.169419 -0.486936 -0.0905009 0 255 255
-0.0087098 -0.225778 0.303378 67 188 255
-0.342069 -0.177027 0.290664 80 175 255
-0.335365 -0.284833 -0.182456 52 203 255
-0.150708 0.0605382 0.291094 141 113 255
-0.110175 -0.0886331 -0.266192 102 153 255
-0.112479 -0.424736 0.187476 16 239 255
0.152609 -0.485874 -0.063126 1 254 255
-0.336537 -0.19241 -0.158892 76 179 255
0.308069 -0.476425 -0.195988 3 252 255
-0.240277 -0.485786 0.251753 1 254 255
-0.255015 -0.485642 -0.142323 1 254 255
-0.120554 0.0768421 -0.220786 145 110 255
-0.0595426 -0.427096 0.295227 16 239 255
-0.244473 -0.34807 0.300721 36 219 255
0.0076874 -0.486384 -0.206242 1 254 255
-0.238355 -0.0259708 0.30236 118 137 255
-0.315888 -0.485558 -0.0273178 1 254 255
-0.31417 -0.109415 -0.264875 97 158 255
-0.329214 -0.406837 0.235123 21 234 255
-0.337133 -0.00297311 -0.151255 124 131 255
0.257615 -0.399099 -0.00583907 23 232 255
0.0447812 -0.39323 0.30746 24 231 255
-0.106132 0.0765613 -0.0669595 145 110 255
0.094198 -0.10611 -0.26871 97 157 255
-0.199161 -0.485953 0.168566 1 254 255
-0.323519 -0.328275 0.0613423 40 214 255
-0.328551 0.00337075 0.250945 126 129 255
-0.306314 -0.298771 -0.262573 48 206 255
-0.311949 0.0739432 0.160291 144 111 255
-0.333932 -0.292266 -0.106719 50 205 255
0.00977525 0.019776 -0.265237 130 125 255
-0.166087 0.0761684 0.0694236 145 110 255
0.179171 -0.198795 -0.271936 73 181 255
-0.0208148 -0.311665 0.2985 44 210 255
-0.335806 -0.215116 -0.0203334 70 185 255
-0.102042 -0.158682 0.30033 84 171 255
0.21729 -0.468187 -0.0786854 5 250 255
-0.0603355 0.0054465 0.2976 126 129 255
-0.224969 -0.442275 0.30019 12 243 255
-0.0327278 -0.487166 0.0458926 0 255 255
-0.331254 -0.389717 0.0995387 25 230 255
-0.340719 -0.276277 0.297939 54 201 255
-0.179645 0.0749144 0.165387 144 111 255
-0.142893 -0.486264 0.0716175 1 254 255
-0.0209445 -0.0880336 -0.266251 103 152 255
0.273502 -0.373217 -0.144605 30 225 255
-0.218803 -0.417539 0.118417 18 237 255
-0.187499 -0.486103 -0.259129 1 254 255
0.255198 -0.396701 -0.269022 24 231 255
-0.187712 -0.127037 0.298238 93 162 255
0.0258182 -0.287338 -0.266724 52 203 255
-0.00127921 -0.434017 -0.272179 14 241 255
-0.325848 -0.0831775 0.0709662 104 151 255
-0.0299182 -0.486378 -0.133634 1 254 255
0.0646484 -0.0370051 0.299594 116 139 255
-0.323573 -0.477126 0.228664 3 252 255
0.194046 -0.350918 -0.241786 35 220 255
0.1233 -0.451464 -0.0178321 10 245 255
0.208297 -0.0722303 -0.26803 107 147 255
-0.0583778 -0.275974 -0.256469 54 201 255
-0.188504 -0.387161 -0.26675 26 229 255
-0.127545 -0.00355684 -0.25376 124 131 255
-0.330804 -0.0365256 -0.0457977 116 139 255
0.0631914 -0.486246 -0.148026 1 254 255
-0.156156 -0.486074 0.261071 1 254 255
0.0889938 -0.486166 0.18855 1 254 255
-0.281943 -0.485674 0.063859 1 254 255
-0.333493 0.0684413 0.24011 143 112 255
-0.30045 -0.452486 -0.235088 9 246 255
0.0125211 -0.412236 -0.0250244 20 235 255
-0.3359 -0.19744 0.113166 75 179 255
0.349178 -0.400781 -0.111064 23 232 255
-0.257176 0.0148705 -0.254988 129 126 255
0.140267 -0.259983 -0.248451 59 195 255
0.235505 -0.402782 0.0576669 22 233 255
-0.274898 -0.060168 0.293086 110 145 255
-0.217316 -0.485799 -0.197073 1 254 255
-0.338248 0.0363706 -0.0542492 134 121 255
-0.3168 -0.346638 0.29651 36 219 255
-0.0792418 -0.187331 -0.268686 77 178 255
-0.338015 -0.107111 0.202687 97 157 255
0.166092 -0.460841 -0.270772 7 248 255
-0.0492752 -0.000358129 -0.266647 125 130 255
-0.0455362 -0.485986 0.259008 1 254 255
-0.333836 -0.132349 0.00795074 91 163 255
-0.162131 -0.486017 -0.0219164 1 254 255
-0.321835 -0.133456 -0.195471 91 163 255
-0.192317 -0.0770924 -0.254527 105 150 255
-0.338777 -0.0336088 0.110804 116 139 255
-0.332761 -0.366026 -0.206399 31 224 255
-0.0382179 -0.0534278 0.297929 111 144 255
-0.327136 -0.477276 -0.135617 3 252 255
-0.0324468 -0.486913 0.133859 0 255 255
-0.0489538 0.0767517 -0.198174 145 110 255
-0.231097 -0.461611 0.205654 7 248 255
-0.256856 -0.242866 -0.267337 63 192 255
0.221028 -0.466729 0.0256434 6 249 255
0.231487 -0.486142 -0.231003 1 254 255
-0.26722 -0.417609 0.294171 18 237 255
-0.138548 -0.380517 0.283817 28 227 255
-0.0146797 -0.153327 0.298502 86 169 255
-0.3381 -0.196391 0.197497 75 179 255
0.125704 0.0209808 -0.268853 130 125 255
-0.343124 -0.0409429 0.229586 115 140 255
0.0181207 -0.392341 -0.248622 25 230 255
-0.249723 0.0769631 -0.192015 145 110 255
-0.151671 -0.174813 -0.256528 80 175 255
-0.157453 -0.0795643 0.29533 105 150 255
-0.218921 -0.403075 -0.220676 22 233 255
-0.00331768 -0.215094 -0.257772 70 185 255
-0.298315 0.075059 0.00105029 144 111 255
0.139889 -0.40292 -0.248142 22 233 255
-0.297235 -0.421578 0.137321 17 238 255
-0.33732 -0.192247 -0.245987 76 179 255
-0.226327 -0.424261 -0.110723 16 239 255
-0.0710121 -0.486293 -0.211562 1 254 255
-0.330805 -0.365846 -0.0840704 31 224 255
-0.328773 -0.200763 -0.0991114 73 181 255
-0.0757697 -0.306349 0.295068 47 208 255
0.133582 -0.468328 0.102142 5 250 255
-0.335769 -0.456757 0.282739 8 247 255
-0.228456 0.0763695 0.22287 145 110 255
-0.291904 0.0285244 0.292157 131 123 255
-0.333887 -0.27665 0.0732313 54 201 255
0.124676 -0.375151 0.0581998 29 226 255
0.225021 -0.349736 -0.100024 36 219 255
-0.208395 -0.288006 0.297403 51 204 255
-0.0896843 -0.486089 -0.125799 1 254 255
-0.323025 -0.311706 0.155203 44 210 255
-0.331572 -0.0770978 -0.157462 105 150 255
-0.338467 0.0439192 -0.139461 136 119 255
-0.32403 0.0734453 -0.240328 144 111 255
0.246306 -0.248191 -0.268362 62 193 255
-0.160761 -0.295029 -0.252968 50 205 255
0.0690177 -0.486974 0.118694 0 255 255
0.0757372 -0.485646 -0.202693 1 254 255
0.0747701 -0.486042 0.0148106 1 254 255
-0.31255 -0.0386885 -0.264563 115 140 255
-0.136637 -0.218461 0.299303 69 186 255
-0.270763 -0.485468 -0.0453596 1 254 255
-0.326622 0.0704499 0.0802915 143 112 255
-0.0347311 -0.486025 -0.0349188 1 254 255
-0.327353 -0.0293432 0.0189093 118 137 255
0.143021 -0.0763799 -0.269129 105 149 255
-0.300749 -0.386229 0.0611577 26 229 255
-0.326265 -0.239617 -0.191644 64 191 255
-0.246368 -0.187218 0.292306 77 178 255
0.158537 -0.413637 -0.0407101 19 236 255
-0.223049 -0.174481 -0.254918 80 175 255
-0.258767 -0.317006 -0.267054 44 211 255
-0.131445 0.0764124 0.0230847 145 110 255
-0.186328 0.00636009 -0.262454 127 128 255
0.212825 0.00233716 -0.263366 126 129 255
-0.329021 -0.143527 -0.0734947 88 167 255
0.222828 -0.319223 -0.268432 43 211 255
0.0727925 -0.241532 -0.269183 63 192 255
-0.297988 0.0754998 -0.14122 144 111 255
-0.323762 -0.306491 0.259527 47 208 255
0.0373918 -0.0816597 0.30062 104 151 255
-0.250837 -0.40705 0.248761 21 234 255
-0.242136 -0.483371 -0.261235 1 254 255
-0.0560412 -0.40011 0.30723 23 232 255
0.0723828 -0.18492 0.301451 78 177 255
-0.332916 -0.336077 -0.0239261 39 216 255
0.279934 -0.420432 -0.258485 17 238 255
0.285412 -0.433367 0.0203434 14 241 255
-0.197597 -0.375621 0.300247 29 226 255
-0.124114 -0.486302 -0.246467 1 254 255
-0.257889 0.0764532 -0.0435006 145 110 255
-0.332766 0.00592952 -0.195725 127 128 255
0.0288657 -0.0315426 -0.267726 117 138 255
-0.161338 -0.486064 0.206473 1 254 255
-0.329808 -0.473781 -0.234781 4 251 255
-0.328557 0.0194196 0.136571 130 125 255
-0.3417 -0.234723 0.295493 65 190 255
0.165523 -0.485308 -0.152953 1 254 255
-0.0845233 0.0515281 -0.263934 138 117 255
-0.2477 -0.40945 0.0535246 20 235 255
0.0606368 -0.15172 -0.271268 86 169 255
-0.204155 0.0768614 -0.240414 145 110 255
-0.302492 -0.0146566 0.30493 121 134 255
-0.315428 -0.399895 -0.143715 23 232 255
-0.141057 -0.486966 0.111391 0 255 255
-0.33125 -0.410933 0.171364 20 235 255
0.0890992 -0.398952 0.0287957 23 232 255
-0.334273 -0.256309 -0.0192272 59 195 255
-0.143062 -0.0234007 0.30325 119 136 255
-0.0614631 -0.12823 0.296646 92 163 255
-0.330951 -0.467983 -0.0684924 5 250 255
-0.22113 -0.487839 -0.0434692 0 255 255
-0.330112 -0.431321 0.0738413 15 240 255
-0.23855 -0.103114 0.296448 99 156 255
0.0871261 -0.363723 -0.25151 32 223 255
