ply
format ascii 1.0
comment Created by Open3D
element vertex 1219
property double x
property double y
property double z
property uchar red
property uchar green
property uchar blue
end_header
0.183366 -0.125611 0.0461664 127 0 255
-0.0249636 -0.493936 -0.151762 127 0 255
-0.0423551 -0.385171 -0.492196 127 0 255
0.155099 -0.132992 -0.10544 127 0 255
0.114489 -0.143963 -0.490406 127 0 255
-0.0260291 -0.484559 0.237284 127 0 255
0.0993233 -0.375219 -0.453895 127 0 255
-0.282666 -0.482945 0.0338857 127 0 255
0.0310269 -0.305558 -0.494448 127 0 255
0.17261 -0.393176 -0.165869 127 0 255
0.148935 -0.224809 0.10307 127 0 255
0.104941 -0.447782 -0.249774 127 0 255
-0.143005 -0.459782 -0.324116 127 0 255
0.112896 -0.41194 0.3046 127 0 255
0.159954 -0.208573 0.274873 127 0 255
-0.159497 -0.485793 0.204617 127 0 255
0.0470279 -0.463781 0.158685 127 0 255
0.148055 -0.290873 0.160847 127 0 255
0.173969 -0.189915 -0.381041 127 0 255
0.164926 -0.0635806 -0.286734 127 0 255
-0.175327 -0.412307 -0.112533 127 0 255
0.12435 -0.217494 -0.468319 127 0 255
0.146606 -0.419873 -0.0981723 127 0 255
0.0819935 -0.320608 0.306429 127 0 255
-0.0853702 -0.485191 0.0738046 127 0 255
0.186203 -0.312298 -0.0193199 127 0 255
0.172801 -0.268338 -0.209427 127 0 255
0.153255 -0.300825 -0.493508 127 0 255
-0.162416 -0.481321 -0.423875 127 0 255
0.10471 -0.484574 0.260117 127 0 255
-0.271303 -0.46127 -0.16846 127 0 255
0.0942353 -0.194521 -0.20679 127 0 255
-0.0814318 -0.215084 -0.487652 127 0 255
0.107722 -0.205306 0.188876 127 0 255
0.148667 -0.11953 0.255939 127 0 255
0.10793 -0.135958 -0.264151 127 0 255
-0.00779828 -0.483494 0.328717 127 0 255
-0.19026 -0.486295 0.0383075 127 0 255
0.0865245 -0.359597 -0.0681023 127 0 255
0.046928 -0.12871 -0.454003 127 0 255
0.191708 -0.239207 0.00965281 127 0 255
0.0785638 -0.4458 -0.322404 127 0 255
0.144668 -0.38892 0.0087615 127 0 255
-0.303938 -0.401935 0.0199758 127 0 255
0.0831038 -0.308033 0.0765323 127 0 255
0.181836 -0.134495 -0.261733 127 0 255
0.111857 -0.0768591 -0.362123 127 0 255
-0.0274488 -0.274775 -0.496636 127 0 255
0.159757 -0.476805 -0.302023 127 0 255
0.1786 -0.455462 -0.217153 127 0 255
-0.0557498 -0.470197 -0.0842383 127 0 255
0.0991681 -0.259241 0.320633 127 0 255
-0.0912889 -0.483274 -0.458104 127 0 255
0.148325 -0.482659 0.0974692 127 0 255
-0.250391 -0.48621 -0.279925 127 0 255
0.196658 -0.313736 0.258912 127 0 255
0.0134499 -0.483005 0.0816135 127 0 255
0.0443259 -0.484732 -0.461415 127 0 255
-0.0557285 -0.468385 -0.200648 127 0 255
-0.147761 -0.217311 -0.475855 127 0 255
0.0805884 -0.431665 0.128536 127 0 255
-0.111469 -0.485364 0.315973 127 0 255
0.161977 -0.357185 0.153866 127 0 255
-0.153208 -0.306911 -0.476249 127 0 255
0.104964 -0.485401 -0.175217 127 0 255
0.103351 -0.240913 -0.324773 127 0 255
-0.356798 -0.434338 0.0569937 127 0 255
0.0818848 -0.396081 -0.377453 127 0 255
0.184262 -0.0942475 -0.00746345 127 0 255
-0.159648 -0.484039 0.11977 127 0 255
0.103509 -0.15649 -0.331846 127 0 255
0.169048 -0.39125 -0.309672 127 0 255
-0.10902 -0.481943 -0.270246 127 0 255
0.186284 -0.2667 0.337601 127 0 255
0.169742 -0.296244 -0.32527 127 0 255
0.0350175 -0.401721 -0.498936 127 0 255
0.0831585 -0.41956 0.0633886 127 0 255
-0.0549455 -0.485233 0.124025 127 0 255
0.144743 -0.27495 0.0262599 127 0 255
0.129699 -0.326144 -0.1368 127 0 255
0.160807 -0.15069 0.325665 127 0 255
0.18985 -0.148021 0.151735 127 0 255
-0.0431609 -0.465779 -0.327599 127 0 255
0.190673 -0.425088 -0.0614925 127 0 255
0.199982 -0.427122 0.26654 127 0 255
0.0447725 -0.169653 -0.5033 127 0 255
-0.0676954 -0.485867 -0.0220228 127 0 255
-0.293196 -0.455194 -0.0359263 127 0 255
0.175548 -0.37176 -0.237279 127 0 255
0.154445 -0.429038 -0.482217 127 0 255
0.106772 -0.482486 -0.380285 127 0 255
0.148803 -0.067777 -0.479456 127 0 255
0.0181324 -0.0548938 -0.490117 127 0 255
0.077714 -0.444109 0.247947 127 0 255
0.169854 -0.26764 -0.381494 127 0 255
-0.134965 -0.46583 0.010627 127 0 255
0.134096 -0.0930633 -0.08084 127 0 255
0.119109 -0.482567 0.0253969 127 0 255
0.0942539 -0.356623 0.348894 127 0 255
0.110485 -0.296224 -0.449435 127 0 255
0.169629 -0.147139 -0.434302 127 0 255
0.0825083 -0.269865 0.247627 127 0 255
0.0466318 -0.418402 -0.0530345 127 0 255
-0.176043 -0.480699 -0.479213 127 0 255
-0.161657 -0.482148 -0.169846 127 0 255
0.0963612 -0.177243 -0.0546286 127 0 255
0.190371 -0.323121 -0.0756587 127 0 255
0.150261 -0.393895 0.246422 127 0 255
0.0435827 -0.482502 -0.120183 127 0 255
0.0996851 -0.201205 0.0717882 127 0 255
0.157265 -0.24977 0.204481 127 0 255
-0.067335 -0.338844 -0.462481 127 0 255
0.193215 -0.240945 -0.0486218 127 0 255
-0.286 -0.482688 0.0995766 127 0 255
-0.0247507 -0.477139 0.0415976 127 0 255
0.104403 -0.124456 -0.160824 127 0 255
0.106127 -0.256894 -0.0754993 127 0 255
-0.01183 -0.442932 -0.0449904 127 0 255
0.144121 -0.146842 0.110553 127 0 255
0.0214245 -0.218429 -0.495872 127 0 255
0.116506 -0.218559 0.00584772 127 0 255
-0.31505 -0.484692 -0.210729 127 0 255
-0.142601 -0.491058 -0.351747 127 0 255
0.0489447 -0.485545 0.369754 127 0 255
-0.165922 -0.485259 -0.102238 127 0 255
0.193045 -0.177145 -0.144301 127 0 255
0.161517 -0.268042 0.266323 127 0 255
0.0741069 -0.437945 -0.18312 127 0 255
-0.0075295 -0.301419 -0.456584 127 0 255
0.186421 -0.30994 0.0627481 127 0 255
0.0746726 -0.0998349 0.237485 127 0 255
0.15686 -0.48326 -0.165565 127 0 255
0.112524 -0.304486 -0.290736 127 0 255
-0.358613 -0.48131 -0.0693469 127 0 255
0.118652 -0.448217 0.336785 127 0 255
0.178258 -0.192315 -0.247976 127 0 255
0.141046 -0.366693 -0.0925697 127 0 255
0.129234 -0.412131 -0.324234 127 0 255
0.0357245 -0.463551 0.011741 127 0 255
-0.252924 -0.405256 0.0590862 127 0 255
-0.217068 -0.484887 -0.00987856 127 0 255
0.0875791 -0.0985149 -0.401347 127 0 255
0.115297 -0.4321 -0.0470708 127 0 255
0.0527605 -0.427252 -0.381208 127 0 255
0.0585337 -0.484487 0.214159 127 0 255
0.173163 -0.364562 -0.42388 127 0 255
0.168589 -0.369965 0.311782 127 0 255
0.0756749 -0.334597 -0.499596 127 0 255
0.00294369 -0.469197 -0.287436 127 0 255
0.115156 -0.214806 -0.276028 127 0 255
0.107712 -0.285375 -0.378911 127 0 255
0.176881 -0.251511 -0.157532 127 0 255
0.17351 -0.115784 -0.382137 127 0 255
0.199673 -0.474833 0.374984 127 0 255
0.140064 -0.139157 0.0338398 127 0 255
-0.081758 -0.485566 0.228045 127 0 255
0.177489 -0.476065 0.0144978 127 0 255
0.0746727 -0.0998202 0.0999756 127 0 255
0.10311 -0.442825 -0.45244 127 0 255
0.00114796 -0.459296 0.185689 127 0 255
0.0244969 -0.480201 -0.20695 127 0 255
0.192233 -0.102299 -0.0861152 127 0 255
-0.322235 -0.39411 -0.0345539 127 0 255
-0.0848872 -0.478799 -0.375223 127 0 255
0.0299498 -0.490165 -0.0636678 127 0 255
-0.217592 -0.485033 0.163557 127 0 255
-0.229273 -0.493704 -0.364308 127 0 255
-0.0448674 -0.0738265 -0.48959 127 0 255
0.0804502 -0.30279 0.129505 127 0 255
0.160548 -0.243519 -0.45568 127 0 255
-0.0324275 -0.159168 -0.470692 127 0 255
0.167344 -0.0785966 0.0767335 127 0 255
0.123236 -0.346463 0.187025 127 0 255
0.187468 -0.202411 0.0795426 127 0 255
-0.103965 -0.433016 -0.491363 127 0 255
-0.187827 -0.399809 -0.0625315 127 0 255
0.0746725 -0.149844 0.324991 127 0 255
-0.323188 -0.411003 0.0987674 127 0 255
0.192653 -0.179784 -0.00820091 127 0 255
0.136878 -0.418682 -0.256984 127 0 255
0.119036 -0.390392 -0.503804 127 0 255
0.120508 -0.187635 -0.105785 127 0 255
0.1251 -0.441075 0.0924224 127 0 255
-0.187676 -0.484657 -0.302813 127 0 255
0.0803825 -0.396724 0.169272 127 0 255
-0.119638 -0.483937 0.14794 127 0 255
0.0733235 -0.400273 -0.101238 127 0 255
0.0861768 -0.265346 0.19164 127 0 255
0.171754 -0.357284 -0.337173 127 0 255
0.1644 -0.0629157 -0.24369 127 0 255
0.18481 -0.119254 0.223151 127 0 255
-0.0190583 -0.391229 -0.45574 127 0 255
-0.24107 -0.418937 -0.0261244 127 0 255
0.102266 -0.224085 -0.489799 127 0 255
-0.138094 -0.491045 -0.242241 127 0 255
0.136542 -0.220836 0.313158 127 0 255
-0.114239 -0.492928 -0.0476843 127 0 255
0.150715 -0.483613 0.268901 127 0 255
0.170777 -0.11491 -0.16804 127 0 255
-0.412827 -0.437289 0.0374552 127 0 255
0.0994727 -0.482628 0.14284 127 0 255
0.112353 -0.347485 -0.260779 127 0 255
0.114738 -0.109825 -0.442968 127 0 255
0.187316 -0.426803 -0.136701 127 0 255
0.176819 -0.184089 -0.312204 127 0 255
-0.0184868 -0.465862 -0.373541 127 0 255
0.15475 -0.483195 -0.255342 127 0 255
-0.18736 -0.48443 0.232134 127 0 255
0.104855 -0.358893 -0.18439 127 0 255
0.0289206 -0.44734 -0.498739 127 0 255
0.190509 -0.409484 0.135669 127 0 255
0.155689 -0.333057 -0.487885 127 0 255
-0.309697 -0.453567 -0.117503 127 0 255
0.155832 -0.212084 0.155481 127 0 255
0.108045 -0.485905 -0.117247 127 0 255
0.176525 -0.326217 -0.187075 127 0 255
0.079207 -0.418298 0.284498 127 0 255
-0.0885215 -0.488932 0.0256963 127 0 255
0.101885 -0.122952 -0.0538674 127 0 255
0.0860591 -0.486072 0.0661498 127 0 255
-0.0503275 -0.487346 0.399992 127 0 255
-0.190943 -0.485306 0.0797426 127 0 255
0.153876 -0.0928244 0.144185 127 0 255
-0.356664 -0.400048 0.0102373 127 0 255
0.190765 -0.276257 0.133292 127 0 255
0.140702 -0.152472 0.288206 127 0 255
0.19401 -0.200873 0.222383 127 0 255
0.127915 -0.281966 -0.249286 127 0 255
0.0886096 -0.255594 0.0780952 127 0 255
-0.0254882 -0.234233 -0.455276 127 0 255
-0.0994163 -0.118136 -0.473357 127 0 255
0.127912 -0.210657 -0.407844 127 0 255
0.0394951 -0.482468 -0.385927 127 0 255
0.19524 -0.346243 0.193633 127 0 255
-0.0685574 -0.438772 -0.447388 127 0 255
0.108798 -0.212988 0.254246 127 0 255
0.0841666 -0.370068 -0.0251375 127 0 255
0.13566 -0.0614379 -0.308631 127 0 255
0.162795 -0.440878 0.299821 127 0 255
-0.148921 -0.268616 -0.471972 127 0 255
0.190214 -0.395251 0.0305122 127 0 255
-0.312827 -0.412311 0.17497 127 0 255
-0.085175 -0.49376 -0.135583 127 0 255
0.165091 -0.443627 0.195561 127 0 255
-0.338172 -0.480409 -0.163036 127 0 255
0.111413 -0.322077 0.270733 127 0 255
0.188259 -0.454535 0.078167 127 0 255
0.0250103 -0.483508 0.269381 127 0 255
0.189035 -0.374584 -0.116926 127 0 255
-0.146971 -0.40146 -0.486692 127 0 255
0.0881968 -0.303093 0.00943258 127 0 255
0.138315 -0.0750731 -0.169336 127 0 255
0.183506 -0.233687 -0.0993759 127 0 255
-0.307167 -0.482548 0.00505261 127 0 255
0.145371 -0.325737 0.349942 127 0 255
-0.0379935 -0.485969 -0.257538 127 0 255
0.0485042 -0.171418 -0.44041 127 0 255
0.0923147 -0.482686 -0.338252 127 0 255
-0.280248 -0.483019 -0.32419 127 0 255
-0.0559904 -0.485155 0.315038 127 0 255
0.0746727 -0.0998161 0.0374729 127 0 255
0.116922 -0.358182 0.0861946 127 0 255
0.167658 -0.253486 -0.29541 127 0 255
0.098485 -0.308634 -0.0730743 127 0 255
0.0797474 -0.273527 -0.500165 127 0 255
0.175459 -0.0822706 -0.351646 127 0 255
0.177337 -0.465768 -0.391471 127 0 255
0.0834513 -0.484993 0.318949 127 0 255
-0.0191132 -0.473281 0.101938 127 0 255
-0.00393819 -0.485221 -0.449773 127 0 255
-0.262464 -0.484825 -0.0995844 127 0 255
-0.0218403 -0.490833 -0.00571417 127 0 255
0.132382 -0.162908 -0.218249 127 0 255
0.0225999 -0.373387 -0.457142 127 0 255
0.199334 -0.381611 0.268784 127 0 255
-0.154981 -0.483747 0.30501 127 0 255
-0.294333 -0.484136 -0.249851 127 0 255
-0.355021 -0.438255 -0.0420821 127 0 255
-0.314197 -0.459386 0.115608 127 0 255
0.115518 -0.374703 -0.400372 127 0 255
0.0746728 -0.0748082 -0.287532 127 0 255
0.0730489 -0.485335 -0.215246 127 0 255
0.139937 -0.322194 -0.0166598 127 0 255
0.0746727 -0.29982 -0.212525 127 0 255
-0.0716466 -0.292641 -0.497035 127 0 255
0.0794634 -0.443132 -0.500966 127 0 255
-0.207259 -0.480884 -0.425047 127 0 255
0.178594 -0.47517 -0.105425 127 0 255
-0.219173 -0.48217 -0.226018 127 0 255
0.0956104 -0.482462 -0.0164716 127 0 255
0.178051 -0.481 0.14946 127 0 255
0.195818 -0.219817 0.289551 127 0 255
0.195284 -0.165774 -0.0680125 127 0 255
0.171959 -0.31241 -0.416715 127 0 255
0.050821 -0.0999871 -0.498245 127 0 255
0.106107 -0.123104 -0.12012 127 0 255
-0.087532 -0.1903 -0.497377 127 0 255
0.170848 -0.3251 -0.266182 127 0 255
0.117282 -0.24125 -0.148955 127 0 255
-0.400327 -0.399799 0.124962 127 0 255
-0.202876 -0.48247 -0.137318 127 0 255
0.189479 -0.164077 -0.219317 127 0 255
0.156929 -0.197722 -0.472441 127 0 255
0.200331 -0.4475 -0.0469188 127 0 255
-0.184841 -0.485212 -0.0470564 127 0 255
0.0793584 -0.429605 0.360265 127 0 255
0.123691 -0.14761 -0.0168603 127 0 255
0.190437 -0.481425 0.249964 127 0 255
0.187299 -0.121458 0.110698 127 0 255
0.0640968 -0.319193 -0.451991 127 0 255
0.16876 -0.418536 -0.228713 127 0 255
-0.279046 -0.390586 -0.00356263 127 0 255
-0.337827 -0.399779 -0.175051 127 0 255
0.118805 -0.430591 0.229427 127 0 255
0.191207 -0.296984 0.0170994 127 0 255
0.149639 -0.268335 0.346222 127 0 255
0.116582 -0.3434 -0.346925 127 0 255
-0.0440578 -0.480602 -0.487085 127 0 255
0.137234 -0.411072 -0.139777 127 0 255
-0.0349389 -0.337495 -0.494286 127 0 255
-0.12531 -0.483411 -0.428707 127 0 255
0.189536 -0.162841 0.32671 127 0 255
0.0746726 -0.137328 0.187481 127 0 255
0.171847 -0.085248 0.201476 127 0 255
0.175808 -0.422595 -0.425461 127 0 255
-0.121108 -0.485625 0.211856 127 0 255
-0.249033 -0.48386 0.176406 127 0 255
-0.207033 -0.413826 0.0710359 127 0 255
-0.0162832 -0.48556 -0.127483 127 0 255
0.181567 -0.296449 -0.113426 127 0 255
0.138919 -0.203579 0.0395498 127 0 255
0.0746725 -0.224843 0.33749 127 0 255
0.138494 -0.0903708 -0.0327115 127 0 255
0.193905 -0.31433 0.306223 127 0 255
0.127028 -0.48307 -0.280607 127 0 255
0.114848 -0.119081 -0.28408 127 0 255
0.127486 -0.433739 0.00561539 127 0 255
0.146738 -0.457821 -0.498334 127 0 255
0.18131 -0.378903 0.347449 127 0 255
0.190142 -0.380093 -0.0320684 127 0 255
0.145496 -0.283655 0.0921227 127 0 255
-0.252216 -0.484155 0.0526454 127 0 255
0.076922 -0.317046 0.231133 127 0 255
-0.136566 -0.486715 0.0534498 127 0 255
-0.0985182 -0.350605 -0.495735 127 0 255
0.072717 -0.413566 -0.452231 127 0 255
0.198727 -0.301803 0.219879 127 0 255
-0.0825962 -0.484665 -0.280898 127 0 255
0.168026 -0.212923 -0.351688 127 0 255
0.123766 -0.44392 0.145278 127 0 255
0.116158 -0.484213 0.377342 127 0 255
0.166602 -0.0884923 0.284717 127 0 255
0.109854 -0.482155 -0.408984 127 0 255
0.0746727 -0.312322 -0.150023 127 0 255
0.104692 -0.159413 -0.491727 127 0 255
0.173084 -0.44634 -0.304459 127 0 255
0.0198199 -0.486017 0.156492 127 0 255
0.0605452 -0.483647 -0.301657 127 0 255
0.00205758 -0.257108 -0.496031 127 0 255
0.0893257 -0.108768 -0.37791 127 0 255
-0.0606711 -0.485494 0.191077 127 0 255
0.119365 -0.222347 -0.242136 127 0 255
0.0143203 -0.411739 -0.0442843 127 0 255
0.139984 -0.0688858 -0.0896253 127 0 255
0.190951 -0.160381 0.181398 127 0 255
-0.281084 -0.406255 -0.0685839 127 0 255
0.147375 -0.33873 0.253304 127 0 255
0.118326 -0.325473 0.148478 127 0 255
0.103087 -0.483617 0.201481 127 0 255
0.185295 -0.355908 0.0905319 127 0 255
-0.128034 -0.47302 -0.0971162 127 0 255
0.128336 -0.239169 -0.0322076 127 0 255
0.193931 -0.435448 0.323378 127 0 255
0.0244927 -0.485224 0.320734 127 0 255
0.19517 -0.400742 0.194802 127 0 255
0.0828998 -0.37688 0.248257 127 0 255
0.186216 -0.120611 0.00546353 127 0 255
0.155661 -0.0754345 -0.457479 127 0 255
-0.0831146 -0.481932 -0.191783 127 0 255
0.0856076 -0.202485 -0.406634 127 0 255
-0.0158695 -0.0653344 -0.486137 127 0 255
-0.304209 -0.483669 -0.0698219 127 0 255
0.173653 -0.363309 -0.184801 127 0 255
0.157062 -0.263456 -0.478169 127 0 255
-0.197393 -0.41831 -0.0160786 127 0 255
-0.00898461 -0.485808 -0.324193 127 0 255
0.173629 -0.421394 -0.369422 127 0 255
-0.137558 -0.490889 -0.295137 127 0 255
0.00256588 -0.427255 -0.497466 127 0 255
-0.108357 -0.483509 0.355883 127 0 255
0.195365 -0.237423 0.186627 127 0 255
0.109929 -0.193923 -0.324061 127 0 255
0.176059 -0.22312 -0.200355 127 0 255
-0.198597 -0.481343 -0.366908 127 0 255
-0.106128 -0.485255 0.113921 127 0 255
0.116415 -0.280372 0.202487 127 0 255
0.177418 -0.147548 -0.339414 127 0 255
0.134753 -0.48264 -0.217405 127 0 255
-0.00166085 -0.44423 -0.396532 127 0 255
-0.183846 -0.485384 0.151307 127 0 255
-0.0432572 -0.485818 0.258532 127 0 255
0.158374 -0.483288 -0.0057196 127 0 255
0.193816 -0.261518 -0.0294413 127 0 255
0.12346 -0.41697 0.0547893 127 0 255
0.191484 -0.100808 -0.120118 127 0 255
-0.277384 -0.482279 -0.183534 127 0 255
0.182305 -0.0913704 -0.243349 127 0 255
-0.0164618 -0.485528 0.365981 127 0 255
0.14693 -0.372493 -0.502082 127 0 255
0.17078 -0.305648 -0.359242 127 0 255
0.1129 -0.179926 -0.13548 127 0 255
0.108918 -0.413039 -0.200306 127 0 255
0.185627 -0.175481 0.0443694 127 0 255
0.132098 -0.200854 0.226288 127 0 255
-0.204491 -0.485179 0.255764 127 0 255
0.0620492 -0.458518 -0.0650403 127 0 255
0.0667469 -0.217299 -0.501929 127 0 255
0.15673 -0.19674 0.33649 127 0 255
0.136926 -0.229362 0.136819 127 0 255
-0.251083 -0.483369 -0.00564067 127 0 255
-0.114162 -0.485042 0.269384 127 0 255
0.0725835 -0.482408 -0.48207 127 0 255
0.0367662 -0.35258 -0.496649 127 0 255
0.0884976 -0.26859 0.0171485 127 0 255
0.104221 -0.127379 -0.198057 127 0 255
0.0823975 -0.375283 0.317248 127 0 255
0.10738 -0.262565 -0.3582 127 0 255
-0.34476 -0.445999 0.0797867 127 0 255
0.173097 -0.183488 -0.416441 127 0 255
0.143909 -0.0677993 -0.390067 127 0 255
-0.0245863 -0.49243 -0.216787 127 0 255
0.1507 -0.392995 0.146873 127 0 255
-0.152421 -0.435998 -0.471818 127 0 255
0.126481 -0.0943028 0.0323898 127 0 255
-0.221728 -0.484774 -0.303238 127 0 255
-0.0742035 -0.485672 -0.337309 127 0 255
0.157234 -0.130767 -0.474478 127 0 255
0.0400594 -0.483032 0.0983566 127 0 255
-0.143682 -0.327821 -0.488387 127 0 255
0.10681 -0.2586 -0.45365 127 0 255
0.178999 -0.483367 0.0687953 127 0 255
0.193658 -0.185152 -0.105217 127 0 255
-0.0836059 -0.248289 -0.486127 127 0 255
0.139148 -0.482378 -0.0717781 127 0 255
0.191728 -0.187134 0.123407 127 0 255
-0.329404 -0.430322 -0.084649 127 0 255
-0.0782847 -0.39119 -0.468453 127 0 255
-0.0675413 -0.483027 -0.430468 127 0 255
-0.11367 -0.45202 -0.0418428 127 0 255
0.170626 -0.288465 -0.228166 127 0 255
-0.030667 -0.147532 -0.497708 127 0 255
0.167736 -0.482385 0.332578 127 0 255
0.188271 -0.235645 0.0399892 127 0 255
0.0891284 -0.294421 0.322157 127 0 255
0.0560547 -0.119754 -0.440739 127 0 255
0.189779 -0.0963214 -0.0480119 127 0 255
0.191616 -0.14853 -0.169208 127 0 255
-0.304556 -0.40848 0.0462572 127 0 255
0.138285 -0.385313 0.355556 127 0 255
0.146998 -0.132995 0.207183 127 0 255
-0.123269 -0.177553 -0.487716 127 0 255
0.0156729 -0.486118 0.222191 127 0 255
0.0373223 -0.290596 -0.453599 127 0 255
0.182968 -0.454655 -0.169311 127 0 255
-0.332805 -0.481788 0.0311961 127 0 255
-0.0211185 -0.485508 -0.0668089 127 0 255
0.112246 -0.294266 -0.504309 127 0 255
0.110867 -0.40338 -0.0618952 127 0 255
0.128975 -0.435535 -0.379161 127 0 255
-0.134673 -0.48967 -0.382182 127 0 255
0.114203 -0.247604 -0.100555 127 0 255
-0.225084 -0.404874 0.0306117 127 0 255
-0.174424 -0.482138 -0.177745 127 0 255
0.127126 -0.400066 -0.287193 127 0 255
0.128996 -0.157504 -0.391394 127 0 255
0.151664 -0.360198 0.037747 127 0 255
-0.109991 -0.480808 -0.483331 127 0 255
0.118655 -0.346483 -0.456991 127 0 255
0.0189023 -0.487876 0.0402781 127 0 255
0.0634695 -0.485764 -0.117358 127 0 255
0.100594 -0.0927087 -0.493655 127 0 255
-0.21675 -0.462825 -0.0775801 127 0 255
0.153185 -0.188892 -0.0413148 127 0 255
0.13191 -0.383123 0.212905 127 0 255
0.0294303 -0.471033 -0.262749 127 0 255
0.189185 -0.370132 -0.0744096 127 0 255
-0.340305 -0.483647 -0.125935 127 0 255
0.171029 -0.237179 -0.399083 127 0 255
0.0746727 -0.237318 -0.225026 127 0 255
0.181092 -0.12144 -0.289785 127 0 255
0.195945 -0.16701 0.272646 127 0 255
-0.17362 -0.483253 -0.00141884 127 0 255
0.182147 -0.0889469 -0.189198 127 0 255
0.0570411 -0.482463 -0.420933 127 0 255
-0.0693111 -0.48546 0.0411204 127 0 255
-0.245299 -0.4836 0.11607 127 0 255
0.189331 -0.416785 0.0690976 127 0 255
-0.0560282 -0.4715 -0.144106 127 0 255
0.144945 -0.482311 -0.446239 127 0 255
0.198129 -0.413441 0.234961 127 0 255
0.111329 -0.185578 0.102388 127 0 255
-0.190623 -0.484804 -0.259698 127 0 255
0.00503965 -0.482157 -0.492136 127 0 255
0.113089 -0.309277 -0.16598 127 0 255
0.189164 -0.290245 0.109184 127 0 255
-0.266484 -0.45291 -0.12757 127 0 255
-0.0411157 -0.485519 0.134919 127 0 255
0.145932 -0.482875 -0.339233 127 0 255
0.10765 -0.300908 -0.313247 127 0 255
0.0883702 -0.483745 0.273344 127 0 255
-0.312827 -0.412313 0.212471 127 0 255
-0.365809 -0.481197 -0.0458445 127 0 255
0.0924606 -0.237904 0.243391 127 0 255
0.191486 -0.358218 0.158456 127 0 255
0.175753 -0.277084 -0.159788 127 0 255
0.182942 -0.104467 0.0702921 127 0 255
0.0663424 -0.385475 -0.500411 127 0 255
0.130119 -0.0768804 -0.256361 127 0 255
0.0837628 -0.300394 0.0631684 127 0 255
0.0379527 -0.224197 -0.4525 127 0 255
0.162076 -0.109282 0.31184 127 0 255
0.100528 -0.483375 0.0996917 127 0 255
-0.00173556 -0.33046 -0.45792 127 0 255
0.172149 -0.363484 -0.379351 127 0 255
0.191453 -0.298389 -0.0412652 127 0 255
-0.230615 -0.484577 0.222323 127 0 255
0.0810005 -0.407485 0.187928 127 0 255
-0.278894 -0.480922 -0.291808 127 0 255
0.157567 -0.39425 -0.450628 127 0 255
0.0428331 -0.483613 -0.341193 127 0 255
0.178379 -0.483661 0.186851 127 0 255
0.0643389 -0.486076 -0.00239822 127 0 255
0.191849 -0.206512 -0.157177 127 0 255
0.0743633 -0.441541 -0.169006 127 0 255
-0.0756637 -0.486235 -0.0742233 127 0 255
0.0396179 -0.160272 -0.50333 127 0 255
0.17007 -0.114294 -0.41115 127 0 255
0.171585 -0.330719 -0.300147 127 0 255
0.167195 -0.0662204 -0.310306 127 0 255
0.161863 -0.289533 0.253464 127 0 255
0.107789 -0.192604 -0.277181 127 0 255
-0.228574 -0.494188 -0.401109 127 0 255
0.145619 -0.178851 0.168603 127 0 255
0.115999 -0.32681 -0.231223 127 0 255
0.132809 -0.323914 -0.115401 127 0 255
-0.140947 -0.247073 -0.485731 127 0 255
-0.360297 -0.404652 0.026115 127 0 255
-0.0544673 -0.442566 -0.492211 127 0 255
0.169905 -0.0815465 0.246183 127 0 255
0.08104 -0.411683 0.0534534 127 0 255
0.126876 -0.297874 -0.418442 127 0 255
0.112399 -0.18252 -0.444967 127 0 255
-0.300483 -0.450556 -0.00418634 127 0 255
0.172517 -0.0796656 0.02317 127 0 255
-0.0304656 -0.221044 -0.498355 127 0 255
-0.0755795 -0.087907 -0.478659 127 0 255
0.126447 -0.197126 -0.191127 127 0 255
0.18241 -0.0929915 0.15343 127 0 255
-0.127472 -0.482101 -0.187303 127 0 255
0.188464 -0.279842 0.332974 127 0 255
-0.187787 -0.480801 -0.460604 127 0 255
0.156043 -0.465955 0.371657 127 0 255
0.0746727 -0.362318 -0.312526 127 0 255
0.170015 -0.255518 -0.345327 127 0 255
0.101631 -0.432116 -0.110015 127 0 255
0.195487 -0.28619 0.183725 127 0 255
0.00358649 -0.482008 -0.18011 127 0 255
0.168722 -0.248721 -0.26022 127 0 255
0.0794032 -0.315469 0.131025 127 0 255
-0.235501 -0.485271 -0.184675 127 0 255
0.196858 -0.370531 0.00792225 127 0 255
0.0440722 -0.483618 0.367249 127 0 255
0.100721 -0.300151 -0.0303817 127 0 255
0.0828662 -0.421057 -0.00675107 127 0 255
0.119868 -0.480832 -0.493719 127 0 255
0.156616 -0.160679 -0.101301 127 0 255
0.194966 -0.344253 0.30509 127 0 255
0.193652 -0.203851 -0.0226238 127 0 255
0.134895 -0.11811 -0.327862 127 0 255
0.0783464 -0.0868537 -0.431086 127 0 255
0.148627 -0.336411 0.101229 127 0 255
0.0912947 -0.345934 0.341376 127 0 255
0.190682 -0.466306 -0.0171222 127 0 255
-0.130828 -0.485368 0.177753 127 0 255
-0.0816933 -0.485124 0.296543 127 0 255
-0.0202293 -0.39355 -0.495389 127 0 255
0.146383 -0.259462 0.0368832 127 0 255
0.180868 -0.158582 -0.272555 127 0 255
-0.0950662 -0.485422 -0.236525 127 0 255
0.0996726 -0.099839 0.312488 127 0 255
0.130407 -0.394541 -0.236667 127 0 255
-0.111695 -0.136988 -0.47732 127 0 255
-0.331769 -0.483479 -0.188262 127 0 255
0.0232032 -0.0862637 -0.497043 127 0 255
0.121083 -0.484697 0.309298 127 0 255
0.115056 -0.421302 -0.423122 127 0 255
-0.412827 -0.437284 -0.0250483 127 0 255
0.0786625 -0.483262 0.167384 127 0 255
-0.0247877 -0.463725 -0.0291405 127 0 255
0.0746725 -0.174838 0.274987 127 0 255
0.181573 -0.471184 -0.137081 127 0 255
0.089765 -0.189865 -0.372314 127 0 255
-0.309108 -0.482205 0.0660325 127 0 255
-0.187725 -0.483937 0.0950211 127 0 255
0.115679 -0.425095 0.26455 127 0 255
0.117098 -0.265925 0.171332 127 0 255
0.194623 -0.245767 0.246206 127 0 255
0.194767 -0.442577 0.166856 127 0 255
0.136593 -0.0824275 -0.119014 127 0 255
-0.179795 -0.444614 0.0136013 127 0 255
0.172816 -0.338191 -0.434575 127 0 255
0.149616 -0.285725 -0.0906477 127 0 255
0.142238 -0.149422 0.0941613 127 0 255
0.131832 -0.35481 -0.0135789 127 0 255
0.126239 -0.483336 0.0461986 127 0 255
-0.135356 -0.485514 0.326165 127 0 255
0.133822 -0.165976 0.0112724 127 0 255
0.179068 -0.37191 -0.141891 127 0 255
0.189196 -0.215173 0.33367 127 0 255
0.0871726 -0.0998263 0.18748 127 0 255
0.172457 -0.265076 -0.430597 127 0 255
0.0156791 -0.150996 -0.466716 127 0 255
0.0179927 -0.484455 -0.103009 127 0 255
0.0795067 -0.319162 0.268744 127 0 255
-0.0373873 -0.482721 -0.406098 127 0 255
0.099067 -0.482933 -0.256126 127 0 255
0.127913 -0.242805 0.280562 127 0 255
0.114854 -0.484052 -0.173494 127 0 255
0.137663 -0.484198 0.235469 127 0 255
-0.0215794 -0.488162 -0.296247 127 0 255
-0.0481423 -0.485346 0.349398 127 0 255
0.198823 -0.331562 0.255266 127 0 255
0.188502 -0.438423 -0.0799356 127 0 255
-0.268341 -0.47515 0.152389 127 0 255
0.0828768 -0.402447 0.341135 127 0 255
0.190898 -0.251794 0.120681 127 0 255
-0.190883 -0.4852 -0.101075 127 0 255
0.124649 -0.417795 0.10174 127 0 255
0.0932543 -0.344086 -0.0775272 127 0 255
-0.362827 -0.399806 0.162466 127 0 255
0.103765 -0.113786 -0.072839 127 0 255
0.171554 -0.47295 -0.234724 127 0 255
-0.0392739 -0.487248 0.0642053 127 0 255
-0.00557726 -0.482479 0.28635 127 0 255
0.109 -0.445374 -0.312422 127 0 255
-0.244625 -0.413072 0.0701069 127 0 255
-0.111843 -0.485285 -0.0142881 127 0 255
-0.263171 -0.487339 -0.0626188 127 0 255
0.0710508 -0.378173 -0.45101 127 0 255
0.199673 -0.42483 0.374982 127 0 255
-0.305721 -0.388805 -0.0153677 127 0 255
-0.024625 -0.484257 0.204345 127 0 255
0.168053 -0.401463 0.296352 127 0 255
0.171505 -0.368603 -0.280695 127 0 255
0.169327 -0.48234 0.130491 127 0 255
0.102884 -0.242431 -0.0381965 127 0 255
0.0285652 -0.485704 -0.0249279 127 0 255
-0.148187 -0.391497 -0.484629 127 0 255
0.109184 -0.252704 -0.302628 127 0 255
0.118227 -0.255142 0.104057 127 0 255
0.19278 -0.128753 -0.0475948 127 0 255
0.178171 -0.446873 -0.43904 127 0 255
0.114824 -0.273127 -0.179676 127 0 255
0.0106389 -0.440593 -0.460206 127 0 255
0.186135 -0.423946 0.0306754 127 0 255
0.0746727 -0.137322 0.0999766 127 0 255
0.188163 -0.311956 0.0498809 127 0 255
-0.0398865 -0.280262 -0.496928 127 0 255
0.0746728 -0.087311 -0.23753 127 0 255
0.188582 -0.144634 0.229571 127 0 255
-0.247433 -0.480923 -0.346995 127 0 255
-0.185671 -0.485342 0.273318 127 0 255
0.0746728 -0.137312 -0.31253 127 0 255
0.0911372 -0.414316 -0.502251 127 0 255
0.109415 -0.0634683 -0.46219 127 0 255
0.0522234 -0.279033 -0.496057 127 0 255
-0.102508 -0.454789 -0.442184 127 0 255
0.107444 -0.382731 0.157543 127 0 255
-0.251123 -0.485203 -0.238962 127 0 255
0.113488 -0.0987218 -0.000919378 127 0 255
-0.188085 -0.486393 0.187245 127 0 255
-0.138205 -0.4852 -0.132085 127 0 255
0.126476 -0.394144 -0.360522 127 0 255
0.206175 -0.463205 0.276342 127 0 255
-0.0993176 -0.483122 0.0854714 127 0 255
0.173717 -0.39743 -0.218029 127 0 255
-0.340069 -0.414909 0.10434 127 0 255
0.0547381 -0.484762 0.25053 127 0 255
-0.240269 -0.429436 -0.0343082 127 0 255
0.11179 -0.341288 0.0555809 127 0 255
-0.137208 -0.202292 -0.472941 127 0 255
0.176041 -0.46632 -0.357412 127 0 255
0.0410623 -0.480136 -0.210831 127 0 255
-0.224019 -0.483662 0.0434569 127 0 255
0.115431 -0.0764832 -0.363048 127 0 255
0.129297 -0.0906287 0.064033 127 0 255
-0.0331988 -0.106441 -0.494649 127 0 255
-0.141233 -0.480557 -0.490345 127 0 255
0.188452 -0.148017 0.0890383 127 0 255
0.188778 -0.14229 -0.215168 127 0 255
-0.0694664 -0.337365 -0.496531 127 0 255
0.176062 -0.176802 -0.359519 127 0 255
0.0766368 -0.19454 -0.455426 127 0 255
0.144255 -0.343452 -0.503216 127 0 255
-0.0923453 -0.485394 -0.330469 127 0 255
0.100525 -0.263763 0.325641 127 0 255
-0.138369 -0.286951 -0.488368 127 0 255
0.194065 -0.34077 -0.0229231 127 0 255
0.136968 -0.39041 -0.120293 127 0 255
0.135129 -0.08403 -0.207811 127 0 255
-0.346793 -0.481895 -0.090057 127 0 255
-0.185222 -0.484637 -0.330763 127 0 255
0.128376 -0.146991 -0.14622 127 0 255
0.16933 -0.0684839 -0.0771938 127 0 255
0.115061 -0.20591 0.198849 127 0 255
0.145833 -0.404501 -0.00623485 127 0 255
0.183547 -0.340319 0.341156 127 0 255
0.0768761 -0.312037 0.211418 127 0 255
-0.136237 -0.484932 0.241558 127 0 255
0.097126 -0.208704 0.0782142 127 0 255
-0.350327 -0.42478 -0.150051 127 0 255
0.161462 -0.311717 0.168003 127 0 255
0.104577 -0.48148 -0.0532362 127 0 255
0.142155 -0.432826 -0.502399 127 0 255
0.172029 -0.436821 -0.2944 127 0 255
-0.0880545 -0.486072 0.163201 127 0 255
-0.335042 -0.482128 -0.0185272 127 0 255
0.00864657 -0.483713 0.142821 127 0 255
0.139615 -0.135563 0.237657 127 0 255
-0.179348 -0.481278 -0.418772 127 0 255
0.0789409 -0.425832 0.14378 127 0 255
0.0746728 -0.0873135 -0.150029 127 0 255
0.13115 -0.325531 -0.351956 127 0 255
0.158855 -0.280771 -0.0311645 127 0 255
-0.026012 -0.468993 -0.235291 127 0 255
-0.338915 -0.41567 -0.0558928 127 0 255
0.175243 -0.247632 -0.101922 127 0 255
0.108812 -0.434405 0.354658 127 0 255
0.126913 -0.483915 -0.396331 127 0 255
0.187446 -0.223107 0.0830702 127 0 255
0.114916 -0.164279 -0.0939133 127 0 255
0.00155196 -0.467742 -0.346814 127 0 255
-0.299636 -0.481225 -0.241186 127 0 255
-0.172776 -0.482039 -0.220238 127 0 255
0.119909 -0.136156 -0.431756 127 0 255
0.181896 -0.0832698 -0.168993 127 0 255
-0.212827 -0.412302 -0.112537 127 0 255
-0.0947243 -0.482854 -0.392215 127 0 255
0.0842331 -0.37345 -0.0361084 127 0 255
0.0789424 -0.483175 0.0491843 127 0 255
0.121514 -0.483571 0.173583 127 0 255
-0.0626769 -0.473803 -0.099036 127 0 255
0.176508 -0.21014 -0.248041 127 0 255
-0.0208302 -0.357501 -0.458012 127 0 255
0.186902 -0.381389 0.119706 127 0 255
-0.06437 -0.221215 -0.498776 127 0 255
0.139598 -0.35167 0.215708 127 0 255
0.194172 -0.226541 0.214052 127 0 255
0.129609 -0.215978 -0.369825 127 0 255
0.169376 -0.311651 -0.203173 127 0 255
0.195324 -0.153719 0.302405 127 0 255
-0.189455 -0.417113 0.033969 127 0 255
0.00781069 -0.443588 -0.413354 127 0 255
0.0900207 -0.361075 -0.501747 127 0 255
0.189715 -0.345119 -0.0807298 127 0 255
0.172734 -0.374216 -0.346271 127 0 255
0.140143 -0.431733 -0.155598 127 0 255
-0.0790103 -0.407692 -0.49228 127 0 255
-0.288058 -0.484886 -0.154238 127 0 255
0.0152004 -0.202525 -0.48764 127 0 255
0.17334 -0.200998 -0.431952 127 0 255
0.00462479 -0.307901 -0.493333 127 0 255
0.134863 -0.129999 -0.250226 127 0 255
0.15511 -0.0829858 -0.479336 127 0 255
0.189514 -0.172524 0.012283 127 0 255
0.082854 -0.254303 -0.453557 127 0 255
-0.156416 -0.485172 0.062977 127 0 255
0.192624 -0.145489 -0.139781 127 0 255
0.0646406 -0.478642 -0.36827 127 0 255
0.192871 -0.186533 0.148121 127 0 255
0.0912845 -0.484412 -0.133244 127 0 255
0.0798403 -0.421129 0.273926 127 0 255
0.0404451 -0.470623 -0.496497 127 0 255
0.170243 -0.274504 -0.289824 127 0 255
0.173971 -0.0844914 -0.366574 127 0 255
0.150471 -0.247647 0.341419 127 0 255
0.167559 -0.0843656 0.123739 127 0 255
0.133694 -0.173468 -0.303772 127 0 255
0.087476 -0.328431 -0.446764 127 0 255
0.117055 -0.361624 0.301706 127 0 255
0.0746727 -0.24982 -0.137524 127 0 255
0.0717156 -0.485085 0.317428 127 0 255
-0.160385 -0.485287 -0.0621129 127 0 255
0.146254 -0.434967 0.227493 127 0 255
0.0104358 -0.0572784 -0.487183 127 0 255
0.0746727 -0.312319 -0.262525 127 0 255
0.190017 -0.409691 -0.0260449 127 0 255
0.102409 -0.181457 -0.490643 127 0 255
-0.277176 -0.406488 -0.0612847 127 0 255
0.190625 -0.361326 0.235457 127 0 255
-0.0761507 -0.155504 -0.494318 127 0 255
0.122323 -0.229292 -0.206305 127 0 255
0.122923 -0.213354 0.0130944 127 0 255
-0.0510825 -0.487557 0.00768867 127 0 255
0.0473625 -0.456853 -0.0424868 127 0 255
0.173489 -0.480391 -0.0489172 127 0 255
0.140769 -0.187222 0.311701 127 0 255
0.098389 -0.293272 -0.0746064 127 0 255
0.132014 -0.342199 -0.402144 127 0 255
0.150799 -0.144937 0.163783 127 0 255
0.0120514 -0.4854 0.0912837 127 0 255
-0.075242 -0.480614 -0.487075 127 0 255
0.0827902 -0.27168 0.265078 127 0 255
0.0231449 -0.4815 -0.142114 127 0 255
-0.296932 -0.413856 0.0646294 127 0 255
0.195121 -0.255967 0.292258 127 0 255
0.0783098 -0.451794 0.199835 127 0 255
-0.234902 -0.484959 -0.123221 127 0 255
0.0895713 -0.482832 -0.292629 127 0 255
-0.0688889 -0.485588 0.227419 127 0 255
0.13351 -0.366067 -0.215842 127 0 255
-0.277636 -0.482884 0.104303 127 0 255
0.190981 -0.475203 0.227721 127 0 255
0.189361 -0.460833 0.330477 127 0 255
-0.262153 -0.484292 0.00162009 127 0 255
0.119087 -0.344403 -0.300386 127 0 255
-0.157312 -0.485178 -0.284168 127 0 255
0.192879 -0.217766 -0.0681824 127 0 255
0.107531 -0.277924 -0.373598 127 0 255
0.0032546 -0.483503 0.362587 127 0 255
0.144592 -0.419202 -0.0648569 127 0 255
-0.140839 -0.484493 0.123819 127 0 255
0.109851 -0.107072 -0.494559 127 0 255
-0.356954 -0.438334 0.0485388 127 0 255
0.0863632 -0.268583 0.0562402 127 0 255
0.147935 -0.482603 0.0835802 127 0 255
0.160525 -0.305418 -0.452354 127 0 255
0.0746727 -0.174825 0.149979 127 0 255
0.0885319 -0.482346 -0.43958 127 0 255
0.157778 -0.0766397 -0.425905 127 0 255
0.179799 -0.330169 -0.138592 127 0 255
0.123058 -0.353286 0.124093 127 0 255
-0.0765631 -0.48427 -0.166892 127 0 255
0.118199 -0.216422 -0.104214 127 0 255
0.172375 -0.086728 0.195142 127 0 255
0.16053 -0.48327 -0.213287 127 0 255
0.174727 -0.248938 -0.189591 127 0 255
-0.123347 -0.337724 -0.480847 127 0 255
0.157318 -0.154383 -0.471885 127 0 255
0.186446 -0.419917 -0.117752 127 0 255
-0.252079 -0.402788 0.0217384 127 0 255
0.109655 -0.086169 -0.332458 127 0 255
0.10614 -0.132115 -0.211125 127 0 255
0.173999 -0.412179 0.356718 127 0 255
-0.0432161 -0.484945 -0.357242 127 0 255
0.151602 -0.137038 -0.0263973 127 0 255
0.139391 -0.424612 0.176123 127 0 255
0.191662 -0.270431 0.0180621 127 0 255
-0.213523 -0.485157 0.134709 127 0 255
0.150312 -0.304861 0.348124 127 0 255
0.18414 -0.367472 0.063448 127 0 255
0.100136 -0.320799 0.0113308 127 0 255
-0.312827 -0.41228 -0.200051 127 0 255
-0.120969 -0.470963 0.012914 127 0 255
0.0746726 -0.0998364 0.249986 127 0 255
-0.035488 -0.482893 -0.436594 127 0 255
0.147623 -0.484099 0.283312 127 0 255
-0.0728368 -0.481916 -0.278238 127 0 255
0.0996728 -0.0873163 0.112473 127 0 255
0.00307888 -0.484167 0.0157874 127 0 255
0.00948346 -0.378105 -0.497476 127 0 255
-0.109948 -0.49251 -0.0643018 127 0 255
0.0786107 -0.485309 -0.211157 127 0 255
-0.202614 -0.485087 -0.0349592 127 0 255
-0.303284 -0.433321 -0.0983232 127 0 255
-0.187827 -0.399818 0.0874743 127 0 255
0.0755131 -0.483446 0.126138 127 0 255
0.102863 -0.0777462 -0.402096 127 0 255
0.172869 -0.220275 -0.317589 127 0 255
-0.0561356 -0.483449 0.115452 127 0 255
0.10089 -0.290733 -0.502472 127 0 255
0.104331 -0.156439 -0.342065 127 0 255
0.118021 -0.340067 -0.123923 127 0 255
0.144793 -0.483727 0.372453 127 0 255
0.122025 -0.38992 0.0229759 127 0 255
-0.0198439 -0.472963 -0.172804 127 0 255
0.160638 -0.2943 0.212765 127 0 255
0.0746727 -0.38732 -0.250024 127 0 255
0.173235 -0.379491 -0.407824 127 0 255
0.0377333 -0.482584 -0.430529 127 0 255
0.138829 -0.178608 0.244001 127 0 255
0.0196674 -0.425197 -0.0535239 127 0 255
0.0357504 -0.484341 0.19407 127 0 255
0.170526 -0.294542 -0.374061 127 0 255
0.170958 -0.0814155 0.253756 127 0 255
0.190585 -0.41633 0.133545 127 0 255
-0.217202 -0.485044 -0.173113 127 0 255
-0.238064 -0.489751 -0.322564 127 0 255
0.183318 -0.0929321 0.00347776 127 0 255
0.0746727 -0.0998159 -0.0250272 127 0 255
0.138208 -0.176959 0.0715488 127 0 255
-0.141218 -0.439316 -0.489963 127 0 255
0.172696 -0.428178 -0.338044 127 0 255
0.112506 -0.394774 -0.455923 127 0 255
0.18985 -0.326062 0.147933 127 0 255
0.11139 -0.201573 -0.173409 127 0 255
0.18734 -0.460218 0.0183413 127 0 255
0.106907 -0.48202 0.00129834 127 0 255
0.172494 -0.328164 -0.241579 127 0 255
0.187741 -0.287749 0.07993 127 0 255
0.0766825 -0.483005 0.369016 127 0 255
0.109621 -0.247232 -0.271229 127 0 255
-0.0137933 -0.486173 0.255732 127 0 255
0.0276036 -0.120249 -0.497988 127 0 255
0.035424 -0.250928 -0.494812 127 0 255
0.170444 -0.438018 -0.248865 127 0 255
0.117631 -0.211225 0.143622 127 0 255
0.151114 -0.117387 0.310794 127 0 255
-0.355303 -0.445219 -0.00123539 127 0 255
0.0678751 -0.195799 -0.419235 127 0 255
0.0329907 -0.485601 -0.246728 127 0 255
-0.035709 -0.185618 -0.499048 127 0 255
-0.0675117 -0.29252 -0.483145 127 0 255
-0.0574043 -0.486335 -0.042292 127 0 255
0.104122 -0.47441 -0.496677 127 0 255
0.173123 -0.130808 -0.390407 127 0 255
-0.231648 -0.481923 -0.261711 127 0 255
0.192139 -0.2024 -0.154075 127 0 255
0.0820521 -0.397504 0.202471 127 0 255
0.194647 -0.243796 0.171601 127 0 255
0.0593111 -0.0803675 -0.455301 127 0 255
0.153536 -0.389826 0.269381 127 0 255
0.12553 -0.252602 -0.420234 127 0 255
0.135259 -0.366355 -0.0676566 127 0 255
-0.0575251 -0.124623 -0.473298 127 0 255
0.147542 -0.479749 -0.116568 127 0 255
0.196553 -0.190752 0.274201 127 0 255
-0.175559 -0.484343 -0.354759 127 0 255
0.122421 -0.483916 -0.337798 127 0 255
0.0076222 -0.485643 -0.0757467 127 0 255
0.191717 -0.27303 -0.063863 127 0 255
0.0746728 -0.337315 -0.375028 127 0 255
0.0746725 -0.124844 0.324991 127 0 255
0.168445 -0.40351 -0.1818 127 0 255
0.182333 -0.114911 -0.249177 127 0 255
-0.0352405 -0.485138 0.316163 127 0 255
-0.268296 -0.483972 0.0540069 127 0 255
0.189825 -0.222339 0.0179731 127 0 255
0.0255058 -0.484956 -0.313252 127 0 255
0.111625 -0.298543 0.279579 127 0 255
-0.164286 -0.483302 0.292284 127 0 255
-0.121571 -0.482224 -0.240888 127 0 255
0.116767 -0.318398 0.19007 127 0 255
-0.339586 -0.483569 -0.138601 127 0 255
-0.185275 -0.485321 0.20686 127 0 255
0.148578 -0.481379 -0.461259 127 0 255
-0.144118 -0.484446 -0.429798 127 0 255
0.0746727 -0.162319 -0.125025 127 0 255
-0.144128 -0.215433 -0.481865 127 0 255
0.144808 -0.400838 -0.502325 127 0 255
-0.175327 -0.41231 -0.0750312 127 0 255
0.1486 -0.0716739 -0.140801 127 0 255
0.105872 -0.225496 0.283552 127 0 255
0.113878 -0.377647 0.0735689 127 0 255
-0.0974159 -0.469859 -0.115444 127 0 255
-0.110338 -0.387867 -0.494499 127 0 255
0.191937 -0.157664 0.194587 127 0 255
0.195266 -0.158231 -0.0627184 127 0 255
-0.306486 -0.482889 -0.0420987 127 0 255
0.0810042 -0.380557 0.285717 127 0 255
0.119645 -0.313034 0.111784 127 0 255
0.197546 -0.430374 0.235493 127 0 255
0.094379 -0.425966 -0.0631068 127 0 255
0.144215 -0.289687 0.021703 127 0 255
0.0691703 -0.17504 -0.498601 127 0 255
0.170607 -0.073533 -0.0477252 127 0 255
0.1325 -0.172721 -0.229533 127 0 255
-0.198306 -0.417046 -0.0140784 127 0 255
-0.32895 -0.457343 0.0901207 127 0 255
0.147784 -0.34155 0.349437 127 0 255
-0.040976 -0.48288 0.166292 127 0 255
0.178661 -0.15818 -0.316293 127 0 255
-0.123574 -0.483686 0.336103 127 0 255
0.123217 -0.177318 -0.0452058 127 0 255
0.117764 -0.285302 -0.144337 127 0 255
0.0323139 -0.472872 0.254534 127 0 255
0.170203 -0.314728 -0.31513 127 0 255
0.164152 -0.06758 -0.270753 127 0 255
0.183445 -0.137854 0.0556216 127 0 255
0.123017 -0.448629 -0.223632 127 0 255
0.194504 -0.287241 0.254061 127 0 255
-0.235579 -0.493357 -0.378771 127 0 255
0.107072 -0.458872 -0.383999 127 0 255
0.194463 -0.393191 0.181922 127 0 255
-0.0919905 -0.483457 0.272943 127 0 255
0.157871 -0.272031 -0.474061 127 0 255
-0.293129 -0.472302 -0.198806 127 0 255
0.114834 -0.43099 0.318216 127 0 255
0.0879102 -0.461257 0.0962832 127 0 255
0.188782 -0.123922 0.131046 127 0 255
0.194266 -0.390209 0.311809 127 0 255
-0.175532 -0.485123 0.0257709 127 0 255
0.0961335 -0.484455 0.224413 127 0 255
-0.161815 -0.482174 -0.146948 127 0 255
0.0516706 -0.322839 -0.452369 127 0 255
0.14974 -0.218109 0.08846 127 0 255
-0.0731658 -0.413786 -0.460755 127 0 255
0.0265814 -0.485215 0.31947 127 0 255
0.068815 -0.484378 -0.0689318 127 0 255
0.178762 -0.482576 0.0531673 127 0 255
0.109158 -0.235484 -0.329706 127 0 255
0.192519 -0.125881 -0.118447 127 0 255
-0.000729322 -0.482868 -0.487405 127 0 255
-0.0494717 -0.0755636 -0.487609 127 0 255
0.176547 -0.0836378 -0.341974 127 0 255
0.173271 -0.462717 -0.301938 127 0 255
-0.282995 -0.484693 -0.100529 127 0 255
0.170605 -0.47665 -0.172318 127 0 255
0.102922 -0.290135 0.334909 127 0 255
0.108587 -0.143553 -0.270781 127 0 255
0.106859 -0.249345 -0.0144617 127 0 255
0.115626 -0.244529 0.230072 127 0 255
-0.114666 -0.143552 -0.478964 127 0 255
0.167222 -0.0813822 0.0864247 127 0 255
0.121911 -0.317241 -0.218744 127 0 255
0.149368 -0.482856 0.137723 127 0 255
0.190103 -0.321159 0.0208984 127 0 255
-0.0622507 -0.473224 -0.234605 127 0 255
-0.10773 -0.481611 -0.368115 127 0 255
0.0312401 -0.485754 0.0451856 127 0 255
0.179689 -0.294653 -0.142677 127 0 255
-0.357094 -0.403253 0.00496227 127 0 255
0.0709628 -0.445465 -0.460346 127 0 255
-0.0232531 -0.469501 -0.101602 127 0 255
0.0746726 -0.162331 0.212483 127 0 255
0.176948 -0.465878 -0.38095 127 0 255
0.131695 -0.376382 -0.144962 127 0 255
0.132316 -0.411461 -0.319389 127 0 255
0.14413 -0.483281 -0.0333191 127 0 255
-0.212585 -0.483888 0.0737154 127 0 255
0.0779744 -0.110629 -0.41085 127 0 255
-0.272716 -0.393683 -0.00315743 127 0 255
0.172394 -0.254957 -0.246895 127 0 255
0.191432 -0.205056 0.329848 127 0 255
-0.106298 -0.484525 0.204782 127 0 255
-0.145363 -0.319586 -0.477771 127 0 255
-0.350327 -0.399809 0.187468 127 0 255
-0.27284 -0.481063 -0.290829 127 0 255
-0.0246993 -0.474006 0.0956267 127 0 255
0.157373 -0.366671 -0.469961 127 0 255
0.0466891 -0.270591 -0.452398 127 0 255
0.0179862 -0.481932 -0.378253 127 0 255
-0.100327 -0.487343 0.39999 127 0 255
0.0716671 -0.114142 -0.499397 127 0 255
0.181204 -0.134132 0.260688 127 0 255
0.159844 -0.140808 -0.157916 127 0 255
0.193011 -0.471882 0.303418 127 0 255
0.155796 -0.263637 0.157458 127 0 255
-0.0366976 -0.367934 -0.493801 127 0 255
-0.243756 -0.48457 -0.0347008 127 0 255
-0.26373 -0.479522 0.150337 127 0 255
-0.425327 -0.437285 0.0124527 127 0 255
0.128297 -0.4413 0.0244626 127 0 255
-0.332462 -0.481809 0.030851 127 0 255
-0.216942 -0.484895 0.237666 127 0 255
0.168961 -0.309815 0.304098 127 0 255
0.188325 -0.400518 -0.0911008 127 0 255
-0.163385 -0.480707 -0.481799 127 0 255
0.129747 -0.157109 -0.388918 127 0 255
0.178402 -0.195348 -0.217648 127 0 255
-0.09642 -0.483126 0.0684573 127 0 255
0.110827 -0.240141 -0.081578 127 0 255
0.13922 -0.401488 -0.40087 127 0 255
0.0196366 -0.40766 -0.498847 127 0 255
0.06059 -0.482498 -0.154516 127 0 255
0.134495 -0.483119 -0.280418 127 0 255
0.183507 -0.447185 0.0933941 127 0 255
0.16515 -0.0704671 -0.198969 127 0 255
-0.0799585 -0.249214 -0.486565 127 0 255
0.165029 -0.191581 -0.099506 127 0 255
0.170107 -0.254023 -0.377219 127 0 255
0.109944 -0.355504 0.17404 127 0 255
0.141726 -0.399602 0.351381 127 0 255
-0.0410349 -0.455793 -0.44512 127 0 255
0.110975 -0.292503 -0.292168 127 0 255
0.165747 -0.132705 -0.446541 127 0 255
-0.156034 -0.462778 -0.0232635 127 0 255
0.154108 -0.213953 -0.458963 127 0 255
0.195506 -0.205695 0.240229 127 0 255
0.145481 -0.48243 0.203766 127 0 255
-0.309827 -0.415876 0.0881001 127 0 255
-0.0406577 -0.485423 0.357231 127 0 255
0.190088 -0.141425 -0.00736968 127 0 255
0.10477 -0.112555 -0.0595145 127 0 255
-0.146385 -0.485016 -0.214157 127 0 255
0.187366 -0.320275 0.0877696 127 0 255
0.194272 -0.226475 -0.027128 127 0 255
0.0399208 -0.315865 -0.494843 127 0 255
0.0838381 -0.297145 0.0644604 127 0 255
0.120461 -0.484783 0.333961 127 0 255
0.191451 -0.207343 0.116835 127 0 255
0.086111 -0.363845 -0.0603888 127 0 255
-0.149077 -0.265924 -0.480678 127 0 255
0.0746727 -0.199816 -0.275027 127 0 255
-0.255086 -0.45628 -0.117959 127 0 255
-0.145363 -0.485524 -0.325149 127 0 255
-0.00140497 -0.219281 -0.497066 127 0 255
-0.337988 -0.429908 -0.0755227 127 0 255
0.196541 -0.314873 0.200785 127 0 255
0.166744 -0.0840241 0.162372 127 0 255
0.176418 -0.428086 -0.433149 127 0 255
0.177671 -0.337621 -0.166825 127 0 255
0.0829579 -0.410266 0.239643 127 0 255
0.0627781 -0.397623 -0.453344 127 0 255
0.167552 -0.384166 -0.270476 127 0 255
0.125768 -0.262649 -0.212438 127 0 255
0.195809 -0.390378 0.000673108 127 0 255
0.128178 -0.301956 -0.0548488 127 0 255
0.145702 -0.15105 0.121876 127 0 255
0.198404 -0.368972 0.276048 127 0 255
-0.274857 -0.442446 -0.037893 127 0 255
-0.330147 -0.484454 -0.188921 127 0 255
0.178113 -0.184371 -0.272751 127 0 255
0.0967246 -0.369167 0.350498 127 0 255
0.0871725 -0.199842 0.33749 127 0 255
-0.0311811 -0.337511 -0.457228 127 0 255
-0.0325897 -0.486036 -0.290665 127 0 255
0.0520149 -0.48608 0.156329 127 0 255
0.0749202 -0.484687 -0.26547 127 0 255
-0.204188 -0.416019 0.0685376 127 0 255
0.0799245 -0.448947 0.366609 127 0 255
-0.191402 -0.482446 -0.274452 127 0 255
0.182782 -0.0794015 -0.0787746 127 0 255
0.0194549 -0.0613478 -0.494368 127 0 255
-0.138335 -0.484075 0.155079 127 0 255
-0.201711 -0.48093 -0.429122 127 0 255
-0.412827 -0.462282 -0.0500493 127 0 255
0.124221 -0.0970495 0.0184528 127 0 255
0.00830674 -0.470434 -0.00594962 127 0 255
0.0440948 -0.137937 -0.455767 127 0 255
0.130721 -0.109958 -0.11828 127 0 255
0.190185 -0.342221 -0.0593914 127 0 255
0.115693 -0.482536 -0.11626 127 0 255
0.157116 -0.222929 0.202732 127 0 255
0.124609 -0.430682 0.116671 127 0 255
0.113029 -0.181931 0.0699787 127 0 255
0.0774901 -0.313884 0.24541 127 0 255
-0.193051 -0.485228 -0.121312 127 0 255
0.16059 -0.151649 0.325365 127 0 255
0.130078 -0.264256 0.0600748 127 0 255
0.0871727 -0.0998219 0.149977 127 0 255
0.170801 -0.341055 -0.369412 127 0 255
0.0595881 -0.223365 -0.500048 127 0 255
0.136232 -0.0894045 -0.287542 127 0 255
0.0845142 -0.486241 0.0151725 127 0 255
0.198279 -0.445139 -0.0343089 127 0 255
-0.0470346 -0.48188 -0.194236 127 0 255
0.189213 -0.25874 0.332492 127 0 255
0.106445 -0.128854 -0.175605 127 0 255
0.186084 -0.387246 0.0838314 127 0 255
-0.0366779 -0.482965 0.224171 127 0 255
-0.148723 -0.397876 -0.482096 127 0 255
0.173967 -0.176458 -0.392362 127 0 255
0.187552 -0.437618 -0.147608 127 0 255
0.150089 -0.0676321 -0.464534 127 0 255
-0.065037 -0.485561 0.0230964 127 0 255
0.1236 -0.227511 -0.143751 127 0 255
-0.00114184 -0.273401 -0.495623 127 0 255
0.182717 -0.481033 0.175028 127 0 255
-0.07721 -0.480635 -0.486389 127 0 255
-0.302635 -0.450212 0.0354025 127 0 255
0.157584 -0.372792 0.199352 127 0 255
0.0105909 -0.148032 -0.49774 127 0 255
-0.200005 -0.482164 -0.21817 127 0 255
0.13184 -0.174734 0.00703356 127 0 255
0.117417 -0.448293 0.280382 127 0 255
-0.140844 -0.473652 -0.095309 127 0 255
0.159133 -0.324885 -0.467164 127 0 255
0.0722737 -0.415009 -0.50118 127 0 255
-0.337827 -0.399782 -0.150049 127 0 255
0.141672 -0.48204 -0.419539 127 0 255
0.0689702 -0.482309 -0.330114 127 0 255
-0.0460254 -0.475981 -0.3614 127 0 255
0.117691 -0.361508 0.27087 127 0 255
-0.0867782 -0.485099 0.129443 127 0 255
0.124972 -0.381479 -0.338716 127 0 255
-0.189724 -0.485972 0.146141 127 0 255
0.110287 -0.230239 -0.448566 127 0 255
0.110556 -0.142149 -0.491262 127 0 255
0.116962 -0.298397 0.148578 127 0 255
0.112701 -0.368218 -0.00346139 127 0 255
0.142772 -0.457012 -0.501005 127 0 255
0.100506 -0.485469 -0.206377 127 0 255
0.0491513 -0.485935 0.0774209 127 0 255
0.182482 -0.117743 -0.210873 127 0 255
0.102365 -0.369535 -0.435562 127 0 255
-0.250327 -0.399798 -0.100039 127 0 255
0.180021 -0.468865 0.356304 127 0 255
-0.0816059 -0.20353 -0.49881 127 0 255
-0.291726 -0.484568 -0.249041 127 0 255
0.0159392 -0.480622 -0.192716 127 0 255
0.126083 -0.356968 -0.191965 127 0 255
0.188025 -0.253438 0.07724 127 0 255
0.108646 -0.201181 -0.245429 127 0 255
-0.0939386 -0.48466 -0.292721 127 0 255
0.197494 -0.432082 0.292596 127 0 255
-0.343292 -0.48212 -0.0894246 127 0 255
-0.114548 -0.482156 -0.175348 127 0 255
0.180899 -0.259213 -0.109075 127 0 255
0.0967473 -0.0960175 -0.363899 127 0 255
0.155981 -0.482372 -0.0823933 127 0 255
0.0746725 -0.137339 0.274988 127 0 255
-0.131186 -0.487687 -0.400971 127 0 255
0.0746727 -0.212321 0.024976 127 0 255
-0.145164 -0.484811 0.222926 127 0 255
-0.262544 -0.411504 0.0646833 127 0 255
-0.0811667 -0.327599 -0.496805 127 0 255
0.101319 -0.163375 -0.334428 127 0 255
0.130914 -0.431991 -0.281251 127 0 255
