ply
format ascii 1.0
comment Created by Open3D
element vertex 1191
property double x
property double y
property double z
property uchar red
property uchar green
property uchar blue
end_header
-0.263094 -0.227849 -0.154518 72 183 255
-0.0693559 -0.260717 0.0096852 64 191 255
-0.0291476 -0.487634 0.299336 6 249 255
-0.0594076 -0.424216 0.306804 22 233 255
-0.0829403 -0.342935 0.156875 43 211 255
-0.0718125 -0.179469 -0.00709485 84 171 255
-0.0895873 -0.4875 0.00921203 6 249 255
0.240557 -0.326989 -0.135136 47 208 255
-0.259137 -0.487519 0.281038 6 249 255
-0.054909 -0.147621 0.23935 93 162 255
0.0484112 -0.487501 0.364538 6 249 255
-0.0569731 -0.427234 -0.0762875 21 234 255
-0.143397 -0.470585 0.225499 10 245 255
0.146538 -0.487509 -0.118706 6 249 255
0.294991 -0.487538 0.0764202 6 249 255
0.0327586 -0.487925 -0.028352 5 250 255
-0.0225888 -0.487546 0.141155 6 249 255
-0.416306 -0.470352 0.24668 10 245 255
0.0636308 -0.48727 -0.121135 6 249 255
0.0330597 -0.487481 0.275193 6 249 255
-0.187653 -0.473867 -0.162795 9 246 255
-0.060154 -0.20285 0.146903 78 177 255
-0.450101 -0.133504 -0.154133 96 159 255
-0.170951 -0.274983 -0.155272 60 195 255
-0.0467881 -0.273551 -0.164378 60 195 255
-0.122878 -0.487344 -0.0668285 6 249 255
-0.0635347 -0.194924 -0.0804211 80 175 255
-0.196122 -0.416473 0.181828 24 231 255
-0.0817465 -0.198207 0.319183 80 175 255
-0.089462 -0.333844 0.260924 44 210 255
-0.0507452 -0.388815 0.0357293 31 224 255
-0.335151 -0.19944 -0.151138 79 176 255
0.0366415 -0.222416 -0.163153 73 182 255
-0.272862 -0.280613 -0.154036 58 197 255
-0.0543273 -0.432441 0.218297 20 235 255
0.207688 -0.487606 0.163419 6 249 255
0.211724 -0.212313 -0.149094 76 179 255
0.0793969 -0.364422 -0.145268 36 218 255
-0.187507 -0.486335 0.115348 6 249 255
-0.19201 -0.487447 -0.00484631 6 249 255
0.0179721 -0.416328 -0.153947 24 231 255
0.139423 -0.487978 0.284485 5 250 255
-0.254552 -0.487074 -0.111021 6 249 255
-0.0864689 -0.48722 0.355676 6 249 255
0.245084 -0.391982 -0.163408 30 225 255
-0.382306 -0.335595 -0.145065 44 211 255
-0.361893 -0.487294 0.1411 6 249 255
-0.050531 -0.284535 0.237361 56 198 255
0.342173 -0.48709 -0.0738443 6 249 255
-0.07446 -0.409152 0.101337 26 229 255
0.0417397 -0.317507 -0.14866 48 206 255
-0.456075 -0.25564 -0.147674 65 190 255
-0.430092 -0.393709 -0.161497 30 225 255
-0.475124 -0.474521 -0.158758 9 246 255
0.20308 -0.393815 -0.136179 30 225 255
-0.10525 -0.396932 0.336655 29 226 255
-0.384631 -0.153798 -0.158875 91 163 255
0.387486 -0.299992 0.324968 54 201 255
-0.0621 -0.414391 -0.162287 24 231 255
-0.138141 -0.40811 0.145226 26 229 255
-0.293476 -0.443231 0.178424 17 238 255
-0.073219 -0.196194 0.221461 80 175 255
0.303308 -0.472508 -0.163597 9 246 255
-0.258552 -0.366438 -0.156332 36 218 255
0.178017 -0.487313 -0.159635 6 249 255
0.130955 -0.2464 -0.152175 67 188 255
-0.0315689 -0.487406 -0.11406 6 249 255
0.120144 -0.487651 -0.0686603 5 250 255
-0.407821 -0.487031 -0.0611483 6 249 255
-0.0273471 -0.487631 0.0192782 6 249 255
0.267869 -0.487247 -0.0741342 6 249 255
-0.304401 -0.487325 0.24291 6 249 255
0.243107 -0.315086 -0.163361 50 205 255
-0.121406 -0.356253 -0.150143 39 216 255
-0.42425 -0.48726 0.025065 6 249 255
0.329049 -0.487498 0.0160423 6 249 255
-0.0834792 -0.486895 0.219029 6 249 255
-0.274611 -0.487354 0.131493 6 249 255
0.312486 -0.387492 -0.0375322 31 224 255
-0.272129 -0.426754 -0.163569 21 234 255
-0.297167 -0.487179 0.0566118 6 249 255
-0.351115 -0.48128 -0.161746 7 248 255
-0.249642 -0.185798 -0.161113 83 172 255
-0.396975 -0.487589 0.270073 6 249 255
-0.0513692 -0.214023 0.0851514 76 179 255
0.374986 -0.324992 0.237468 47 208 255
0.329173 -0.36127 -0.122841 38 217 255
-0.1749 -0.487439 -0.138709 6 249 255
-0.203749 -0.487497 0.280645 6 249 255
-0.476656 -0.487125 -0.0390831 6 249 255
-0.069388 -0.274875 -0.123111 60 195 255
-0.464485 -0.487294 0.176101 6 249 255
0.20989 -0.487531 -0.0323103 6 249 255
-0.179195 -0.158056 -0.155038 89 165 255
-0.0750145 -0.137492 0.0999678 95 160 255
-0.0494991 -0.212854 0.285312 76 179 255
-0.0956554 -0.19862 -0.146636 79 176 255
0.306561 -0.41103 -0.16478 25 230 255
0.108866 -0.487603 0.241684 6 249 255
-0.064137 -0.356898 -0.10976 39 216 255
-0.0817277 -0.487476 -0.0509373 6 249 255
-0.0665358 -0.300824 -0.00504293 52 202 255
0.249539 -0.380042 -0.109599 32 222 255
0.194675 -0.283028 -0.162984 58 197 255
-0.406312 -0.298834 -0.157542 54 201 255
0.0817668 -0.487685 0.33557 5 250 255
-0.0587467 -0.37402 0.287382 35 220 255
-0.0666757 -0.293942 0.152253 55 200 255
0.0897934 -0.451976 -0.153978 15 240 255
0.0612755 -0.164865 -0.166154 88 167 255
-0.324153 -0.40323 -0.164323 27 228 255
0.0729161 -0.487999 0.0981769 5 250 255
-0.148924 -0.487253 0.323348 6 249 255
-0.0684774 -0.458289 0.171439 13 242 255
0.279395 -0.487613 0.162178 6 249 255
-0.00458128 -0.238828 -0.163081 69 186 255
0.00439327 -0.34946 -0.16239 40 214 255
-0.13643 -0.454345 -0.0130758 14 241 255
-0.0398361 -0.158434 -0.159329 89 165 255
-0.439448 -0.487465 0.11934 6 249 255
0.231008 -0.48769 0.0322693 5 250 255
-0.259348 -0.48729 -0.058782 6 249 255
0.00221191 -0.487969 0.0095824 5 250 255
0.34354 -0.487582 0.093399 6 249 255
-0.0553105 -0.350104 0.214532 40 214 255
-0.0974556 -0.429567 -0.140447 20 235 255
-0.404941 -0.443619 -0.145039 17 238 255
-0.0533348 -0.351842 0.0596694 40 215 255
0.121843 -0.404039 -0.146049 27 228 255
-0.194971 -0.485706 0.0608104 6 249 255
-0.196835 -0.487504 0.208672 6 249 255
0.319147 -0.343515 -0.158317 42 213 255
0.229377 -0.441837 -0.140245 17 238 255
-0.16649 -0.427682 0.319862 21 234 255
-0.186319 -0.376241 -0.163012 34 221 255
0.437486 -0.299992 0.249968 54 201 255
-0.109923 -0.350687 0.118033 40 214 255
-0.245591 -0.487334 0.318794 6 249 255
-0.046817 -0.366663 -0.0300016 36 219 255
-0.0707024 -0.462557 -0.163305 12 243 255
-0.0547486 -0.318076 -0.143682 48 206 255
-0.372803 -0.254652 -0.158372 65 190 255
-0.14955 -0.48756 0.258023 6 249 255
0.23398 -0.168922 -0.161988 87 168 255
0.149935 -0.328973 -0.160301 46 209 255
-0.00577003 -0.487491 0.35555 6 249 255
-0.249569 -0.487343 0.0270214 6 249 255
-0.476953 -0.365039 -0.157214 36 218 255
-0.326334 -0.333524 -0.152525 44 210 255
-0.314827 -0.159697 -0.152407 89 166 255
0.00413628 -0.487413 -0.0693391 6 249 255
-0.509584 -0.166899 -0.155372 88 167 255
0.0878775 -0.488459 0.0109943 5 250 255
0.144113 -0.486336 0.216579 6 249 255
-0.00569776 -0.487133 0.0929757 6 249 255
0.0438538 -0.487804 0.18452 5 250 255
-0.377482 -0.487471 0.190369 6 249 255
-0.310307 -0.250506 -0.154833 65 189 255
0.103679 -0.272396 -0.153418 60 194 255
-0.0514546 -0.240908 0.0303022 69 186 255
0.175756 -0.48774 0.127458 5 250 255
-0.462525 -0.487304 0.237596 6 249 255
-0.450267 -0.321693 -0.145547 48 207 255
-0.497145 -0.236143 -0.154998 70 185 255
-0.0670132 -0.487647 0.279388 5 250 255
0.206656 -0.421767 -0.163893 22 233 255
-0.382083 -0.475738 -0.127451 9 246 255
-0.0597715 -0.162021 0.0593225 89 166 255
-0.0979336 -0.167137 0.257423 88 167 255
-0.339126 -0.487452 0.110029 6 249 255
0.246345 -0.250375 -0.147634 65 189 255
-0.0218598 -0.487265 0.230152 6 249 255
-0.274869 -0.322691 -0.156435 48 207 255
0.287543 -0.487123 -0.118072 6 249 255
-0.121711 -0.487456 0.150722 6 249 255
-0.312754 -0.486876 -0.128394 6 249 255
-0.036098 -0.369126 -0.156742 36 219 255
-0.0644407 -0.458273 -0.0498556 13 242 255
-0.0645745 -0.251166 0.203666 65 189 255
-0.0512176 -0.376719 0.351638 34 221 255
-0.117406 -0.487445 0.0422826 6 249 255
0.0307672 -0.388106 -0.145217 31 224 255
0.137163 -0.173811 -0.163675 86 169 255
-0.0403509 -0.255466 0.304067 65 190 255
-0.0603791 -0.236171 -0.0469079 70 185 255
-0.104221 -0.293229 -0.135407 55 200 255
-0.408377 -0.415561 -0.134557 24 231 255
-0.345959 -0.486953 -0.00626823 6 249 255
-0.0970325 -0.487487 -0.141129 6 249 255
-0.347191 -0.487575 0.292476 6 249 255
-0.374711 -0.44228 -0.16364 17 238 255
0.101217 -0.487878 0.139316 5 250 255
-0.43377 -0.486532 -0.0986406 6 249 255
-0.213198 -0.301769 -0.156559 52 202 255
-0.0576848 -0.153945 0.283254 91 163 255
-0.0473528 -0.474168 0.0718422 9 246 255
0.291768 -0.487361 -0.0283669 6 249 255
-0.226463 -0.487153 -0.142017 6 249 255
-0.054232 -0.358008 0.150365 39 216 255
0.0682335 -0.487609 -0.0696835 6 249 255
-0.0542379 -0.160878 0.153504 89 166 255
0.127534 -0.484573 -0.164459 6 249 255
0.298143 -0.275387 -0.161791 60 195 255
-0.188211 -0.48731 -0.0738822 6 249 255
0.33907 -0.454591 -0.161978 14 241 255
-0.0697606 -0.31194 0.0923451 50 205 255
0.241074 -0.487533 0.208465 6 249 255
-0.445971 -0.214074 -0.156787 76 179 255
-0.473443 -0.487244 0.0948594 6 249 255
-0.132361 -0.393425 -0.162958 30 225 255
0.1115 -0.334126 -0.146617 44 210 255
-0.0686738 -0.390185 -0.133067 30 225 255
-0.0735398 -0.44909 0.0280148 15 240 255
-0.0605986 -0.461374 0.36175 12 243 255
0.155515 -0.487899 -0.016907 5 250 255
-0.073827 -0.270381 0.260802 60 194 255
-0.166212 -0.248617 -0.154487 67 188 255
0.302593 -0.487689 0.116107 5 250 255
-0.107423 -0.366005 0.180928 36 218 255
-0.0538032 -0.319738 0.342955 48 207 255
-0.0263438 -0.453475 -0.143914 14 241 255
-0.0320519 -0.196202 -0.162545 80 175 255
0.0572075 -0.487899 0.261077 5 250 255
0.369114 -0.487685 0.0595664 5 250 255
0.242079 -0.487653 0.123147 5 250 255
-0.439087 -0.461269 -0.0669922 12 243 255
0.0749855 -0.487492 0.412468 6 249 255
-0.2794 -0.474129 0.218754 9 246 255
-0.346474 -0.487215 0.0518817 6 249 255
-0.134613 -0.162543 -0.165324 89 166 255
0.2858 -0.37971 -0.163054 32 222 255
0.0460023 -0.487506 -0.146084 6 249 255
0.215768 -0.314597 -0.13787 50 205 255
-0.490834 -0.461496 -0.155063 12 243 255
-0.505818 -0.325295 -0.13822 47 208 255
0.304277 -0.417644 -0.101449 23 232 255
0.136077 -0.487823 0.0679819 5 250 255
-0.167967 -0.487492 0.0229923 6 249 255
-0.183905 -0.423243 -0.159237 22 233 255
-0.0504903 -0.22117 0.333023 73 181 255
-0.164539 -0.328788 -0.149913 46 209 255
-0.21411 -0.405951 0.190387 26 229 255
-0.1016 -0.487581 -0.0978296 6 249 255
0.424986 -0.324992 0.212468 47 208 255
0.28651 -0.223476 -0.151236 73 182 255
0.334454 -0.487102 -0.121511 6 249 255
-0.0806498 -0.320618 0.214975 48 207 255
-0.0684131 -0.234128 0.124191 70 185 255
-0.473209 -0.487173 0.0370456 6 249 255
-0.301873 -0.381691 -0.153251 32 222 255
-0.0596814 -0.330804 -0.0644614 46 209 255
-0.0795061 -0.242796 -0.160824 68 187 255
0.306625 -0.329097 -0.144202 46 209 255
-0.0950501 -0.462193 0.0962951 12 243 255
0.202992 -0.487648 0.0654817 5 250 255
-0.245837 -0.474436 0.289986 9 246 255
-0.0036238 -0.487647 -0.018215 5 250 255
-0.355993 -0.486318 -0.0728528 6 249 255
-0.0581273 -0.449966 0.311892 15 240 255
-0.207654 -0.209518 -0.155466 77 178 255
-0.350897 -0.300858 -0.157983 52 202 255
0.228801 -0.487119 -0.133225 6 249 255
-0.128808 -0.209202 0.211988 77 178 255
-0.3178 -0.468652 -0.161298 10 245 255
-0.437152 -0.36885 -0.146532 36 219 255
-0.0845401 -0.208676 -0.111459 77 178 255
-0.470843 -0.141367 -0.154292 94 161 255
0.173635 -0.361742 -0.155347 38 217 255
0.0448179 -0.487713 0.327979 5 250 255
0.271972 -0.487367 0.0318536 6 249 255
-0.400779 -0.487068 0.0763874 6 249 255
-0.40744 -0.187588 -0.147776 81 173 255
-0.233246 -0.48738 0.0780529 6 249 255
0.182257 -0.487377 -0.078602 6 249 255
-0.0709206 -0.174219 0.00709209 86 169 255
-0.231855 -0.486562 0.175809 6 249 255
-0.0751732 -0.487471 0.174816 6 249 255
-0.0912407 -0.442569 -0.166487 17 238 255
-0.158918 -0.487477 0.122583 6 249 255
0.0139941 -0.450632 -0.164253 15 240 255
-0.344961 -0.486151 0.170232 6 249 255
-0.473367 -0.275834 -0.157746 60 195 255
-0.0583065 -0.153488 0.206615 91 163 255
-0.247061 -0.27601 -0.151774 60 195 255
0.216853 -0.238716 -0.163518 69 186 255
-0.30662 -0.218141 -0.154223 73 181 255
0.188796 -0.487436 0.248632 6 249 255
-0.253922 -0.487387 -0.0157985 6 249 255
-0.479405 -0.463284 -0.115027 12 243 255
0.0932918 -0.165066 -0.164117 88 167 255
0.114692 -0.487787 0.312032 5 250 255
0.00880963 -0.488174 0.173361 5 250 255
-0.394631 -0.401971 -0.158789 27 228 255
0.349986 -0.299992 0.274968 54 201 255
-0.250497 -0.475391 -0.162896 9 246 255
0.280181 -0.359746 -0.106242 38 217 255
0.185503 -0.17225 -0.163627 86 169 255
-0.0535772 -0.416349 0.210831 24 231 255
-0.128886 -0.487337 0.3327 6 249 255
-0.294115 -0.487519 0.291719 6 249 255
-0.429048 -0.487636 0.265502 6 249 255
0.121523 -0.487773 0.169569 5 250 255
-0.0596642 -0.309934 0.290161 51 204 255
0.129255 -0.422266 -0.15599 22 233 255
-0.0609854 -0.447019 -0.094532 16 239 255
0.219903 -0.449434 -0.165471 15 240 255
0.0234978 -0.185765 -0.164156 83 172 255
0.00120769 -0.487812 0.278712 5 250 255
0.145032 -0.274125 -0.16185 60 195 255
-0.124418 -0.460156 0.243957 13 242 255
0.0924521 -0.487379 -0.139427 6 249 255
-0.258637 -0.410441 0.193848 25 230 255
-0.0176399 -0.487468 0.0753662 6 249 255
-0.0509244 -0.262605 0.0863887 63 192 255
-0.285686 -0.487396 0.165553 6 249 255
0.234631 -0.360518 -0.145533 38 217 255
-0.155261 -0.41024 0.315823 25 230 255
-0.0379015 -0.285625 -0.145581 56 198 255
-0.365438 -0.21883 -0.149259 73 181 255
-0.0557419 -0.206986 0.204338 77 178 255
-0.0871934 -0.437064 0.163724 18 237 255
0.0454828 -0.330994 -0.154696 46 209 255
-0.127799 -0.487453 -0.000541154 6 249 255
-0.0729581 -0.371805 -0.164387 35 220 255
-0.30887 -0.486993 -0.0827401 6 249 255
-0.290672 -0.156614 -0.158312 89 165 255
-0.509104 -0.204798 -0.154561 78 177 255
-0.161301 -0.487199 -0.0933226 6 249 255
-0.414957 -0.487482 0.209788 6 249 255
-0.328028 -0.487397 0.225773 6 249 255
-0.039423 -0.322792 -0.013511 48 207 255
-0.296611 -0.487183 0.0186707 6 249 255
-0.114898 -0.324931 -0.147695 47 208 255
0.0389541 -0.488502 0.110627 5 250 255
0.349986 -0.299992 0.199968 54 201 255
-0.0794011 -0.375088 0.076671 34 221 255
-0.0623738 -0.276658 -0.0662731 60 195 255
-0.0483511 -0.269647 0.157735 60 194 255
-0.128761 -0.210701 -0.149622 76 179 255
-0.435578 -0.487049 -0.0102023 6 249 255
0.329084 -0.486929 0.0480727 6 249 255
-0.0721764 -0.191437 -0.0466535 81 174 255
0.0517417 -0.41393 -0.147176 24 231 255
0.24213 -0.487556 -0.082289 6 249 255
0.00592498 -0.487586 -0.100577 6 249 255
0.253905 -0.433006 -0.145774 19 236 255
-0.182099 -0.487523 0.235555 6 249 255
-0.0567903 -0.399659 -0.0155591 28 227 255
-0.0541284 -0.427589 0.359865 21 234 255
0.177542 -0.41082 -0.143119 25 230 255
0.0512384 -0.488832 0.0241057 5 250 255
0.258339 -0.194284 -0.160057 81 174 255
-0.198241 -0.486849 0.324899 6 249 255
-0.0808131 -0.273803 0.309336 60 195 255
0.361995 -0.487496 -2.08504e-05 6 249 255
-0.402091 -0.487388 0.147405 6 249 255
0.194564 -0.487743 0.1773 5 250 255
-0.017336 -0.154618 -0.160438 91 163 255
-0.0869779 -0.351323 0.232537 40 215 255
-0.120893 -0.249563 0.216688 65 189 255
-0.505643 -0.275846 -0.1541 60 195 255
-0.00889244 -0.326542 -0.153213 47 208 255
-0.402066 -0.147494 -0.154155 93 162 255
0.0731802 -0.237997 -0.152589 69 186 255
0.328733 -0.389101 -0.15801 31 224 255
-0.355002 -0.447685 -0.142118 16 239 255
-0.114739 -0.487931 0.105944 5 250 255
-0.420172 -0.32802 -0.158091 46 209 255
-0.0471387 -0.166199 0.121434 88 167 255
0.111855 -0.488585 -0.0535039 5 250 255
-0.0239775 -0.487603 0.327143 6 249 255
-0.218841 -0.368145 -0.162224 36 219 255
0.159001 -0.487813 0.0244182 5 250 255
-0.0777267 -0.381198 0.302738 32 222 255
0.154168 -0.487315 -0.140546 6 249 255
-0.0523398 -0.487545 0.00231256 6 249 255
-0.192166 -0.16248 -0.155532 89 166 255
-0.0989019 -0.421448 0.0866217 22 233 255
0.272262 -0.478869 -0.16253 8 247 255
-0.0492335 -0.487481 0.127948 6 249 255
0.0443676 -0.487563 0.231108 6 249 255
-0.279813 -0.487028 -0.129918 6 249 255
-0.170547 -0.486815 0.167013 6 249 255
0.249919 -0.29568 -0.147242 55 200 255
-0.356032 -0.379394 -0.161793 32 222 255
-0.000272526 -0.229132 -0.150079 72 183 255
0.118769 -0.194774 -0.152287 80 175 255
0.0979215 -0.392262 -0.147563 30 225 255
-0.0505464 -0.328696 0.180792 46 209 255
-0.0793141 -0.222237 0.272046 73 182 255
-0.289215 -0.487251 0.0760581 6 249 255
-0.383337 -0.48717 -0.0290545 6 249 255
-0.222167 -0.487143 -0.107176 6 249 255
-0.465499 -0.487246 0.16551 6 249 255
-0.445862 -0.477229 -0.158898 8 247 255
-0.0287185 -0.487313 -0.070409 6 249 255
0.227027 -0.487487 -0.0113939 6 249 255
-0.113522 -0.47949 -0.165227 8 247 255
0.196856 -0.344909 -0.128846 42 213 255
0.0264995 -0.48799 0.0627864 5 250 255
-0.258391 -0.405807 -0.163819 26 229 255
-0.0621479 -0.293371 0.0562569 55 200 255
-0.0878531 -0.161207 -0.159301 89 166 255
-0.10591 -0.44249 -0.0836479 17 238 255
-0.492452 -0.369933 -0.149816 36 219 255
-0.0420854 -0.487513 0.19248 6 249 255
-0.156937 -0.284657 -0.155256 56 198 255
-0.0730217 -0.461311 0.260028 12 243 255
-0.377028 -0.487478 0.248067 6 249 255
-0.213573 -0.487314 -0.0618543 6 249 255
0.16099 -0.48752 0.263977 6 249 255
-0.407638 -0.486816 -0.120611 6 249 255
-0.224394 -0.487585 0.227865 6 249 255
0.300479 -0.487419 -0.0599858 6 249 255
-0.0527923 -0.349533 0.0951156 40 214 255
0.107571 -0.487869 0.211572 5 250 255
-0.312504 -0.29254 -0.156459 55 200 255
-0.415235 -0.482035 0.0243609 7 248 255
0.279137 -0.344008 -0.162293 42 213 255
0.162949 -0.48755 0.106927 6 249 255
-0.0725309 -0.158741 0.3046 89 165 255
-0.0582584 -0.220733 -0.00725233 73 181 255
-0.439393 -0.255311 -0.146665 65 190 255
-0.0831082 -0.315136 -0.162248 50 205 255
-0.0490727 -0.487212 -0.148922 6 249 255
-0.212427 -0.258289 -0.157323 64 191 255
-0.476584 -0.486341 -0.0655406 6 249 255
-0.153266 -0.487067 -0.141509 6 249 255
-0.108589 -0.175309 0.209 85 170 255
0.103237 -0.487506 -0.108525 6 249 255
0.261422 -0.487624 0.0828222 6 249 255
-0.0540551 -0.201194 0.0580493 79 176 255
0.260672 -0.413857 -0.120671 24 231 255
-0.117807 -0.487478 -0.0317091 6 249 255
0.252643 -0.487542 0.160501 6 249 255
0.0242598 -0.48877 -0.0604314 5 250 255
-0.14271 -0.48757 0.278574 6 249 255
-0.0595277 -0.456765 0.0590049 13 242 255
-0.25811 -0.17616 -0.157762 85 170 255
-0.0139082 -0.387082 -0.15807 31 224 255
-0.466091 -0.197451 -0.159398 80 175 255
0.162903 -0.21313 -0.150533 76 179 255
-0.468594 -0.487238 0.120119 6 249 255
-0.0631836 -0.372935 0.0195235 35 220 255
-0.0572541 -0.389866 0.26264 31 224 255
-0.245677 -0.487353 0.142021 6 249 255
-0.178389 -0.487428 0.0649756 6 249 255
-0.0622492 -0.359473 -0.0789978 38 217 255
-0.131653 -0.386833 0.138269 31 224 255
-0.0977166 -0.474104 0.341062 9 246 255
0.090616 -0.48777 0.0739086 5 250 255
-0.0139826 -0.455828 -0.163559 14 241 255
-0.319023 -0.487449 0.11679 6 249 255
-0.0554661 -0.203994 0.166636 78 177 255
0.217036 -0.361143 -0.162186 38 217 255
-0.291433 -0.439989 0.180337 18 237 255
-0.0464717 -0.334735 0.334067 44 210 255
0.0442953 -0.487512 0.368248 6 249 255
-0.47133 -0.308486 -0.157276 51 204 255
0.33165 -0.376732 -0.135815 34 221 255
0.186946 -0.46433 -0.162483 11 244 255
-0.0752385 -0.487019 -0.110855 6 249 255
-0.206995 -0.47647 -0.161382 8 247 255
0.349986 -0.299992 0.312468 54 201 255
-0.0311378 -0.251531 -0.16428 65 189 255
0.181265 -0.288664 -0.162482 56 199 255
0.223268 -0.487083 0.231016 6 249 255
-0.149377 -0.418299 -0.154872 23 232 255
0.338051 -0.463265 -0.15655 12 243 255
-0.277577 -0.487198 -0.0712449 6 249 255
-0.445463 -0.415813 -0.160581 24 231 255
0.113259 -0.356108 -0.145945 39 216 255
-0.0895544 -0.487482 0.0677707 6 249 255
-0.379822 -0.487202 0.0982404 6 249 255
0.295072 -0.487445 -0.00140628 6 249 255
0.0502996 -0.487821 0.154175 5 250 255
-0.0707703 -0.233429 -0.105735 71 184 255
-0.213745 -0.487442 0.0178284 6 249 255
-0.470705 -0.487107 0.000278174 6 249 255
0.272798 -0.464112 -0.125509 12 243 255
-0.0750145 -0.137492 0.0249677 95 160 255
0.159458 -0.161909 -0.152679 89 166 255
-0.102049 -0.258296 -0.160779 64 191 255
-0.509157 -0.166119 -0.154135 88 167 255
-0.160678 -0.208135 -0.154618 77 178 255
-0.0715552 -0.424186 -0.140001 22 233 255
0.0939659 -0.487809 -0.00822686 5 250 255
-0.0957261 -0.177268 0.275035 85 170 255
-0.0554643 -0.284306 0.188834 58 197 255
0.250108 -0.163413 -0.15546 89 166 255
-0.419987 -0.427903 -0.127122 21 234 255
0.0991637 -0.487526 0.275304 6 249 255
-0.0682527 -0.429017 0.00420645 21 234 255
0.00015371 -0.4875 0.200289 6 249 255
-0.465165 -0.487291 0.22758 6 249 255
0.338517 -0.487055 -0.0779161 6 249 255
0.24821 -0.348893 -0.114519 40 214 255
-0.308457 -0.487107 -0.0153402 6 249 255
0.0357852 -0.48737 -0.110954 6 249 255
-0.315123 -0.350331 -0.152083 40 214 255
-0.406854 -0.269686 -0.158075 60 194 255
-0.242699 -0.333134 -0.15979 44 210 255
-0.0604724 -0.272053 0.333009 60 194 255
0.15336 -0.487328 0.19019 6 249 255
-0.057828 -0.429742 0.152795 20 235 255
-0.220146 -0.487498 0.266967 6 249 255
-0.225634 -0.420756 -0.155438 23 232 255
-0.336619 -0.177091 -0.152916 85 170 255
-0.270271 -0.218617 -0.156232 73 181 255
-0.293988 -0.487488 0.27264 6 249 255
-0.0654978 -0.181228 -0.165716 84 171 255
0.412486 -0.312492 0.187468 50 205 255
-0.0531182 -0.150414 0.24957 92 163 255
-0.0855859 -0.371451 0.198106 35 220 255
0.14549 -0.487575 -0.073129 6 249 255
-0.0512285 -0.261592 0.238994 63 192 255
-0.165426 -0.347253 -0.162646 40 214 255
-0.0725894 -0.31313 0.10955 50 205 255
-0.00226762 -0.280715 -0.156946 58 197 255
-0.0657823 -0.487131 0.266928 6 249 255
0.124986 -0.487492 0.362468 6 249 255
0.297218 -0.283238 -0.162348 58 197 255
-0.378845 -0.326473 -0.145982 47 208 255
0.00667042 -0.487777 0.0043842 5 250 255
0.0679162 -0.33064 -0.146639 46 209 255
0.0400845 -0.476162 -0.16111 8 247 255
-0.058832 -0.343484 0.278939 42 213 255
-0.136297 -0.463072 -0.00850905 12 243 255
-0.129817 -0.487056 0.190827 6 249 255
-0.28207 -0.487381 0.209808 6 249 255
-0.0297963 -0.487418 0.354631 6 249 255
-0.486068 -0.487036 -0.151184 6 249 255
-0.363792 -0.41624 -0.16423 24 231 255
0.0507524 -0.487453 0.311692 6 249 255
-0.0752193 -0.444184 0.231895 17 238 255
0.289329 -0.487543 0.145689 6 249 255
-0.00448845 -0.48734 0.254873 6 249 255
-0.0665614 -0.316469 -0.0100038 48 206 255
0.188212 -0.488008 0.0102971 5 250 255
0.216296 -0.487212 -0.102629 6 249 255
0.227328 -0.263794 -0.163539 63 192 255
-0.368932 -0.476837 0.0552068 8 247 255
-0.205666 -0.487441 0.113043 6 249 255
0.0660052 -0.156653 -0.162868 89 165 255
0.259848 -0.440733 -0.163758 18 237 255
-0.152594 -0.427458 0.32568 21 234 255
-0.0545469 -0.397284 0.05664 29 226 255
-0.059651 -0.340294 -0.16444 43 211 255
-0.383816 -0.481099 -0.161355 7 248 255
-0.121127 -0.459305 -0.135986 13 242 255
-0.415474 -0.358765 -0.159664 38 217 255
-0.234348 -0.4876 0.31992 6 249 255
0.14817 -0.434915 -0.152372 19 236 255
-0.046306 -0.464087 -0.0718764 12 243 255
0.330475 -0.427015 -0.16416 21 234 255
-0.0577802 -0.371895 0.145073 35 220 255
-0.372057 -0.236618 -0.1582 70 185 255
-0.250258 -0.487358 0.0552715 6 249 255
-0.0202009 -0.487412 0.134275 6 249 255
-0.0614285 -0.308657 -0.0941964 51 204 255
0.205453 -0.196326 -0.157652 80 175 255
-0.332792 -0.4869 -0.106207 6 249 255
-0.0350359 -0.487612 0.0558991 6 249 255
-0.47291 -0.487214 0.0524724 6 249 255
-0.0607922 -0.161201 0.0934871 89 166 255
0.139435 -0.487486 0.139183 6 249 255
-0.0518807 -0.195965 0.226614 80 175 255
-0.464215 -0.138306 -0.156404 95 160 255
0.424986 -0.287492 0.262468 56 198 255
0.371539 -0.487693 0.0555009 5 250 255
0.291707 -0.39552 -0.0926744 29 226 255
0.216465 -0.48756 0.108097 6 249 255
-0.0948755 -0.387944 0.330942 31 224 255
-0.0983637 -0.383501 -0.148805 32 223 255
-0.330053 -0.487289 0.153606 6 249 255
0.329493 -0.487496 0.0999016 6 249 255
-0.401679 -0.486839 -0.082551 6 249 255
0.334838 -0.487449 -0.0145896 6 249 255
-0.0495412 -0.437757 -0.165819 18 237 255
-0.195106 -0.487221 -0.115905 6 249 255
-0.31427 -0.481112 -0.161991 7 248 255
-0.164052 -0.487381 0.323249 6 249 255
-0.505433 -0.312862 -0.141193 50 205 255
0.0168079 -0.34953 -0.145001 40 214 255
-0.174958 -0.487222 -0.0357279 6 249 255
-0.121874 -0.487496 0.239629 6 249 255
0.138807 -0.360016 -0.154208 38 217 255
-0.290897 -0.274848 -0.155684 60 195 255
-0.0808458 -0.326631 0.317984 47 208 255
-0.359264 -0.487428 0.21753 6 249 255
-0.484525 -0.465975 -0.0843642 11 244 255
0.0658184 -0.48705 0.227505 6 249 255
-0.0811553 -0.219216 0.320764 73 181 255
-0.0685252 -0.232011 0.120826 71 184 255
0.286929 -0.230395 -0.16048 71 184 255
0.29973 -0.486966 -0.135626 6 249 255
-0.0715078 -0.243431 0.0326765 68 187 255
-0.320226 -0.48746 0.29971 6 249 255
0.0819259 -0.487661 -0.0593047 5 250 255
-0.102737 -0.48669 0.152527 6 249 255
-0.225468 -0.205361 -0.15284 78 177 255
0.0276197 -0.411496 -0.145346 25 230 255
0.239925 -0.316365 -0.163333 48 206 255
0.12738 -0.487468 0.0343224 6 249 255
0.212693 -0.394709 -0.134081 29 226 255
-0.0468398 -0.386441 -0.0516455 31 224 255
0.0863549 -0.474926 -0.161445 9 246 255
-0.00824874 -0.485575 -0.13073 6 249 255
-0.423985 -0.487485 0.182483 6 249 255
-0.360481 -0.48699 -0.00644919 6 249 255
-0.0758537 -0.198007 -0.0813332 80 175 255
-0.294715 -0.391865 -0.15314 30 225 255
0.116332 -0.226038 -0.155795 72 183 255
-0.134817 -0.487231 -0.0850216 6 249 255
-0.103915 -0.23859 0.217368 69 186 255
-0.0626579 -0.487565 -0.0288658 6 249 255
0.281727 -0.403293 -0.163567 27 228 255
-0.19604 -0.323251 -0.150189 48 207 255
-0.07259 -0.263698 -0.131791 63 192 255
-0.421249 -0.486038 0.0927785 6 249 255
-0.487448 -0.231835 -0.160028 71 184 255
0.194904 -0.487229 -0.0441234 6 249 255
-0.421598 -0.148432 -0.154973 92 163 255
0.306045 -0.344839 -0.120347 42 213 255
0.26008 -0.487487 0.023964 6 249 255
-0.0656276 -0.352819 -0.121111 40 215 255
0.0807054 -0.488272 0.141358 5 250 255
0.181462 -0.326744 -0.145495 47 208 255
-0.433725 -0.298004 -0.145495 54 201 255
-0.0997178 -0.430163 -0.166763 20 235 255
0.00926684 -0.203977 -0.161732 78 177 255
-0.326725 -0.232119 -0.151175 71 184 255
-0.122983 -0.167202 -0.166368 88 167 255
-0.370443 -0.365613 -0.145038 36 218 255
-0.0677089 -0.340376 0.0300116 43 211 255
-0.141769 -0.487322 0.0423636 6 249 255
-0.222306 -0.418314 0.180756 23 232 255
-0.149695 -0.252402 -0.149585 65 189 255
0.0109944 -0.487668 0.330845 5 250 255
-0.367947 -0.487546 0.276001 6 249 255
0.181169 -0.487286 -0.129419 6 249 255
0.241062 -0.487663 0.187577 5 250 255
0.374986 -0.299992 0.174968 54 201 255
-0.404078 -0.216545 -0.147713 75 179 255
-0.177788 -0.39457 -0.153436 29 226 255
-0.0546186 -0.43359 0.360089 19 236 255
-0.474957 -0.393049 -0.147984 30 225 255
-0.0822154 -0.210729 -0.160283 76 179 255
-0.230175 -0.487587 -0.037304 6 249 255
0.224413 -0.407135 -0.16392 26 229 255
-0.247792 -0.301887 -0.157748 52 202 255
-0.0778515 -0.487497 0.025443 6 249 255
-0.177854 -0.487407 0.163976 6 249 255
0.00663878 -0.487775 0.11147 5 250 255
-0.157651 -0.459728 -0.159202 13 242 255
-0.0767913 -0.194401 0.0278197 81 174 255
0.205735 -0.158064 -0.161431 89 165 255
-0.129874 -0.323604 -0.158878 47 208 255
-0.0597506 -0.265211 -0.0514856 62 193 255
0.211882 -0.487788 0.0538756 5 250 255
-0.062922 -0.45336 0.288895 14 241 255
-0.0873594 -0.326071 0.25675 47 208 255
0.317437 -0.420239 -0.130391 23 232 255
-0.246732 -0.481788 -0.163336 7 248 255
0.140599 -0.487991 0.281677 5 250 255
-0.26919 -0.487285 0.115475 6 249 255
-0.442734 -0.474413 -0.149247 9 246 255
-0.103667 -0.37875 0.156719 32 222 255
-0.331874 -0.487157 0.0500358 6 249 255
-0.0535809 -0.190615 0.271988 81 173 255
0.31625 -0.330442 -0.158512 46 209 255
-0.107375 -0.487303 0.308925 6 249 255
0.303522 -0.48714 0.0431371 6 249 255
0.0580336 -0.196243 -0.156025 80 175 255
-0.0611668 -0.182577 -0.0296268 84 171 255
0.254356 -0.487452 -0.0311635 6 249 255
0.0469841 -0.487709 -0.0124111 5 250 255
-0.267947 -0.487075 -0.128793 6 249 255
0.222294 -0.486109 -0.1648 6 249 255
0.180316 -0.487827 0.219339 5 250 255
-0.415843 -0.420722 -0.161797 23 232 255
0.147056 -0.298081 -0.161837 54 201 255
-0.0559589 -0.159143 0.137664 89 165 255
-0.108051 -0.183028 0.251091 83 172 255
-0.0539931 -0.408708 0.195641 26 229 255
-0.174765 -0.158082 -0.156589 89 165 255
0.0250233 -0.245543 -0.152933 67 188 255
-0.345236 -0.317547 -0.157861 48 206 255
-0.370414 -0.468431 -0.133837 10 245 255
-0.0667743 -0.452385 -0.133628 15 240 255
0.00517141 -0.488013 0.0314911 5 250 255
-0.0474681 -0.486951 0.213806 6 249 255
0.161091 -0.487837 0.0730512 5 250 255
0.239593 -0.229599 -0.148112 72 183 255
-0.391553 -0.487363 0.138649 6 249 255
-0.0667254 -0.277213 0.131261 59 195 255
-0.447016 -0.468383 -0.0343738 10 245 255
-0.214389 -0.47234 0.316272 9 246 255
-0.489822 -0.335627 -0.157405 44 211 255
-0.0273386 -0.48742 -0.0455094 6 249 255
-0.0692734 -0.487427 0.10005 6 249 255
0.170447 -0.392217 -0.153855 30 225 255
-0.478846 -0.173349 -0.157782 86 169 255
0.437486 -0.337492 0.224968 44 211 255
-0.271032 -0.487285 0.0118462 6 249 255
-0.240363 -0.487464 0.211198 6 249 255
-0.0370349 -0.487522 0.312473 6 249 255
0.13652 -0.487541 -0.11979 6 249 255
-0.202275 -0.250325 -0.155148 65 189 255
0.25999 -0.320625 -0.142319 48 207 255
-0.0686868 -0.358802 0.348292 38 217 255
-0.32846 -0.486976 -0.0613952 6 249 255
-0.137091 -0.48739 0.105659 6 249 255
-0.0306459 -0.394629 -0.154587 29 226 255
-0.0557398 -0.285936 0.0558942 56 198 255
0.0705643 -0.382022 -0.148679 32 222 255
-0.171085 -0.487529 0.266801 6 249 255
-0.255309 -0.378692 -0.160394 32 222 255
0.215389 -0.440415 -0.140998 18 237 255
-0.057618 -0.358019 0.226385 39 216 255
0.066464 -0.487397 -0.110619 6 249 255
-0.0605231 -0.4242 0.0751463 22 233 255
-0.463032 -0.487318 0.205113 6 249 255
-0.281273 -0.434455 0.191223 19 236 255
-0.0408948 -0.217503 -0.161728 75 179 255
0.366807 -0.487695 0.00679321 5 250 255
-0.051732 -0.431633 -0.0507197 20 235 255
-0.0670322 -0.198188 0.0928216 80 175 255
0.337485 -0.399992 -0.0625323 28 227 255
-0.299735 -0.430743 -0.151714 20 235 255
0.100339 -0.487739 0.0855928 5 250 255
0.374986 -0.299992 0.337468 54 201 255
0.277525 -0.48765 0.0975187 5 250 255
0.182399 -0.487674 0.152918 5 250 255
0.283098 -0.487262 -0.0821673 6 249 255
0.146266 -0.487744 -0.0156206 5 250 255
-0.0726781 -0.271728 0.262065 60 194 255
0.0230747 -0.158163 -0.161285 89 165 255
0.294827 -0.461152 -0.163186 12 243 255
-0.0533929 -0.234146 0.332431 70 185 255
-0.0523991 -0.156704 0.21134 89 165 255
-0.309066 -0.198818 -0.157703 79 176 255
0.000235576 -0.472324 -0.163309 9 246 255
-0.195219 -0.487472 0.0291922 6 249 255
-0.320168 -0.487356 0.183965 6 249 255
-0.0697489 -0.293913 -0.161773 55 200 255
0.272754 -0.199235 -0.151891 79 176 255
-0.0699941 -0.48731 -0.0801478 6 249 255
-0.432702 -0.487156 0.0549195 6 249 255
0.0674171 -0.488157 0.279035 5 250 255
0.100618 -0.487779 0.187043 5 250 255
-0.440647 -0.487501 0.255832 6 249 255
-0.139712 -0.387951 -0.150905 31 224 255
-0.0586079 -0.218588 0.15879 73 181 255
-0.0830496 -0.332486 0.124918 44 210 255
-0.273413 -0.487468 0.300772 6 249 255
-0.505893 -0.278731 -0.153298 59 195 255
0.0264324 -0.488307 0.20526 5 250 255
-0.358891 -0.278685 -0.150179 59 195 255
-0.144774 -0.410939 0.321306 25 230 255
-0.125885 -0.487652 -0.135101 5 250 255
0.102162 -0.422581 -0.148926 22 233 255
-0.0626099 -0.295655 0.339436 55 200 255
-0.383128 -0.48701 -0.061223 6 249 255
-0.255239 -0.486616 -0.0853439 6 249 255
0.187641 -0.280979 -0.150035 58 197 255
-0.0590483 -0.163438 0.0582254 88 167 255
-0.0887393 -0.439508 0.154423 18 237 255
0.327092 -0.469118 -0.136137 10 245 255
-0.435774 -0.22627 -0.156647 72 183 255
-0.059053 -0.158171 -0.1585 89 165 255
-0.0793066 -0.395489 -0.136551 29 226 255
0.309622 -0.368814 -0.163797 36 219 255
0.153589 -0.194994 -0.163322 80 175 255
-0.279645 -0.345478 -0.154994 42 213 255
0.0539789 -0.487737 0.0862082 5 250 255
0.374986 -0.324992 0.262468 47 208 255
-0.0572966 -0.161462 0.301628 89 166 255
-0.435243 -0.487308 0.137389 6 249 255
0.228085 -0.487224 0.235224 6 249 255
-0.126335 -0.191984 0.21226 81 174 255
-0.21494 -0.487469 0.164711 6 249 255
-0.0647804 -0.298182 0.192428 54 201 255
-0.17117 -0.487433 0.0860856 6 249 255
-0.310918 -0.487404 0.234363 6 249 255
-0.469367 -0.480159 -0.131353 7 248 255
-0.0544503 -0.231994 0.215238 71 184 255
-0.286023 -0.15985 -0.157687 89 166 255
0.0327369 -0.487528 0.358403 6 249 255
-0.216858 -0.40684 -0.16232 26 229 255
0.0183865 -0.487479 -0.0713972 6 249 255
-0.167749 -0.467539 0.333484 11 244 255
-0.0509242 -0.479576 0.135603 8 247 255
-0.277256 -0.251432 -0.154476 65 189 255
-0.0604187 -0.2889 -0.0381615 56 199 255
0.134424 -0.476939 -0.163128 8 247 255
-0.000366266 -0.285274 -0.154011 56 198 255
-0.375997 -0.199446 -0.157554 79 176 255
-0.466097 -0.376431 -0.160941 34 221 255
-0.39327 -0.486591 -0.147567 6 249 255
-0.180051 -0.197809 -0.155196 80 175 255
-0.0978528 -0.459357 0.256646 13 242 255
0.344873 -0.487519 -0.0360168 6 249 255
0.0203169 -0.487712 0.259342 5 250 255
0.123134 -0.487843 0.304649 5 250 255
-0.0184744 -0.487416 0.0240435 6 249 255
-0.389737 -0.487488 0.202308 6 249 255
-0.0708427 -0.471902 -0.16367 10 245 255
-0.400422 -0.486927 -0.000840914 6 249 255
-0.104128 -0.487411 -0.0107365 6 249 255
-0.328076 -0.393957 -0.150233 29 226 255
0.0870238 -0.488473 0.03403 5 250 255
0.0329171 -0.440597 -0.151482 18 237 255
-0.0941942 -0.344345 -0.146295 42 213 255
-0.151876 -0.487487 0.225317 6 249 255
-0.160872 -0.287757 -0.156927 56 198 255
-0.0846393 -0.212128 -0.136882 76 179 255
-0.0487368 -0.351935 -0.0455475 40 215 255
-0.0545084 -0.330504 0.0729719 46 209 255
-0.274798 -0.487228 -0.0357251 6 249 255
-0.0610326 -0.424234 0.295733 22 233 255
-0.189015 -0.487237 -0.134087 6 249 255
0.123683 -0.278681 -0.153323 59 195 255
-0.252921 -0.412446 0.19357 25 230 255
-0.244921 -0.487343 0.0932799 6 249 255
-0.0668938 -0.487419 0.333699 6 249 255
0.234808 -0.487551 0.136773 6 249 255
-0.469362 -0.48721 0.0874377 6 249 255
0.154116 -0.488065 -0.0843093 5 250 255
-0.336082 -0.487217 0.094858 6 249 255
0.261651 -0.437261 -0.130174 18 237 255
-0.429999 -0.486799 -0.0895467 6 249 255
-0.0587015 -0.234185 -0.0338262 70 185 255
0.00968744 -0.378496 -0.157944 32 222 255
-0.036072 -0.487155 -0.115086 6 249 255
-0.442034 -0.179985 -0.156231 84 171 255
-0.0674669 -0.389408 0.237795 31 224 255
-0.450554 -0.293554 -0.146133 55 200 255
-0.0512236 -0.263799 0.0903012 63 192 255
-0.0650241 -0.312442 -0.127057 50 205 255
-0.00313628 -0.487562 0.130884 6 249 255
0.239196 -0.380979 -0.145414 32 222 255
-0.406133 -0.487581 0.267384 6 249 255
-0.0592246 -0.299741 0.283156 54 201 255
0.285269 -0.294244 -0.162849 55 200 255
-0.0798505 -0.487311 0.197249 6 249 255
-0.136732 -0.473657 -0.0658836 9 246 255
-0.470917 -0.487125 0.0139479 6 249 255
-0.24488 -0.435645 -0.163207 19 236 255
0.226576 -0.487326 -0.0765145 6 249 255
0.325244 -0.356535 -0.120496 39 216 255
-0.041403 -0.343674 -0.152597 42 213 255
-0.41703 -0.373622 -0.160973 35 220 255
0.1569 -0.418114 -0.145 23 232 255
-0.0215731 -0.161484 -0.16288 89 166 255
0.220956 -0.155626 -0.156041 89 165 255
-0.0629948 -0.427889 0.00628144 21 234 255
0.260282 -0.486982 -0.143766 6 249 255
0.341597 -0.48764 0.0844981 6 249 255
-0.335296 -0.46643 -0.160315 11 244 255
-0.0717917 -0.421163 0.356747 23 232 255
-0.125722 -0.234274 -0.156661 70 185 255
0.126875 -0.487956 0.108136 5 250 255
-0.326572 -0.487104 0.00785229 6 249 255
0.120759 -0.487817 0.224324 5 250 255
-0.0555208 -0.357259 0.124359 39 216 255
-0.362179 -0.352397 -0.16041 40 215 255
-0.450833 -0.429067 -0.161377 20 235 255
-0.0779992 -0.447368 0.0982568 16 239 255
-0.224865 -0.189585 -0.155791 81 173 255
0.28742 -0.487645 0.148281 5 250 255
-0.166617 -0.487476 0.0145302 6 249 255
0.362486 -0.287492 0.212468 56 198 255
0.222481 -0.263089 -0.146751 63 192 255
-0.219361 -0.487492 0.270505 6 249 255
-0.300798 -0.487356 0.151972 6 249 255
0.190243 -0.364994 -0.132211 36 218 255
-0.0593421 -0.363777 0.300639 36 218 255
0.333344 -0.409676 -0.156545 25 230 255
-0.2049 -0.289673 -0.156332 56 199 255
-0.0687345 -0.40377 -0.163066 27 228 255
0.102579 -0.487773 -0.0205303 5 250 255
-0.111325 -0.44588 -0.136649 16 239 255
0.0857911 -0.488534 -0.103473 5 250 255
-0.395164 -0.289492 -0.154528 56 199 255
0.135577 -0.226451 -0.151899 72 183 255
-0.0485235 -0.265291 -0.163847 62 193 255
-0.0180284 -0.48764 0.251931 6 249 255
0.240592 -0.487613 0.072679 6 249 255
-0.304546 -0.306815 -0.155104 52 203 255
-0.165666 -0.487216 -0.088804 6 249 255
-0.0874861 -0.196739 0.293198 80 175 255
-0.5017 -0.211039 -0.15545 76 179 255
-0.353048 -0.487558 0.284831 6 249 255
-0.321098 -0.47259 -0.142242 9 246 255
0.0652432 -0.487732 0.328994 5 250 255
0.074945 -0.487751 0.174801 5 250 255
0.19191 -0.487943 0.00382825 5 250 255
0.13908 -0.346026 -0.148266 42 213 255
-0.451279 -0.326931 -0.157796 47 208 255
-0.00341711 -0.487634 -0.0217768 6 249 255
-0.197582 -0.343956 -0.158474 42 213 255
0.196116 -0.46849 -0.163802 10 245 255
-0.154638 -0.487411 0.153255 6 249 255
0.222092 -0.333544 -0.16196 44 210 255
-0.110551 -0.481642 0.34137 7 248 255
-0.0525201 -0.342207 0.174722 43 211 255
-0.0372234 -0.487505 0.179883 6 249 255
0.0262442 -0.339648 -0.145766 43 211 255
-0.495257 -0.484856 -0.0999882 6 249 255
0.288158 -0.256846 -0.162096 65 190 255
-0.111124 -0.294449 -0.157707 55 200 255
-0.231423 -0.241828 -0.158521 68 187 255
0.172207 -0.487917 0.253629 5 250 255
-0.380942 -0.487099 0.0360353 6 249 255
-0.285263 -0.48723 0.064459 6 249 255
-0.0480893 -0.257328 0.147614 64 191 255
-0.223101 -0.475923 -0.141259 9 246 255
-0.0222971 -0.487442 0.355707 6 249 255
-0.171821 -0.422946 -0.158112 22 233 255
-0.0645285 -0.22675 -0.0928852 72 183 255
0.279443 -0.386882 -0.0965327 31 224 255
-0.0832172 -0.25887 0.306041 64 191 255
0.269489 -0.487504 -0.0166473 6 249 255
-0.267305 -0.487379 0.181915 6 249 255
-0.116393 -0.487393 0.0566931 6 249 255
-0.0522749 -0.15142 0.238594 92 163 255
-0.226832 -0.487385 -0.00389416 6 249 255
-0.460089 -0.487243 0.144173 6 249 255
-0.064057 -0.177648 -0.0127307 85 170 255
-0.0229684 -0.487437 0.0764318 6 249 255
-0.367005 -0.487392 0.157522 6 249 255
0.0110664 -0.487693 0.295369 5 250 255
-0.358486 -0.427305 -0.151813 21 234 255
0.182924 -0.487743 0.0921064 5 250 255
-0.0678098 -0.250482 0.00901869 65 189 255
-0.431869 -0.48238 -0.159449 7 248 255
-0.344303 -0.259013 -0.150062 64 191 255
0.19362 -0.2303 -0.151426 71 184 255
0.32463 -0.48683 -0.108325 6 249 255
-0.102717 -0.487363 -0.0502371 6 249 255
-0.455144 -0.135745 -0.151789 96 159 255
0.027504 -0.487292 -0.127118 6 249 255
-0.067005 -0.346294 0.0389249 42 213 255
-0.0521639 -0.199191 0.182927 79 176 255
-0.064945 -0.437698 -0.0987309 18 237 255
-0.0905964 -0.486802 0.12679 6 249 255
-0.0474279 -0.348608 0.337628 40 214 255
-0.473534 -0.486455 -0.0361674 6 249 255
0.0934946 -0.238028 -0.152485 69 186 255
-0.34939 -0.188203 -0.155898 81 173 255
-0.493941 -0.324204 -0.14203 47 208 255
0.270704 -0.38512 -0.162751 32 223 255
-0.0541507 -0.335025 0.237041 44 210 255
-0.0525227 -0.210363 0.0788131 76 179 255
0.11431 -0.48749 -0.145196 6 249 255
-0.0625145 -0.174992 -0.100032 86 169 255
-0.348501 -0.486974 -0.0470248 6 249 255
0.194205 -0.478759 -0.138195 8 247 255
-0.109319 -0.237395 0.216451 70 185 255
-0.0673936 -0.447949 0.202758 16 239 255
-0.185667 -0.487514 0.228963 6 249 255
0.168888 -0.487825 0.174797 5 250 255
0.308945 -0.487668 0.0398813 5 250 255
-0.0563581 -0.358408 -0.100872 39 216 255
-0.0258566 -0.485614 -0.156311 6 249 255
-0.140156 -0.168144 -0.164947 87 168 255
-0.217401 -0.417031 0.182869 24 231 255
-0.27334 -0.476461 -0.162531 8 247 255
-0.0876836 -0.422597 0.0761223 22 233 255
-0.0989886 -0.403118 0.334558 27 228 255
-0.466668 -0.260538 -0.158385 64 191 255
0.305642 -0.422387 -0.103417 22 233 255
-0.064263 -0.467478 -0.0311856 11 244 255
-0.099586 -0.360325 0.180636 38 217 255
-0.129943 -0.487371 0.281902 6 249 255
0.0390857 -0.48774 0.120626 5 250 255
-0.222876 -0.487424 0.0577134 6 249 255
-0.395308 -0.157112 -0.15424 89 165 255
0.239819 -0.48767 0.187085 5 250 255
-0.379422 -0.487217 0.106374 6 249 255
0.0544139 -0.487684 -0.0336533 5 250 255
-0.191534 -0.470591 -0.161751 10 245 255
-0.382385 -0.486734 -0.101881 6 249 255
-0.112366 -0.371547 -0.159336 35 220 255
-0.282609 -0.47798 0.22337 8 247 255
0.334709 -0.439987 -0.164357 18 237 255
-0.115175 -0.481628 -0.164278 7 248 255
0.264079 -0.186473 -0.152323 83 172 255
-0.0615119 -0.487654 0.287225 5 250 255
0.0415413 -0.159679 -0.161949 89 166 255
-0.218079 -0.487364 -0.0569048 6 249 255
0.247616 -0.341182 -0.124309 43 211 255
-0.0664207 -0.487495 0.0455687 6 249 255
-0.216319 -0.487381 0.130099 6 249 255
0.0567017 -0.487851 0.0350879 5 250 255
-0.238852 -0.355642 -0.161485 39 216 255
0.000245237 -0.215068 -0.162473 75 179 255
-0.0585685 -0.380038 0.00193136 32 222 255
-0.161019 -0.435155 0.325186 19 236 255
-0.0555964 -0.16514 0.15593 88 167 255
0.182329 -0.487572 -0.0285733 6 249 255
-0.0540949 -0.207836 0.32904 77 178 255
-0.268423 -0.208036 -0.154671 77 178 255
0.256351 -0.453177 -0.164042 14 241 255
0.145132 -0.487729 0.0314974 5 250 255
-0.429353 -0.487494 0.21911 6 249 255
-0.09856 -0.166772 0.254091 88 167 255
-0.076602 -0.24574 0.267455 67 188 255
-0.0660799 -0.30682 0.153969 52 203 255
0.0995987 -0.447665 -0.153272 16 239 255
-0.50089 -0.164821 -0.158048 88 167 255
-0.279352 -0.487484 0.296141 6 249 255
-0.341029 -0.48742 0.219575 6 249 255
0.00725913 -0.402621 -0.149042 27 228 255
-0.183442 -0.48756 0.290849 6 249 255
0.219614 -0.301433 -0.142781 52 202 255
-0.290377 -0.48705 -0.0848206 6 249 255
-0.369448 -0.476714 -0.162102 8 247 255
-0.00708296 -0.487624 0.189995 6 249 255
-0.0804548 -0.348254 0.0897133 40 214 255
0.0874855 -0.487492 0.399968 6 249 255
-0.056899 -0.424495 0.158276 22 233 255
-0.0703641 -0.487116 -0.142901 6 249 255
-0.0643299 -0.291641 -0.0805805 56 199 255
-0.279073 -0.418255 0.178026 23 232 255
0.217084 -0.375539 -0.161381 34 221 255
0.298995 -0.487314 -0.050691 6 249 255
-0.135302 -0.483212 0.000759404 7 248 255
0.244613 -0.487107 -0.121738 6 249 255
0.374986 -0.324992 0.199968 47 208 255
-0.413981 -0.328742 -0.147904 46 209 255
0.0193503 -0.488008 0.0750575 5 250 255
-0.0224118 -0.487255 -0.0753984 6 249 255
0.0779315 -0.487549 0.252532 6 249 255
0.114734 -0.347463 -0.154024 40 214 255
0.234463 -0.487676 0.027419 5 250 255
0.149985 -0.137492 -0.162532 95 160 255
-0.252075 -0.309819 -0.152942 51 204 255
0.3134 -0.346317 -0.162567 42 213 255
-0.169624 -0.225595 -0.154108 73 182 255
-0.298042 -0.487249 0.114387 6 249 255
-0.0698503 -0.415325 0.242877 24 231 255
0.291336 -0.487686 0.115306 5 250 255
-0.0781878 -0.257901 -0.137373 64 191 255
-0.0430619 -0.454642 0.345027 14 241 255
-0.172944 -0.367126 -0.150743 36 219 255
-0.0609141 -0.170156 0.0346069 87 168 255
-0.48038 -0.487186 -0.154456 6 249 255
-0.114654 -0.487442 0.20982 6 249 255
0.374986 -0.324992 0.299968 47 208 255
0.0573694 -0.384007 -0.147634 32 223 255
-0.325685 -0.357269 -0.157127 39 216 255
-0.423185 -0.233823 -0.156587 70 185 255
-0.226381 -0.487704 0.320967 5 250 255
-0.0735688 -0.195921 -0.0667497 80 175 255
0.204806 -0.192983 -0.157634 81 174 255
-0.434762 -0.483514 0.0378067 7 248 255
-0.198129 -0.171329 -0.155447 86 169 255
-0.418182 -0.414795 -0.146152 24 231 255
0.092906 -0.48781 0.116466 5 250 255
-0.0613056 -0.290567 0.0442913 56 199 255
-0.167534 -0.487439 0.111013 6 249 255
-0.0529877 -0.392209 -0.0632517 30 225 255
0.0414224 -0.480083 -0.160335 7 248 255
-0.0779066 -0.171675 0.31156 86 169 255
-0.496987 -0.262521 -0.149893 63 192 255
0.117607 -0.487789 0.308088 5 250 255
-0.291463 -0.487193 0.014995 6 249 255
-0.0637714 -0.277908 0.195616 59 195 255
0.190879 -0.43264 -0.142732 20 235 255
0.353543 -0.487672 0.0129584 5 250 255
-0.0631007 -0.301392 0.340326 52 202 255
-0.426458 -0.487003 -0.0457175 6 249 255
-0.126812 -0.48721 -0.0906236 6 249 255
0.0352619 -0.487133 0.223956 6 249 255
-0.0370154 -0.200363 -0.162604 79 176 255
-0.25384 -0.487351 -0.14123 6 249 255
-0.0974135 -0.432805 -0.16667 20 235 255
0.207505 -0.487529 0.238212 6 249 255
-0.0601779 -0.377795 0.35421 34 221 255
-0.192701 -0.486555 0.190373 6 249 255
-0.113104 -0.197718 -0.149548 80 175 255
0.0340393 -0.4874 -0.0844897 6 249 255
0.290047 -0.351572 -0.110567 40 215 255
-0.0325767 -0.358149 -0.156922 39 216 255
-0.143419 -0.328608 -0.149925 46 209 255
0.191866 -0.270626 -0.162995 60 194 255
-0.470471 -0.487216 0.0808927 6 249 255
-0.314573 -0.167198 -0.152934 88 167 255
-0.087132 -0.350174 0.245328 40 214 255
0.135429 -0.40482 -0.15644 27 228 255
-0.32653 -0.48752 0.297073 6 249 255
-0.0585983 -0.323296 -0.0482444 48 207 255
0.118091 -0.488443 -0.0595763 5 250 255
0.275372 -0.322609 -0.161796 48 207 255
-0.0968245 -0.174125 0.212247 86 169 255
0.226072 -0.391368 -0.12863 30 225 255
0.142337 -0.487862 0.157227 5 250 255
-0.463482 -0.416597 -0.159762 24 231 255
-0.0509307 -0.21718 0.262531 75 179 255
-0.246047 -0.260693 -0.152579 64 191 255
-0.0750145 -0.137492 -3.22518e-05 95 160 255
-0.0580513 -0.386147 0.187447 31 224 255
0.294601 -0.484782 -0.160159 6 249 255
-0.190713 -0.487294 -0.00785808 6 249 255
-0.0416159 -0.487569 -0.0124694 6 249 255
-0.0641885 -0.424571 -0.130881 22 233 255
0.0466668 -0.487743 0.157649 5 250 255
-0.0487832 -0.172253 0.104107 86 169 255
0.232675 -0.420197 -0.164689 23 232 255
-0.383713 -0.487484 0.243235 6 249 255
0.195359 -0.336566 -0.133509 44 211 255
0.326948 -0.389232 -0.111726 31 224 255
0.22805 -0.48741 -0.0504132 6 249 255
-0.0487273 -0.247385 0.106983 67 188 255
-0.0726948 -0.392642 0.0612131 30 225 255
-0.386217 -0.384046 -0.156997 32 223 255
-0.307084 -0.422449 -0.152057 22 233 255
-0.00396939 -0.487509 0.351339 6 249 255
-0.0650975 -0.317014 -0.139612 48 206 255
-0.425859 -0.487536 0.103052 6 249 255
0.437486 -0.312492 0.262468 50 205 255
-0.175248 -0.475245 -0.141835 9 246 255
-0.257443 -0.487367 0.150836 6 249 255
-0.385479 -0.453962 -0.139318 14 241 255
-0.388072 -0.245114 -0.147491 68 187 255
-0.332593 -0.487181 0.0595497 6 249 255
-0.0924255 -0.258697 -0.161462 64 191 255
-0.401497 -0.487558 0.168004 6 249 255
-0.0579733 -0.220153 0.00841299 73 181 255
-0.312093 -0.241801 -0.154688 68 187 255
0.187963 -0.487762 0.125048 5 250 255
-0.306935 -0.4874 0.253057 6 249 255
0.362486 -0.287492 0.249968 56 198 255
-0.198112 -0.387055 -0.162668 31 224 255
-0.0546229 -0.435648 -0.0318194 19 236 255
0.242958 -0.161175 -0.155539 89 166 255
0.284629 -0.487523 0.0606502 6 249 255
-0.0459889 -0.326482 0.000838081 47 208 255
0.142635 -0.487533 -0.11642 6 249 255
-0.0590061 -0.388217 0.294069 31 224 255
-0.0546415 -0.155088 0.270296 91 163 255
-0.237627 -0.487349 0.21432 6 249 255
-0.267811 -0.175577 -0.157432 85 170 255
-0.330158 -0.48681 -0.0997316 6 249 255
0.288907 -0.44619 -0.125589 16 239 255
-0.378005 -0.306006 -0.147973 52 203 255
-0.060675 -0.457319 0.0512167 13 242 255
-0.118014 -0.48789 0.107255 5 250 255
-0.477519 -0.200282 -0.160524 79 176 255
-0.323781 -0.487041 -0.0279751 6 249 255
0.17969 -0.488191 0.0420901 5 250 255
0.0252429 -0.487777 0.00744722 5 250 255
0.0731651 -0.174516 -0.15261 86 169 255
-0.453693 -0.487333 0.191916 6 249 255
-0.038802 -0.486039 0.132306 6 249 255
-0.0407133 -0.487634 0.265803 6 249 255
-0.404641 -0.195596 -0.159786 80 175 255
0.0747065 -0.48735 -0.135244 6 249 255
0.130705 -0.487986 0.261442 5 250 255
-0.503571 -0.325842 -0.149938 47 208 255
-0.465588 -0.479016 -0.131679 8 247 255
-0.240922 -0.487131 -0.10389 6 249 255
-0.246811 -0.487529 0.277163 6 249 255
-0.134407 -0.465268 -0.0139443 11 244 255
0.061771 -0.488411 0.197311 5 250 255
0.299111 -0.411837 -0.14865 25 230 255
-0.0855725 -0.487082 -0.0778663 6 249 255
-0.0484814 -0.409377 -0.161819 26 229 255
0.0117597 -0.234942 -0.161389 70 185 255
0.0553869 -0.487871 0.303684 5 250 255
-0.278574 -0.373576 -0.155538 35 220 255
0.107013 -0.487865 0.0113369 5 250 255
-0.128313 -0.393901 -0.162916 29 226 255
0.214145 -0.487161 -0.135689 6 249 255
-0.0594946 -0.299779 0.285639 54 201 255
0.300979 -0.487384 -0.00382028 6 249 255
-0.0758309 -0.487313 0.34305 6 249 255
0.276265 -0.260418 -0.151447 64 191 255
0.136041 -0.186746 -0.150137 83 172 255
0.299986 -0.387492 -0.0375322 31 224 255
0.149306 -0.469747 -0.161025 10 245 255
-0.244292 -0.436024 -0.15024 19 236 255
-0.380927 -0.487012 -0.0108088 6 249 255
-0.0649582 -0.32546 -0.163979 47 208 255
-0.200532 -0.485862 0.0748535 6 249 255
-0.353871 -0.487244 0.122777 6 249 255
-0.0032524 -0.48724 -0.115798 6 249 255
-0.0811876 -0.486686 0.167038 6 249 255
0.154775 -0.287893 -0.16186 56 198 255
