ply
format ascii 1.0
comment Created by Open3D
element vertex 1204
property double x
property double y
property double z
property uchar red
property uchar green
property uchar blue
end_header
0.256902 -0.198258 0.0990218 67 188 255
0.0829958 -0.0450918 0.189358 105 149 255
0.0793786 -0.263685 0.222284 50 205 255
0.081841 0.00637161 0.176557 120 135 255
0.119401 -0.253599 0.100912 52 202 255
0.0816968 -0.384238 0.228217 20 235 255
0.0890519 -0.146743 0.289439 80 175 255
0.175868 -0.386364 0.100663 19 236 255
0.304239 -0.0264434 0.102847 111 144 255
0.0810548 -0.198843 0.379029 67 188 255
0.0792899 -0.303067 0.133586 40 215 255
0.0839875 -0.36899 0.332538 23 232 255
0.121148 -0.0792011 0.106091 97 157 255
0.080097 -0.33058 0.253025 32 222 255
0.0827196 -0.0821278 0.334082 97 158 255
0.0835915 -0.214553 0.254276 63 192 255
0.251526 -0.281465 0.104779 46 209 255
0.0762632 -0.14658 0.125813 80 175 255
0.0835053 -0.342761 0.370951 30 225 255
0.349466 -0.314752 0.100995 36 218 255
0.160976 -0.289356 0.100586 44 211 255
0.0938607 -0.335505 0.100353 32 223 255
0.0853971 -0.0850076 0.242645 96 159 255
0.317135 -0.268109 0.100688 48 206 255
0.0767195 -0.394463 0.136539 17 238 255
0.0839017 -0.350234 0.287906 28 227 255
0.217944 -0.0918388 0.100779 94 161 255
0.149985 -0.262492 0.312468 51 204 255
0.107671 -0.184818 0.104051 71 184 255
0.327367 -0.0725318 0.108358 99 156 255
0.282906 -0.124838 0.102509 86 169 255
0.124986 -0.149992 0.237468 80 175 255
0.0793979 -0.0327205 0.282264 110 145 255
0.33524 -0.151421 0.101844 79 176 255
0.25777 -0.319462 0.0987586 36 219 255
0.08317 -0.0467833 0.337658 105 149 255
0.137486 -0.224992 0.362468 60 195 255
0.141002 -0.408579 0.101164 13 242 255
0.140722 -0.0120725 0.107672 115 140 255
0.181561 -0.341938 0.100593 30 225 255
0.08039 -0.256677 0.279836 52 203 255
0.196332 -0.268333 0.0996886 48 206 255
0.191468 -0.16514 0.0999004 76 179 255
0.0803684 -0.228327 0.322106 59 195 255
0.0884322 -0.127616 0.185644 85 170 255
0.0777004 -0.281025 0.185879 46 209 255
0.0861608 -0.287843 0.322291 44 211 255
0.25326 -0.0451273 0.0995294 105 149 255
0.0788524 -0.179746 0.2135 72 183 255
0.0789328 -0.0854425 0.152423 96 159 255
0.0862597 -0.207287 0.163719 65 190 255
0.140672 -0.153675 0.106489 79 176 255
0.0772882 -0.276248 0.107793 47 208 255
0.354611 -0.0433367 0.104035 107 147 255
0.0770358 0.0376741 0.13475 128 127 255
0.342121 -0.234592 0.102214 58 197 255
0.0778388 -0.352393 0.203277 28 227 255
0.161592 -0.233031 0.104031 58 197 255
0.218772 -0.379677 0.101486 21 234 255
0.134864 -0.107277 0.105519 89 165 255
0.0749855 -0.0124916 0.362468 115 140 255
0.121311 -0.307156 0.100418 39 216 255
0.217506 -0.0103748 0.10922 115 140 255
0.123551 -0.376704 0.101463 21 234 255
0.360156 -0.0983324 0.100416 93 162 255
0.324986 8.36777e-06 0.112468 118 137 255
0.0775966 -0.0129025 0.211476 115 140 255
0.0859907 -0.0830433 0.279277 97 158 255
0.0760252 -0.314693 0.155824 36 218 255
0.0798952 -0.252615 0.360065 52 202 255
0.17839 -0.0620992 0.0997698 102 153 255
0.0869601 -0.166763 0.325171 75 179 255
0.0774086 -0.246083 0.176809 55 200 255
0.0861199 -0.301777 0.234258 40 214 255
0.157926 -0.192263 0.103112 69 186 255
0.358321 -0.179508 0.106097 72 183 255
0.264024 -0.184121 0.105815 71 184 255
0.252484 -0.0916804 0.106755 94 161 255
0.240331 -0.242445 0.105934 56 199 255
0.0761574 -0.424462 0.127649 9 246 255
0.149985 -0.237492 0.399968 56 198 255
0.124986 -0.199992 0.149968 67 188 255
0.0889375 -0.212454 0.20692 64 191 255
0.322151 -0.321879 0.0993713 35 220 255
0.162486 -0.312492 0.362468 38 217 255
0.0804638 -0.217555 0.108567 62 193 255
0.0908204 -0.220259 0.372019 62 193 255
0.0849374 -0.114897 0.316565 88 167 255
0.0870548 -0.32159 0.300295 36 219 255
0.0757287 -0.359625 0.115489 26 229 255
0.0811394 -0.309023 0.370519 39 216 255
0.0787267 -0.0404726 0.166014 108 147 255
0.0819772 -0.155355 0.26019 78 177 255
0.272915 -0.0165456 0.101492 113 141 255
0.29951 -0.250115 0.106447 54 201 255
0.0809946 -0.269645 0.253333 48 206 255
0.187949 -0.111523 0.0999714 89 166 255
0.145031 -0.0711729 0.106232 100 155 255
0.170903 -0.0212381 0.107127 112 143 255
0.0829243 -0.0937153 0.364711 94 161 255
0.0773783 -0.103876 0.215679 91 163 255
0.238932 -0.343625 0.0991094 30 225 255
0.0767087 -0.0205781 0.117001 113 142 255
0.0769955 -0.370297 0.163891 23 232 255
0.304378 -0.0709073 0.1063 100 155 255
0.0831309 -0.204524 0.32223 65 189 255
0.0806037 0.0114059 0.203909 121 134 255
0.140756 -0.26527 0.0999186 50 205 255
0.118611 0.023265 0.0997536 124 131 255
0.244216 -0.145991 0.0991819 81 174 255
0.38902 -0.274334 0.107819 48 207 255
0.0780383 -0.398711 0.199323 16 239 255
0.0755306 -0.256409 0.145919 52 203 255
0.0841814 -0.156953 0.154693 78 177 255
0.0904189 -0.399125 0.0999326 16 239 255
0.276845 -0.216039 0.0989595 63 192 255
0.307522 -0.159362 0.0994686 77 178 255
0.0855166 -0.0437872 0.303927 107 147 255
0.0791285 -0.34562 0.237812 29 226 255
0.192221 -0.229572 0.102185 59 195 255
0.124986 -0.212492 0.237468 64 191 255
0.0844139 -0.0605151 0.211528 102 153 255
0.124986 -0.124992 0.162468 86 169 255
0.357238 -0.130809 0.101857 84 171 255
0.106314 -0.235075 0.102083 58 197 255
0.306733 -0.345525 0.104905 29 226 255
0.082035 -0.167789 0.294976 75 179 255
0.234856 -0.281317 0.104103 46 209 255
0.0850525 -0.107977 0.266573 89 165 255
0.124986 -0.337492 0.287468 32 223 255
0.0812603 -0.227433 0.269289 60 195 255
0.226269 -0.186265 0.0994252 70 185 255
0.0826004 -0.374113 0.270054 22 233 255
0.346342 -0.289834 0.100613 44 211 255
0.111902 -0.0279035 0.107904 111 144 255
0.124986 -0.237492 0.162468 56 198 255
0.325713 -0.203611 0.101017 65 189 255
0.124986 -0.349992 0.337468 28 227 255
0.0803051 -0.242936 0.223378 56 199 255
0.199209 0.0109263 0.102554 121 134 255
0.0885742 -0.263984 0.313851 50 205 255
0.20147 -0.0578697 0.106974 103 152 255
0.0749855 0.0250083 0.237468 124 131 255
0.379926 -0.169204 0.110732 75 179 255
0.0777671 -0.126209 0.140509 86 169 255
0.184824 -0.380102 0.101033 21 234 255
0.0802202 -0.280096 0.363432 46 209 255
0.143746 -0.313124 0.100564 38 217 255
0.0854685 -0.0541699 0.267496 104 151 255
0.355493 -0.24051 0.109747 56 199 255
0.0800809 0.0119048 0.163336 121 134 255
0.205696 -0.336618 0.0994856 32 223 255
0.0897625 -0.165241 0.102517 76 179 255
0.28485 -0.112601 0.107797 89 166 255
0.206016 -0.144881 0.0998157 81 174 255
0.377053 -0.0765737 0.100331 97 157 255
0.0901334 -0.17072 0.229848 73 181 255
0.0758134 -0.218728 0.151956 62 193 255
0.134963 -0.198129 0.104746 67 188 255
0.0866797 -0.355277 0.316443 27 228 255
0.124986 -0.0999916 0.249968 92 163 255
0.161797 0.0207234 0.101777 123 131 255
0.193662 -0.287801 0.100769 44 211 255
0.281173 -0.319056 0.098737 36 219 255
0.077316 -0.324896 0.178794 35 220 255
0.0815329 -0.188174 0.345166 70 185 255
0.310861 -0.0450084 0.106506 105 149 255
0.102276 -0.358806 0.0998303 26 229 255
0.244182 -0.00733712 0.09954 116 139 255
0.124986 -0.249992 0.224968 54 201 255
0.0831638 -0.136495 0.346269 83 172 255
0.0877052 -0.0630205 0.370795 102 153 255
0.0824881 -0.349145 0.361984 29 226 255
0.0847375 -0.00573205 0.231533 116 139 255
0.376577 -0.317603 0.104527 36 218 255
0.16007 -0.117554 0.105057 88 167 255
0.0749855 -0.262492 0.399968 51 204 255
0.0914934 -0.182961 0.384089 71 184 255
0.145877 -0.404911 0.10024 14 241 255
0.110207 0.0372339 0.105704 127 128 255
0.0855079 -0.295943 0.266628 42 213 255
0.325006 -0.116159 0.107199 88 167 255
0.233969 -0.228801 0.101228 59 195 255
0.0832069 -0.204371 0.290955 65 189 255
0.126086 -0.0547538 0.106076 104 151 255
0.0750637 -0.313684 0.128612 38 217 255
0.0790003 -0.136888 0.239215 83 172 255
0.0857264 -0.319998 0.323151 36 219 255
0.124986 -0.299992 0.412468 40 214 255
0.0830401 -0.286195 0.204725 44 210 255
0.137486 -0.262492 0.337468 51 204 255
0.112486 -0.449992 0.0999678 3 252 255
0.0961744 -0.101047 0.10678 92 163 255
0.0865556 -0.0694131 0.303232 100 155 255
0.227708 -0.070334 0.0999053 100 155 255
0.0783869 -0.411605 0.146609 13 242 255
0.124617 -0.153838 0.101567 79 176 255
0.278112 -0.272484 0.103484 48 207 255
0.0800257 -0.379941 0.247753 21 234 255
0.0825864 -0.0499381 0.23273 105 150 255
0.377477 -0.196074 0.110807 68 187 255
0.105149 -0.290722 0.102516 43 211 255
0.254392 -0.349395 0.101602 28 227 255
0.188972 -0.177514 0.0999722 72 183 255
0.131375 -0.343701 0.100844 30 225 255
0.0889896 -0.130612 0.307877 84 171 255
0.209624 -0.104457 0.101635 91 163 255
0.0759579 -0.185582 0.17041 70 185 255
0.332229 -0.342047 0.0998851 30 225 255
0.0811033 -0.0937659 0.169467 94 161 255
0.0805777 -0.324839 0.213543 35 220 255
0.0900348 -0.206049 0.239493 65 190 255
0.276224 -0.159503 0.102346 77 178 255
0.0755811 -0.266725 0.159066 50 205 255
0.172981 -0.250301 0.100997 54 201 255
0.287022 -0.0635025 0.0997478 102 153 255
0.0859434 -0.140776 0.1757 81 173 255
0.0806982 -0.224831 0.341489 60 195 255
0.220027 -0.0250871 0.0995692 111 144 255
0.370149 -0.0542797 0.101044 104 151 255
0.174469 -0.328214 0.100218 34 221 255
0.0869087 0.0230348 0.125529 124 131 255
0.0837008 -0.0458068 0.33693 105 149 255
0.298889 -0.225186 0.101858 60 195 255
0.412486 -0.224992 0.112468 60 195 255
0.0801841 -0.26886 0.285599 48 206 255
0.0779031 -0.399625 0.180804 16 239 255
0.0807113 0.0252774 0.177024 124 131 255
0.124986 -0.187492 0.199968 70 185 255
0.154647 -0.0232446 0.107634 112 143 255
0.0843961 -0.255679 0.1024 52 203 255
0.086098 -0.10011 0.355061 92 163 255
0.162486 -0.274992 0.312468 48 207 255
0.386723 -0.26372 0.108606 50 205 255
0.302449 -0.310914 0.0992095 38 217 255
0.105924 -0.409257 0.0993962 13 242 255
0.0792118 -0.195439 0.204285 68 187 255
0.31337 -0.188622 0.106453 70 185 255
0.124986 -0.124992 0.224968 86 169 255
0.120376 -0.114071 0.104964 89 166 255
0.0845742 -0.0940823 0.233848 94 161 255
0.0995564 -0.211594 0.101423 64 191 255
0.340773 -0.0885265 0.100657 95 160 255
0.124986 -0.162492 0.149968 76 179 255
0.0869685 -0.0266899 0.248981 111 144 255
0.2558 -0.0438877 0.0995759 107 147 255
0.0844761 -0.237493 0.376846 56 198 255
0.076161 -0.349948 0.119276 28 227 255
0.268141 -0.245159 0.103683 55 200 255
0.0822113 -0.355368 0.274257 27 228 255
0.180652 -0.0764046 0.105407 97 157 255
0.0852377 -0.117291 0.280747 88 167 255
0.0767033 -0.172147 0.124671 73 181 255
0.166932 -0.378475 0.100896 21 234 255
0.329776 -0.0389666 0.10372 108 147 255
0.162486 -0.274992 0.374968 48 207 255
0.08225 -0.277333 0.340346 47 208 255
0.0778367 -0.230077 0.185336 59 195 255
0.0763354 -0.0689176 0.170916 100 155 255
0.164596 -0.160036 0.10052 77 178 255
0.0822283 -0.161267 0.363032 77 178 255
0.0822375 -0.249729 0.253368 54 201 255
0.0788251 -0.00855581 0.105053 116 139 255
0.0783651 -0.355874 0.216603 27 228 255
0.246846 -0.322451 0.102575 35 220 255
0.308567 -0.13955 0.100516 81 173 255
0.199986 0.0375084 0.0999678 128 127 255
0.254877 -0.0919333 0.106702 94 161 255
0.21766 -0.378483 0.0998882 21 234 255
0.083035 -0.330217 0.375582 32 222 255
0.0767791 -0.363467 0.15671 25 230 255
0.222112 -0.160041 0.104919 77 178 255
0.136018 -0.244439 0.100891 55 200 255
0.0783279 -0.300597 0.247537 40 214 255
0.0890964 -0.171886 0.294217 73 181 255
0.206894 -0.259007 0.100616 52 203 255
0.346669 -0.290316 0.100671 44 211 255
0.0749855 8.36777e-06 0.324968 118 137 255
0.088954 -0.242509 0.310248 56 199 255
0.0806347 -0.28096 0.17395 46 209 255
0.083984 -0.0902414 0.322838 95 160 255
0.158674 -0.284938 0.100443 44 210 255
0.124986 -0.287492 0.287468 44 211 255
0.0777017 -0.160856 0.200373 77 178 255
0.0845919 -0.0101386 0.279755 115 140 255
0.0748336 -0.293754 0.118232 43 211 255
0.120069 -0.00415711 0.106934 117 138 255
0.362329 -0.109635 0.100265 89 165 255
0.293608 -0.351899 0.10177 28 227 255
0.086253 -0.188198 0.25424 70 185 255
0.0749855 0.0375084 0.212468 128 127 255
0.389854 -0.0763448 0.103092 97 157 255
0.357092 -0.192305 0.105515 69 186 255
0.300642 -0.096073 0.104638 93 162 255
0.19824 -0.036699 0.10044 109 146 255
0.126353 -0.379474 0.100743 21 234 255
0.162439 -0.211527 0.100289 64 191 255
0.168236 0.00391563 0.107853 119 136 255
0.235654 -0.207274 0.100981 65 190 255
0.0855776 -0.0649914 0.268236 101 154 255
0.116237 -0.0731982 0.105777 99 156 255
0.27314 -0.0200564 0.101365 113 142 255
0.237645 -0.133576 0.0994012 84 171 255
0.0818115 -0.129104 0.12446 85 170 255
0.0799042 -0.364102 0.309608 25 230 255
0.0844032 -0.134221 0.368049 84 171 255
0.0788034 -0.11967 0.227111 87 168 255
0.098469 -0.328106 0.101064 34 221 255
0.0839799 -0.025218 0.216574 111 144 255
0.0865936 -0.283066 0.373041 44 210 255
0.0799108 -0.254014 0.216492 52 202 255
0.349779 -0.239613 0.101422 56 198 255
0.0826899 -0.308011 0.280763 39 216 255
0.0843456 -0.080233 0.192256 97 158 255
0.263967 -0.170885 0.0996939 73 181 255
0.25577 -0.296653 0.104209 42 213 255
0.0973891 -0.428301 0.100391 8 247 255
0.15331 -0.124234 0.100291 86 169 255
0.0783049 -0.301884 0.333828 40 214 255
0.302744 -0.249234 0.101105 54 201 255
0.0819994 -0.0658103 0.367976 101 154 255
0.0852607 -0.0390605 0.308087 108 147 255
0.19924 -0.329311 0.100186 34 221 255
0.0758027 -0.220453 0.151548 60 194 255
0.143521 -0.186461 0.100751 70 185 255
0.137486 -0.224992 0.362468 60 195 255
0.230181 0.00332651 0.101399 119 136 255
0.0804332 -0.39276 0.208926 17 238 255
0.0876567 -0.15102 0.318599 79 176 255
0.241458 -0.361735 0.100323 25 230 255
0.0845484 0.00710747 0.187622 120 135 255
0.0763039 -0.325128 0.147513 35 220 255
0.314877 -0.288607 0.0998437 44 211 255
0.0847332 -0.3569 0.361705 27 228 255
0.367775 -0.315326 0.102248 36 218 255
0.34044 -0.136456 0.101689 83 172 255
0.324986 8.36777e-06 0.112468 118 137 255
0.124986 -0.137492 0.187468 83 172 255
0.163038 -0.404081 0.101117 14 241 255
0.163083 -0.0928018 0.102335 94 161 255
0.112266 -0.14347 0.103696 81 174 255
0.0899477 -0.22203 0.370325 60 194 255
0.0910033 -0.148852 0.24643 80 175 255
0.0784613 0.0335199 0.144975 126 129 255
0.213475 -0.192235 0.100472 69 186 255
0.133454 0.0206808 0.100214 123 131 255
0.124986 -0.249992 0.199968 54 201 255
0.0861527 -0.190914 0.165842 69 186 255
0.0765973 -0.384372 0.118397 19 236 255
0.103487 -0.272786 0.100064 48 207 255
0.0885199 -0.277814 0.228024 47 208 255
0.162486 -0.274992 0.399968 48 207 255
0.143592 -0.05401 0.101101 104 151 255
0.225515 -0.0559962 0.107054 104 151 255
0.0830868 -0.210768 0.288684 64 191 255
0.0823683 -0.355577 0.170524 27 228 255
0.0867129 -0.124538 0.178745 86 169 255
0.286218 -0.125566 0.102624 86 169 255
0.301688 -0.0285895 0.102507 111 144 255
0.0803054 -0.332784 0.24496 32 222 255
0.133579 -0.324385 0.100675 35 220 255
0.0820081 -0.179388 0.378506 72 183 255
0.10592 -0.179804 0.103881 72 183 255
0.194616 -0.116533 0.0999665 88 167 255
0.124986 -0.174992 0.237468 73 182 255
0.0779412 -0.327677 0.201576 34 221 255
0.302786 -0.202717 0.102323 65 189 255
0.216976 -0.237864 0.100002 56 198 255
0.0857374 -0.097344 0.301891 93 162 255
0.0814049 -0.188111 0.325214 70 185 255
0.113739 -0.224061 0.104362 60 194 255
0.0816662 -0.341867 0.303579 30 225 255
0.238142 -0.0929479 0.100051 94 161 255
0.179512 -0.296046 0.101303 42 213 255
0.253959 -0.260438 0.102639 51 204 255
0.183659 -0.363381 0.100303 25 230 255
0.350441 -0.0738826 0.101218 99 156 255
0.0804391 -0.209543 0.211805 64 191 255
0.328938 -0.327931 0.0988608 34 221 255
0.186178 0.00386965 0.100133 119 136 255
0.0876025 -0.0787193 0.251495 97 157 255
0.0760907 -0.411126 0.125218 13 242 255
0.0801068 -0.266376 0.297061 50 205 255
0.329786 -0.162111 0.100302 76 179 255
0.0786097 -0.162197 0.221496 76 179 255
0.0768856 -0.0175454 0.119677 113 142 255
0.082733 -0.253364 0.168217 52 202 255
0.0815066 -0.325442 0.345313 35 220 255
0.0779596 -0.399865 0.178058 16 239 255
0.136447 -0.280792 0.10026 46 209 255
0.0820051 -0.24236 0.335808 56 199 255
0.373091 -0.292692 0.103014 43 211 255
0.0774666 -0.297585 0.164274 42 213 255
0.174016 -0.156673 0.103851 78 177 255
0.124986 -0.0749916 0.137468 99 156 255
0.0825867 -0.373881 0.269753 22 233 255
0.0793699 -0.186896 0.127637 70 185 255
0.255722 -0.220999 0.102274 60 194 255
0.0839087 -0.0550713 0.222295 104 151 255
0.363911 -0.0435813 0.104931 107 147 255
0.227077 -0.329892 0.10078 32 222 255
0.179504 -0.220225 0.100243 62 193 255
0.109124 0.0381858 0.103765 128 127 255
0.170743 -0.061368 0.0997683 102 153 255
0.0761176 -0.242971 0.130376 56 199 255
0.119503 -0.400961 0.100036 15 240 255
0.084043 -0.15005 0.281708 79 176 255
0.0828451 -0.104349 0.348084 91 163 255
0.288706 -0.0855404 0.103239 96 159 255
0.0817486 -0.02981 0.299749 110 145 255
0.330901 -0.21657 0.102079 62 193 255
0.0893018 -0.358147 0.0996607 26 229 255
0.124986 -0.112492 0.162468 89 166 255
0.412486 -0.312492 0.0999678 38 217 255
0.273925 -0.29134 0.10413 43 211 255
0.0779743 -0.10932 0.196964 89 165 255
0.137486 -0.299992 0.412468 40 214 255
0.0842873 -0.0084685 0.249834 116 139 255
0.227886 -0.008406 0.109811 116 139 255
0.0810676 -0.237331 0.275619 56 198 255
0.105109 -0.1037 0.104235 91 163 255
0.157441 -0.255131 0.101608 52 202 255
0.0767836 -0.160459 0.170359 77 178 255
0.211046 -0.158264 0.105604 77 178 255
0.0901705 -0.0604129 0.354488 102 153 255
0.0779029 -0.373715 0.236394 22 233 255
0.0848976 -0.113806 0.262018 89 166 255
0.203256 -0.0843304 0.102043 96 159 255
0.0814351 -0.300968 0.368991 40 214 255
0.381646 -0.0903665 0.102459 95 160 255
0.26455 -0.154253 0.0993421 78 177 255
0.146607 -0.0171922 0.107837 113 142 255
0.27252 -0.0403693 0.0999319 108 147 255
0.0802841 -0.292489 0.133734 43 211 255
0.343956 -0.271277 0.102902 48 207 255
0.0837523 -0.149377 0.33275 80 175 255
0.0749855 0.0500084 0.174968 131 124 255
0.0816078 -0.0511031 0.173063 105 150 255
0.0779644 -0.35932 0.197019 26 229 255
0.0830453 -0.365432 0.323733 24 231 255
0.14475 -0.378411 0.100782 21 234 255
0.0792458 -0.301192 0.212766 40 214 255
0.124986 -0.212492 0.187468 64 191 255
0.399985 -0.0374916 0.112468 108 147 255
0.0879201 -0.29659 0.295652 42 213 255
0.149985 0.0500084 0.0999678 131 124 255
0.0898255 -0.212297 0.237344 64 191 255
0.079405 -0.121774 0.160487 87 168 255
0.229505 -0.270792 0.103659 48 206 255
0.162486 -0.274992 0.324968 48 207 255
0.0842182 0.00164159 0.205679 118 137 255
0.0801698 -0.250832 0.37428 54 201 255
0.0811275 -0.197055 0.364467 67 188 255
0.327731 -0.055041 0.102983 104 151 255
0.103332 0.000300852 0.0992431 118 137 255
0.127325 -0.207192 0.105891 65 190 255
0.104161 -0.312247 0.101422 38 217 255
0.0918594 -0.177664 0.266541 72 183 255
0.412486 -0.249992 0.112468 54 201 255
0.124986 -0.349992 0.337468 28 227 255
0.24738 -0.180115 0.106293 72 183 255
0.132842 -0.159282 0.106163 77 178 255
0.170286 -0.312986 0.100387 38 217 255
0.0828464 -0.0716235 0.330797 100 155 255
0.145805 -0.106871 0.100094 91 163 255
0.0789866 -0.265548 0.204893 50 205 255
0.329416 -0.11667 0.100288 88 167 255
0.194319 -0.259328 0.09969 52 203 255
0.293871 -0.321567 0.0990402 36 219 255
0.357941 -0.235706 0.10336 58 197 255
0.0878027 -0.275656 0.258767 47 208 255
0.0897106 -0.151158 0.104952 79 176 255
0.274659 -0.216871 0.0991597 62 193 255
0.0832167 -0.160033 0.379361 77 178 255
0.0845225 -0.0773447 0.209382 97 157 255
0.298277 -0.270465 0.105687 48 206 255
0.124986 -0.237492 0.237468 56 198 255
0.0872124 -0.0401705 0.2667 108 147 255
0.193951 -0.0252513 0.101142 111 144 255
0.109222 -0.0330798 0.103183 109 146 255
0.318635 -0.185301 0.107619 70 185 255
0.223457 -0.366149 0.101025 24 231 255
0.0796825 0.0302328 0.153348 126 129 255
0.121246 -0.353637 0.100531 27 228 255
0.0868609 -0.213369 0.173692 63 192 255
0.152682 0.0220868 0.104493 124 131 255
0.110859 -0.249263 0.102534 54 201 255
0.0765633 -0.376402 0.146347 22 233 255
0.350155 -0.318232 0.10134 36 219 255
0.0785818 -0.0759365 0.16064 97 157 255
0.0894961 -0.194542 0.294072 68 187 255
0.124986 -0.124992 0.237468 86 169 255
0.0770813 -0.3282 0.171509 34 221 255
0.212361 -0.125522 0.100687 86 169 255
0.187495 -0.381161 0.100596 20 235 255
0.188944 -0.176762 0.0999724 73 182 255
0.0873108 -0.0922958 0.281989 94 161 255
0.0857145 -0.287783 0.323735 44 211 255
0.275718 -0.0944947 0.100358 94 161 255
0.303196 -0.142387 0.104488 81 174 255
0.0864016 0.0203393 0.100006 123 131 255
0.078847 -0.348389 0.347696 29 226 255
0.317432 -0.346548 0.0995139 29 226 255
0.0799965 -0.340421 0.236544 31 224 255
0.0849853 -0.128791 0.306507 85 170 255
0.115497 -0.0763011 0.104915 97 157 255
0.0887385 -0.173307 0.220003 73 181 255
0.0851936 -0.0113188 0.28919 115 140 255
0.124986 -0.199992 0.149968 67 188 255
0.151301 -0.403772 0.100154 15 240 255
0.0768055 -0.41529 0.136088 12 243 255
0.195414 -0.0552066 0.106936 104 151 255
0.0808015 -0.247305 0.230059 55 200 255
0.341188 -0.164856 0.105552 76 179 255
0.081028 -0.199165 0.116573 67 188 255
0.085153 -0.166483 0.16983 75 179 255
0.0845931 -0.126355 0.35277 86 169 255
0.0854 -0.122287 0.20541 87 168 255
0.0805872 -0.22784 0.338043 60 195 255
0.075697 -0.275099 0.159586 47 208 255
0.0791901 -0.401301 0.195049 15 240 255
0.143909 -0.230804 0.100458 59 195 255
0.288393 -0.0470525 0.0999307 105 149 255
0.0923142 -0.223279 0.277653 60 194 255
0.0834293 -0.0774243 0.369077 97 157 255
0.251963 -0.344858 0.101325 30 225 255
0.163343 -0.146664 0.103711 80 175 255
0.319737 -0.0849269 0.103912 96 159 255
0.0855569 -0.0164218 0.216545 113 141 255
0.0837527 -0.136598 0.260158 83 172 255
0.381246 -0.311648 0.10525 38 217 255
0.092054 -0.11032 0.108832 89 165 255
0.321506 -0.293754 0.100031 43 211 255
0.374495 -0.0513408 0.107577 105 150 255
0.181584 -0.333905 0.0998993 32 223 255
0.0833737 -0.0484507 0.326503 105 150 255
0.098787 -0.425371 0.110592 9 246 255
0.0866012 -0.0589481 0.246551 103 152 255
0.0834134 -0.301266 0.373419 40 214 255
0.175433 -0.208685 0.100297 64 191 255
0.0761172 -0.247442 0.131675 55 200 255
0.0793172 -0.33032 0.113141 32 222 255
0.238751 -0.0963336 0.100212 93 162 255
0.198131 0.00959811 0.102554 120 135 255
0.0810276 -0.193923 0.333782 68 187 255
0.0886968 -0.221226 0.205437 60 194 255
0.375953 -0.0942509 0.102251 94 161 255
0.234705 -0.143687 0.0993245 81 174 255
0.109734 -0.289344 0.102034 44 211 255
0.271043 -0.249704 0.103384 54 201 255
0.246425 -0.0412179 0.0996631 107 147 255
0.083499 -0.256585 0.330737 52 203 255
0.0767246 -0.16147 0.120222 77 178 255
0.161996 -0.0419003 0.102416 107 147 255
0.0871386 -0.314174 0.302859 36 218 255
0.0856274 -0.379049 0.101032 21 234 255
0.131474 -0.330032 0.100708 32 222 255
0.0777064 -0.280799 0.186044 46 209 255
0.263564 -0.303286 0.10414 40 215 255
0.084789 -0.0663509 0.193141 101 154 255
0.131865 -0.13464 0.102126 83 172 255
0.0776098 -0.365335 0.255232 24 231 255
0.273916 -0.195681 0.100539 68 187 255
0.0749855 0.0625084 0.124968 134 121 255
0.0807633 -0.0166431 0.122213 113 141 255
0.0780572 -0.296909 0.23697 42 213 255
0.137486 -0.224992 0.362468 60 195 255
0.0749855 8.36777e-06 0.324968 118 137 255
0.184257 -0.287446 0.100081 44 211 255
0.32478 -0.04147 0.103005 107 147 255
0.174633 -0.0985309 0.100914 93 162 255
0.0849765 -0.0897663 0.241271 95 160 255
0.198953 -0.24117 0.0997731 56 199 255
0.0809304 0.0237225 0.178639 124 131 255
0.148163 -0.187962 0.101438 70 185 255
0.0819112 -0.333184 0.367827 32 222 255
0.345979 -0.255153 0.103145 52 202 255
0.0850802 -0.106838 0.317727 91 163 255
0.138888 -0.00736089 0.107005 116 139 255
0.0808055 -0.269088 0.371165 48 206 255
0.124986 -0.287492 0.287468 44 211 255
0.0820467 -0.34804 0.299651 29 226 255
0.21752 -0.0187085 0.109288 113 142 255
0.0769334 -0.334635 0.157663 32 223 255
0.321388 -0.213195 0.10837 63 192 255
0.146203 -0.291702 0.103387 43 211 255
0.0788506 -0.0129557 0.247349 115 140 255
0.162486 -0.299992 0.362468 40 214 255
0.0912563 -0.181113 0.255701 72 183 255
0.25856 -0.123023 0.102021 86 169 255
0.0956017 -0.221848 0.102104 60 194 255
0.241181 -0.210197 0.101387 64 191 255
0.0847117 -0.231587 0.175098 59 195 255
0.0857751 -0.0680298 0.309704 100 155 255
0.112486 -0.449992 0.0999678 3 252 255
0.140857 -0.066357 0.106136 101 154 255
0.0774603 -0.374014 0.173901 22 233 255
0.0827917 -0.158395 0.353506 77 178 255
0.211145 -0.353499 0.100458 27 228 255
0.0813287 -0.0999665 0.173318 92 163 255
0.085037 -0.157049 0.196449 78 177 255
0.118257 0.0302367 0.107282 126 129 255
0.0801994 -0.248523 0.294348 54 201 255
0.269992 -0.0229865 0.101191 112 143 255
0.32599 -0.125829 0.107066 86 169 255
0.250336 -0.279593 0.104732 46 209 255
0.0749855 0.0375084 0.212468 128 127 255
0.0810329 -0.220052 0.362597 62 193 255
0.324986 8.36777e-06 0.112468 118 137 255
0.124986 -0.162492 0.149968 76 179 255
0.127683 -0.370493 0.101122 23 232 255
0.2248 -0.0760273 0.0999421 97 157 255
0.303667 -0.169762 0.103071 73 181 255
0.0825939 -0.179251 0.302328 72 183 255
0.0835375 -0.303786 0.276572 40 215 255
0.124986 -0.299992 0.412468 40 214 255
0.35606 -0.280935 0.103952 46 209 255
0.200559 -0.18123 0.0999072 72 183 255
0.077863 -0.35219 0.200071 28 227 255
0.124986 -0.249992 0.187468 54 201 255
0.193646 -0.132408 0.103968 84 171 255
0.297352 -0.245708 0.10134 55 200 255
0.0765143 -0.299557 0.106745 40 214 255
0.164385 0.0191244 0.101689 123 131 255
0.0831767 -0.187557 0.149402 70 185 255
0.0818508 -0.132203 0.113839 84 171 255
0.0775893 0.035595 0.137121 127 128 255
0.412486 -0.324992 0.112468 35 220 255
0.133762 -0.261104 0.100313 51 204 255
0.0868407 -0.251267 0.249504 54 201 255
0.0855049 -0.0511744 0.278076 105 150 255
0.0776704 -0.00766311 0.205538 116 139 255
0.282415 -0.106947 0.108296 91 163 255
0.0764127 -0.356284 0.129593 27 228 255
0.124986 -0.262492 0.312468 51 204 255
0.0811199 -0.200902 0.223516 65 189 255
0.124986 -0.149992 0.224968 80 175 255
0.346292 -0.178737 0.10531 72 183 255
0.0851199 -0.117726 0.275335 88 167 255
0.17374 -0.371069 0.100895 23 232 255
0.112911 -0.187364 0.102629 70 185 255
0.17859 -0.0199322 0.106006 113 142 255
0.0830911 -0.0548966 0.354731 104 151 255
0.0769456 -0.329636 0.325877 34 221 255
0.0872525 -0.275195 0.215472 47 208 255
0.124986 -0.237492 0.149968 56 198 255
0.328858 -0.329074 0.104951 34 221 255
0.240795 -0.35847 0.10151 26 229 255
0.30421 -0.0669762 0.106215 101 154 255
0.128669 -0.400961 0.100153 15 240 255
0.263659 -0.171943 0.0997515 73 181 255
0.358047 -0.0933831 0.100536 94 161 255
0.0860682 -0.109134 0.232437 89 165 255
0.242862 -0.252778 0.105484 52 202 255
0.0946876 -0.254644 0.101166 52 202 255
0.124941 -0.0455023 0.103408 105 149 255
0.080705 -0.393931 0.199605 17 238 255
0.0867154 -0.0429173 0.233114 107 147 255
0.0846336 -0.144952 0.168578 81 174 255
0.0803696 -0.291372 0.330324 43 211 255
0.0757047 -0.307425 0.15064 39 216 255
0.0764127 -0.215698 0.137047 63 192 255
0.15027 -0.0980752 0.103255 93 162 255
0.149985 -0.274992 0.412468 48 207 255
0.124986 -0.349992 0.299968 28 227 255
0.162495 -0.253382 0.100689 52 202 255
0.0877536 -0.148689 0.378646 80 175 255
0.0760529 -0.413176 0.124185 12 243 255
0.307944 -0.293788 0.0995678 43 211 255
0.237486 0.0250083 0.112468 124 131 255
0.124986 -0.187492 0.187468 70 185 255
0.348439 -0.226838 0.10347 60 195 255
0.220598 -0.0571776 0.107022 103 152 255
0.378528 -0.0627638 0.100612 102 153 255
0.0829573 -0.317225 0.245235 36 218 255
0.382417 -0.301547 0.104366 40 214 255
0.082338 -0.372725 0.265223 22 233 255
0.261385 -0.325176 0.101024 35 220 255
0.081956 -0.165999 0.246296 75 179 255
0.0794926 -0.0180013 0.105536 113 142 255
0.193959 -0.329093 0.101245 34 221 255
0.156481 -0.168572 0.100459 75 179 255
0.187284 -0.0878007 0.102295 95 160 255
0.299102 -0.214284 0.105869 63 192 255
0.124986 -0.112492 0.162468 89 166 255
0.0749855 0.0125084 0.287468 121 134 255
0.124986 -0.199992 0.237468 67 188 255
0.0793584 -0.332863 0.193686 32 222 255
0.220633 -0.00499098 0.0998967 117 138 255
0.0847659 -0.136018 0.305603 83 172 255
0.0829081 -0.089206 0.359765 95 160 255
0.0842639 -0.336594 0.373442 32 223 255
0.0838425 -0.0927368 0.205662 94 161 255
0.13691 -0.320259 0.100745 36 219 255
0.197892 -0.266486 0.102238 50 205 255
0.0793903 -0.234388 0.195344 58 197 255
0.14947 -0.216926 0.106643 62 193 255
0.0888111 -0.0813173 0.266712 97 158 255
0.122543 -0.08505 0.102121 96 159 255
0.346853 -0.128023 0.101048 85 170 255
0.0793301 -0.361624 0.226714 25 230 255
0.0839038 -0.17391 0.321966 73 182 255
0.0799586 -0.249586 0.316405 54 201 255
0.0800489 -0.286455 0.141206 44 210 255
0.225233 -0.109893 0.101327 89 165 255
0.0850495 -0.0364572 0.303665 109 146 255
0.267914 -0.149269 0.102132 80 175 255
0.0802594 0.0280784 0.159094 125 130 255
0.293952 -0.0344513 0.101443 109 146 255
0.0770629 -0.16958 0.136124 73 181 255
0.0796492 -0.249619 0.362134 54 201 255
0.0809513 -0.183098 0.198232 71 184 255
0.109348 -0.138092 0.105201 83 172 255
0.0880048 -0.26659 0.260409 50 205 255
0.0799913 -0.356571 0.328879 27 228 255
0.22804 -0.172416 0.100317 73 181 255
0.0814269 -0.0770463 0.16722 97 157 255
0.0903751 -0.20922 0.246408 64 191 255
0.0844582 0.00808941 0.112063 120 135 255
0.161367 -0.123695 0.100303 86 169 255
0.289292 -0.268374 0.0992475 48 206 255
0.299374 -0.129774 0.105453 85 170 255
0.080739 0.0134613 0.19908 121 134 255
0.0777011 -0.383213 0.160542 20 235 255
0.162671 -0.389601 0.100137 18 237 255
0.295657 -0.326947 0.100071 34 221 255
0.0820921 -0.252889 0.161005 52 202 255
0.226275 -0.240003 0.100766 56 199 255
0.0834698 -0.0598765 0.198766 103 152 255
0.0813098 -0.360137 0.289747 26 229 255
0.32771 -0.0424881 0.103719 107 147 255
0.0855068 -0.132862 0.207312 84 171 255
0.0787538 -0.305804 0.216798 40 215 255
0.102497 -0.381992 0.102284 20 235 255
0.0877969 -0.149356 0.266116 80 175 255
0.381181 -0.0907187 0.10245 95 160 255
0.0883612 -0.287167 0.291221 44 211 255
0.346238 -0.319516 0.100881 36 219 255
0.163394 0.0193704 0.101799 123 131 255
0.0887821 -0.172398 0.354092 73 181 255
0.083661 -0.334769 0.105613 32 223 255
0.33287 -0.193249 0.101074 68 187 255
0.0858258 -0.103828 0.312109 91 163 255
0.171042 -0.31389 0.100393 38 217 255
0.0762178 -0.189828 0.16953 69 186 255
0.103727 -0.170166 0.101826 73 181 255
0.245665 -0.201163 0.105126 65 189 255
0.120828 -0.279657 0.103027 46 209 255
0.0804344 -0.30832 0.351376 39 216 255
0.329061 -0.277666 0.100703 47 208 255
0.267277 -0.0911519 0.101578 95 160 255
0.0804 -0.114498 0.16851 89 166 255
0.326614 -0.0853653 0.103292 96 159 255
0.167221 -0.0406878 0.102068 107 147 255
0.248088 -0.0308715 0.105653 110 145 255
0.0828001 -0.272627 0.18721 48 207 255
0.0978584 -0.42161 0.0997955 10 245 255
0.176381 -0.21352 0.100298 63 192 255
0.198785 -0.366616 0.100218 24 231 255
0.0863883 -0.193885 0.307485 68 187 255
0.124986 -0.124992 0.199968 86 169 255
0.0853726 -0.0170689 0.260869 113 141 255
0.0901973 -0.0662158 0.361499 101 154 255
0.0771134 -0.137397 0.129479 83 172 255
0.313037 -0.156187 0.099657 78 177 255
0.0757359 -0.279427 0.119799 46 209 255
0.0967121 -0.22838 0.102052 59 195 255
0.194646 -0.180577 0.103919 72 183 255
0.0794471 -0.275064 0.243037 47 208 255
0.113957 -0.0307855 0.104611 110 145 255
0.191722 -0.13087 0.100159 84 171 255
0.149985 -0.249992 0.374968 54 201 255
0.0844532 -0.130093 0.343822 85 170 255
0.0769459 -0.3403 0.167331 31 224 255
0.0800235 -0.376582 0.245853 21 234 255
0.0890257 -0.232651 0.255902 58 197 255
0.248624 -0.285696 0.102405 44 210 255
0.359905 -0.0505302 0.103352 105 150 255
0.27711 -0.229173 0.100895 59 195 255
0.123242 -0.112752 0.102031 89 166 255
0.184855 -0.291307 0.100936 43 211 255
0.0861364 -0.233475 0.326768 58 197 255
0.0855523 -0.0544573 0.226509 104 151 255
0.279309 -0.0561538 0.100348 104 151 255
0.115244 -0.314258 0.101571 36 218 255
0.150526 -0.404373 0.100351 14 241 255
0.162486 -0.312492 0.387468 38 217 255
0.147596 -0.0144498 0.107842 113 141 255
0.0834593 -0.072478 0.325877 99 156 255
0.117697 0.0332383 0.10267 126 129 255
0.126929 -0.201976 0.105512 65 189 255
0.081667 -0.00235327 0.193165 117 138 255
0.226187 -0.343245 0.0991848 30 225 255
0.379363 -0.314066 0.104025 36 218 255
0.219141 -0.0437779 0.0997697 107 147 255
0.0835156 -0.267044 0.356395 50 205 255
0.0870034 -0.0909449 0.283326 95 160 255
0.112486 -0.0749916 0.149968 99 156 255
0.0774223 -0.152663 0.18668 79 176 255
0.0844364 -0.213142 0.155586 63 192 255
0.179657 -0.242532 0.101542 56 199 255
0.319246 -0.335592 0.104928 32 223 255
0.118162 -0.358781 0.100932 26 229 255
0.0823774 -0.200029 0.338833 67 188 255
0.0795622 -0.333719 0.214619 32 223 255
0.354279 -0.119776 0.100538 87 168 255
0.253571 -0.133007 0.102297 84 171 255
0.285506 -0.302894 0.104613 40 215 255
0.0788826 -0.348149 0.34418 29 226 255
0.0834361 -0.163915 0.297483 76 179 255
0.0874855 0.0625084 0.0999678 134 121 255
0.0877265 -0.156928 0.223296 78 177 255
0.125336 -0.159943 0.105934 77 178 255
0.0756219 -0.314792 0.142279 36 218 255
0.274985 0.0125084 0.112468 121 134 255
0.0837012 -0.0438869 0.292506 107 147 255
0.0884278 -0.254429 0.224648 52 202 255
0.0846589 -0.299579 0.2701 40 214 255
0.352962 -0.246134 0.102873 55 200 255
0.0814004 -0.239009 0.290029 56 198 255
0.216316 -0.151324 0.105068 79 176 255
0.137486 -0.262492 0.412468 51 204 255
0.0764254 -0.376812 0.125688 21 234 255
0.0844035 -0.103093 0.237204 92 163 255
0.124986 -0.212492 0.199968 64 191 255
0.209181 -0.0756999 0.100302 99 156 255
0.343041 -0.205094 0.103696 65 190 255
0.0827521 -0.326458 0.373584 34 221 255
0.0825435 -0.208864 0.228914 64 191 255
0.0815188 0.0168945 0.165158 121 133 255
0.0922817 -0.262995 0.111912 51 204 255
0.162486 -0.287492 0.362468 44 211 255
0.0855158 -0.106873 0.343323 91 163 255
0.0793558 -0.304503 0.308585 40 215 255
0.188851 0.00125953 0.100409 118 137 255
0.161869 -0.170578 0.100489 73 181 255
0.149452 -0.0845615 0.102849 96 159 255
0.0832182 -0.050999 0.338851 105 150 255
0.247635 -0.240338 0.103434 56 199 255
0.0899692 -0.120164 0.108763 87 168 255
0.331439 -0.151773 0.102127 79 176 255
0.0769037 -0.23443 0.167155 58 197 255
0.137486 -0.224992 0.362468 60 195 255
0.296135 -0.0975634 0.104122 93 162 255
0.0808601 -0.356734 0.263223 27 228 255
0.303008 -0.202819 0.102312 65 189 255
0.0853662 -0.0140412 0.22288 113 141 255
0.0762055 -0.419224 0.117895 11 244 255
0.16542 -0.269394 0.100628 48 206 255
0.0780821 -0.371615 0.184016 23 232 255
0.0824943 -0.168541 0.371681 75 179 255
0.117612 -0.401103 0.100096 15 240 255
0.125435 -0.0586268 0.102097 103 152 255
0.0779466 -0.0891916 0.172023 95 160 255
0.0877562 -0.273429 0.311072 48 207 255
0.143269 -0.130219 0.106373 85 170 255
0.356512 -0.287491 0.104467 44 211 255
0.0809046 -0.285091 0.197465 44 210 255
0.135747 -0.222676 0.106781 60 194 255
0.149985 0.0500084 0.0999678 131 124 255
0.304577 -0.261726 0.104094 51 204 255
0.350101 -0.0781278 0.101095 97 157 255
0.266275 -0.179606 0.102813 72 183 255
0.189878 -0.345827 0.100203 29 226 255
0.0856763 -0.0628331 0.250557 102 153 255
0.264737 -0.314112 0.103261 36 218 255
0.195761 -0.104446 0.102513 91 163 255
0.0844579 -0.193634 0.195523 68 187 255
0.124986 -0.137492 0.149968 83 172 255
0.0912179 -0.194218 0.258975 68 187 255
0.0837057 -0.149304 0.335734 80 175 255
0.399985 -0.0374916 0.0999678 108 147 255
0.237826 -0.206222 0.101093 65 190 255
0.0794702 -0.242645 0.364353 56 199 255
0.0832113 -0.147604 0.259481 80 175 255
0.0828125 -0.193966 0.117741 68 187 255
0.124986 -0.112492 0.237468 89 166 255
0.0768524 -0.358348 0.150396 26 229 255
0.0833343 -0.0594551 0.197982 103 152 255
0.081993 0.0226264 0.140021 124 131 255
0.236883 -0.10035 0.100435 92 163 255
0.0749855 -0.0124916 0.349968 115 140 255
0.0795826 -0.231914 0.198262 59 195 255
0.0811819 -0.323076 0.24045 35 220 255
0.137486 -0.324992 0.399968 35 220 255
0.100272 -0.0232292 0.102077 112 143 255
0.134622 -0.315449 0.104306 36 218 255
0.171804 -0.0445474 0.101709 105 149 255
0.266007 -0.0313887 0.100618 110 145 255
0.221301 -0.253492 0.10066 52 202 255
0.292584 -0.127248 0.102977 85 170 255
0.387378 -0.0718348 0.1031 100 155 255
0.0799225 -0.12697 0.165408 85 170 255
0.1858 -0.376865 0.100953 21 234 255
0.124986 -0.349992 0.299968 28 227 255
0.112486 -0.449992 0.0999678 3 252 255
0.0809349 -0.29095 0.35974 43 211 255
0.0850214 -0.11146 0.269038 89 166 255
0.0813239 -0.0309916 0.257074 110 145 255
0.0988568 -0.284573 0.100761 44 210 255
0.306796 -0.0476091 0.106006 105 149 255
0.132373 0.00167403 0.104568 118 137 255
0.0782929 -0.357738 0.220184 26 229 255
0.241191 -0.341502 0.102852 30 225 255
0.0749855 0.0375084 0.212468 128 127 255
0.211734 -0.0421883 0.107786 107 147 255
0.33843 -0.168778 0.101495 75 179 255
0.0784024 -0.167744 0.111216 75 179 255
0.076964 -0.325589 0.114313 35 220 255
0.32235 -0.104705 0.103676 91 163 255
0.319651 -0.296445 0.103967 42 213 255
0.124986 -0.174992 0.237468 73 182 255
0.412486 -0.312492 0.0999678 38 217 255
0.0849831 -0.129344 0.304869 85 170 255
0.0749855 0.0125084 0.287468 121 134 255
0.235339 -0.164734 0.103865 76 179 255
0.0819073 -0.362007 0.293877 25 230 255
0.167762 0.0159621 0.10618 121 133 255
0.0813232 -0.239359 0.133312 56 198 255
0.0885881 -0.220399 0.287142 60 194 255
0.252811 -0.27584 0.104353 47 208 255
0.0872949 -0.0672479 0.367739 101 154 255
0.184191 -0.160704 0.100243 77 178 255
0.124986 -0.174992 0.174968 73 182 255
0.0827153 -0.122907 0.208006 86 169 255
0.141091 -0.276067 0.102944 47 208 255
0.0773097 -0.306361 0.32809 39 216 255
0.168821 -0.11931 0.100183 87 168 255
0.174461 -0.320526 0.100595 36 219 255
0.237486 0.0250083 0.112468 124 131 255
0.124986 -0.262492 0.337468 51 204 255
0.197204 -0.26929 0.101549 48 206 255
0.314737 -0.340302 0.103378 31 224 255
0.0886888 -0.247102 0.263589 55 200 255
0.0822609 -0.188753 0.342107 70 185 255
0.0814833 -0.169056 0.236405 75 179 255
0.0770933 -0.163548 0.178365 76 179 255
0.16126 -0.236113 0.100468 56 198 255
0.080407 -0.402832 0.104636 15 240 255
0.277681 -0.23477 0.102536 58 197 255
0.0793411 -0.0699547 0.165246 100 155 255
0.104611 -0.237033 0.101946 56 198 255
0.0777497 -0.266667 0.182216 50 205 255
0.124986 -0.224992 0.237468 60 195 255
0.304213 -0.166726 0.103606 75 179 255
0.0854262 -0.0461976 0.294405 105 149 255
0.158821 -0.391123 0.101444 18 237 255
0.301302 -0.0759896 0.102859 97 157 255
0.0769966 -0.332962 0.169502 32 222 255
0.131941 -0.178267 0.105813 72 183 255
0.0828799 -0.342488 0.362174 30 225 255
0.0858911 -0.088415 0.310002 95 160 255
0.0811826 0.0148836 0.196157 121 133 255
0.22342 -0.115447 0.102126 88 167 255
0.158122 -0.058246 0.100465 103 152 255
0.124986 -0.212492 0.149968 64 191 255
0.0823496 -0.29079 0.261574 43 211 255
0.333952 -0.218616 0.104761 62 193 255
0.194271 -0.0197971 0.10415 113 142 255
0.0824211 -0.182116 0.299221 71 184 255
0.367001 -0.294019 0.105314 43 211 255
0.0835954 -0.0913151 0.19477 95 160 255
0.0809757 -0.22912 0.344465 59 195 255
0.269699 -0.154897 0.102613 78 177 255
0.162486 -0.287492 0.399968 44 211 255
0.120053 -0.0651392 0.105031 101 154 255
0.0833526 -0.305 0.223654 40 215 255
0.080202 -0.0142819 0.117791 113 141 255
0.0829242 -0.357917 0.330366 26 229 255
0.204244 -0.33533 0.100161 32 223 255
0.246303 -0.0319429 0.105693 110 145 255
0.0757115 -0.290748 0.150042 43 211 255
0.0769965 -0.18072 0.139894 72 183 255
0.08626 -0.271326 0.365808 48 207 255
0.0807625 -0.355361 0.118822 27 228 255
0.130954 0.0274342 0.102625 125 130 255
0.104586 -0.130245 0.104718 85 170 255
0.0859012 -0.0173741 0.271899 113 142 255
0.0855589 -0.0802201 0.253306 97 158 255
0.0993539 -0.208458 0.102267 65 190 255
0.124986 -0.137492 0.187468 83 172 255
0.0800537 -0.255828 0.30034 52 203 255
0.0840867 -0.217029 0.236351 62 193 255
0.353833 -0.0702568 0.101669 100 155 255
0.0827392 -0.128283 0.244383 85 170 255
0.279823 -0.306057 0.0987474 40 215 255
0.151677 -0.197676 0.103359 67 188 255
0.210527 -0.0710055 0.105464 100 155 255
0.11576 -0.315899 0.101347 36 218 255
0.0850371 -0.0886546 0.345965 95 160 255
0.280785 -0.0950244 0.100843 94 161 255
0.0827266 -0.368119 0.276252 24 231 255
0.0866458 -0.239094 0.194431 56 198 255
0.0861207 -0.151726 0.300435 79 176 255
0.0778186 -0.336366 0.196084 32 223 255
0.325198 -0.121251 0.10707 87 168 255
0.275694 -0.203405 0.101279 65 189 255
0.206628 -0.158787 0.0997819 77 178 255
0.216832 -0.243156 0.100393 56 199 255
0.137011 -0.382825 0.100746 20 235 255
0.0828097 -0.0515424 0.233384 105 150 255
0.159614 -0.0904454 0.101713 95 160 255
0.0768604 -0.371084 0.155431 23 232 255
0.0837165 -0.0507684 0.321201 105 150 255
0.0761841 -0.261157 0.137983 51 204 255
0.0837282 -0.144811 0.362808 81 174 255
0.244673 -0.349157 0.100746 29 226 255
0.344545 -0.310227 0.101155 38 217 255
0.124986 -0.274992 0.287468 48 207 255
0.299837 -0.263904 0.100841 50 205 255
0.0798627 -0.200152 0.190317 67 188 255
0.154754 -0.148321 0.101718 80 175 255
0.0836623 -0.327502 0.325363 34 221 255
0.112486 -0.0874916 0.399968 96 159 255
0.251425 -0.120596 0.101683 87 168 255
0.3794 -0.0552587 0.104414 104 151 255
0.0819512 0.0291385 0.140873 125 130 255
0.112821 -0.414059 0.100592 12 243 255
0.120877 -0.2743 0.103329 48 207 255
0.0854322 -0.0170992 0.232837 113 141 255
0.16525 -0.0119585 0.107238 115 140 255
0.0916616 -0.191801 0.266549 69 186 255
0.283978 -0.0450995 0.0998783 105 149 255
0.31609 -0.212829 0.101652 63 192 255
0.086864 -0.0922836 0.286993 94 161 255
0.248357 -0.285232 0.102375 44 210 255
0.0866702 -0.136861 0.178504 83 172 255
0.079871 -0.263003 0.219207 51 204 255
0.0832992 -0.312813 0.372212 38 217 255
0.0831343 -0.299849 0.27446 40 214 255
0.299354 -0.325241 0.0998102 35 220 255
0.0812949 -0.370803 0.24462 23 232 255
0.22681 -0.0147612 0.0998641 113 141 255
0.0824114 -0.283478 0.332387 44 210 255
0.173904 -0.235415 0.101958 58 197 255
0.106542 -0.0272908 0.102666 111 144 255
0.378587 -0.0897445 0.102323 95 160 255
0.180157 -0.284173 0.101243 44 210 255
0.0835751 -0.175061 0.371005 73 182 255
0.0997221 -0.163937 0.101987 76 179 255
0.0760167 -0.319555 0.132337 36 219 255
0.0827995 -0.0596677 0.202744 103 152 255
0.234702 -0.197583 0.101606 67 188 255
0.124986 -0.237492 0.149968 56 198 255
0.0814701 0.000241834 0.192889 118 137 255
0.124986 -0.149992 0.237468 80 175 255
0.0805437 -0.231868 0.326694 59 195 255
0.0846489 -0.134254 0.324679 84 171 255
0.188649 -0.373426 0.100464 22 233 255
0.102881 0.0349447 0.100661 127 128 255
0.137486 -0.299992 0.412468 40 214 255
0.149985 -0.262492 0.362468 51 204 255
0.196695 -0.118682 0.100052 88 167 255
0.0767431 -0.37718 0.112877 21 234 255
0.0852329 -0.157452 0.214438 78 177 255
0.274985 0.0125084 0.112468 121 134 255
0.125967 -0.219325 0.101066 62 193 255
0.302911 -0.146418 0.104344 80 175 255
0.272187 -0.252472 0.103227 52 202 255
0.179403 -0.177616 0.101438 72 183 255
0.193235 -0.06672 0.10025 101 154 255
0.328052 -0.288285 0.0999066 44 211 255
0.412486 -0.274992 0.112468 48 207 255
0.0832527 -0.0754998 0.366934 99 156 255
0.336978 -0.179858 0.101378 72 183 255
0.0861911 -0.212908 0.170709 63 192 255
0.0829771 -0.156413 0.263847 78 177 255
0.323472 -0.0660289 0.103144 101 154 255
0.081987 -0.24509 0.266712 55 200 255
0.0780426 -0.156615 0.152564 78 177 255
0.204319 -0.000475148 0.102049 118 137 255
0.0955176 -0.263082 0.101155 51 204 255
0.124986 -0.237492 0.212468 56 198 255
0.139957 -0.0315949 0.103892 110 145 255
0.175036 -0.311701 0.100262 38 217 255
0.0839738 -0.242889 0.371007 56 199 255
0.0850787 -0.0990269 0.249402 93 162 255
0.141234 -0.400932 0.100143 15 240 255
0.0808269 0.0243146 0.165014 124 131 255
0.0800486 -0.324489 0.217675 35 220 255
0.139318 -0.099712 0.102116 92 163 255
0.0834595 -0.22334 0.126775 60 194 255
0.0858565 -0.164955 0.329759 76 179 255
0.0808921 -0.273974 0.153747 48 207 255
0.235569 -0.173259 0.100057 73 181 255
0.224596 -0.352255 0.0994611 28 227 255
0.0749855 -0.0124916 0.349968 115 140 255
0.0777965 -0.368941 0.180231 23 232 255
0.335706 -0.332017 0.101075 32 222 255
0.144174 0.0214904 0.104633 123 131 255
0.226365 -0.0742175 0.103178 99 156 255
0.148385 -0.286707 0.101113 44 210 255
0.124986 -0.349992 0.349968 28 227 255
0.0840518 -0.210769 0.268202 64 191 255
0.0810398 -0.101971 0.17647 92 163 255
0.0793179 -0.282712 0.23926 46 209 255
0.124986 -0.0749916 0.137468 99 156 255
0.338464 -0.126632 0.100808 85 170 255
0.149985 -0.237492 0.387468 56 198 255
0.0767177 -0.315698 0.158836 36 218 255
0.082679 -0.359618 0.312873 26 229 255
0.0770177 -0.24253 0.168764 56 199 255
0.0881312 -0.2662 0.31249 50 205 255
0.250798 -0.213044 0.101037 63 192 255
0.086614 -0.106171 0.307329 91 163 255
0.0842531 -0.0215026 0.292909 112 143 255
0.108568 0.0015218 0.106323 118 137 255
0.258386 -0.0977018 0.101886 93 162 255
0.0749855 -0.0374916 0.387468 108 147 255
0.0947954 -0.303009 0.101528 40 215 255
0.254866 -0.0352246 0.0999552 109 146 255
0.259365 -0.153107 0.0994421 79 176 255
0.0801364 -0.356393 0.250493 27 228 255
0.190544 -0.250233 0.0996807 54 201 255
0.120555 -0.167656 0.105612 75 179 255
0.0894099 -0.19367 0.224397 68 187 255
0.0834066 -0.0117538 0.24626 115 140 255
0.196224 -0.136174 0.103542 83 172 255
0.083543 -0.188959 0.308421 70 185 255
0.347938 -0.281246 0.10252 46 209 255
0.275277 -0.315668 0.103227 36 218 255
0.0820858 -0.282563 0.203602 46 209 255
0.0839132 -0.237942 0.239394 56 198 255
0.298846 -0.0430506 0.10488 107 147 255
0.110777 -0.39195 0.100501 18 237 255
0.0836602 -0.11652 0.232732 88 167 255
0.0859069 -0.277518 0.365642 47 208 255
0.0767857 -0.168737 0.172946 75 179 255
0.0837358 -0.0558042 0.320946 104 151 255
0.287877 -0.212493 0.101166 63 192 255
0.171433 -0.216175 0.100389 63 192 255
0.329749 -0.0895044 0.102966 95 160 255
0.162486 -0.287492 0.362468 44 211 255
0.0860107 -0.0487759 0.252066 105 150 255
0.124986 -0.349992 0.299968 28 227 255
0.0766598 -0.380093 0.13224 21 234 255
0.372313 -0.309301 0.102583 39 216 255
0.165659 -0.120768 0.100229 87 168 255
0.0749855 0.0625084 0.112468 134 121 255
0.0791986 -0.0817111 0.210897 97 158 255
0.138835 -0.31234 0.101287 38 217 255
0.166716 -0.0441873 0.101978 107 147 255
0.373299 -0.0513574 0.104371 105 150 255
0.178238 -0.370342 0.10049 23 232 255
0.0871026 -0.301511 0.303926 40 214 255
0.241907 -0.24643 0.101823 55 200 255
0.294696 -0.281644 0.0994444 46 209 255
0.0840505 0.00234224 0.199229 118 137 255
0.0801692 -0.0744236 0.167373 99 156 255
0.0811476 -0.314842 0.245686 36 218 255
0.120049 -0.194912 0.100988 68 187 255
0.128445 -0.0562768 0.105957 103 152 255
0.0812086 -0.168243 0.201691 75 179 255
0.0849115 -0.123873 0.33458 86 169 255
0.0845633 -0.168125 0.376114 75 179 255
0.0816406 -0.318407 0.347269 36 219 255
0.0829585 -0.191992 0.151499 69 186 255
0.0782548 -0.349534 0.2009 28 227 255
0.331275 -0.199456 0.100972 67 188 255
0.0884092 -0.222295 0.287582 60 194 255
0.22393 -0.117531 0.102167 88 167 255
0.178173 -0.327423 0.100328 34 221 255
0.0882815 -0.217276 0.205934 62 193 255
0.0801564 -0.127455 0.167641 85 170 255
0.0894238 -0.243308 0.10269 56 199 255
0.188786 -0.0107645 0.100603 115 140 255
0.106783 -0.421119 0.102177 10 245 255
0.158119 -0.166006 0.100487 75 179 255
0.082772 -0.0767774 0.335399 97 157 255
0.0862078 -0.147132 0.108775 80 175 255
0.284683 -0.0900105 0.102721 95 160 255
0.331864 -0.156176 0.102027 78 177 255
0.0862526 -0.148032 0.296839 80 175 255
0.222819 -0.0423752 0.0997617 107 147 255
0.0751593 -0.286851 0.134903 44 211 255
0.214773 -0.340585 0.101634 31 224 255
0.0872509 -0.0910676 0.279926 95 160 255
0.136639 -0.227853 0.100997 60 195 255
0.197402 -0.174197 0.099899 73 182 255
0.0794162 0.0304527 0.147509 126 129 255
0.190617 -0.101976 0.102412 92 163 255
0.264379 -0.184901 0.100468 71 184 255
0.0826336 -0.269251 0.186191 48 206 255
0.0822715 -0.372167 0.26406 23 232 255
0.124986 -0.174992 0.149968 73 182 255
0.0806567 -0.235388 0.352168 58 197 255
0.30373 -0.322807 0.0997626 35 220 255
0.301367 -0.138888 0.103786 81 173 255
0.159867 -0.268332 0.100525 48 206 255
0.0899854 -0.177818 0.240513 72 183 255
0.0861719 -0.286954 0.266874 44 211 255
0.246532 -0.276651 0.102155 47 208 255
0.162486 -0.312492 0.387468 38 217 255
0.247 -0.013205 0.102643 115 140 255
0.143387 -0.00620855 0.1057 116 139 255
0.124986 -0.262492 0.299968 51 204 255
0.112486 -0.0749916 0.399968 99 156 255
0.0789407 -0.326007 0.31642 34 221 255
0.250432 -0.129449 0.102205 85 170 255
0.0833409 -0.142313 0.255986 81 174 255
0.0846831 -0.060549 0.227975 102 153 255
0.348446 -0.101996 0.100856 92 163 255
0.149985 -0.274992 0.412468 48 207 255
0.31188 -0.0465113 0.1048 105 149 255
