ply
format ascii 1.0
comment Created by Open3D
element vertex 1616
property double x
property double y
property double z
end_header
-0.251689 -0.345753 -0.335933
-0.228268 -0.215048 -0.381981
-0.11523 -0.237462 0.13856
0.322083 -0.282755 -0.412885
-0.414053 -0.301128 -0.368867
0.228601 0.0827982 -0.436924
-0.133613 -0.0127039 -0.401118
-0.0122349 -0.334882 0.065524
-0.200753 -0.364345 -0.0499478
-0.276182 -0.00613467 -0.371883
-0.0404602 -0.238847 0.140575
-0.134525 -0.360171 -0.0150438
0.30002 -0.127271 -0.433411
-0.0875266 -0.0825845 -0.405807
0.122087 -0.152931 -0.426416
0.146303 -0.359564 -0.315666
-0.332775 -0.149111 -0.389824
0.222177 -0.355603 -0.269838
-0.229504 -0.266389 0.108517
-0.402564 0.131344 -0.372835
-0.324878 -0.285821 -0.383884
0.334065 -0.32473 -0.386753
-0.205069 -0.164321 -0.384503
0.425992 -0.311263 -0.241684
-0.00318087 0.0371814 -0.418153
0.257591 -0.338506 -0.133327
0.149307 -0.34635 -0.0460326
0.197084 -0.0965768 -0.136241
0.442454 0.0650199 -0.412763
-0.15904 0.0803956 -0.401685
0.191249 -0.0233263 -0.417922
0.0124093 -0.375816 -0.140056
-0.306483 -0.232463 -0.126659
0.139049 -0.359148 -0.204161
0.413039 -0.248174 -0.433825
-0.240172 -0.25954 0.0323265
-0.265477 -0.268446 -0.39429
-0.387864 -0.219222 -0.372502
0.326278 0.0496795 -0.427604
-0.104864 -0.35927 -0.403763
-0.460781 0.0258497 -0.375105
0.0962901 0.00772699 -0.428385
-0.0917901 -0.137524 -0.403914
0.0678899 -0.206487 -0.426016
0.0241932 -0.342667 -0.0387776
-0.506534 -0.234923 -0.361989
-0.0310173 -0.271744 0.0471069
0.337492 -0.329171 -0.32462
0.334091 -0.173689 -0.44338
0.0507998 -0.315414 -0.42393
0.0272752 -0.363393 -0.342135
-0.286143 0.061963 -0.366866
-0.00144229 -0.06616 -0.419695
0.256651 -0.246155 -0.446477
0.105847 0.094848 -0.426179
-0.220329 -0.364861 -0.138356
-0.037365 -0.302447 -0.417258
0.185915 -0.0101754 -0.358168
0.264721 0.120306 -0.438173
0.409912 0.106859 -0.469347
-0.159727 -0.11139 -0.402465
0.288514 -0.0226181 -0.428395
-0.0583775 -0.335708 0.00315964
-0.473778 -0.119977 -0.356773
0.0220691 -0.144631 -0.416703
-0.228455 -0.019706 -0.387925
0.309146 -0.323963 -0.0921627
0.146225 -0.348747 -0.397719
-0.102151 -0.26033 0.0570792
-0.321548 -0.225611 -0.384091
-0.0412319 -0.376827 -0.181222
-0.39973 -0.119256 -0.361824
-0.0132625 -0.175783 0.0524536
0.273097 -0.30572 -0.431829
-0.0610951 -0.374517 -0.0613201
-0.0294343 -0.111246 0.131936
0.0877433 -0.364792 -0.143186
-0.104405 0.0669596 -0.40849
0.244252 -0.348512 -0.190713
-0.445217 -0.0423744 -0.372785
0.393165 -0.145207 -0.419546
-0.0813444 -0.25528 0.152941
0.327222 -0.332968 -0.187097
-0.154246 -0.366073 -0.323549
0.328165 -0.0695765 -0.424681
0.0569639 -0.0704533 -0.417036
-0.247672 -0.126278 -0.396387
0.244028 -0.111761 -0.124691
0.0962006 -0.280204 -0.437201
0.0384767 0.0156461 -0.424575
0.17176 0.020711 -0.430035
0.0686599 -0.367555 -0.304096
-0.0734888 -0.189331 -0.411785
0.13682 -0.222272 0.104019
-0.157327 -0.306344 -0.397534
0.202909 0.108921 -0.434284
0.209208 -0.205295 -0.435953
-0.0196543 -0.0811018 0.235555
-0.323527 -0.339503 -0.246162
-0.0783111 0.00598826 -0.40793
-0.0335012 -0.238997 0.105667
-0.440862 -0.241467 -0.359858
0.363024 -0.232543 -0.171403
0.22259 -0.295008 -0.418407
0.442879 0.175395 -0.424274
0.0620126 0.103266 -0.420859
0.0180271 -0.258053 0.0054155
-0.120822 -0.35774 0.014216
-0.36346 -0.283898 -0.375816
-0.134711 -0.0558639 -0.396229
-0.381173 0.0104698 -0.365876
0.449111 -0.101588 -0.42756
0.00108315 -0.373434 -0.281598
-0.277789 -0.34723 -0.330066
0.303241 -0.250568 -0.200842
-0.346769 0.0687432 -0.383106
0.228551 -0.333116 -0.0471727
-0.350775 -0.101788 -0.390018
0.229263 -0.119474 -0.42401
-0.210854 -0.336026 -0.397909
-0.150879 -0.210568 -0.392617
-0.203048 0.0749749 -0.40018
0.414172 -0.31244 -0.205808
0.427271 -0.305062 -0.411694
-0.121811 -0.246751 0.111036
0.0118282 -0.358861 0.00171795
-0.0657528 -0.272095 -0.424545
0.12644 -0.342993 -0.11673
0.400915 0.00957526 -0.413444
-0.31199 0.104345 -0.31711
0.136563 -0.0685301 -0.418793
0.282759 -0.329927 -0.358082
-0.380886 0.142993 -0.367216
-0.268183 -0.0749314 -0.398335
-0.277078 -0.221005 -0.379177
-0.323936 -0.223461 -0.184288
-0.148513 -0.369358 -0.0459648
0.429095 -0.20001 -0.420943
-0.00964094 -0.352951 -0.397985
0.105974 -0.361367 -0.0427138
-0.361824 -0.172858 -0.282423
0.0304173 -0.263787 -0.414249
0.149384 -0.234252 -0.435833
0.361116 0.112369 -0.429882
-0.200279 -0.363818 -0.113285
-0.214444 -0.346759 -0.0124922
-0.0952452 -0.307724 0.0342164
-0.437364 -0.299807 -0.334056
-0.190402 -0.246952 -0.389011
-0.279814 -0.352517 -0.2337
0.168751 -0.360809 -0.259864
0.0329982 -0.372407 -0.0834148
0.0468542 -0.372048 -0.180162
0.316912 -0.329632 -0.144407
0.429648 0.0532882 -0.459962
0.232124 -0.065278 -0.419543
0.379692 -0.32171 -0.300433
0.257025 0.0631674 -0.429735
0.00345392 -0.201057 -0.411102
-0.278855 -0.238889 -0.0908253
0.317973 -0.246544 -0.44075
-0.0463358 0.0912416 -0.403113
-0.207349 -0.0582077 -0.395205
0.45675 0.130118 -0.421833
-0.341431 -0.329338 -0.342142
0.210931 -0.346711 -0.10427
-0.441173 -0.189687 -0.359773
-0.342191 0.0405381 -0.317693
0.158634 -0.294346 -0.425387
-0.0373769 -0.0253769 -0.412061
-0.291162 0.0106112 -0.391701
-0.142193 -0.37436 -0.10677
-0.0757151 -0.217325 0.179072
0.0648274 -0.348718 -0.420772
-0.00341411 -0.113875 -0.411665
0.336942 -0.252084 -0.12096
-0.233308 0.0418834 -0.383069
-0.20928 -0.270632 0.143922
0.423175 -0.269406 -0.404218
0.0861288 -0.13782 -0.416044
0.362351 0.0468629 -0.426205
0.301667 -0.195152 -0.429108
-0.372722 -0.179541 -0.37639
0.221955 -0.342883 -0.390562
-0.142152 0.0130277 -0.398687
0.0130636 0.106024 -0.409728
0.358823 -0.291044 -0.409896
0.189794 -0.163394 -0.429218
-0.312446 -0.157916 -0.372882
0.167984 0.0652303 -0.421049
0.449912 -0.310751 -0.290879
-0.131054 -0.149948 -0.405927
-0.0662125 -0.352875 -0.408387
0.337872 -0.324012 -0.215828
-0.210974 -0.358151 -0.356084
-0.466147 -0.265191 -0.374439
-0.0354362 -0.245212 0.228599
-0.348882 -0.0101704 -0.387127
0.250298 -0.00389606 -0.424863
-0.00226546 -0.377001 -0.232472
0.352704 -0.0862686 -0.430327
-0.244988 -0.361378 -0.133887
0.139103 -0.358979 -0.225426
0.0783389 -0.030068 -0.427001
-0.0334569 -0.321587 0.00449061
-0.0331994 -0.374796 -0.0730545
-0.214543 -0.193429 -0.399785
0.449342 -0.251258 -0.419021
0.270744 -0.330655 -0.076888
0.257419 -0.331712 -0.212171
0.449336 -0.0713607 -0.425497
-0.12991 -0.260042 -0.402848
-0.238546 -0.282063 -0.383852
0.282222 -0.332291 -0.416586
0.0915577 -0.361081 -0.328169
-0.256744 -0.0365493 -0.377953
0.384259 -0.178278 -0.445365
-0.0675745 -0.269563 0.0743413
-0.0653635 -0.114379 -0.411646
0.427248 -0.00443345 -0.43026
-0.412928 -0.029191 -0.377115
-0.0701969 -0.376715 -0.127617
0.203733 -0.241075 -0.441542
0.12882 0.0989872 -0.428153
-0.0943144 -0.0515402 -0.39553
-0.247722 0.0775684 -0.38948
-0.315314 0.273595 -0.39478
-0.184465 -0.0163116 -0.393734
-0.111861 -0.370276 -0.0385724
0.417064 -0.312118 -0.390205
0.39225 0.14074 -0.427736
-0.313167 -0.103436 -0.392372
0.166273 -0.092926 -0.424651
-0.0966183 -0.280977 0.191528
0.260066 -0.161678 -0.435108
0.284113 0.0957673 -0.431649
0.191745 -0.338796 -0.0500063
-0.359652 -0.0387851 -0.314623
-0.121969 -0.32661 -0.414691
-0.0993828 0.0858244 -0.403251
0.122809 -0.197091 -0.430168
0.279888 -0.246017 -0.173518
-0.0206373 0.0321342 -0.415215
0.264949 -0.325683 -0.155939
-0.412734 -0.139801 -0.3708
0.388401 -0.319555 -0.208607
0.177116 -0.329487 -0.433597
0.0251935 -0.0211511 -0.42017
-0.00889271 -0.364863 -0.0284573
-0.399521 -0.237484 -0.375275
0.117022 -0.345689 -0.379665
0.418434 0.174004 -0.478996
0.277027 -0.0973658 -0.143149
-0.0305509 -0.37287 -0.302972
0.1278 -0.0328512 -0.420134
-0.000209393 -0.290782 -0.427705
-0.192019 -0.135348 -0.396216
0.266729 -0.0724762 -0.35966
0.0367892 -0.26549 -0.0257637
-0.469364 -0.291599 -0.317033
-0.0284075 -0.212347 -0.420152
-0.305905 -0.275863 -0.387962
-0.458499 -0.0696733 -0.362836
0.280814 -0.0961868 -0.421673
-0.315892 0.0879947 -0.38592
-0.204687 -0.361867 -0.0428986
-0.130451 -0.353212 0.0257463
0.0798129 -0.25966 -0.418756
-0.309003 -0.044957 -0.398065
0.361612 -0.0105334 -0.43061
-0.15916 0.0624279 -0.407305
0.222278 0.0277123 -0.419295
0.0374926 0.0420869 -0.422667
0.313622 -0.30991 -0.427871
-0.386302 0.0806683 -0.370882
0.419988 -0.298962 -0.299893
-0.296314 -0.335023 -0.335068
-0.102703 -0.189016 -0.408223
0.454796 -0.212602 -0.42113
0.062837 -0.365704 -0.0367566
0.0993257 0.0151364 -0.418299
-0.38763 -0.296662 -0.373034
0.325179 -0.330625 -0.339428
0.0715582 -0.165997 -0.424687
0.0857212 -0.368586 -0.108725
-0.465635 -0.000113919 -0.373015
-0.0108754 -0.37614 -0.147903
-0.476448 -0.166063 -0.359791
-0.0183327 -0.110709 0.0666948
-0.265354 -0.139719 -0.395895
0.200441 -0.140386 -0.112938
-0.127929 -0.245696 0.135885
-0.159712 -0.341598 -0.375947
-0.103137 -0.276938 0.0461923
0.345937 -0.259929 -0.419613
0.424714 0.098304 -0.412616
0.142018 -0.356098 -0.307731
0.352483 -0.230771 -0.171392
-0.375591 -0.189336 -0.327409
0.375781 -0.322504 -0.266956
-0.160577 -0.0919429 -0.393518
-0.0546692 -0.228619 0.164321
0.173961 -0.34404 -0.0793396
-0.0474487 -0.0851977 -0.407599
-0.352656 -0.204547 -0.379456
0.215438 -0.356452 -0.265127
0.242856 -0.326137 -0.430376
0.108791 -0.0984623 -0.418767
0.358673 -0.326535 -0.18016
0.447766 -0.116469 -0.428423
-0.36482 0.0258489 -0.382062
-0.117443 -0.374854 -0.116218
-0.0686429 -0.354413 0.00888476
0.278471 0.128884 -0.432561
0.334183 -0.198898 -0.443917
-0.0566816 -0.253171 0.0474336
-0.139962 -0.276126 0.17537
-0.0688453 -0.298622 -0.421973
0.170907 0.100498 -0.432952
-0.38373 -0.115999 -0.363745
-0.296878 0.0504641 -0.388158
-0.0635667 0.016511 -0.407944
0.00050527 -0.355051 -0.400434
-0.263652 -0.20661 -0.381635
-0.211804 -0.0872013 -0.397334
0.0974245 0.0658333 -0.425987
0.0765538 -0.365946 -0.152986
0.402624 -0.234594 -0.421539
0.00325554 -0.348511 0.0382551
0.0234565 -0.0897521 -0.417066
0.379156 0.264161 -0.473865
-0.0743066 -0.255223 0.107103
0.01968 -0.176127 -0.422292
0.24085 -0.24942 -0.444088
0.131573 -0.359606 -0.212092
0.28599 -0.15882 -0.171054
0.1304 -0.349483 -0.41601
0.309078 0.048874 -0.428744
-0.0832265 -0.374487 -0.0759681
0.133285 -0.28862 -0.438225
0.247108 -0.0343894 -0.425211
-0.166709 -0.0403934 -0.393248
0.401257 0.0496378 -0.419108
-0.373649 -0.11324 -0.338551
0.283284 -0.329789 -0.357769
0.345708 -0.147942 -0.439651
-0.160917 -0.365262 -0.0277853
-0.246375 -0.359267 -0.134915
-0.250416 -0.330223 -0.370434
-0.369381 0.110229 -0.369811
0.260177 -0.331867 -0.0682633
0.303318 -0.340054 -0.210004
0.157879 0.0205138 -0.430051
0.0403016 0.0978708 -0.415694
-0.00650561 -0.366388 -0.331345
-0.45129 -0.201548 -0.372149
-0.0369307 -0.18686 0.271257
-0.192729 0.0226849 -0.388008
-0.0359528 -0.377345 -0.172079
-0.291872 -0.0204656 -0.371293
-0.0559945 -0.242162 -0.413524
-0.47254 -0.0949172 -0.361697
0.446423 -0.31106 -0.283221
0.281255 -0.27889 -0.437299
-0.365809 -0.0441293 -0.383638
0.318138 -0.331529 -0.15454
0.206109 -0.068306 -0.14432
0.227844 -0.350373 -0.213745
-0.168065 -0.367036 -0.338461
-0.0403387 -0.143244 -0.405104
-0.244534 -0.254093 -0.379473
-0.329115 -0.158714 -0.389031
0.138983 -0.126645 -0.424884
0.0901042 -0.342748 -0.0590396
-0.111642 -0.0495698 -0.412008
0.0880765 -0.231604 -0.41709
0.237512 -0.139534 -0.417901
-0.427374 0.0110104 -0.366565
-0.419455 -0.307675 -0.349602
0.468712 -0.287789 -0.415653
-0.163216 -0.281557 -0.397456
0.0667135 -0.30736 -0.424902
-0.332444 -0.331444 -0.343018
0.385741 -0.290588 -0.410798
0.236991 -0.33921 -0.11599
-0.481013 -0.253547 -0.374417
0.193008 -0.344159 -0.396854
-0.0368348 -0.272807 0.204409
0.417049 -0.0388952 -0.425034
0.350573 -0.32787 -0.297663
-0.168257 0.0829421 -0.388301
-0.133881 -0.201946 -0.39733
0.147665 -0.349843 -0.128609
0.345393 0.105728 -0.429852
-0.270462 0.0879267 -0.373008
-0.047682 -0.253799 0.144294
-0.213706 -0.16209 -0.384387
0.0312398 -0.337884 -0.0196657
-0.418432 -0.0718061 -0.370451
-0.0331802 -0.0453979 -0.411801
0.385493 -0.193374 -0.421581
-0.0600892 0.0672966 -0.404047
-0.0280025 -0.377039 -0.0995231
0.23015 0.100913 -0.424001
0.00921839 -0.373263 -0.28381
0.333089 -0.0335321 -0.423447
0.444167 0.173189 -0.423401
-0.130527 0.0122683 -0.410171
0.253972 -0.206645 -0.439731
-0.115552 -0.132911 -0.406819
0.417815 -0.317172 -0.239179
0.243857 -0.15081 -0.135474
-0.103025 -0.321495 0.0316029
0.200014 -0.0898135 -0.420908
-0.184073 -0.340736 -0.40142
0.17086 -0.266778 -0.441407
0.0794412 -0.361541 -0.330079
0.17797 -0.175792 -0.431026
-0.297268 -0.310706 -0.378381
-0.0270103 -0.259086 0.0590338
-0.180661 -0.273598 0.158557
0.23679 -0.332075 -0.173298
-0.28192 -0.0877879 -0.397186
-0.404992 -0.164034 -0.363404
0.0317972 -0.261438 -0.00803536
-0.30635 -0.231595 -0.138717
-0.0935355 -0.367122 -0.0231955
0.335859 -0.230756 -0.155822
0.1497 -0.17204 0.0146631
0.0219886 -0.262329 -0.413338
0.19729 -0.337401 -0.0470389
0.0056891 -0.101333 0.222367
-0.0677592 -0.342066 -0.415183
0.0175844 -0.372105 -0.065446
0.413293 -0.146361 -0.419614
-0.479803 -0.28823 -0.324456
-0.00507401 0.0924898 -0.408842
0.32806 -0.324044 -0.401191
0.166382 -0.361497 -0.285484
0.269934 0.0251894 -0.419475
0.0743463 -0.353994 -0.405738
0.304205 -0.1327 -0.421988
-0.0237448 -0.11117 0.103031
0.456401 0.128148 -0.421105
0.0563731 -0.0976232 -0.41705
-0.347769 -0.105721 -0.390043
-0.0167272 -0.322833 0.0136576
0.157146 -0.021865 -0.420266
-0.457541 -0.151042 -0.358855
0.0675851 0.0218557 -0.419544
-0.199593 -0.35527 -0.0132004
-0.269861 -0.240997 -0.0796027
0.0461958 -0.369145 -0.173636
-0.402445 0.126313 -0.367559
-0.283984 -0.174866 -0.382324
0.0877574 0.096019 -0.423819
-0.207379 -0.365314 -0.126937
0.10616 -0.364261 -0.0747642
-0.257688 -0.00277399 -0.375017
-0.41948 -0.238931 -0.360413
-0.120857 0.0541477 -0.397063
0.437015 0.0586841 -0.416135
0.29517 -0.326799 -0.0870967
-0.134502 -0.365042 -0.3682
0.0564176 -0.212149 -0.425978
-0.343498 0.0934615 -0.368023
0.386144 -0.0880567 -0.422038
-0.01396 -0.188641 0.05528
0.0183357 -0.334195 -0.421962
0.30655 -0.221529 -0.444598
-0.309956 -0.265589 -0.388218
0.236068 -0.288573 -0.437933
-0.0357458 -0.00212101 -0.415073
0.413521 -0.310083 -0.392647
0.211844 0.0315311 -0.431449
-0.151806 -0.371475 -0.124911
0.275112 -0.06766 -0.42042
-0.357918 0.0530752 -0.380642
-0.123971 -0.244287 -0.4103
0.374892 0.136522 -0.427239
0.272698 -0.336763 -0.375779
-0.508845 -0.246944 -0.359407
-0.117034 -0.0738965 -0.397841
-0.202198 0.0746344 -0.400349
-0.317373 0.210959 -0.386297
-0.265896 -0.245247 -0.0296978
0.0735674 -0.0272374 -0.427325
0.263068 -0.069844 -0.149598
-0.21378 -0.240741 -0.385051
-0.084222 -0.24175 0.130747
0.448547 -0.00704923 -0.422156
-0.0437324 -0.367772 -0.0323339
-0.0552062 -0.183594 -0.414416
0.150137 0.0720213 -0.433121
0.05139 -0.142428 -0.424055
0.388598 -0.318634 -0.197799
-0.215352 -0.312165 -0.403397
-0.315369 -0.0686478 -0.373358
0.204395 -0.341224 -0.423314
-0.099052 -0.315933 -0.417245
0.310085 -0.243644 -0.183868
-0.396171 -0.287905 -0.375837
-0.151546 -0.369135 -0.0461257
0.354054 0.0237881 -0.420433
0.151604 -0.358635 -0.231476
-0.226211 -0.0896086 -0.395453
-0.0977166 -0.258356 0.0559451
-0.121852 -0.354731 0.027577
0.432417 -0.263791 -0.418593
-0.380704 0.00902984 -0.366035
0.014076 0.0490909 -0.418284
-0.19966 -0.361116 -0.346618
0.138208 -0.255464 -0.42616
0.348649 -0.256336 -0.421032
-0.095716 -0.00634731 -0.406767
-0.457767 0.02289 -0.375062
0.427778 -0.086558 -0.434421
0.434091 -0.302528 -0.247696
-0.475998 -0.200953 -0.35763
-0.00681612 -0.0442303 -0.414832
0.214375 -0.345885 -0.111288
-0.290129 -0.22849 -0.390121
-0.0105685 -0.265452 -0.426633
0.135231 -0.359334 -0.319846
0.408603 0.120666 -0.47155
0.316727 -0.327853 -0.143427
-0.16546 -0.145888 -0.392231
-0.23824 -0.25894 0.0218724
-0.451421 -0.04242 -0.372489
0.191386 -0.0669041 -0.425282
-0.246855 0.0452539 -0.387038
-0.362945 -0.190144 -0.378138
0.41462 -0.182069 -0.439649
-0.0145842 -0.377455 -0.1283
0.393137 -0.319925 -0.263064
-0.17318 -0.0346766 -0.392718
0.122508 -0.181731 -0.427891
0.193484 0.103644 -0.434172
-0.332888 -0.299854 -0.3812
-0.0720237 -0.217049 0.175912
0.111283 -0.0879938 -0.418439
0.293757 -0.341479 -0.209894
-0.0312764 -0.34997 0.0304226
0.0860499 -0.365525 -0.137137
0.22526 -0.216311 -0.43775
-0.0815398 -0.375281 -0.112233
-0.0680345 0.0904826 -0.40689
0.296733 -0.0123534 -0.428503
-0.433368 -0.297225 -0.333383
-0.0175089 -0.144906 -0.419455
-0.425973 -0.102911 -0.368306
-0.334415 0.0953964 -0.380402
0.0814876 -0.286664 -0.419852
-0.176663 -0.201834 -0.389189
0.402682 0.123488 -0.415854
-0.0309899 -0.111608 0.141719
0.347594 -0.160736 -0.422886
-0.222498 -0.267762 0.120195
0.353987 -0.303191 -0.425943
0.225066 -0.350656 -0.214616
0.360343 -0.233001 -0.164542
0.452515 -0.305555 -0.282717
-0.310618 0.0294629 -0.378886
-0.227353 -0.0130977 -0.387585
0.289436 -0.33709 -0.342224
-0.275751 -0.339938 -0.339095
0.273728 -0.166597 -0.439348
-0.472499 -0.132099 -0.356863
0.351132 -0.0627091 -0.425565
-0.0562929 -0.275664 0.0579259
0.054663 -0.36842 -0.314358
-0.0150828 -0.150583 0.0586853
0.446648 -0.212668 -0.420623
0.137335 -0.35035 -0.403838
0.0415669 -0.371446 -0.0793684
0.206399 -0.264701 -0.429258
-0.364897 -0.120232 -0.384209
-0.337799 -0.0215936 -0.38901
-0.0908738 -0.201939 -0.411973
-0.0474533 -0.102941 -0.411275
0.456664 -0.304411 -0.400672
-0.33119 0.0798133 -0.311882
0.249954 -0.333248 -0.143064
0.220082 0.00270264 -0.365539
-0.273552 -0.0705776 -0.377525
0.144385 -0.344297 -0.107127
-0.0669552 -0.350366 -0.393691
0.227592 -0.339509 -0.387815
0.030849 -0.350492 -0.386391
-0.257103 -0.271072 -0.395567
0.275912 0.0938366 -0.431522
0.0384992 -0.00281481 -0.416515
0.229453 -0.335643 -0.0548616
-0.133278 0.274735 -0.386885
-0.24177 -0.360073 -0.135408
-0.151407 -0.265669 -0.409188
-0.239579 -0.161084 -0.38484
0.200827 -0.169776 -0.427959
-0.181054 0.0169988 -0.403782
0.289836 -0.288338 -0.433438
0.0702647 0.0978837 -0.420689
0.351006 0.0615312 -0.425437
0.204084 0.0619118 -0.422162
-0.367146 -0.31628 -0.345411
-0.0275965 0.0414115 -0.410781
-0.0135235 -0.300859 -0.419921
-0.209731 -0.349319 -0.0180446
-0.399584 0.134726 -0.369742
-0.159103 -0.343159 -0.405471
0.00236563 -0.362466 -0.0128512
0.28658 -0.246756 -0.177729
-0.409577 -0.223492 -0.361081
0.229214 -0.0206949 -0.423528
-0.312364 -0.158017 -0.391916
-0.351408 -0.175524 -0.270574
-0.0822454 -0.045114 -0.396757
-0.16167 -0.115169 -0.401879
-0.0572201 -0.242586 -0.413358
-0.0904728 -0.317703 0.0403123
0.0860944 -0.252132 -0.437147
-0.373607 -0.0639852 -0.380716
0.151453 -0.122396 -0.425637
0.389714 -0.258035 -0.435143
0.440012 0.068736 -0.41495
-0.110975 -0.363764 -0.0258474
0.0626649 -0.368764 -0.171166
0.0573961 -0.0604766 -0.41822
-0.108393 -0.244946 0.116129
0.441047 -0.0606705 -0.425097
0.375449 -0.32331 -0.288463
-0.172916 -0.367619 -0.0492581
-0.139935 0.0750245 -0.406139
0.462213 0.148239 -0.419827
0.0294092 -0.188981 -0.421781
0.149499 -0.00986577 -0.425186
0.196963 -0.311717 -0.415894
-0.433854 -0.269853 -0.375965
0.123604 0.0739315 -0.43241
-0.0702264 -0.374762 -0.0771496
-0.468047 -0.092271 -0.359198
0.138785 -0.170588 0.0398888
0.355675 -0.220882 -0.432298
-0.0626829 -0.247986 0.168724
0.167824 -0.361844 -0.276385
-0.10306 -0.131902 -0.408321
-0.0856433 0.0402873 -0.407147
0.314525 -0.32188 -0.380447
-0.252182 -0.242324 -0.105735
0.276105 -0.341755 -0.176405
0.104361 -0.324376 -0.428605
0.0822462 -0.342653 -0.0536914
-0.397845 -0.161384 -0.363592
0.217185 -0.110973 -0.419007
0.288401 -0.327527 -0.0886035
-0.000604406 0.0907635 -0.41478
-0.166132 -0.0572229 -0.406021
0.139492 -0.21865 -0.422535
-0.00699141 -0.0866826 -0.418384
0.40163 -0.127698 -0.439937
-0.4089 -0.0137161 -0.377172
-0.232242 -0.346875 -0.358672
0.459444 -0.268589 -0.417631
-0.287957 -0.0403953 -0.399228
0.301005 -0.199527 -0.446633
0.242462 -0.335772 -0.424156
-0.239602 0.0822393 -0.385817
-0.235493 -0.262215 0.0536403
-0.215968 -0.115873 -0.393765
-0.305846 -0.228839 -0.162178
-0.450729 -0.294087 -0.322859
0.291184 -0.0299938 -0.370536
0.123958 -0.359362 -0.127209
0.376598 -0.0300565 -0.429562
-0.00136485 -0.341351 -0.418654
0.00654813 -0.352533 0.0239445
0.401761 0.251989 -0.476748
0.195489 -0.353875 -0.226528
-0.0936478 -0.281512 -0.422808
-0.373607 -0.100367 -0.340351
0.0980372 -0.351688 -0.385895
-0.00321903 -0.376433 -0.142796
-0.292507 -0.218031 -0.38469
0.154199 -0.0581792 -0.422381
0.19992 -0.15393 -0.107506
0.29673 -0.264336 -0.42324
-0.0510263 -0.36449 -0.016632
0.422584 0.167488 -0.423259
-0.206713 -0.363888 -0.126465
-0.307395 0.28362 -0.396533
-0.035492 -0.245875 0.218205
0.0386139 -0.109526 -0.414039
0.0131096 -0.245745 -0.412015
-0.110337 -0.35217 -0.408381
0.0237638 0.027586 -0.420921
-0.347767 0.0562662 -0.341303
-0.202412 -0.256025 -0.389123
-0.470187 -0.224357 -0.373156
0.384422 0.0790786 -0.417615
-0.313596 0.0796623 -0.387452
0.0764292 -0.176543 -0.424489
0.389934 -0.320775 -0.245135
0.206208 -0.069745 -0.132339
0.288924 0.0338112 -0.420969
0.397858 -0.302646 -0.411636
-0.445063 0.0195656 -0.366156
0.206361 -0.342696 -0.0756176
0.267589 -0.139027 -0.117684
-0.303655 -0.329296 -0.36286
0.108402 0.0225285 -0.427279
-0.273401 -0.111499 -0.394224
0.184264 -0.238831 -0.440863
0.0288304 -0.36629 -0.326053
-0.380545 0.0940038 -0.370775
-0.19671 0.032504 -0.401458
-0.197968 -0.165016 -0.385153
0.289734 -0.134751 -0.424075
-0.0616726 -0.236472 0.125219
-0.333026 -0.219086 -0.207532
0.155077 0.0975972 -0.427498
0.406959 -0.202923 -0.420653
-0.199753 -0.27203 0.145053
-0.0669057 -0.054507 -0.412473
-0.183877 -0.364008 -0.342853
0.14064 -0.149009 -0.414298
0.135877 -0.361484 -0.310087
0.276364 0.105887 -0.425877
-0.366131 -0.290097 -0.374334
0.238496 -0.0695713 -0.425436
0.355788 -0.232786 -0.157487
0.340689 -0.320491 -0.395987
-0.434014 -0.189062 -0.359752
-0.0619617 -0.252163 0.0562358
-0.12422 -0.355031 0.020007
0.444428 -0.307182 -0.278669
-0.128632 0.0283634 -0.401384
-0.412237 -0.076061 -0.372471
-0.158786 -0.301401 -0.398343
0.310348 -0.334602 -0.171609
-0.277844 -0.267112 -0.373527
-0.276606 -0.0114672 -0.372197
0.20702 -0.00139412 -0.422947
-0.507781 -0.246873 -0.358411
-0.363147 -0.168942 -0.3768
-0.131389 -0.0856827 -0.402408
0.259625 -0.283866 -0.420189
0.411266 0.0932003 -0.466718
0.0729834 -0.368071 -0.0483971
-0.217585 -0.0755897 -0.388244
0.165214 -0.287452 -0.438996
0.0365286 -0.287756 -0.431285
-0.123403 -0.248503 0.136112
-0.116694 -0.164416 -0.407771
-0.3236 -0.119739 -0.379735
-0.0383332 -0.374801 -0.0788392
0.290552 -0.337752 -0.344115
-0.242932 -0.181098 -0.393938
0.247805 -0.340908 -0.16455
0.102334 -0.0370035 -0.422223
0.435842 0.0503989 -0.417028
0.304396 -0.0170011 -0.421978
0.215698 0.105229 -0.435891
0.405932 -0.315032 -0.211226
0.420342 -0.300162 -0.286556
0.0838939 0.0952355 -0.423321
-0.0380443 -0.0084459 -0.412521
0.28821 -0.248853 -0.184252
-0.328336 0.172933 -0.379101
-0.0687968 0.0800556 -0.401489
0.343478 -0.107116 -0.422698
0.0269399 -0.0402193 -0.418959
-0.169218 -0.368243 -0.0492374
-0.349916 0.0420688 -0.376596
-0.137716 -0.224656 -0.398058
0.419164 -0.303327 -0.191337
0.415322 -0.159466 -0.420288
-0.0081141 -0.132569 -0.414929
0.235361 -0.186773 -0.432717
-0.288095 -0.236844 -0.102529
0.0336291 -0.339718 -0.0294548
0.305933 -0.309109 -0.428834
-0.341176 -0.0837032 -0.295956
-0.0221356 -0.11099 0.0938011
0.2632 -0.0711249 -0.137514
-0.0909705 -0.314391 0.0302958
-0.38508 0.00847515 -0.36637
0.447335 -0.241711 -0.419606
0.249128 -0.330522 -0.0625626
0.112005 -0.0970485 -0.417936
0.111648 -0.348243 -0.0766855
0.0458842 -0.371356 -0.173736
0.114948 -0.305896 -0.42383
-0.208992 -0.35352 -0.0183168
-0.133176 -0.364207 -0.37666
-0.338492 -0.322974 -0.341302
-0.0517435 -0.378247 -0.123295
-0.317538 -0.0584813 -0.37326
-0.00747595 -0.0842263 0.226451
-0.220117 0.0773781 -0.379124
-0.232813 -0.230925 -0.381233
0.0389934 0.0552111 -0.419635
-0.403434 -0.129409 -0.373324
0.340797 -0.159228 -0.423452
-0.10848 0.0048619 -0.407705
0.365163 0.112666 -0.429557
-0.313078 -0.254788 -0.386048
-0.326171 0.0358723 -0.308173
0.362277 -0.00775351 -0.429779
-0.292333 -0.168413 -0.379528
-0.306231 0.0921133 -0.37049
0.0254242 -0.352823 -0.387071
-0.218516 -0.306123 -0.400303
0.284191 -0.342588 -0.209343
0.333533 -0.24609 -0.425302
0.424052 -0.308746 -0.406216
0.179285 -0.192041 -0.433231
-0.401439 -0.231619 -0.372187
-0.0851296 -0.192603 -0.410725
-0.385271 0.135944 -0.368044
0.20579 0.0635912 -0.422457
-0.235731 -0.0141982 -0.392442
0.155866 -0.345863 -0.402454
-0.471716 -0.113401 -0.357452
0.235993 0.266471 -0.455599
-0.0268106 -0.363845 -0.0174393
0.041269 -0.242737 -0.428396
-0.0384726 -0.285892 0.198037
0.175531 -0.356161 -0.256058
-0.0766226 -0.12469 -0.410759
-0.0428357 -0.32893 -0.412106
-0.437388 -0.0275495 -0.373594
0.288854 -0.148606 -0.150923
-0.215011 -0.365165 -0.125635
0.275472 -0.218676 -0.444709
-0.430749 -0.304344 -0.351441
0.0676505 -0.178831 0.187726
-0.0712914 -0.219451 0.176688
-0.11868 -0.365098 -0.0181777
-0.16129 -0.0430071 -0.407124
-0.162167 0.0757233 -0.403513
0.0130049 -0.177198 -0.419352
0.0783116 0.0321692 -0.425876
0.0401068 -0.369879 -0.312011
0.241276 -0.119995 -0.421177
0.00793297 -0.332144 0.00733891
0.423827 -0.0330488 -0.424665
-0.36251 -0.0647289 -0.381463
-0.231289 -0.265194 0.0759887
0.286458 -0.326826 -0.0816324
0.431507 0.135287 -0.411696
-0.170949 -0.201826 -0.389949
0.130122 -0.351039 -0.132391
0.397333 -0.258246 -0.419888
0.0123229 0.0890964 -0.412369
0.156591 0.0256533 -0.428966
0.288795 -0.059066 -0.421596
-0.0996239 -0.277491 -0.410058
-0.204256 -0.347933 -0.387236
0.442067 -0.094187 -0.427216
-0.178386 0.0109411 -0.391675
0.275872 0.0420615 -0.428483
-0.0345647 -0.0816321 -0.413988
-0.301039 0.0212695 -0.380127
0.217987 -0.272829 -0.427134
0.0550346 -0.127901 -0.42306
-0.0356239 -0.257584 -0.418096
0.0354002 -0.371006 -0.0654067
-0.078102 -0.357765 -0.394176
0.43718 -0.193282 -0.431523
-0.0478806 0.0397026 -0.412703
-0.474631 -0.254566 -0.373858
0.356396 -0.231665 -0.168288
0.0963006 -0.25827 -0.438604
0.273243 -0.337002 -0.400947
0.0546946 -0.350345 -0.416106
0.135932 0.0966343 -0.429408
0.344059 -0.298989 -0.429973
-0.455902 -0.16473 -0.362392
0.265253 -0.319252 -0.172635
-0.200793 -0.0940135 -0.397825
0.381521 0.0341387 -0.425563
-0.264395 -0.244222 -0.0392712
-0.328699 -0.019285 -0.389915
0.19775 -0.0914557 -0.418278
-0.243829 0.0500141 -0.386674
0.437822 -0.30896 -0.28148
-0.286903 -0.330854 -0.358422
-0.361132 -0.123331 -0.384766
-0.089537 -0.371699 -0.0514882
0.455782 -0.304614 -0.402024
-0.112164 -0.24515 0.115474
0.0216894 -0.37614 -0.147371
-0.0153129 -0.201464 0.0579254
0.3656 -0.184854 -0.423539
-0.0397283 -0.098166 0.186404
-0.335267 0.108749 -0.337083
-0.031241 -0.351193 0.0260149
0.221988 -0.31594 -0.432093
0.166779 -0.150677 -0.429786
0.0281883 -0.053804 -0.418757
-0.136095 -0.148041 -0.404512
-0.316551 0.223702 -0.388079
0.418575 0.164017 -0.424613
0.176626 -0.0211832 -0.424728
0.412339 0.240293 -0.47833
-0.168035 -0.279215 -0.396721
-0.266145 -0.0735451 -0.397543
0.130628 -0.227917 -0.423043
0.308573 -0.240686 -0.175766
0.34654 -0.078898 -0.425724
-0.0351061 -0.229731 0.24517
-0.361293 -0.132412 -0.299818
0.0929107 -0.365697 -0.11893
0.155046 -0.357764 -0.291947
-0.0162306 -0.137402 0.0657406
0.158489 -0.330892 -0.432442
0.310136 -0.154307 -0.440592
-0.129339 -0.27678 0.176761
-0.126763 -0.026617 -0.401545
0.318522 0.0280783 -0.42824
0.257067 0.105671 -0.424245
0.208032 -0.337091 -0.0641772
-0.403652 -0.191424 -0.369641
0.413159 -0.318201 -0.235055
-0.266041 -0.195479 -0.382871
0.309933 -0.33473 -0.171845
-0.0811249 0.0746488 -0.40704
-0.0999132 -0.352221 0.0233825
0.0458323 -0.306419 -0.419682
-0.102306 -0.245174 -0.414637
-0.195056 -0.362612 -0.353626
-0.39389 -0.269095 -0.369801
-0.19829 -0.158106 -0.385155
-0.156744 -0.366414 -0.0327059
-0.334283 -0.320226 -0.36918
-0.0162254 -0.192456 -0.418649
0.4275 0.0862508 -0.414194
-0.04949 -0.0183501 -0.413111
-0.0674811 -0.236577 0.128601
-0.266521 -0.129939 -0.381853
-0.108759 -0.322825 -0.414865
0.141965 -0.067356 -0.418861
0.0614555 0.0953946 -0.419643
0.278046 -0.337094 -0.371275
0.115711 -0.353515 -0.0595637
-0.251258 -0.266941 -0.396415
0.283669 0.266043 -0.462217
-0.444198 -0.0833321 -0.368423
0.0972841 -0.352942 -0.397343
0.210788 -0.227549 -0.439921
0.037939 -0.000364862 -0.418683
-0.139774 0.0416455 -0.406583
0.146123 0.047284 -0.430313
-0.0580166 -0.377307 -0.11094
-0.0872537 -0.0712262 -0.402103
0.304984 -0.235383 -0.429972
-0.36896 0.0921618 -0.370729
-0.432998 -0.297754 -0.334147
-0.215914 -0.363699 -0.123221
0.0903249 -0.192846 0.158501
0.198371 -0.110728 -0.132515
0.267889 -0.0129233 -0.426571
0.37498 -0.153301 -0.441985
-0.462108 -0.00311048 -0.373125
-0.504306 -0.23394 -0.359684
-0.252092 -0.243055 -0.0934825
0.0845261 -0.0559453 -0.419345
0.459859 0.139851 -0.419496
0.385537 -0.0449335 -0.421818
-0.328304 -0.115991 -0.391595
-0.328856 0.0439234 -0.372129
-0.224382 0.0177274 -0.386673
-0.30625 -0.230501 -0.150672
-0.361624 -0.0327693 -0.385335
-0.0635031 -0.167117 -0.408599
0.137333 -0.222143 0.0916748
-0.218025 -0.261977 0.0129909
-0.0397193 -0.285829 -0.418454
-0.187997 -0.0377925 -0.39465
0.0484111 -0.367294 -0.314787
0.0503947 -0.222635 -0.425077
0.0372261 -0.341102 -0.035761
-0.0633696 -0.24897 0.165606
-0.0531548 -0.368589 -0.0362395
0.215384 -0.334721 -0.39351
-0.215756 -0.269234 0.131884
0.292925 -0.315206 -0.427893
-0.290161 -0.0332986 -0.39883
0.391901 -0.320384 -0.258574
0.240547 -0.331634 -0.185911
0.139361 -0.117494 -0.423677
0.432969 0.0470019 -0.417529
0.243795 -0.0431666 -0.360286
0.437254 -0.125617 -0.428717
0.388715 -0.270526 -0.418042
-0.456162 -0.198711 -0.358566
0.191495 0.0995081 -0.434437
-0.20038 0.077312 -0.381038
-0.393464 -0.143404 -0.373969
-0.157486 -0.117476 -0.396055
-0.409343 -0.0541623 -0.376967
0.0435414 -0.369425 -0.170969
-0.297387 -0.233478 -0.388839
0.0656243 -0.157289 -0.421749
0.215545 -0.146895 -0.426589
-0.0566823 -0.26018 0.0676972
0.391267 -0.214627 -0.422879
0.245736 -0.261421 -0.443176
0.105641 -0.00614295 -0.425088
-0.0137271 -0.326248 0.0166382
-0.0352784 0.0139377 -0.415
0.143748 -0.311375 -0.433246
-0.097787 -0.324812 0.0395707
-0.397593 0.129675 -0.369667
0.21086 -0.0348255 -0.421951
0.0519427 -0.100771 -0.417698
0.0518452 -0.275209 -0.416269
-0.0286032 -0.341253 -0.412438
-0.138883 -0.342326 -0.408558
0.419559 -0.296957 -0.312859
0.0710187 -0.368902 -0.0741963
0.385234 0.0944041 -0.417443
-0.0305982 -0.0774613 -0.414236
-0.474072 -0.287772 -0.335864
-0.2234 -0.187818 -0.383016
0.0221932 0.0670829 -0.418484
-0.191465 -0.360455 -0.0250432
-0.368023 -0.311083 -0.365422
0.407286 0.134478 -0.473722
0.347643 0.0140295 -0.420383
-0.150742 -0.178344 -0.395563
0.135827 -0.22216 -0.43243
0.24861 -0.0901238 -0.419955
0.292429 -0.247193 -0.181561
-0.0150354 -0.140177 -0.41704
-0.095631 0.285264 -0.38645
-0.269691 -0.285357 -0.378982
0.264518 0.0864456 -0.431126
0.439777 -0.0850255 -0.426531
-0.114816 -0.0633629 -0.410537
-0.111469 -0.243921 0.119092
-0.331823 -0.160862 -0.373535
0.253775 -0.207261 -0.438905
-0.420582 0.00750364 -0.375557
-0.26219 -0.00966956 -0.374572
-0.310664 -0.0702261 -0.397477
0.118371 0.0535537 -0.423416
0.129629 -0.345473 -0.10702
0.446166 -0.306495 -0.394491
-0.0994361 -0.222725 -0.411966
-0.323675 0.073022 -0.386632
0.233692 -0.125771 -0.119738
-0.429185 -0.122102 -0.366259
-0.11681 -0.359244 0.00415033
-0.430918 -0.27885 -0.375311
-0.298955 -0.331373 -0.346743
-0.229806 -0.0889566 -0.395117
-0.152793 0.00397368 -0.396547
-0.185896 -0.277247 -0.404228
0.300411 -0.334886 -0.160471
-0.0365539 -0.376896 -0.0991771
0.355371 -0.237933 -0.437277
0.413416 -0.0116567 -0.428615
0.1379 -0.348683 -0.395239
-0.209717 -0.353436 -0.373598
-0.0994825 0.0427449 -0.404748
-0.226767 -0.266897 0.0982202
0.43315 -0.223014 -0.420623
0.0557657 0.0256909 -0.426321
0.00140034 -0.359795 -0.0440171
0.246663 0.0222198 -0.426547
-0.410788 -0.22755 -0.361031
0.233571 -0.330312 -0.428546
-0.261233 0.0532709 -0.385343
0.0210241 -0.344596 -0.417989
-0.360758 0.0410586 -0.375932
-0.00427658 -0.211919 -0.414065
0.296453 -0.266104 -0.437965
0.41747 0.026852 -0.452736
0.294193 -0.335801 -0.363699
-0.0706678 -0.224629 0.179751
-0.0353227 -0.246233 0.207803
0.0623456 -0.368146 -0.150896
0.138276 -0.147858 -0.42696
-0.34082 -0.0305197 -0.306549
0.269181 -0.344298 -0.203799
0.423997 0.164184 -0.425585
-0.167265 0.0728909 -0.40391
0.290532 -0.100625 -0.358021
0.339591 -0.299052 -0.429792
-0.0913446 -0.1321 -0.409786
0.412949 -0.175089 -0.440234
0.280757 -0.154148 -0.426935
0.405064 -0.303409 -0.175477
-0.170038 -0.364096 -0.047026
-0.162477 -0.0741667 -0.394822
0.114195 0.0885187 -0.427108
-0.245847 -0.256668 0.0108265
0.177256 0.00633792 -0.426741
0.338948 -0.0365912 -0.423824
-0.367033 -0.101503 -0.384814
0.278202 -0.111005 -0.138959
0.0251536 -0.280455 -0.432377
0.0317197 -0.0341176 -0.420233
0.224294 0.266873 -0.453797
-0.0940286 -0.0241586 -0.409521
-0.0505387 -0.338878 -0.000100553
0.193918 -0.23999 -0.44122
-0.169698 -0.274549 0.160212
-0.35958 0.000968263 -0.384942
0.393394 -0.104293 -0.42719
-0.47737 -0.20182 -0.360376
-0.344622 0.0804275 -0.366699
-0.226976 -0.127936 -0.392002
0.331747 -0.261122 -0.285583
-0.222196 -0.248467 -0.384146
-0.114563 -0.348517 -0.386081
0.233545 0.111911 -0.433973
-0.0913284 -0.371108 -0.043503
-0.463695 -0.0856839 -0.364993
0.0214288 0.0891871 -0.413949
0.330162 -0.181455 -0.443828
-0.0720297 -0.293958 -0.417331
0.31134 0.0416037 -0.428163
0.0832339 -0.327746 -0.426727
0.0886651 -0.365126 -0.0472788
0.14836 -0.0621058 -0.419082
-0.205664 0.00845138 -0.389087
0.27977 -0.0627079 -0.424781
-0.501807 -0.257185 -0.346077
-0.377643 0.124468 -0.368122
-0.017547 -0.123796 0.0709557
0.200365 -0.286995 -0.435843
0.229009 -0.0688478 -0.146348
-0.308045 -0.287515 -0.375465
-0.414892 -0.169604 -0.364025
-0.229945 -0.308217 -0.390204
-0.0361528 -0.200923 0.266232
-0.0340984 -0.111842 0.161613
-0.0139597 -0.349653 0.0336216
-0.297233 -0.234711 -0.114522
-0.0572605 0.0437784 -0.411637
0.201079 -0.344861 -0.414943
0.434793 -0.269165 -0.418432
0.0406574 -0.134464 -0.41529
-0.0448872 -0.0541377 -0.409967
-0.451433 0.0123282 -0.366549
-0.26498 -0.188733 -0.383462
0.104722 -0.220549 -0.429577
0.177876 0.0648855 -0.432431
-0.0447634 -0.240336 0.13043
-0.409161 -0.307492 -0.356316
0.305971 -0.242019 -0.177365
0.374348 0.119726 -0.425903
-0.174339 -0.363475 -0.368105
0.210692 -0.0802754 -0.420059
-0.188478 -0.166691 -0.399423
-0.315383 0.261243 -0.393312
-0.287905 0.033853 -0.384586
0.432777 0.0610285 -0.415008
0.282919 -0.292998 -0.414934
-0.0561792 -0.126261 -0.413798
-0.153481 -0.277909 -0.401977
0.136095 -0.345098 -0.118261
0.197484 -0.146846 -0.426782
-0.234517 -0.247508 -0.0958173
-0.417212 -0.0519776 -0.373825
0.0143293 -0.250467 -0.412355
-0.348966 -0.323793 -0.348404
-0.0881195 -0.191381 -0.411529
-0.314719 -0.224606 -0.18492
0.255 0.00112355 -0.371102
0.0285742 0.0282463 -0.421762
-0.11984 -0.353314 0.0259063
-0.124126 0.274296 -0.386467
0.0916062 -0.294347 -0.421607
-0.334876 -0.148551 -0.388025
-0.104436 -0.256597 0.107543
0.0615248 -0.341692 -0.0448033
-0.300522 -0.0729938 -0.398464
0.13086 -0.0143908 -0.421582
0.433989 -0.303266 -0.234367
0.29746 -0.322293 -0.168035
0.283776 -0.225748 -0.444006
-0.153026 -0.215495 -0.404013
0.412694 0.0796739 -0.464369
0.453994 0.155555 -0.422164
-0.0516057 -0.371483 -0.0544982
0.17015 0.0978799 -0.432804
0.410237 -0.0282897 -0.420496
-0.191772 -0.0563962 -0.393521
0.118365 -0.345614 -0.387457
-0.342831 -0.216015 -0.231554
-0.141298 0.0616531 -0.392471
0.317166 -0.321658 -0.389237
-0.263333 -0.243889 -0.0490848
-0.318232 0.198021 -0.384489
-0.292566 -0.236824 -0.376738
-0.0899838 -0.34744 -0.411868
0.392614 -0.26067 -0.433065
-0.276406 -0.137858 -0.384101
0.36526 -0.0947581 -0.422854
0.180877 -0.190956 -0.431094
-0.0474857 -0.378082 -0.113741
-0.404791 -0.243796 -0.371977
-0.0716255 -0.282671 0.183433
0.368478 0.0382093 -0.420636
-0.360571 -0.0792474 -0.306906
-0.226682 0.0615031 -0.394383
0.275481 0.114853 -0.432288
0.101491 -0.365563 -0.111565
-0.197379 -0.359592 -0.0270889
0.287078 -0.0207534 -0.421067
-0.0328862 0.0201002 -0.411424
0.0151157 -0.352854 -0.39659
0.158527 -0.280865 -0.432347
0.137828 -0.209272 0.0883479
-0.314784 0.0882279 -0.370349
0.411348 -0.159733 -0.420305
0.0235126 -0.374072 -0.155445
-0.0181552 -0.0981943 -0.415445
-0.472013 -0.232119 -0.372594
-0.109453 -0.248621 -0.405135
-0.109145 -0.0704365 -0.399034
-0.150934 0.0163743 -0.407588
0.1509 -0.116603 -0.425195
-0.378187 -0.0721063 -0.377177
0.250357 0.0347595 -0.427398
0.442495 -0.208471 -0.429753
-0.134564 -0.147705 -0.404739
-0.437721 -0.299647 -0.334979
0.280913 -0.337142 -0.366711
0.00796656 -0.332636 0.00601122
0.104799 0.0330375 -0.426403
0.328531 -0.213727 -0.431951
0.0211974 -0.191211 -0.42003
0.298269 -0.159965 -0.160062
-0.0921277 -0.243176 0.131055
-0.0847053 -0.32156 0.0254348
-0.223525 -0.348057 -0.361738
-0.374552 -0.147375 -0.367197
0.236637 -0.209287 -0.432769
-0.0974206 0.0608075 -0.404805
-0.117617 -0.36488 -0.0154837
0.0789782 -0.248387 -0.418136
0.271707 0.266171 -0.460569
-0.0704823 -0.223043 0.178438
0.437476 -0.306744 -0.407515
-0.363728 -0.209871 -0.278692
-0.321478 -0.0281365 -0.393367
0.1295 -0.173025 -0.421837
0.042166 -0.042773 -0.421118
0.305609 -0.153288 -0.425141
-0.31834 -0.31572 -0.374839
0.212627 0.066731 -0.434332
0.22065 -0.151347 -0.133921
-0.146133 -0.311281 -0.40007
-0.44545 -0.123988 -0.364226
-0.40895 -0.0066603 -0.377225
0.113798 0.0873118 -0.427456
-0.00573245 -0.288314 -0.421067
-0.263514 -0.220682 -0.380216
0.295708 -0.339706 -0.193907
0.39112 0.113863 -0.427389
-0.177813 -0.107669 -0.397386
0.0631 -0.141767 -0.415999
-0.426594 -0.197821 -0.358526
0.234194 -0.303896 -0.417349
-0.0284874 -0.163288 -0.410852
0.38344 -0.294404 -0.413827
-0.256907 -0.110296 -0.395797
-0.177644 -0.0192859 -0.395057
0.421503 -0.284957 -0.388533
-0.20308 -0.190875 -0.387006
0.0208023 0.0773528 -0.417615
-0.373687 -0.125991 -0.336507
0.437661 -0.0973782 -0.427367
-0.260514 0.0254885 -0.38462
0.0979854 -0.0364424 -0.419829
0.236457 -0.163013 -0.42941
-0.0596889 -0.267702 -0.414789
0.349395 -0.25381 -0.423363
0.225028 -0.0671421 -0.423981
0.127585 -0.247948 -0.437067
0.302927 -0.24266 -0.176999
-0.165619 -0.363867 -0.0426392
0.0666476 -0.327492 -0.426051
-0.39139 0.120107 -0.368529
-0.158513 -0.228854 -0.333817
-0.324756 -0.101353 -0.380087
0.0488704 -0.367654 -0.0409793
-0.196787 -0.272093 0.134159
-0.266641 -0.0544389 -0.394615
-0.0244758 -0.273377 0.205396
-0.306103 -0.167763 -0.383713
-0.0507046 0.00094156 -0.414106
-0.133052 -0.360362 -0.376481
0.375631 -0.0200319 -0.429685
0.229773 -0.252703 -0.441462
-0.232789 -0.29267 -0.393682
0.0616363 0.0184593 -0.418698
-0.411126 -0.111901 -0.37235
0.184975 0.00542801 -0.422889
-0.00708534 -0.0857514 0.216381
-0.232965 -0.261665 0.0434859
0.431595 0.0562862 -0.416714
0.0577858 -0.370228 -0.153012
0.197124 -0.0109169 -0.359395
-0.0380018 -0.0659821 -0.410408
-0.454351 -0.291655 -0.358432
0.266352 -0.338009 -0.405454
0.130647 -0.327692 -0.431594
-0.348938 0.0428767 -0.339671
0.356283 -0.14976 -0.438535
0.405466 0.161282 -0.47733
-0.352035 -0.29487 -0.371164
-0.331623 0.0785184 -0.384564
-0.454884 0.0146089 -0.375406
-0.0609323 -0.336775 0.00971732
0.13549 -0.0938363 -0.414929
-0.101227 -0.297678 -0.415245
-0.0667258 -0.372972 -0.0639764
-0.216005 0.00985547 -0.387892
0.276235 -0.294918 -0.433537
-0.117357 -0.243044 0.131616
0.255571 0.118656 -0.43315
-0.181049 0.0774486 -0.386226
-0.0547726 -0.252056 0.144357
-0.144778 -0.0785559 -0.401948
0.435314 0.135801 -0.411135
0.0976337 -0.365778 -0.0857378
0.270348 -0.344687 -0.195585
-0.208573 -0.144981 -0.385372
-0.260355 -0.249655 -0.010223
0.381907 -0.192144 -0.421849
0.321238 0.0016899 -0.422174
-0.313349 0.090384 -0.31552
-0.503414 -0.254792 -0.349364
0.0180613 -0.335844 -0.0115983
0.353124 -0.06815 -0.425737
0.0390253 -0.216992 -0.420669
-0.27796 -0.266785 -0.392552
-0.274469 0.0703451 -0.384992
-0.260957 -0.240683 -0.104625
-0.347646 -0.01295 -0.383516
-0.0869048 -0.133915 -0.410263
0.453111 -0.275822 -0.417477
-0.404012 -0.219095 -0.371254
-0.153831 -0.189064 -0.393987
-0.199798 -0.0710628 -0.391345
0.411096 0.22908 -0.478688
0.0230252 0.0353646 -0.420393
-0.0892541 -0.0249483 -0.404231
0.281963 0.0392313 -0.428334
0.240385 -0.0691534 -0.147454
0.19278 -0.118109 -0.422808
-0.179177 -0.363574 -0.35839
0.29262 -0.189414 -0.444033
-0.0171709 -0.138313 -0.416695
0.0750989 -0.279046 -0.419015
-0.0854551 -0.343899 -0.41335
-0.305665 -0.227296 -0.173833
0.158926 -0.031851 -0.420099
0.189285 -0.336988 -0.424843
-0.105151 0.0330025 -0.406856
-0.0452315 -0.377183 -0.108803
0.318796 -0.26245 -0.269685
0.160059 0.038417 -0.429009
-0.271014 -0.0135306 -0.395324
0.19298 -0.21682 -0.438364
-0.352151 -0.0661287 -0.383278
0.355837 -0.285675 -0.41405
-0.465948 -0.102693 -0.361258
-0.0963526 -0.24099 -0.414008
0.427823 -0.176854 -0.430708
0.0359805 -0.345029 -0.418237
-0.186148 -0.314498 -0.39691
0.307178 -0.252337 -0.426176
0.199905 0.100687 -0.429663
-0.206613 -0.262929 0.00341763
-0.0188875 -0.123723 0.080177
-0.253443 -0.207885 -0.381516
-0.110398 -0.365388 -0.0182109
0.433557 -0.238247 -0.42124
-0.447699 -0.191768 -0.359796
-0.14247 0.275107 -0.387337
0.4213 0.160273 -0.425647
-0.171942 0.0288257 -0.40393
0.396259 -0.108641 -0.427605
-0.0919734 -0.327138 0.0372841
-0.189867 -0.364023 -0.0369153
0.292236 -0.32901 -0.362581
-0.293451 -0.299035 -0.376996
0.394992 0.0364752 -0.420483
0.0499529 -0.0431019 -0.421817
0.0383527 0.0817321 -0.421094
-0.391448 -0.304643 -0.363143
-0.383857 -0.123069 -0.378395
0.209975 -0.280429 -0.427099
0.299395 -0.244736 -0.179755
-0.484176 -0.226118 -0.371865
0.119664 -0.347492 -0.103762
0.122878 -0.349569 -0.394408
-0.0226129 -0.0701144 -0.414788
-0.244216 -0.156447 -0.385273
-0.0784717 -0.250785 0.15997
0.0031391 -0.355059 0.0142722
-0.450139 -0.293709 -0.330415
-0.118351 -0.277659 0.17821
0.176959 0.268112 -0.446975
0.263823 -0.000189617 -0.425901
-0.0410342 0.0317337 -0.412439
-0.32786 -0.132546 -0.391365
-0.39044 0.00222257 -0.380412
-0.00585998 -0.203393 -0.418281
0.320744 -0.136157 -0.423191
0.229155 -0.341662 -0.397117
0.279496 -0.326287 -0.199126
-0.14552 -0.0353961 -0.399717
0.0887099 0.00965749 -0.424498
-0.155217 -0.139001 -0.402486
0.243426 -0.0824075 -0.422169
0.140898 -0.215739 -0.424775
-0.0587397 -0.362407 -0.0340894
0.420949 -0.00831757 -0.422904
0.293748 -0.310236 -0.428933
-0.409649 -0.17544 -0.366283
-0.452706 -0.00726907 -0.367473
0.173337 -0.0587941 -0.420033
-0.344202 0.0546565 -0.376235
0.418621 -0.287464 -0.417196
-0.397737 -0.0679586 -0.374397
0.279205 -0.124523 -0.13466
-0.00505148 -0.110434 0.245613
0.138023 -0.142135 -0.416673
0.0368403 -0.341032 -0.0351484
0.272629 0.116974 -0.43253
-0.227525 0.0659625 -0.381087
-0.0742799 -0.162604 -0.412452
0.367139 0.264338 -0.472529
0.4129 0.105756 -0.414665
-0.272072 -0.102231 -0.394152
-0.221445 -0.273327 -0.399513
-0.0589133 -0.269115 -0.414966
0.381956 -0.179277 -0.443986
0.27049 -0.209382 -0.443476
-0.438903 -0.250978 -0.370934
0.0819524 -0.226451 -0.429264
-0.315905 0.236273 -0.389854
-0.228937 -0.338959 -0.374352
0.19966 -0.12498 -0.128819
0.166876 0.0932208 -0.43233
-0.130159 -0.334966 -0.411836
-0.0149651 -0.17663 0.0641264
-0.303448 -0.0363493 -0.398044
-0.0810718 0.0499022 -0.407653
-0.449771 -0.086341 -0.365781
0.29563 0.265916 -0.463864
-0.292856 -0.240313 -0.38982
0.0566036 -0.353304 -0.401717
0.209661 -0.143709 -0.426192
-0.0565244 -0.0355497 -0.411783
0.186293 -0.307852 -0.428072
0.206262 0.0395104 -0.427028
0.333033 -0.00486887 -0.426099
-0.279847 0.0384289 -0.384272
0.36653 -0.239183 -0.427961
-0.158622 0.0421767 -0.391983
-0.125839 -0.0739754 -0.405157
0.0796798 -0.0463248 -0.41977
-0.0293485 -0.119109 -0.414385
0.290612 -0.0584641 -0.366014
0.0596516 -0.276077 -0.433195
-0.0271928 -0.340604 -0.013339
-0.223226 -0.104418 -0.394155
-0.110893 -0.242806 0.130806
0.420696 -0.301273 -0.272993
-0.219779 -0.268353 0.109884
0.282303 -0.259437 -0.428332
-0.491962 -0.27028 -0.338571
-0.061726 -0.232372 0.174522
-0.234354 -0.246526 -0.108172
0.417028 -0.126708 -0.42314
0.353401 -0.307458 -0.410621
0.150605 -0.248603 -0.435178
-0.129016 -0.359476 -0.37761
0.131011 0.0381081 -0.428524
-0.192542 -0.362636 -0.0335623
-0.300446 -0.322031 -0.358197
0.433618 -0.206497 -0.431938
0.0550778 -0.369544 -0.0567304
0.399924 -0.0401881 -0.425422
-0.406505 -0.265539 -0.362903
-0.34582 0.0674219 -0.365413
-0.0599529 -0.28387 0.184619
0.0264817 0.0346687 -0.421052
-0.0255158 -0.124105 0.117311
0.322635 -0.193554 -0.430107
-0.115702 -0.352919 0.0201403
-0.323917 -0.22189 -0.196155
0.414099 0.0661982 -0.462177
-0.140346 -0.179322 -0.403891
-0.228135 0.0248262 -0.391685
-0.278962 -0.238101 -0.102986
0.139117 -0.183426 0.0561744
0.291311 -0.329056 -0.363091
-0.272368 -0.172294 -0.386958
-0.189247 -0.272954 0.146308
0.1031 -0.365664 -0.0991393
-0.362793 0.00803573 -0.37835
-0.395775 -0.157986 -0.365323
0.102689 -0.325381 -0.428203
0.0163729 -0.212046 -0.42456
0.407046 0.184488 -0.478556
0.226418 -0.273451 -0.440757
0.395829 0.118096 -0.416657
-0.455291 0.0135448 -0.375469
0.293261 -0.33241 -0.2031
-0.323153 -0.147282 -0.390435
0.418658 0.039365 -0.419298
0.234142 -0.0647707 -0.422499
0.168555 -0.185436 -0.430119
0.24776 0.266165 -0.457345
0.217585 -0.0699843 -0.133463
-0.240102 -0.254159 -0.382385
0.312436 0.0334868 -0.426107
-0.101974 -0.25875 -0.407503
0.300137 -0.142172 -0.425576
-0.29091 0.0782302 -0.373863
-0.200331 -0.359536 -0.360957
0.0258104 0.0804218 -0.415192
-0.256809 -0.0753761 -0.3863
-0.205016 0.0749359 -0.395715
0.440868 -0.300306 -0.413498
0.232067 -0.33465 -0.424799
0.148253 -0.0131963 -0.420873
-0.262302 -0.24359 -0.0589417
-0.0249003 -0.187966 0.271909
0.234832 0.0812971 -0.424839
-0.170133 -0.0922033 -0.398573
-0.0428433 -0.0929187 0.226852
0.370908 -0.0823098 -0.42308
-0.0585759 -0.334228 0.0203903
-0.0141833 -0.0713012 -0.412888
-0.421501 -0.304984 -0.357775
-0.0425334 0.00518449 -0.415053
-0.0271632 -0.162536 -0.417726
-0.38004 -0.0701145 -0.379779
0.238813 -0.213827 -0.437066
-0.202577 -0.150045 -0.393647
0.159463 -0.339974 -0.423725
0.0714057 0.0238179 -0.421363
-0.065332 -0.371296 -0.0540457
-0.0350979 -0.246526 0.197477
0.314208 -0.324489 -0.397426
-0.180328 0.011955 -0.391521
0.0344758 -0.326107 -0.414409
-0.0656467 -0.237067 0.130254
-0.292109 0.00832544 -0.381944
0.331522 -0.259665 -0.29948
0.176483 -0.0623418 -0.420469
0.436679 0.116494 -0.411248
-0.116549 0.0484632 -0.401997
-0.188787 -0.316829 -0.392525
-0.0657716 -0.0595363 -0.409309
-0.318312 -0.0998023 -0.390165
-0.374376 -0.193317 -0.303259
0.133138 0.0679797 -0.431252
0.397932 -0.218913 -0.422817
-0.228638 -0.264705 0.0654928
0.125448 -0.351648 -0.123874
-0.182613 -0.0458623 -0.395321
-0.327418 -0.311948 -0.353417
-0.41164 -0.228652 -0.360985
-0.351635 0.073296 -0.374177
0.32091 -0.279454 -0.432313
-0.131965 -0.151858 -0.405328
0.145869 -0.14201 -0.427152
-0.420628 -0.128699 -0.368252
0.0675127 -0.254884 -0.417369
0.0342144 -0.340329 -0.0323053
0.372982 0.0185462 -0.418159
0.256481 -0.139156 -0.11691
-0.483465 -0.237166 -0.37228
0.425484 -0.101065 -0.427564
0.0494521 -0.0195442 -0.42219
-0.208704 -0.263801 0.0141393
0.201362 -0.241988 -0.441489
-0.287335 -0.229638 -0.175268
0.246704 -0.331208 -0.391131
-0.369066 -0.0318921 -0.3819
-0.178769 -0.364601 -0.0334309
0.343163 -0.20388 -0.431168
0.0940563 -0.351191 -0.401627
-0.036972 -0.358841 -0.016014
-0.246136 -0.194057 -0.382873
0.278966 -0.17097 -0.429799
-0.146323 0.0692664 -0.395061
0.269211 0.104769 -0.426665
-0.284917 -0.271892 -0.374513
-0.363424 -0.113268 -0.385368
0.40085 -0.262951 -0.420979
-0.116239 -0.0444361 -0.398882
0.419358 -0.294791 -0.325726
-0.154671 -0.362568 -0.370946
-0.291355 -0.0478374 -0.399207
-0.159121 -0.274993 0.161823
-0.0716404 0.0403342 -0.410313
-0.32934 0.159617 -0.377165
-0.114284 -0.354874 0.0112521
-0.00362716 -0.183019 -0.418208
0.395816 -0.153616 -0.420141
-0.101804 -0.243344 0.131172
0.299864 -0.163355 -0.123148
0.183315 0.011607 -0.423431
-0.439065 -0.0150611 -0.374052
-0.410661 -0.188799 -0.368493
