ply
format ascii 1.0
comment Created by Open3D
element vertex 1212
property double x
property double y
property double z
property uchar red
property uchar green
property uchar blue
end_header
-0.263278 -0.133509 0.0774892 127 0 255
-0.162827 -0.287298 0.124961 127 0 255
-0.265757 -0.353837 -0.05607 127 0 255
0.419453 -0.483709 -0.0896793 127 0 255
-0.0154948 -0.483937 0.214293 127 0 255
-0.0624224 -0.480882 -0.0846952 127 0 255
0.309964 -0.124673 -0.205023 127 0 255
0.487173 -0.274774 -0.212554 127 0 255
-0.227161 -0.448403 0.151108 127 0 255
0.0853563 -0.482443 0.0678637 127 0 255
-0.00817802 -0.276219 -0.218757 127 0 255
-0.258484 -0.250201 0.117834 127 0 255
-0.260141 -0.473202 -0.138718 127 0 255
-0.263091 -0.230628 -0.145923 127 0 255
0.237496 -0.350655 0.0707711 127 0 255
0.382388 -0.116558 -0.226255 127 0 255
0.33186 -0.458805 -0.202881 127 0 255
0.112121 -0.485084 0.187292 127 0 255
0.225122 -0.0258758 -0.198823 127 0 255
-0.071881 -0.184005 -0.218631 127 0 255
-0.260258 -0.338728 0.142776 127 0 255
0.200075 -0.419022 -0.207576 127 0 255
-0.109624 -0.350507 0.265201 127 0 255
-0.139257 -0.252472 -0.210903 127 0 255
-0.263641 -0.146224 -0.177818 127 0 255
0.415574 -0.410895 -0.188783 127 0 255
0.0161001 -0.0297774 -0.19801 127 0 255
0.375467 -0.0182311 -0.202407 127 0 255
0.14177 -0.468531 -0.204972 127 0 255
-0.266345 -0.0523471 -0.207677 127 0 255
-0.104225 -0.388274 -0.21381 127 0 255
-0.212967 -0.475781 0.0112897 127 0 255
0.0466694 -0.347247 0.0775344 127 0 255
0.155857 -0.483222 0.112488 127 0 255
0.374673 -0.349774 -0.0250543 127 0 255
0.0895599 -0.100964 -0.20338 127 0 255
0.313304 -0.486306 0.131431 127 0 255
-0.256225 -0.362684 0.0650126 127 0 255
0.218558 -0.483104 0.00407994 127 0 255
0.242347 -0.328766 -0.193921 127 0 255
-0.103784 -0.365208 0.0706156 127 0 255
-0.0226287 -0.483148 0.137274 127 0 255
0.0746729 -0.487296 0.28746 127 0 255
-0.25498 -0.113428 -0.0737482 127 0 255
0.155099 -0.347871 0.0562995 127 0 255
0.00351349 -0.156909 -0.205684 127 0 255
-0.241874 -0.444323 -0.042332 127 0 255
-0.263609 -0.391654 -0.143813 127 0 255
0.0672984 -0.341796 -0.201267 127 0 255
0.0556048 -0.470337 -0.207804 127 0 255
0.324755 -0.342864 0.0328468 127 0 255
0.321054 -0.313324 -0.209665 127 0 255
0.168349 -0.345592 0.174804 127 0 255
-0.0384971 -0.474896 -0.035392 127 0 255
-0.19851 -0.174222 -0.217727 127 0 255
-0.0827721 -0.346598 0.20486 127 0 255
-0.259591 -0.315807 0.202 127 0 255
0.093845 -0.366145 0.135825 127 0 255
-0.233865 -0.470352 0.276455 127 0 255
0.223041 -0.485335 0.266409 127 0 255
0.156014 -0.319554 -0.214095 127 0 255
-0.262827 -0.0872865 0.162454 127 0 255
0.412645 -0.476624 -0.178828 127 0 255
-0.139466 -0.480204 0.11159 127 0 255
0.297563 -0.483058 -0.0110074 127 0 255
-0.244079 -0.314426 -0.208117 127 0 255
0.184991 -0.12265 -0.205588 127 0 255
-0.0511121 -0.0209944 -0.202491 127 0 255
0.337625 -0.226845 -0.197355 127 0 255
0.181798 -0.484003 0.178275 127 0 255
-0.258054 -0.204731 -0.0868446 127 0 255
-0.0496708 -0.100938 -0.217713 127 0 255
-0.160766 -0.470382 -0.0365835 127 0 255
-0.260994 -0.281893 -0.0240362 127 0 255
0.296669 -0.328621 0.0943749 127 0 255
0.26447 -0.44112 -0.184873 127 0 255
0.0567175 -0.238541 -0.203655 127 0 255
-0.258094 -0.392595 0.00591501 127 0 255
0.403272 -0.297139 -0.199516 127 0 255
-0.0815722 -0.47395 -0.165107 127 0 255
0.237575 -0.481714 -0.063705 127 0 255
-0.244958 -0.242649 0.173578 127 0 255
0.0959998 -0.426605 -0.203619 127 0 255
-0.257261 -0.390684 0.216704 127 0 255
0.355177 -0.166367 -0.204146 127 0 255
-0.139353 -0.041716 -0.218106 127 0 255
-0.262781 -0.307884 -0.148407 127 0 255
-0.0655086 -0.345016 -0.215908 127 0 255
0.120869 -0.479736 -0.00667907 127 0 255
0.0101053 -0.48349 0.0851817 127 0 255
-0.144339 -0.482342 0.218485 127 0 255
0.0503017 -0.484568 0.213319 127 0 255
0.0913721 -0.0543534 -0.22049 127 0 255
-0.259518 -0.475905 0.158449 127 0 255
0.167435 -0.4803 -0.130187 127 0 255
0.487173 -0.149774 -0.212554 127 0 255
-0.241077 -0.173573 0.208256 127 0 255
0.236231 -0.0984216 -0.206669 127 0 255
-0.20661 -0.35774 0.30544 127 0 255
-0.261443 -0.0841775 -0.140576 127 0 255
0.435373 -0.0338064 -0.206602 127 0 255
0.115329 -0.215107 -0.208545 127 0 255
-0.240162 -0.467228 -0.191373 127 0 255
-0.0521976 -0.219563 -0.20949 127 0 255
0.242693 -0.486002 0.202418 127 0 255
-0.201564 -0.0965063 -0.211327 127 0 255
0.00964074 -0.354449 0.0843597 127 0 255
0.137173 -0.324785 -0.0250474 127 0 255
0.192328 -0.274155 -0.203909 127 0 255
-0.260766 -0.18005 0.0715399 127 0 255
-0.226702 -0.22566 -0.208934 127 0 255
0.171737 -0.483559 0.0348809 127 0 255
-0.0719507 -0.424278 -0.207454 127 0 255
0.297974 -0.48443 0.0859613 127 0 255
-0.25838 -0.311107 0.08364 127 0 255
-0.137827 -0.249802 0.137464 127 0 255
0.269579 -0.24012 -0.202339 127 0 255
-0.050327 -0.337292 0.0249571 127 0 255
0.334833 -0.0672683 -0.196677 127 0 255
0.456148 -0.377018 -0.199313 127 0 255
-0.219017 -0.311764 0.167899 127 0 255
0.050678 -0.156187 -0.217828 127 0 255
0.212173 -0.324774 -0.0250543 127 0 255
0.159708 -0.483973 0.221838 127 0 255
0.0750036 -0.35711 0.0413541 127 0 255
-0.0848886 -0.482313 -0.0303332 127 0 255
-0.268962 -0.447263 0.0777126 127 0 255
-0.0471044 -0.48165 0.231723 127 0 255
-0.195132 -0.416727 -0.203109 127 0 255
-0.0119546 -0.381371 -0.209977 127 0 255
0.119769 -0.377687 -0.212157 127 0 255
0.0524891 -0.483606 0.167007 127 0 255
-0.105571 -0.480854 0.173787 127 0 255
0.0477311 -0.347543 0.142092 127 0 255
-0.15075 -0.355077 -0.212355 127 0 255
0.419385 -0.198492 -0.195237 127 0 255
-0.163854 -0.480771 -0.117981 127 0 255
0.246264 -0.484638 0.120974 127 0 255
-0.26007 -0.154802 0.00946969 127 0 255
-0.261298 -0.473652 -0.0693162 127 0 255
0.0217792 -0.47048 -0.206495 127 0 255
-0.053525 -0.34483 0.173876 127 0 255
0.338836 -0.331046 0.114868 127 0 255
0.0935514 -0.479143 -0.0536617 127 0 255
0.044226 -0.292599 -0.208501 127 0 255
-0.22737 -0.309437 0.302112 127 0 255
0.296025 -0.468501 -0.0577022 127 0 255
-0.255626 -0.395295 -0.0365388 127 0 255
0.184625 -0.482141 -0.0384771 127 0 255
-0.253998 -0.430578 0.268429 127 0 255
-0.260544 -0.0799733 -0.0642381 127 0 255
-0.262827 -0.137293 0.249958 127 0 255
0.00887106 -0.481636 -0.000161205 127 0 255
-0.261788 -0.224545 -0.0281759 127 0 255
-0.25688 -0.348922 -0.125223 127 0 255
0.283369 -0.392343 -0.187192 127 0 255
0.137173 -0.349787 0.224954 127 0 255
0.215863 -0.475999 -0.127979 127 0 255
0.257001 -0.180836 -0.204522 127 0 255
0.360343 -0.483219 0.0621695 127 0 255
0.183686 -0.0532185 -0.198146 127 0 255
0.369073 -0.349079 -0.199409 127 0 255
0.0225285 -0.101894 -0.204387 127 0 255
-0.250258 -0.125106 -0.206597 127 0 255
-0.046893 -0.483277 0.0754675 127 0 255
-0.0807839 -0.278256 -0.201719 127 0 255
0.217267 -0.362519 -0.189476 127 0 255
0.151416 -0.157149 -0.219689 127 0 255
0.127987 -0.483368 0.145296 127 0 255
-0.126853 -0.481957 -0.196116 127 0 255
-0.201601 -0.470717 0.105436 127 0 255
-0.259983 -0.207963 0.145418 127 0 255
0.141214 -0.275101 -0.203987 127 0 255
-0.256809 -0.273756 0.0311737 127 0 255
0.398923 -0.438778 -0.205669 127 0 255
0.127371 -0.483114 -0.115393 127 0 255
-0.259247 -0.427592 0.163402 127 0 255
-0.0518346 -0.343137 0.110977 127 0 255
-0.230157 -0.396455 0.33098 127 0 255
0.430253 -0.0970999 -0.229485 127 0 255
0.218167 -0.349201 0.0572226 127 0 255
0.265658 -0.0416594 -0.206207 127 0 255
0.306853 -0.361481 0.020392 127 0 255
0.117578 -0.362485 0.0176673 127 0 255
-0.262003 -0.425234 -0.122237 127 0 255
0.221593 -0.453167 -0.206166 127 0 255
0.407182 -0.482639 -0.0501649 127 0 255
-0.106939 -0.140401 -0.203488 127 0 255
0.146898 -0.481492 0.0698732 127 0 255
-0.00266029 -0.322596 -0.218029 127 0 255
-0.211378 -0.0460236 -0.202261 127 0 255
-0.261186 -0.214156 -0.163642 127 0 255
-0.25031 -0.218019 0.231555 127 0 255
-0.120944 -0.351098 0.282014 127 0 255
-0.255483 -0.326609 0.237795 127 0 255
-0.253451 -0.407533 -0.192632 127 0 255
-0.211972 -0.291001 -0.207697 127 0 255
-0.257757 -0.328555 -0.0681398 127 0 255
0.287173 -0.487274 0.262446 127 0 255
0.154907 -0.479838 -0.17564 127 0 255
-0.0522545 -0.482958 -0.187794 127 0 255
0.374279 -0.330069 0.0259519 127 0 255
0.435379 -0.307585 -0.198352 127 0 255
-0.258529 -0.374846 0.115037 127 0 255
0.043797 -0.405327 -0.211724 127 0 255
-0.0422866 -0.467555 0.021651 127 0 255
0.0246729 -0.324792 -0.0250428 127 0 255
0.285013 -0.484019 0.0183611 127 0 255
-0.237345 -0.480757 0.212232 127 0 255
0.00805818 -0.481973 -0.0531251 127 0 255
-0.267314 -0.460007 0.0263343 127 0 255
0.139196 -0.0429256 -0.22284 127 0 255
0.329185 -0.414336 -0.205385 127 0 255
-0.0228363 -0.167611 -0.204094 127 0 255
0.301132 -0.335058 0.151667 127 0 255
0.418452 -0.148696 -0.205704 127 0 255
-0.25661 -0.151999 0.129048 127 0 255
-0.152605 -0.348964 0.054449 127 0 255
0.0525659 -0.0416114 -0.219938 127 0 255
-0.0937693 -0.0597375 -0.199239 127 0 255
0.377957 -0.243304 -0.200928 127 0 255
0.301586 -0.483366 -0.102628 127 0 255
-0.0459879 -0.483036 0.136861 127 0 255
-0.18688 -0.459105 -0.199068 127 0 255
0.305596 -0.328351 -0.21331 127 0 255
0.265834 -0.112254 -0.205613 127 0 255
0.0873236 -0.48245 0.0647964 127 0 255
0.31084 -0.0198394 -0.189897 127 0 255
-0.104836 -0.213973 -0.208552 127 0 255
-0.262775 -0.126135 0.0568576 127 0 255
-0.201794 -0.466417 -0.0807057 127 0 255
0.406314 -0.0558731 -0.200402 127 0 255
-0.137827 -0.412301 0.287463 127 0 255
0.213742 -0.482749 0.0402669 127 0 255
-0.245986 -0.277723 0.106043 127 0 255
0.340938 -0.114788 -0.199478 127 0 255
-0.260411 -0.234636 -0.0951949 127 0 255
0.201854 -0.199713 -0.217605 127 0 255
0.0446124 -0.198287 -0.20593 127 0 255
-0.260632 -0.147977 -0.132397 127 0 255
-0.258384 -0.376863 0.19396 127 0 255
-0.255759 -0.406759 0.0529312 127 0 255
-0.167691 -0.483111 0.132499 127 0 255
0.0871729 -0.337296 0.22496 127 0 255
-0.259514 -0.21602 0.0663578 127 0 255
-0.265129 -0.0653265 -0.114434 127 0 255
0.487173 -0.0372751 -0.212554 127 0 255
0.287926 -0.46153 -0.202046 127 0 255
-0.261289 -0.268892 -0.170145 127 0 255
-0.253294 -0.38115 0.285582 127 0 255
-0.207946 -0.361475 -0.201726 127 0 255
0.296442 -0.486294 0.152008 127 0 255
0.43135 -0.403875 -0.222729 127 0 255
-0.0477773 -0.316707 -0.197328 127 0 255
0.431847 -0.20679 -0.231657 127 0 255
0.199673 -0.412274 0.149946 127 0 255
0.205399 -0.321059 -0.195362 127 0 255
-0.155254 -0.289441 -0.211397 127 0 255
-0.258172 -0.333658 0.0122327 127 0 255
-0.0391197 -0.0887255 -0.217277 127 0 255
0.103518 -0.287739 -0.205527 127 0 255
0.0911315 -0.114933 -0.204138 127 0 255
0.186021 -0.483981 0.157198 127 0 255
0.29918 -0.186567 -0.20297 127 0 255
0.11485 -0.48532 0.205926 127 0 255
0.155993 -0.398103 -0.211189 127 0 255
-0.264224 -0.172072 -0.0389642 127 0 255
0.0114602 -0.346902 0.134254 127 0 255
-0.0972478 -0.35069 0.23721 127 0 255
-0.260464 -0.287156 0.21688 127 0 255
-0.258318 -0.394242 -0.0850396 127 0 255
-0.0109626 -0.230241 -0.216296 127 0 255
-0.0753939 -0.48407 0.234833 127 0 255
-0.225673 -0.458151 0.0503908 127 0 255
0.182954 -0.476241 -0.0688365 127 0 255
0.371302 -0.392706 -0.185878 127 0 255
0.124229 -0.362723 0.173218 127 0 255
-0.147415 -0.139587 -0.202598 127 0 255
0.0469054 -0.351159 -0.205255 127 0 255
-0.0228941 -0.483687 0.186105 127 0 255
-0.203569 -0.474523 -0.0183311 127 0 255
0.0834077 -0.347388 0.0826128 127 0 255
-0.259841 -0.11426 0.00227237 127 0 255
-0.152061 -0.480123 0.0711169 127 0 255
0.232934 -0.263138 -0.2047 127 0 255
-0.15994 -0.408964 -0.207244 127 0 255
-0.264136 -0.0350848 -0.18221 127 0 255
-0.105561 -0.482338 -0.0554636 127 0 255
-0.100327 -0.287302 0.137463 127 0 255
0.0880465 -0.445985 -0.206269 127 0 255
-0.200327 -0.399805 0.374965 127 0 255
0.0448257 -0.473064 -0.0167577 127 0 255
-0.100319 -0.350152 0.0787087 127 0 255
-0.0412252 -0.457232 -0.20905 127 0 255
-0.194393 -0.482382 -0.16831 127 0 255
-0.26305 -0.290644 -0.0625721 127 0 255
0.317556 -0.484003 0.0497865 127 0 255
0.462173 0.0127225 -0.225052 121 9 254
0.294061 -0.329945 0.0462883 127 0 255
0.00888273 -0.483592 0.0852398 127 0 255
-0.204999 -0.182641 -0.217613 127 0 255
0.22053 -0.483867 0.236832 127 0 255
-0.249605 -0.100556 -0.209891 127 0 255
-0.266336 -0.437336 -0.0202431 127 0 255
0.321625 -0.294087 -0.202072 127 0 255
0.125134 -0.205381 -0.204379 127 0 255
0.388033 -0.0148999 -0.199466 127 0 255
-0.262827 -0.187295 0.274959 127 0 255
0.22399 -0.40807 -0.208546 127 0 255
-0.0484369 -0.0412703 -0.217526 127 0 255
-0.265397 -0.475765 0.106472 127 0 255
0.421374 -0.482443 -0.026411 127 0 255
0.1323 -0.345869 0.0257903 127 0 255
-0.0956533 -0.393753 -0.202576 127 0 255
0.0972353 -0.365727 -0.211116 127 0 255
-0.248534 -0.250122 0.00223435 127 0 255
0.146324 -0.0872347 -0.201597 127 0 255
-0.132809 -0.324237 -0.207426 127 0 255
-0.256719 -0.149929 0.189305 127 0 255
0.17723 -0.482899 -0.0115402 127 0 255
0.372454 -0.187317 -0.203356 127 0 255
0.447531 -0.254609 -0.212395 127 0 255
0.0352667 -0.269555 -0.214854 127 0 255
0.258381 -0.33853 -0.211169 127 0 255
-0.235831 -0.280793 0.153798 127 0 255
0.110282 -0.474625 -0.0452617 127 0 255
-0.0812644 -0.123202 -0.218479 127 0 255
0.337173 -0.424774 0.187446 127 0 255
0.375691 -0.347814 0.0128685 127 0 255
0.249673 -0.487274 0.299946 127 0 255
-0.256104 -0.415631 0.237123 127 0 255
-0.168863 -0.062524 -0.200843 127 0 255
0.0154429 -0.046997 -0.217795 127 0 255
-0.0187621 -0.407091 -0.198284 127 0 255
0.0295833 -0.483367 0.143664 127 0 255
0.214984 -0.0295229 -0.198876 127 0 255
0.44132 -0.463838 -0.186811 127 0 255
0.0854742 -0.0211863 -0.204777 127 0 255
0.321038 -0.457609 -0.179848 127 0 255
-0.261954 -0.195822 -0.11783 127 0 255
-0.125443 -0.252103 -0.217298 127 0 255
0.246473 -0.481264 -0.0870832 127 0 255
-0.242411 -0.421667 0.140393 127 0 255
-0.265932 -0.113632 -0.0648212 127 0 255
-0.0278355 -0.273288 -0.222353 127 0 255
0.0619235 -0.483873 0.216107 127 0 255
-0.249774 -0.225204 -0.20787 127 0 255
0.208994 -0.154095 -0.201396 127 0 255
0.251242 -0.484652 0.114763 127 0 255
0.116735 -0.483424 0.130431 127 0 255
0.274673 -0.337274 -0.0250543 127 0 255
-0.243662 -0.380565 0.0659835 127 0 255
-0.253858 -0.216933 0.118597 127 0 255
-0.261558 -0.347875 -0.159189 127 0 255
-0.253902 -0.230119 0.210782 127 0 255
0.384971 -0.121629 -0.22632 127 0 255
0.291389 -0.338385 0.168598 127 0 255
-0.175327 -0.362294 0.137458 127 0 255
-0.241915 -0.483486 -0.048606 127 0 255
-0.0781988 -0.34571 0.195218 127 0 255
0.111142 -0.480479 -0.129411 127 0 255
0.162173 -0.487281 0.29995 127 0 255
-0.259805 -0.332935 0.154746 127 0 255
-0.242094 -0.480031 0.164783 127 0 255
0.131816 -0.464354 -0.205121 127 0 255
-0.144797 -0.192519 -0.218178 127 0 255
0.0687876 -0.359558 0.138683 127 0 255
0.487173 -0.112274 -0.225054 127 0 255
-0.261722 -0.138203 0.0984133 127 0 255
0.150652 -0.24603 -0.20478 127 0 255
-0.126485 -0.482882 -0.193514 127 0 255
0.338885 -0.483725 0.0819295 127 0 255
-0.0391991 -0.356832 0.0962561 127 0 255
-0.102814 -0.480636 0.183503 127 0 255
-0.261389 -0.444206 -0.100836 127 0 255
0.289451 -0.078062 -0.206076 127 0 255
0.341285 -0.242795 -0.201453 127 0 255
0.165499 -0.320892 -0.214947 127 0 255
0.215196 -0.361315 0.0677376 127 0 255
0.262299 -0.484485 0.0421869 127 0 255
0.0504074 -0.137515 -0.218399 127 0 255
-0.0753271 -0.399802 0.249963 127 0 255
-0.219919 -0.317117 0.306701 127 0 255
0.250068 -0.48589 0.177039 127 0 255
-0.258782 -0.209278 0.0215721 127 0 255
-0.0530992 -0.482701 0.00710246 127 0 255
-0.261797 -0.36507 -0.0323953 127 0 255
0.30887 -0.363059 -0.196248 127 0 255
0.0223948 -0.46623 -0.208255 127 0 255
-0.241356 -0.445438 0.272893 127 0 255
-0.257856 -0.324175 0.0743442 127 0 255
0.424673 -0.324774 0.0374457 127 0 255
-0.085041 -0.17637 -0.218753 127 0 255
-0.119079 -0.0365678 -0.211024 127 0 255
-0.261865 -0.115661 -0.135045 127 0 255
-0.258397 -0.363122 0.234915 127 0 255
-0.261497 -0.269772 -0.120197 127 0 255
-0.0886256 -0.443327 -0.205875 127 0 255
0.32695 -0.328671 0.0879068 127 0 255
0.487173 -0.199774 -0.212554 127 0 255
0.432312 -0.360194 -0.225485 127 0 255
0.141681 -0.130417 -0.203596 127 0 255
-0.243831 -0.290578 -0.20464 127 0 255
-0.00986904 -0.473405 -0.0552286 127 0 255
0.389464 -0.44109 -0.188004 127 0 255
0.367142 -0.0744585 -0.196048 127 0 255
0.162351 -0.483981 0.214495 127 0 255
0.242958 -0.211639 -0.203659 127 0 255
0.139294 -0.345089 0.153264 127 0 255
0.31617 -0.48335 -0.00919427 127 0 255
-0.231053 -0.449408 -0.200567 127 0 255
0.190184 -0.378031 -0.215039 127 0 255
0.276404 -0.140941 -0.200068 127 0 255
0.287173 -0.412274 0.224946 127 0 255
0.0737976 -0.249214 -0.213626 127 0 255
-0.262635 -0.159394 -0.182751 127 0 255
0.135354 -0.482713 0.0811544 127 0 255
0.145731 -0.0383968 -0.196461 127 0 255
-0.225959 -0.293426 0.195582 127 0 255
-0.226374 -0.401046 0.32176 127 0 255
0.445158 -0.0844424 -0.206432 127 0 255
-0.176183 -0.467657 -0.0928395 127 0 255
-0.0843501 -0.350639 -0.215601 127 0 255
0.431655 -0.483424 -0.05351 127 0 255
-0.000908587 -0.0826572 -0.20993 127 0 255
-0.237251 -0.0441624 -0.210769 127 0 255
-0.167876 -0.477608 0.0907674 127 0 255
-0.194307 -0.322688 -0.211025 127 0 255
0.306528 -0.0258477 -0.188948 127 0 255
-0.0747561 -0.237244 -0.208773 127 0 255
-0.0581894 -0.483379 0.166089 127 0 255
0.0847442 -0.32451 -0.216467 127 0 255
-0.256978 -0.181812 -0.0622847 127 0 255
-0.0392526 -0.482948 0.0676502 127 0 255
-0.250472 -0.295286 0.028234 127 0 255
0.303391 -0.483699 -0.0971406 127 0 255
-0.259907 -0.350808 -0.103015 127 0 255
-0.164666 -0.0922227 -0.210814 127 0 255
0.23246 -0.0921567 -0.205954 127 0 255
0.190781 -0.48106 -0.114971 127 0 255
0.099673 -0.487293 0.287458 127 0 255
-0.0145873 -0.347843 -0.214023 127 0 255
-0.251699 -0.310176 0.257649 127 0 255
0.169907 -0.466581 -0.204952 127 0 255
-0.0291419 -0.195193 -0.206209 127 0 255
-0.260241 -0.423105 -0.153031 127 0 255
0.444346 -0.427053 -0.18957 127 0 255
-0.266382 -0.0563483 -0.154061 127 0 255
-0.25488 -0.417932 0.0102665 127 0 255
-0.172043 -0.479617 -0.149245 127 0 255
-0.262752 -0.0977967 -0.0319012 127 0 255
-0.0525019 -0.344162 0.162185 127 0 255
0.0717494 -0.415922 -0.205641 127 0 255
-0.262644 -0.250544 -0.0497121 127 0 255
0.337173 -0.349774 -0.0250543 127 0 255
0.126345 -0.34872 0.068081 127 0 255
0.254247 -0.444088 -0.204387 127 0 255
0.271968 -0.327311 0.0566606 127 0 255
-0.0953436 -0.481223 -0.03584 127 0 255
-0.263088 -0.189434 0.192906 127 0 255
-0.259105 -0.169179 0.0212159 127 0 255
-0.259103 -0.339221 -0.200992 127 0 255
-0.187827 -0.412297 0.262461 127 0 255
-0.22367 -0.123247 -0.210843 127 0 255
0.319018 -0.193821 -0.200208 127 0 255
0.18822 -0.224846 -0.216191 127 0 255
0.0646249 -0.483469 0.155836 127 0 255
-0.153616 -0.434826 -0.200928 127 0 255
-0.122357 -0.349382 0.274239 127 0 255
0.0629434 -0.0586486 -0.201295 127 0 255
-0.00941931 -0.479684 0.200606 127 0 255
0.224916 -0.474222 -0.00864485 127 0 255
0.396296 -0.3444 -0.203758 127 0 255
-0.143291 -0.48295 0.1361 127 0 255
-0.257439 -0.47819 0.00061773 127 0 255
-0.256914 -0.42249 0.111414 127 0 255
-0.25861 -0.239466 0.05634 127 0 255
0.312085 -0.483681 0.134298 127 0 255
-0.262827 -0.0622751 0.0499462 127 0 255
0.394452 -0.271709 -0.202001 127 0 255
-0.0211841 -0.134766 -0.210268 127 0 255
0.0649288 -0.480337 -0.0317118 127 0 255
-0.00624922 -0.467232 -0.193303 127 0 255
-0.244709 -0.483377 0.108173 127 0 255
-0.0226154 -0.026335 -0.209394 127 0 255
0.0746729 -0.324793 -0.0125422 127 0 255
-0.17201 -0.353372 -0.199358 127 0 255
0.00588425 -0.347775 0.133703 127 0 255
-0.259111 -0.254307 0.142613 127 0 255
0.337895 -0.344797 -0.196875 127 0 255
-0.243599 -0.479341 0.224279 127 0 255
0.0400801 -0.172465 -0.206536 127 0 255
-0.258165 -0.379519 0.151465 127 0 255
0.371501 -0.021629 -0.201984 127 0 255
0.279508 -0.236638 -0.202451 127 0 255
-0.118301 -0.106453 -0.2092 127 0 255
-0.225932 -0.36079 0.294298 127 0 255
0.347633 -0.43842 -0.194039 127 0 255
0.228597 -0.392173 -0.19071 127 0 255
0.237173 -0.324774 -0.0250543 127 0 255
0.487173 -0.349774 -0.225054 127 0 255
0.216051 -0.482748 0.0392959 127 0 255
-0.268054 -0.446969 -0.0631202 127 0 255
-0.08953 -0.479798 0.226642 127 0 255
0.0507083 -0.355591 0.091449 127 0 255
-0.108881 -0.288377 -0.207248 127 0 255
-0.238363 -0.212348 -0.212268 127 0 255
0.00865509 -0.48334 0.112723 127 0 255
0.213082 -0.485434 0.248976 127 0 255
-0.262827 -0.249798 0.287461 127 0 255
0.330816 -0.136968 -0.200783 127 0 255
-0.227196 -0.304048 0.13255 127 0 255
-0.0569824 -0.39548 -0.202828 127 0 255
-0.251521 -0.177349 0.105311 127 0 255
0.0322013 -0.388629 -0.210288 127 0 255
-0.0656898 -0.34987 0.0719854 127 0 255
0.145337 -0.185377 -0.20415 127 0 255
-0.260887 -0.135281 -0.10612 127 0 255
-0.226156 -0.457976 0.0536706 127 0 255
-0.0024901 -0.482116 0.00178122 127 0 255
0.115408 -0.345414 -0.204525 127 0 255
-0.265523 -0.297366 -0.0892406 127 0 255
0.106501 -0.364329 0.0225422 127 0 255
0.157158 -0.476687 -0.0319098 127 0 255
0.0496729 -0.487298 0.287461 127 0 255
0.112837 -0.063966 -0.220117 127 0 255
-0.257841 -0.347131 0.0109322 127 0 255
0.0577736 -0.469411 -0.207681 127 0 255
0.427649 -0.206802 -0.23164 127 0 255
0.137304 -0.416427 -0.210337 127 0 255
0.0951086 -0.139125 -0.209287 127 0 255
0.181264 -0.483991 0.169946 127 0 255
0.190565 -0.271276 -0.203922 127 0 255
-0.275327 -0.0372744 -0.0500543 127 0 255
0.141329 -0.471397 0.0439819 127 0 255
0.116527 -0.471187 -0.127804 127 0 255
-0.0028672 -0.27615 -0.217511 127 0 255
0.229561 -0.480973 -0.10297 127 0 255
-0.258309 -0.118767 0.0265109 127 0 255
0.439561 -0.322164 -0.197898 127 0 255
-0.10905 -0.349346 0.238412 127 0 255
0.217554 -0.0309706 -0.198676 127 0 255
0.387934 -0.112252 -0.197475 127 0 255
0.103212 -0.349276 0.104476 127 0 255
0.236945 -0.32298 -0.203893 127 0 255
-0.037827 -0.337292 0.0124569 127 0 255
-0.0738727 -0.0546947 -0.199205 127 0 255
-0.150858 -0.173262 -0.204758 127 0 255
0.276224 -0.400147 -0.188093 127 0 255
-0.227678 -0.319977 0.217308 127 0 255
0.331173 -0.330116 0.112783 127 0 255
-0.260864 -0.286349 -0.0212118 127 0 255
0.290888 -0.476498 -0.0205807 127 0 255
-0.253253 -0.169885 0.157615 127 0 255
-0.25274 -0.416714 -0.190242 127 0 255
-0.0878271 -0.412302 0.287464 127 0 255
-0.26325 -0.205231 -0.142323 127 0 255
0.257753 -0.483477 0.106675 127 0 255
-0.130927 -0.368798 -0.212977 127 0 255
0.375374 -0.329534 0.0299451 127 0 255
0.051897 -0.222057 -0.214318 127 0 255
-0.180117 -0.473078 0.135964 127 0 255
-0.207057 -0.471365 -0.12193 127 0 255
0.199673 -0.412274 0.112446 127 0 255
-0.0940591 -0.481995 -0.189995 127 0 255
-0.242936 -0.356972 0.101951 127 0 255
0.123982 -0.483746 0.168363 127 0 255
-0.258344 -0.395056 -0.0841497 127 0 255
0.419077 -0.474604 -0.181616 127 0 255
-0.261735 -0.275588 -0.158357 127 0 255
0.191754 -0.142526 -0.205106 127 0 255
-0.255048 -0.0668229 -0.212203 127 0 255
0.057208 -0.348034 0.149764 127 0 255
0.313187 -0.347597 0.0246468 127 0 255
0.429418 -0.0258545 -0.206264 127 0 255
0.142667 -0.355885 0.174286 127 0 255
0.22931 -0.34832 0.0621696 127 0 255
0.0415573 -0.326196 -0.211257 127 0 255
-0.254501 -0.282679 0.0755473 127 0 255
-0.255154 -0.423654 0.216569 127 0 255
-0.0753271 -0.2998 0.124962 127 0 255
0.439439 -0.414912 -0.219173 127 0 255
-0.040068 -0.482243 0.134847 127 0 255
0.248774 -0.483927 0.182758 127 0 255
0.0185237 -0.474391 -0.0576887 127 0 255
0.228469 -0.457715 -0.203724 127 0 255
-0.0492904 -0.147384 -0.218193 127 0 255
0.102293 -0.480375 0.111691 127 0 255
-0.197289 -0.37995 -0.204083 127 0 255
-0.257305 -0.466345 -0.159939 127 0 255
0.415988 -0.483655 -0.0677625 127 0 255
0.340996 -0.483644 0.0696588 127 0 255
-0.15674 -0.0472286 -0.218538 127 0 255
-0.0507337 -0.245712 -0.222321 127 0 255
-0.267375 -0.0844273 -0.104397 127 0 255
0.340811 -0.0609792 -0.205444 127 0 255
-0.137827 -0.287302 0.149963 127 0 255
-0.201377 -0.290979 -0.20876 127 0 255
0.259116 -0.160189 -0.204781 127 0 255
0.394116 -0.178244 -0.207551 127 0 255
-0.261938 -0.205455 -0.0139042 127 0 255
-0.254138 -0.374669 -0.130693 127 0 255
0.309922 -0.468002 -0.193134 127 0 255
-0.255967 -0.152213 0.199637 127 0 255
0.101838 -0.282535 -0.205779 127 0 255
-0.216487 -0.463948 0.0055914 127 0 255
-0.253686 -0.390729 0.286143 127 0 255
-0.235151 -0.47853 0.169785 127 0 255
0.0530122 -0.0897346 -0.203709 127 0 255
0.169776 -0.479117 -0.130791 127 0 255
0.185935 -0.421165 -0.206662 127 0 255
-0.050327 -0.349787 -0.162546 127 0 255
0.243829 -0.479603 -0.0629742 127 0 255
-0.24667 -0.231262 0.176593 127 0 255
0.172307 -0.0528653 -0.219568 127 0 255
-0.258227 -0.376613 0.185928 127 0 255
0.00119117 -0.422734 -0.207178 127 0 255
-0.215168 -0.165598 -0.211604 127 0 255
0.264201 -0.48342 0.0535456 127 0 255
-0.262658 -0.134879 -0.0392037 127 0 255
-0.125888 -0.42309 -0.202973 127 0 255
0.308737 -0.255126 -0.202936 127 0 255
0.240355 -0.076042 -0.207019 127 0 255
-0.255334 -0.405507 0.041234 127 0 255
-0.0594055 -0.350037 0.187564 127 0 255
0.302933 -0.481359 -0.0776055 127 0 255
-0.262876 -0.128175 0.0594034 127 0 255
-0.0458271 -0.309474 -0.216391 127 0 255
-0.112827 0.000225605 -0.225054 127 0 255
-0.262083 -0.231655 -0.0902276 127 0 255
-0.258133 -0.31586 -0.133287 127 0 255
-0.0603092 -0.481695 0.00921995 127 0 255
0.4011 -0.262781 -0.216224 127 0 255
-0.0610194 -0.0985792 -0.200795 127 0 255
-0.261994 -0.12923 -0.189939 127 0 255
-0.125043 -0.237733 -0.218249 127 0 255
0.441206 -0.0932209 -0.204583 127 0 255
0.189909 -0.350512 -0.216672 127 0 255
0.0385451 -0.0329388 -0.198469 127 0 255
-0.0753272 -0.324806 0.262466 127 0 255
0.487173 -0.237274 -0.225054 127 0 255
-0.206901 -0.46011 -0.199119 127 0 255
0.0875758 -0.178148 -0.211129 127 0 255
-0.0496279 -0.480565 -0.185573 127 0 255
0.287003 -0.374327 -0.209363 127 0 255
0.123077 -0.448208 -0.192771 127 0 255
-0.0140936 -0.483867 0.199112 127 0 255
0.213606 -0.254291 -0.20225 127 0 255
0.012173 -0.324791 -0.0250432 127 0 255
-0.262938 -0.367361 -0.0516582 127 0 255
0.287173 -0.349774 0.224946 127 0 255
0.133342 -0.484296 0.207069 127 0 255
-0.215161 -0.465287 -0.0746608 127 0 255
0.280988 -0.0185662 -0.196074 127 0 255
0.136478 -0.471266 0.104595 127 0 255
0.362555 -0.417147 -0.201051 127 0 255
-0.254347 -0.22171 0.0832593 127 0 255
0.00970735 -0.15086 -0.205318 127 0 255
-0.259626 -0.303921 0.179585 127 0 255
0.297129 -0.107033 -0.205272 127 0 255
0.237173 -0.424774 0.212446 127 0 255
-0.0259979 -0.482401 0.098482 127 0 255
0.13421 -0.020796 -0.20832 127 0 255
0.139466 -0.347691 0.0457695 127 0 255
-0.110016 -0.479512 0.215323 127 0 255
0.182808 -0.483338 0.0363741 127 0 255
0.362173 -0.412274 0.149946 127 0 255
0.145434 -0.304395 -0.206986 127 0 255
0.152402 -0.149967 -0.219647 127 0 255
-0.225232 -0.361106 0.325387 127 0 255
0.24559 -0.485518 0.244112 127 0 255
-0.255923 -0.353943 0.0570787 127 0 255
-0.0610048 -0.343126 0.11135 127 0 255
-0.269469 -0.453134 0.104679 127 0 255
-0.128544 -0.482873 -0.176508 127 0 255
-0.258764 -0.036702 -0.17435 127 0 255
0.0940287 -0.374956 -0.202972 127 0 255
-0.259842 -0.381057 -0.173809 127 0 255
0.0134857 -0.228125 -0.211272 127 0 255
0.409626 -0.483572 -0.0330325 127 0 255
-0.261518 -0.186593 -0.173637 127 0 255
-0.0937282 -0.481172 -0.0470193 127 0 255
0.0930399 -0.479513 -0.0276667 127 0 255
-0.257322 -0.363702 0.255233 127 0 255
-0.248036 -0.185264 0.227269 127 0 255
0.340754 -0.168924 -0.204216 127 0 255
0.0107675 -0.327984 -0.217591 127 0 255
-0.275327 -0.437293 0.312458 127 0 255
0.410261 -0.219027 -0.193247 127 0 255
0.202694 -0.183361 -0.201766 127 0 255
0.124673 -0.324787 -0.0250463 127 0 255
-0.0919218 -0.330407 -0.205408 127 0 255
0.0961688 -0.363876 0.129667 127 0 255
-0.262827 -0.0872862 0.149953 127 0 255
-0.188825 -0.0609816 -0.201582 127 0 255
-0.259037 -0.474682 0.210084 127 0 255
-0.109182 -0.191009 -0.205959 127 0 255
0.277203 -0.444212 -0.183486 127 0 255
0.388492 -0.123682 -0.226497 127 0 255
0.0360819 -0.480938 0.15117 127 0 255
0.270105 -0.3325 0.0772928 127 0 255
0.289793 -0.48618 0.148847 127 0 255
0.0340225 -0.352735 0.0929763 127 0 255
-0.266468 -0.189406 -0.0666673 127 0 255
-0.234345 -0.252067 -0.207093 127 0 255
-0.261679 -0.321402 -0.0611588 127 0 255
0.111113 -0.104317 -0.205133 127 0 255
-0.262884 -0.152083 0.11162 127 0 255
-0.162827 -0.412301 0.299963 127 0 255
0.187173 -0.36228 0.224949 127 0 255
-0.246526 -0.483079 -0.0488534 127 0 255
-0.258525 -0.386729 0.00140748 127 0 255
0.431266 -0.394491 -0.188939 127 0 255
-0.0183383 -0.390764 -0.210724 127 0 255
0.310094 -0.48405 0.0498637 127 0 255
-0.258457 -0.44372 -0.121774 127 0 255
-0.255148 -0.265044 0.212449 127 0 255
0.138307 -0.256539 -0.20931 127 0 255
0.324673 -0.387274 0.199946 127 0 255
0.0813273 -0.0221886 -0.208576 127 0 255
-0.146495 -0.482967 0.136003 127 0 255
-0.146416 -0.316417 -0.206192 127 0 255
-0.0898604 -0.349878 0.078439 127 0 255
-0.107441 -0.0493799 -0.199024 127 0 255
-0.0893475 -0.346864 0.206635 127 0 255
-0.0771272 -0.447658 -0.205375 127 0 255
0.0905619 -0.483699 0.167414 127 0 255
0.181712 -0.482716 -0.0173287 127 0 255
-0.155383 -0.160272 -0.217464 127 0 255
-0.0581135 -0.481126 0.224776 127 0 255
-0.247864 -0.319328 0.0199801 127 0 255
0.124893 -0.483299 -0.124638 127 0 255
0.339315 -0.0376477 -0.205359 127 0 255
0.181035 -0.450359 -0.189488 127 0 255
0.375021 -0.329773 0.0277771 127 0 255
-0.175327 -0.362295 0.149959 127 0 255
-0.034675 -0.0451973 -0.217317 127 0 255
-0.261305 -0.088643 -0.0485335 127 0 255
0.0810695 -0.458518 -0.206103 127 0 255
-0.257823 -0.339421 -0.200827 127 0 255
-0.256671 -0.194322 0.0389635 127 0 255
0.337089 -0.328927 0.0985416 127 0 255
0.416119 -0.0640369 -0.201334 127 0 255
0.185312 -0.38084 -0.19473 127 0 255
-0.250554 -0.273747 0.095008 127 0 255
-0.0470975 -0.184571 -0.205108 127 0 255
0.197605 -0.476879 -0.079507 127 0 255
0.263183 -0.233162 -0.202726 127 0 255
-0.02414 -0.48252 -0.0074563 127 0 255
0.239002 -0.115854 -0.198913 127 0 255
0.298272 -0.333894 -0.202755 127 0 255
0.062153 -0.266535 -0.215584 127 0 255
-0.267829 -0.457125 0.00623048 127 0 255
0.0887575 -0.3595 0.0586558 127 0 255
-0.00526159 -0.46399 -0.208521 127 0 255
-0.227485 -0.302963 0.285518 127 0 255
-0.26014 -0.171366 -0.130409 127 0 255
-0.215538 -0.103448 -0.211064 127 0 255
0.487173 -0.162274 -0.212554 127 0 255
0.439833 -0.465408 -0.186245 127 0 255
-0.110136 -0.106071 -0.209772 127 0 255
-0.261766 -0.253354 -0.127625 127 0 255
-0.258362 -0.382869 0.1222 127 0 255
-0.261382 -0.258103 -0.0273132 127 0 255
0.234523 -0.484056 0.173695 127 0 255
0.252507 -0.0303419 -0.197001 127 0 255
-0.142773 -0.397726 -0.200688 127 0 255
-0.261063 -0.0898657 -0.129494 127 0 255
-0.260471 -0.478409 0.130056 127 0 255
-0.259235 -0.115917 0.0115821 127 0 255
-0.188679 -0.481723 -0.164574 127 0 255
0.305135 -0.476137 -0.0235825 127 0 255
0.0349835 -0.472955 -0.0162258 127 0 255
-0.259772 -0.21703 0.141504 127 0 255
-0.264436 -0.400838 -0.0584475 127 0 255
0.128682 -0.213123 -0.210539 127 0 255
-0.255765 -0.42467 0.239581 127 0 255
0.135919 -0.378015 -0.212827 127 0 255
0.284283 -0.186278 -0.204338 127 0 255
0.336461 -0.396297 -0.210665 127 0 255
0.362173 -0.462274 0.162446 127 0 255
-0.221274 -0.306727 0.180894 127 0 255
-0.0332291 -0.110725 -0.202055 127 0 255
0.0251228 -0.0418314 -0.218357 127 0 255
0.124673 -0.349789 0.224955 127 0 255
-0.224202 -0.407337 -0.197942 127 0 255
0.0446922 -0.360616 -0.20498 127 0 255
0.191596 -0.0472163 -0.198233 127 0 255
0.390562 -0.451001 -0.187655 127 0 255
-0.055625 -0.263018 -0.221109 127 0 255
-0.175327 0.000225605 -0.225054 127 0 255
0.199673 -0.399774 0.162446 127 0 255
0.363633 -0.209069 -0.199005 127 0 255
-0.00677934 -0.483028 0.0851182 127 0 255
-0.260414 -0.279598 -0.177446 127 0 255
-0.112827 -0.4123 0.249962 127 0 255
0.0545889 -0.134811 -0.203994 127 0 255
-0.1862 -0.473166 0.126576 127 0 255
-0.245959 -0.268488 0.0437402 127 0 255
-0.256896 -0.438419 0.158939 127 0 255
0.126846 -0.349963 0.134891 127 0 255
-0.202268 -0.343216 -0.199909 127 0 255
-0.252479 -0.472715 -0.137909 127 0 255
0.422665 -0.32435 -0.197515 127 0 255
0.412458 -0.0171144 -0.204949 127 0 255
-0.0547431 -0.394175 -0.209661 127 0 255
-0.260877 -0.151582 -0.0707899 127 0 255
0.072835 -0.206162 -0.212051 127 0 255
0.052656 -0.418018 -0.2019 127 0 255
-0.256312 -0.418738 0.0867297 127 0 255
0.295146 -0.482922 -0.0931659 127 0 255
-0.0468386 -0.349163 0.16383 127 0 255
-0.240027 -0.0415539 -0.209258 127 0 255
-0.0519784 -0.482563 0.189958 127 0 255
0.448139 -0.404003 -0.216522 127 0 255
0.316873 -0.252734 -0.201283 127 0 255
-0.207054 -0.350311 0.30921 127 0 255
0.175911 -0.315726 -0.213943 127 0 255
-0.252781 -0.299456 0.247352 127 0 255
0.412173 -0.324774 -0.0125543 127 0 255
0.299673 -0.324774 -0.0125543 127 0 255
0.316779 -0.0150502 -0.196134 127 0 255
0.323099 -0.466264 -0.1925 127 0 255
0.158678 -0.484134 0.193401 127 0 255
0.311004 -0.484178 0.079917 127 0 255
0.0129203 -0.277502 -0.211239 127 0 255
-0.260484 -0.112698 -0.173227 127 0 255
0.226311 -0.460891 -0.18134 127 0 255
0.171283 -0.197702 -0.217838 127 0 255
0.435729 -0.197158 -0.202251 127 0 255
0.308045 -0.100577 -0.205335 127 0 255
0.312173 -0.437274 0.212446 127 0 255
-0.260779 -0.180498 0.0719557 127 0 255
-0.21078 -0.168997 -0.213761 127 0 255
-0.266008 -0.41044 -0.125322 127 0 255
-0.162261 -0.436614 -0.200174 127 0 255
0.0895629 -0.314898 -0.201298 127 0 255
-0.23474 -0.327574 0.0739693 127 0 255
0.205828 -0.482997 -0.0072912 127 0 255
-0.25872 -0.323533 -0.136413 127 0 255
-0.262109 -0.17965 -0.00850985 127 0 255
-0.275327 -0.0997858 0.199953 127 0 255
0.224673 -0.324774 -0.0250543 127 0 255
0.418566 -0.483042 -0.0678462 127 0 255
0.23965 -0.394647 -0.20898 127 0 255
0.424673 -0.349774 0.0499457 127 0 255
-0.255277 -0.339118 -0.0221851 127 0 255
0.0479027 -0.356726 0.136795 127 0 255
-0.12256 -0.242106 -0.218031 127 0 255
0.28282 -0.345042 0.0623867 127 0 255
-0.125327 -0.399804 0.312465 127 0 255
0.227332 -0.259367 -0.204731 127 0 255
-0.267974 -0.445213 -0.0552672 127 0 255
0.148713 -0.101102 -0.205753 127 0 255
-0.257512 -0.387437 0.200706 127 0 255
0.205608 -0.48039 -0.114888 127 0 255
0.220263 -0.485476 0.245738 127 0 255
-0.156016 -0.0892252 -0.209838 127 0 255
-0.100172 -0.377282 -0.214199 127 0 255
0.0316361 -0.472584 -0.203274 127 0 255
-0.111153 -0.479845 0.19814 127 0 255
-0.260567 -0.233223 -0.175655 127 0 255
0.285323 -0.483148 0.0180767 127 0 255
-0.2545 -0.227158 0.201806 127 0 255
0.066025 -0.47989 -0.0361685 127 0 255
0.00642368 -0.482434 0.13351 127 0 255
0.146098 -0.478838 0.10731 127 0 255
-0.0249486 -0.336116 -0.215279 127 0 255
0.487173 -0.0747744 -0.225054 127 0 255
-0.0113172 -0.230212 -0.216276 127 0 255
-0.0772385 -0.48137 -0.179034 127 0 255
-0.100244 -0.147932 -0.203972 127 0 255
0.0371729 -0.487298 0.287461 127 0 255
-0.103216 -0.350885 0.245875 127 0 255
0.121182 -0.460017 -0.204241 127 0 255
0.298504 -0.416153 -0.204214 127 0 255
-0.158279 -0.300492 -0.211105 127 0 255
-0.26249 -0.234517 -0.0605185 127 0 255
0.381492 -0.156111 -0.205611 127 0 255
0.131702 -0.473193 -0.112648 127 0 255
-0.0691982 -0.47822 -0.000265781 127 0 255
0.224673 -0.349777 0.224947 127 0 255
0.133477 -0.348328 0.0577506 127 0 255
0.0696007 -0.0574462 -0.22073 127 0 255
0.301748 -0.483716 0.141312 127 0 255
0.248606 -0.153258 -0.200649 127 0 255
-0.26165 -0.136328 0.086465 127 0 255
0.325797 -0.329988 0.110968 127 0 255
0.2463 -0.335582 -0.205233 127 0 255
-0.0860328 -0.351622 0.0732189 127 0 255
0.39563 -0.0858276 -0.198649 127 0 255
-0.258791 -0.254026 0.136182 127 0 255
0.112173 -0.487291 0.287456 127 0 255
-0.264496 -0.312535 -0.0865176 127 0 255
-0.208862 -0.473201 -0.0933518 127 0 255
-0.25471 -0.419628 -0.00837504 127 0 255
0.0141265 -0.151708 -0.205658 127 0 255
-0.256475 -0.341855 0.232946 127 0 255
-0.225244 -0.395632 0.322086 127 0 255
-0.260935 -0.130102 -0.107014 127 0 255
-0.269075 -0.457319 0.0816379 127 0 255
-0.0780094 -0.322406 -0.211925 127 0 255
-0.262827 -0.0497744 -0.0125543 127 0 255
-0.0458346 -0.079125 -0.200529 127 0 255
-0.126598 -0.459269 -0.208807 127 0 255
0.0874642 -0.41062 -0.205865 127 0 255
-0.243207 -0.352751 0.110122 127 0 255
-0.249205 -0.194308 -0.207199 127 0 255
-0.25419 -0.436263 0.256817 127 0 255
-0.0424408 -0.457085 -0.208758 127 0 255
0.149381 -0.0540524 -0.222233 127 0 255
-0.256316 -0.154157 0.197951 127 0 255
0.0557187 -0.356893 0.0825287 127 0 255
0.410304 -0.369455 -0.220396 127 0 255
-0.239492 -0.475416 -0.164476 127 0 255
-0.227081 -0.283413 -0.206154 127 0 255
0.296857 -0.0535064 -0.195446 127 0 255
-0.259339 -0.22614 0.0160739 127 0 255
0.381629 -0.0188504 -0.203056 127 0 255
0.220678 -0.48333 0.0272376 127 0 255
-0.264574 -0.0730412 -0.117167 127 0 255
0.194161 -0.460809 -0.204375 127 0 255
0.237274 -0.485056 0.181633 127 0 255
0.207396 -0.201692 -0.202153 127 0 255
0.016646 -0.0289733 -0.203032 127 0 255
-0.188767 -0.383226 -0.205752 127 0 255
-0.264302 -0.049414 -0.206572 127 0 255
0.273526 -0.482726 -0.073153 127 0 255
-0.187827 -0.412297 0.24996 127 0 255
-0.125327 -0.274802 0.137464 127 0 255
-0.262633 -0.140029 -0.0104876 127 0 255
-0.0255789 -0.483369 0.147178 127 0 255
-0.261866 -0.206325 -0.106908 127 0 255
0.205081 -0.359778 -0.190628 127 0 255
0.0864119 -0.272396 -0.21505 127 0 255
0.199673 -0.437274 0.0749457 127 0 255
-0.0969722 -0.266338 -0.203656 127 0 255
0.0882579 -0.104226 -0.203566 127 0 255
-0.152866 -0.044438 -0.200743 127 0 255
-0.24691 -0.36417 0.0385943 127 0 255
-0.254478 -0.194269 0.145454 127 0 255
0.301579 -0.335098 -0.202657 127 0 255
-0.264706 -0.37636 -0.102099 127 0 255
0.348278 -0.100069 -0.199155 127 0 255
0.00110386 -0.386417 -0.203131 127 0 255
-0.0318379 -0.191627 -0.217627 127 0 255
-0.239846 -0.42606 -0.197623 127 0 255
0.128896 -0.485346 0.197495 127 0 255
-0.147316 -0.482625 0.136053 127 0 255
-0.100327 -0.324807 0.299967 127 0 255
0.171658 -0.150729 -0.203923 127 0 255
0.199673 -0.412275 0.212446 127 0 255
-0.252968 -0.481885 -0.0228011 127 0 255
0.22683 -0.0548535 -0.207013 127 0 255
-0.250711 -0.309647 -0.00128925 127 0 255
0.100667 -0.349553 0.146226 127 0 255
0.439657 -0.46467 -0.186484 127 0 255
0.374673 -0.337274 -0.0250543 127 0 255
-0.233527 -0.124298 -0.211521 127 0 255
0.300671 -0.185063 -0.204247 127 0 255
0.309332 -0.338171 0.0410727 127 0 255
0.175858 -0.277177 -0.208724 127 0 255
-0.235179 -0.30052 0.120922 127 0 255
-0.168131 -0.16997 -0.213021 127 0 255
-0.216208 -0.46538 0.113853 127 0 255
0.416919 -0.21809 -0.193661 127 0 255
0.126766 -0.403933 -0.213219 127 0 255
-0.0616296 -0.344188 0.165643 127 0 255
0.113952 -0.173002 -0.211943 127 0 255
-0.261414 -0.359496 -0.159092 127 0 255
-0.24616 -0.47847 0.185126 127 0 255
0.418069 -0.485267 -0.0416792 127 0 255
-0.102625 -0.038174 -0.210639 127 0 255
-0.257082 -0.393302 0.149655 127 0 255
0.112173 -0.324788 -0.0250451 127 0 255
0.0577489 -0.31056 -0.205649 127 0 255
-0.0942072 -0.420536 -0.208828 127 0 255
-0.200327 -0.387305 0.374966 127 0 255
-0.012827 -0.337292 0.0249573 127 0 255
0.331897 -0.398334 -0.191222 127 0 255
-0.264744 -0.0906699 -0.0516721 127 0 255
0.264263 -0.485052 0.128481 127 0 255
0.126115 -0.483137 0.127856 127 0 255
0.487173 -0.262274 -0.212554 127 0 255
0.221351 -0.48139 -0.0806891 127 0 255
-0.132418 -0.213444 -0.209889 127 0 255
-0.0996628 -0.479596 0.221405 127 0 255
-0.259872 -0.291943 0.186015 127 0 255
0.330008 -0.483874 0.0742752 127 0 255
0.10329 -0.0247032 -0.208639 127 0 255
-0.254288 -0.236064 0.0897571 127 0 255
0.145625 -0.33578 -0.206326 127 0 255
-0.0781095 -0.136636 -0.218415 127 0 255
0.0157006 -0.0728292 -0.206949 127 0 255
-0.26313 -0.257636 -0.101158 127 0 255
0.454084 -0.387782 -0.200665 127 0 255
-0.254894 -0.389108 0.272283 127 0 255
-0.265548 -0.454745 -0.078463 127 0 255
0.304985 -0.236838 -0.209445 127 0 255
-0.256063 -0.405485 0.065554 127 0 255
0.309645 -0.483084 -0.00115977 127 0 255
0.158997 -0.480857 -0.111131 127 0 255
-5.57423e-05 -0.482468 0.0883602 127 0 255
0.306391 -0.130288 -0.205012 127 0 255
0.425713 -0.0243503 -0.204738 127 0 255
0.0256377 -0.426562 -0.206978 127 0 255
0.261201 -0.440524 -0.204222 127 0 255
0.487173 -0.137274 -0.212554 127 0 255
-0.119855 -0.341698 -0.205819 127 0 255
-0.256802 -0.178486 -0.171069 127 0 255
0.185386 -0.483452 0.0210414 127 0 255
0.216904 -0.139258 -0.205416 127 0 255
0.0320249 -0.222188 -0.211629 127 0 255
0.180875 -0.413614 -0.206805 127 0 255
-0.0412238 -0.304538 -0.217474 127 0 255
-0.261915 -0.265967 -0.0395134 127 0 255
0.384307 -0.346659 0.0374447 127 0 255
-0.25665 -0.313594 -0.198877 127 0 255
-0.242856 -0.419608 0.198589 127 0 255
0.405121 -0.257317 -0.199409 127 0 255
-0.257965 -0.152182 0.0500931 127 0 255
0.430348 -0.0924476 -0.201949 127 0 255
0.0534833 -0.473947 -0.0378853 127 0 255
-0.226845 -0.323848 0.299198 127 0 255
-0.0639948 -0.239349 -0.209038 127 0 255
0.131815 -0.260904 -0.209161 127 0 255
0.271098 -0.36947 -0.209407 127 0 255
0.235009 -0.485256 0.253353 127 0 255
-0.129347 -0.481977 -0.179713 127 0 255
-0.258645 -0.261726 0.0202304 127 0 255
0.0873634 -0.347796 0.0857447 127 0 255
-0.260319 -0.389575 -0.0175986 127 0 255
-0.10137 -0.350796 0.242602 127 0 255
-0.256063 -0.353739 0.200381 127 0 255
0.357916 -0.205536 -0.207626 127 0 255
0.268804 -0.0856736 -0.206315 127 0 255
-0.23516 -0.376618 -0.198998 127 0 255
0.396326 -0.440489 -0.187877 127 0 255
0.234107 -0.252465 -0.204877 127 0 255
0.0335911 -0.167026 -0.206611 127 0 255
0.405715 -0.343957 -0.205102 127 0 255
-0.0303793 -0.483727 0.175068 127 0 255
0.154445 -0.464401 -0.20506 127 0 255
-0.200327 -0.437277 0.0249476 127 0 255
-0.246367 -0.218831 0.201854 127 0 255
0.105898 -0.339168 -0.202254 127 0 255
-0.0455747 -0.369462 -0.206048 127 0 255
-0.217022 -0.464971 -0.0718864 127 0 255
0.274673 -0.399774 0.224946 127 0 255
-0.262114 -0.20137 -0.046676 127 0 255
-0.265794 -0.35027 -0.0702058 127 0 255
0.298597 -0.464987 -0.196134 127 0 255
-0.0490776 -0.480446 -0.193239 127 0 255
0.311746 -0.0142255 -0.197957 127 0 255
0.0576069 -0.47059 -0.203956 127 0 255
-0.166825 -0.433893 -0.199952 127 0 255
0.153786 -0.0325441 -0.199374 127 0 255
-0.0162766 -0.089348 -0.210326 127 0 255
-0.229334 -0.215678 -0.208754 127 0 255
-0.260564 -0.158096 -0.133332 127 0 255
-0.257296 -0.327755 0.064507 127 0 255
-0.112173 -0.111536 -0.209808 127 0 255
-0.258135 -0.161087 0.125993 127 0 255
-0.0792827 -0.346102 0.0877447 127 0 255
-0.175327 -0.362293 0.124958 127 0 255
0.0207795 -0.339149 -0.206829 127 0 255
0.207163 -0.330671 -0.19489 127 0 255
-0.260101 -0.417976 -0.15311 127 0 255
0.358432 -0.153104 -0.20222 127 0 255
-0.267981 -0.457938 -0.00242292 127 0 255
-0.260916 -0.109008 -0.0147632 127 0 255
0.149673 -0.349785 0.224952 127 0 255
0.0791548 -0.194189 -0.212213 127 0 255
-0.26308 -0.0525638 -0.208222 127 0 255
-0.262905 -0.475115 0.0978055 127 0 255
-0.160843 -0.303568 -0.21068 127 0 255
0.249848 -0.192954 -0.202589 127 0 255
0.299673 -0.337274 0.212446 127 0 255
0.132211 -0.347635 0.048478 127 0 255
-0.0605612 -0.171242 -0.218545 127 0 255
-0.229144 -0.325886 0.141405 127 0 255
-0.0248516 -0.433305 -0.207554 127 0 255
0.0450025 -0.0957318 -0.205444 127 0 255
-0.163191 -0.0498428 -0.218628 127 0 255
-0.252946 -0.315918 0.250429 127 0 255
0.361679 -0.0279253 -0.201062 127 0 255
-0.275327 -0.0247744 -0.100054 127 0 255
-0.260584 -0.230888 -0.148033 127 0 255
0.272072 -0.340973 0.0644625 127 0 255
-0.00226481 -0.282705 -0.217339 127 0 255
-0.259093 -0.3152 -0.149897 127 0 255
0.17323 -0.20747 -0.217103 127 0 255
-0.257762 -0.110718 -0.176014 127 0 255
0.444106 -0.418666 -0.189745 127 0 255
-0.275327 -0.0747762 0.0749469 127 0 255
0.43907 -0.211895 -0.201997 127 0 255
-0.262263 -0.460537 0.207125 127 0 255
0.287661 -0.4759 -0.00817914 127 0 255
0.263008 -0.0301829 -0.196559 127 0 255
-0.145475 -0.376538 -0.203958 127 0 255
-0.25044 -0.470345 -0.109804 127 0 255
-0.0946613 -0.0556159 -0.199203 127 0 255
0.0682015 -0.0353339 -0.199266 127 0 255
0.179418 -0.480511 -0.122312 127 0 255
0.312964 -0.342034 -0.201604 127 0 255
-0.226421 -0.394935 0.314841 127 0 255
0.0757684 -0.39606 -0.205804 127 0 255
-0.0611369 -0.344571 0.171037 127 0 255
-0.170774 -0.475312 0.138031 127 0 255
0.442095 -0.33332 -0.201085 127 0 255
-0.254465 -0.204076 0.0960886 127 0 255
-0.117001 -0.185577 -0.219107 127 0 255
0.29865 -0.483769 0.135181 127 0 255
0.159627 -0.0871516 -0.206339 127 0 255
-0.260287 -0.085955 -0.0777984 127 0 255
-0.25654 -0.157214 0.199971 127 0 255
-0.259348 -0.170018 0.0188391 127 0 255
-0.202087 -0.187823 -0.212195 127 0 255
0.351507 -0.40407 -0.205741 127 0 255
-0.256141 -0.406325 0.126124 127 0 255
0.199673 -0.324776 -0.0125535 127 0 255
0.121272 -0.353011 0.163784 127 0 255
-0.245192 -0.25293 0.151468 127 0 255
0.140586 -0.484168 0.196978 127 0 255
0.154168 -0.377641 -0.212445 127 0 255
0.174142 -0.47325 0.00150653 127 0 255
-0.263453 -0.289221 -0.0722123 127 0 255
-0.266758 -0.402629 -0.0942395 127 0 255
-0.262101 -0.15836 -0.0637755 127 0 255
0.245971 -0.483966 0.177769 127 0 255
-0.254821 -0.406566 0.0400184 127 0 255
-0.219417 -0.105401 -0.210587 127 0 255
0.199673 -0.412274 0.0874457 127 0 255
0.219787 -0.436342 -0.205858 127 0 255
-0.162827 -0.287299 0.137462 127 0 255
-0.240854 -0.377357 0.23584 127 0 255
-0.215223 -0.473893 -0.172762 127 0 255
-0.0154517 -0.140896 -0.210212 127 0 255
-0.20787 -0.346784 -0.201192 127 0 255
-0.253939 -0.284208 0.0832071 127 0 255
0.0387855 -0.277882 -0.209137 127 0 255
0.0921528 -0.109374 -0.204158 127 0 255
0.0314067 -0.478931 -0.0310377 127 0 255
-0.262827 -0.274799 0.299961 127 0 255
0.371482 -0.0745463 -0.196829 127 0 255
0.0496729 -0.337299 0.224962 127 0 255
0.125938 -0.480462 -0.130352 127 0 255
0.349673 -0.374774 0.162446 127 0 255
0.41404 -0.482562 -0.0445787 127 0 255
0.262173 -0.324774 -0.0125543 127 0 255
-0.26017 -0.35343 -0.0129128 127 0 255
-0.000618777 -0.483428 0.0912456 127 0 255
-0.262241 -0.467523 0.146974 127 0 255
-0.102039 -0.272297 -0.204941 127 0 255
-0.225327 0.000225605 -0.212554 127 0 255
-0.0990798 -0.396438 -0.202372 127 0 255
0.298308 -0.247355 -0.20368 127 0 255
0.438139 -0.0722531 -0.20537 127 0 255
0.199673 -0.412274 0.162446 127 0 255
0.362173 -0.474774 0.162446 127 0 255
0.216902 -0.05635 -0.206201 127 0 255
0.111361 -0.449991 -0.205935 127 0 255
-0.208896 -0.34638 0.30626 127 0 255
-0.0953435 -0.471472 -0.204722 127 0 255
0.138603 -0.169964 -0.205 127 0 255
-0.236215 -0.246453 -0.207256 127 0 255
-0.252125 -0.140425 0.0775904 127 0 255
-0.143123 -0.136417 -0.209911 127 0 255
0.412173 -0.324774 0.0624457 127 0 255
0.0633587 -0.351095 0.120337 127 0 255
0.432241 -0.401054 -0.222508 127 0 255
-0.0109803 -0.227328 -0.213406 127 0 255
-0.150327 -0.4123 0.262462 127 0 255
-0.26133 -0.229946 -0.0143692 127 0 255
0.436386 -0.467904 -0.185088 127 0 255
0.101772 -0.26008 -0.206294 127 0 255
0.271196 -0.477872 -0.074604 127 0 255
-0.0346484 -0.0472563 -0.202054 127 0 255
-0.25475 -0.432548 0.251641 127 0 255
0.244949 -0.107319 -0.206222 127 0 255
-0.251628 -0.423775 -0.1894 127 0 255
0.324673 -0.349774 -0.0250543 127 0 255
-0.25183 -0.213049 0.220027 127 0 255
-0.242788 -0.444872 0.0533123 127 0 255
0.11213 -0.359274 0.0414453 127 0 255
-0.250425 -0.293294 0.0306352 127 0 255
0.133065 -0.478761 0.117401 127 0 255
-0.036793 -0.483704 0.163815 127 0 255
-0.247777 -0.483097 -0.03247 127 0 255
0.312173 -0.462274 0.212446 127 0 255
-0.037827 -0.337291 -4.33263e-05 127 0 255
-0.259804 -0.301104 0.188488 127 0 255
-0.20672 -0.301535 -0.20739 127 0 255
-0.24273 -0.363479 0.0845367 127 0 255
0.30111 -0.338394 0.0674937 127 0 255
0.212545 -0.221279 -0.203227 127 0 255
-0.262786 -0.358134 -0.130319 127 0 255
0.263189 -0.334598 -0.203014 127 0 255
0.325486 -0.177009 -0.203078 127 0 255
-0.0320653 -0.350833 -0.212973 127 0 255
-0.261855 -0.26591 -0.126819 127 0 255
0.0631107 -0.348916 -0.211226 127 0 255
0.225877 -0.485353 0.249184 127 0 255
0.29347 -0.483971 0.0190979 127 0 255
-0.275327 -0.0622744 0.0249457 127 0 255
-0.0116384 -0.454993 -0.209618 127 0 255
0.223044 -0.480484 -0.098794 127 0 255
0.138245 -0.0486279 -0.222398 127 0 255
-0.150732 -0.478011 -0.188052 127 0 255
0.380794 -0.387628 -0.199347 127 0 255
-0.227438 -0.456385 0.140491 127 0 255
-0.259484 -0.210568 0.0589826 127 0 255
