ply
format ascii 1.0
comment Created by Open3D
element vertex 1238
property double x
property double y
property double z
property uchar red
property uchar green
property uchar blue
end_header
-0.0733306 -0.363074 0.212557 127 0 255
-0.0434744 -0.474313 0.225242 127 0 255
-0.103578 -0.477882 0.232451 127 0 255
0.281811 -0.29497 0.204893 127 0 255
0.0783136 -0.1492 0.203549 127 0 255
-0.0363013 -0.256143 0.205753 127 0 255
0.0707607 -0.398843 0.197379 127 0 255
-0.0173662 -0.100449 0.201489 127 0 255
0.288803 -0.436252 0.204418 127 0 255
-0.0856443 -0.237048 0.210292 127 0 255
0.0311498 -0.312274 0.202484 127 0 255
-0.162827 -0.487279 0.212448 127 0 255
-0.120348 -0.153157 0.207238 127 0 255
0.213186 -0.171167 0.207577 127 0 255
0.0331927 -0.482976 0.213497 127 0 255
-0.129265 -0.335706 0.205634 127 0 255
0.23816 -0.341181 0.207149 127 0 255
0.21829 -0.238792 0.204164 127 0 255
-0.147521 -0.399972 0.275632 127 0 255
0.128858 -0.16221 0.20674 127 0 255
-0.00184976 -0.413469 0.200116 127 0 255
-0.153224 -0.320952 0.264233 127 0 255
-0.1424 -0.212721 0.211879 127 0 255
-0.142273 -0.0624821 0.243511 127 0 255
0.272065 -0.406009 0.25514 127 0 255
-0.0378548 -0.3426 0.211158 127 0 255
0.236247 -0.119901 0.213362 127 0 255
-0.0207816 -0.47441 0.199473 127 0 255
0.187091 -0.124907 0.210685 127 0 255
-0.153218 -0.211934 0.285083 127 0 255
0.197116 -0.28025 0.207948 127 0 255
0.10182 -0.478343 0.219573 127 0 255
0.313579 -0.34276 0.208568 127 0 255
0.281968 -0.218824 0.212644 127 0 255
0.189692 -0.357228 0.193906 127 0 255
-0.0519066 -0.11 0.21092 127 0 255
0.0993682 -0.112633 0.202229 127 0 255
0.00416993 -0.24887 0.204454 127 0 255
0.167763 -0.228095 0.207989 127 0 255
0.253545 -0.453486 0.212367 127 0 255
0.112173 -0.387281 0.27495 127 0 255
0.230058 -0.389858 0.210344 127 0 255
-0.000326988 -0.487287 0.262454 127 0 255
0.0344632 -0.377112 0.197786 127 0 255
-0.0856062 -0.189658 0.207038 127 0 255
0.115472 -0.302168 0.199568 127 0 255
-0.155471 -0.233567 0.233814 127 0 255
-0.125327 -0.487289 0.312455 127 0 255
-0.150751 -0.143194 0.216286 127 0 255
0.286443 -0.106074 0.206932 127 0 255
0.158521 -0.106342 0.210449 127 0 255
0.265776 -0.158214 0.202543 127 0 255
0.116484 -0.191641 0.210158 127 0 255
-0.144222 -0.252688 0.300042 127 0 255
-0.148941 -0.439991 0.280606 127 0 255
-0.028916 -0.395067 0.207215 127 0 255
0.0411421 -0.232221 0.203702 127 0 255
-0.145212 -0.376293 0.29823 127 0 255
0.160835 -0.44304 0.203727 127 0 255
-0.0969745 -0.131468 0.208524 127 0 255
-0.13792 -0.294061 0.205694 127 0 255
-0.145444 -0.450264 0.222824 127 0 255
0.3221 -0.432287 0.22341 127 0 255
0.155578 -0.387353 0.208111 127 0 255
-0.125427 -0.0968207 0.207474 127 0 255
0.0965524 -0.401613 0.200861 127 0 255
0.313893 -0.384923 0.202974 127 0 255
-0.102468 -0.465251 0.197587 127 0 255
-0.150723 -0.145686 0.263201 127 0 255
-0.151523 -0.398089 0.220174 127 0 255
-0.0523716 -0.165537 0.202426 127 0 255
0.025156 -0.0655191 0.205684 127 0 255
0.298226 -0.179323 0.20647 127 0 255
-0.0705497 -0.393185 0.200827 127 0 255
0.0671163 -0.310267 0.213304 127 0 255
0.0591726 -0.136656 0.208887 127 0 255
0.05408 -0.451363 0.199458 127 0 255
-0.162827 -0.349784 0.199952 127 0 255
-0.000397798 -0.195486 0.205545 127 0 255
-0.128814 -0.0481688 0.214977 127 0 255
-0.0198351 -0.326823 0.20728 127 0 255
-0.0453989 -0.067301 0.203698 127 0 255
0.100067 -0.350631 0.213487 127 0 255
-0.107697 -0.339613 0.212197 127 0 255
0.259422 -0.318028 0.211383 127 0 255
-0.107084 -0.27165 0.210067 127 0 255
0.175264 -0.294845 0.199089 127 0 255
-0.00811294 -0.270809 0.213782 127 0 255
0.21089 -0.413893 0.210678 127 0 255
-0.0381274 -0.222905 0.211703 127 0 255
0.115008 -0.0835717 0.20379 127 0 255
-0.138122 -0.478587 0.24294 127 0 255
0.237596 -0.210256 0.202176 127 0 255
0.074673 -0.437282 0.28745 127 0 255
0.0201582 -0.300779 0.215773 127 0 255
0.142888 -0.338515 0.21031 127 0 255
0.0936986 -0.249241 0.200419 127 0 255
-0.148699 -0.189779 0.236341 127 0 255
-0.150643 -0.325363 0.238257 127 0 255
-0.119406 -0.390952 0.216067 127 0 255
0.229557 -0.145668 0.203872 127 0 255
0.186992 -0.459498 0.205151 127 0 255
0.162455 -0.154613 0.204641 127 0 255
0.194226 -0.338773 0.208817 127 0 255
0.0398845 -0.337101 0.20114 127 0 255
-0.0289737 -0.448643 0.209953 127 0 255
0.00815995 -0.0886358 0.215528 127 0 255
0.102781 -0.426818 0.215457 127 0 255
-0.136438 -0.483846 0.276507 127 0 255
-0.156237 -0.0869538 0.250702 127 0 255
-0.147777 -0.266296 0.249048 127 0 255
-0.121856 -0.180617 0.208374 127 0 255
0.197885 -0.189033 0.208362 127 0 255
-0.0741908 -0.452907 0.210059 127 0 255
0.239106 -0.253751 0.202647 127 0 255
0.191955 -0.0983871 0.205825 127 0 255
0.193838 -0.382349 0.213793 127 0 255
0.143095 -0.262201 0.208253 127 0 255
0.261911 -0.359327 0.208528 127 0 255
0.013772 -0.409999 0.217903 127 0 255
0.0722685 -0.10215 0.203427 127 0 255
0.299178 -0.407534 0.20737 127 0 255
0.309595 -0.256364 0.204367 127 0 255
0.242909 -0.417939 0.246542 127 0 255
-0.0884492 -0.294974 0.209248 127 0 255
0.0804408 -0.465608 0.227245 127 0 255
0.0404895 -0.187444 0.198075 127 0 255
-0.147203 -0.175715 0.287453 127 0 255
0.0937556 -0.206189 0.201227 127 0 255
0.0903538 -0.281858 0.201707 127 0 255
0.0278345 -0.130798 0.197156 127 0 255
-0.0405804 -0.367591 0.201934 127 0 255
0.238296 -0.290514 0.206036 127 0 255
0.244407 -0.405329 0.201911 127 0 255
0.0496731 -0.42478 0.24995 127 0 255
-0.0327793 -0.132522 0.214875 127 0 255
0.182146 -0.26392 0.197572 127 0 255
-0.153053 -0.315086 0.278965 127 0 255
0.301209 -0.214389 0.209677 127 0 255
-0.0770979 -0.0962804 0.21315 127 0 255
0.0114104 -0.36349 0.217524 127 0 255
-0.0534052 -0.308545 0.210868 127 0 255
0.0846216 -0.160611 0.208244 127 0 255
-0.0814742 -0.216972 0.210242 127 0 255
-0.0914968 -0.158769 0.202476 127 0 255
-0.0300041 -0.484006 0.224701 127 0 255
0.301901 -0.303658 0.204073 127 0 255
-0.0190634 -0.0809786 0.203724 127 0 255
-0.147716 -0.0565025 0.219973 127 0 255
0.147915 -0.198048 0.200149 127 0 255
-0.142981 -0.222202 0.291984 127 0 255
-0.119177 -0.423192 0.21916 127 0 255
0.324673 -0.349785 0.237452 127 0 255
0.22244 -0.0959447 0.204013 127 0 255
-0.000151161 -0.440968 0.212415 127 0 255
-0.149662 -0.462919 0.292067 127 0 255
-0.147139 -0.399097 0.292904 127 0 255
0.287173 -0.412283 0.274951 127 0 255
0.1383 -0.405906 0.200321 127 0 255
0.061612 -0.395325 0.215138 127 0 255
-0.145521 -0.370058 0.229929 127 0 255
0.265797 -0.446029 0.205599 127 0 255
0.268812 -0.183806 0.201361 127 0 255
0.268185 -0.102643 0.20675 127 0 255
0.0673165 -0.34035 0.210314 127 0 255
-0.155906 -0.444651 0.253126 127 0 255
0.0108152 -0.482828 0.215073 127 0 255
-0.0223502 -0.169208 0.205323 127 0 255
-0.138735 -0.225636 0.210434 127 0 255
0.142402 -0.304149 0.208336 127 0 255
-0.150327 -0.0997994 0.324962 127 0 255
-0.0633835 -0.407654 0.209086 127 0 255
0.0449912 -0.0859064 0.216747 127 0 255
0.059641 -0.264633 0.206481 127 0 255
-0.153117 -0.294263 0.236337 127 0 255
0.137173 -0.437275 0.262446 127 0 255
-0.128607 -0.463389 0.198025 127 0 255
0.0214519 -0.209237 0.21292 127 0 255
0.116393 -0.370887 0.195888 127 0 255
0.222865 -0.33331 0.20467 127 0 255
-0.0919615 -0.370685 0.208572 127 0 255
-0.154948 -0.109519 0.277438 127 0 255
0.223631 -0.439596 0.230184 127 0 255
-0.146445 -0.286765 0.289197 127 0 255
0.117302 -0.231491 0.200538 127 0 255
0.197477 -0.157866 0.202291 127 0 255
-0.0443566 -0.246279 0.206575 127 0 255
-0.150905 -0.202143 0.252585 127 0 255
0.119139 -0.155912 0.20502 127 0 255
0.167916 -0.363102 0.196906 127 0 255
-0.105582 -0.0971318 0.213792 127 0 255
0.0868776 -0.0788167 0.213444 127 0 255
-0.00103328 -0.1221 0.214219 127 0 255
0.0774729 -0.469016 0.201142 127 0 255
0.159974 -0.461739 0.226423 127 0 255
0.14193 -0.0920551 0.201654 127 0 255
-0.125263 -0.481193 0.23169 127 0 255
-0.110612 -0.0534978 0.216921 127 0 255
-0.147672 -0.403858 0.258552 127 0 255
-0.150327 -0.174799 0.324962 127 0 255
0.0691556 -0.227086 0.202068 127 0 255
-0.162827 -0.0872878 0.199954 127 0 255
0.101313 -0.313359 0.199424 127 0 255
-0.0532744 -0.48481 0.210219 127 0 255
0.279509 -0.245048 0.205841 127 0 255
0.321975 -0.407863 0.222285 127 0 255
0.282112 -0.148185 0.204397 127 0 255
0.0165219 -0.250876 0.213996 127 0 255
0.179874 -0.417985 0.210904 127 0 255
-0.112339 -0.304691 0.21263 127 0 255
0.0871731 -0.38728 0.249949 127 0 255
0.283564 -0.335432 0.209659 127 0 255
0.224673 -0.41228 0.27495 127 0 255
-0.133753 -0.129548 0.221139 127 0 255
-0.128824 -0.256124 0.220112 127 0 255
0.0129785 -0.346613 0.200159 127 0 255
0.0756132 -0.435499 0.216519 127 0 255
-0.075247 -0.340973 0.211257 127 0 255
-0.0701957 -0.273545 0.212486 127 0 255
0.171619 -0.218537 0.202821 127 0 255
-0.0854288 -0.432552 0.208425 127 0 255
-0.0522483 -0.195381 0.211742 127 0 255
-0.146667 -0.241917 0.256992 127 0 255
-0.150418 -0.336507 0.271872 127 0 255
-0.0842507 -0.481674 0.228049 127 0 255
-0.155371 -0.1785 0.22397 127 0 255
0.277718 -0.370523 0.207338 127 0 255
-0.150327 -0.299797 0.32496 127 0 255
-0.00148207 -0.302336 0.207 127 0 255
0.230678 -0.166663 0.206386 127 0 255
0.058125 -0.361836 0.199758 127 0 255
0.225901 -0.45888 0.212772 127 0 255
0.22208 -0.230831 0.204425 127 0 255
0.258963 -0.400412 0.255157 127 0 255
-0.0209103 -0.217497 0.206014 127 0 255
0.208609 -0.311672 0.199776 127 0 255
0.0565158 -0.470538 0.226285 127 0 255
-0.0986912 -0.19975 0.204238 127 0 255
0.129659 -0.428739 0.204346 127 0 255
0.312173 -0.0872866 0.212454 127 0 255
-0.162827 -0.449779 0.199949 127 0 255
0.0400606 -0.164263 0.210165 127 0 255
-0.144638 -0.105783 0.244107 127 0 255
0.296928 -0.44232 0.208164 127 0 255
0.168148 -0.120063 0.197016 127 0 255
0.137173 -0.399776 0.249947 127 0 255
0.232978 -0.375808 0.205875 127 0 255
-0.150388 -0.167471 0.256376 127 0 255
-0.146278 -0.350572 0.232546 127 0 255
0.0415166 -0.297853 0.204724 127 0 255
0.102406 -0.477995 0.219797 127 0 255
-0.0752521 -0.0683843 0.204 127 0 255
0.337173 -0.349782 0.199951 127 0 255
0.293928 -0.281167 0.21247 127 0 255
0.032995 -0.433038 0.200073 127 0 255
-0.145967 -0.24296 0.299916 127 0 255
-0.0966499 -0.240529 0.210361 127 0 255
0.10002 -0.125994 0.202824 127 0 255
-0.0845097 -0.129577 0.205745 127 0 255
-0.147146 -0.282578 0.212443 127 0 255
0.144312 -0.246743 0.198067 127 0 255
0.162173 -0.487274 0.199946 127 0 255
0.0975851 -0.178778 0.210276 127 0 255
-0.149443 -0.378695 0.293763 127 0 255
-0.162827 -0.387282 0.199951 127 0 255
-0.153288 -0.131745 0.284746 127 0 255
-0.0480031 -0.460351 0.199943 127 0 255
0.112173 -0.29978 0.237449 127 0 255
0.26088 -0.22449 0.203772 127 0 255
0.324673 -0.399783 0.262451 127 0 255
0.174345 -0.180823 0.204291 127 0 255
0.216293 -0.265619 0.202098 127 0 255
0.297415 -0.192491 0.210941 127 0 255
0.213174 -0.126799 0.210308 127 0 255
-0.0104476 -0.361413 0.215778 127 0 255
0.158103 -0.291605 0.206794 127 0 255
-0.0211854 -0.0753974 0.211941 127 0 255
0.252991 -0.291227 0.205824 127 0 255
-0.0397402 -0.291519 0.213101 127 0 255
-0.070464 -0.168926 0.210256 127 0 255
0.275294 -0.41719 0.212504 127 0 255
0.318099 -0.379141 0.208026 127 0 255
-0.154721 -0.412748 0.227343 127 0 255
0.020614 -0.115192 0.214636 127 0 255
0.0119109 -0.478512 0.225204 127 0 255
0.0822014 -0.228131 0.214782 127 0 255
-0.00751541 -0.161063 0.212967 127 0 255
0.135909 -0.126569 0.203989 127 0 255
0.0431675 -0.399295 0.198086 127 0 255
-0.137819 -0.31223 0.2065 127 0 255
-0.0416965 -0.423135 0.201299 127 0 255
0.0637977 -0.181571 0.198706 127 0 255
-0.0571525 -0.353702 0.204598 127 0 255
0.205807 -0.361772 0.212984 127 0 255
0.194408 -0.447343 0.224273 127 0 255
0.213844 -0.204943 0.210938 127 0 255
0.256388 -0.147137 0.205347 127 0 255
-0.0113577 -0.270836 0.213638 127 0 255
-0.14909 -0.472631 0.243466 127 0 255
-0.000281003 -0.440304 0.200195 127 0 255
0.154914 -0.382547 0.194638 127 0 255
0.0997303 -0.424268 0.2003 127 0 255
-0.13651 -0.366995 0.209764 127 0 255
-0.106345 -0.448446 0.213 127 0 255
0.232022 -0.411914 0.202079 127 0 255
0.0542925 -0.0719884 0.21422 127 0 255
0.0809093 -0.33801 0.199141 127 0 255
-0.129785 -0.177995 0.209191 127 0 255
0.290239 -0.124885 0.203755 127 0 255
-0.153965 -0.232052 0.223563 127 0 255
0.104247 -0.258937 0.199673 127 0 255
0.314432 -0.424266 0.203438 127 0 255
-0.0547075 -0.0989104 0.211278 127 0 255
0.0345451 -0.226098 0.202799 127 0 255
-0.144696 -0.268853 0.297285 127 0 255
-0.140004 -0.0742476 0.243551 127 0 255
-0.0307635 -0.320814 0.210598 127 0 255
0.0746772 -0.123311 0.204162 127 0 255
-0.101582 -0.349821 0.211708 127 0 255
0.246491 -0.33112 0.211158 127 0 255
0.175501 -0.335798 0.199675 127 0 255
0.0127062 -0.06755 0.204116 127 0 255
0.306289 -0.340909 0.203478 127 0 255
0.0616481 -0.285091 0.205111 127 0 255
0.189886 -0.259389 0.199012 127 0 255
-0.14725 -0.174684 0.286397 127 0 255
0.299673 -0.362284 0.249952 127 0 255
0.167181 -0.0970331 0.203536 127 0 255
0.127404 -0.353315 0.194863 127 0 255
-0.124148 -0.0848103 0.20763 127 0 255
0.0366633 -0.476186 0.201925 127 0 255
-0.149313 -0.437385 0.263605 127 0 255
0.130137 -0.17547 0.205523 127 0 255
0.102406 -0.0843974 0.213109 127 0 255
0.0122011 -0.396575 0.199334 127 0 255
0.0373788 -0.329772 0.215525 127 0 255
-0.102005 -0.393557 0.207263 127 0 255
0.112173 -0.399781 0.28745 127 0 255
-0.154841 -0.096778 0.274152 127 0 255
-0.128293 -0.135222 0.208444 127 0 255
-0.134514 -0.482657 0.205566 127 0 255
-0.115575 -0.256276 0.203629 127 0 255
-0.0256375 -0.484053 0.225107 127 0 255
0.251002 -0.193984 0.204283 127 0 255
-0.0382116 -0.15529 0.213362 127 0 255
0.0591278 -0.440646 0.199854 127 0 255
-0.151213 -0.217117 0.257751 127 0 255
0.163926 -0.438556 0.203864 127 0 255
-0.0590992 -0.25266 0.206773 127 0 255
-0.00274114 -0.224383 0.206163 127 0 255
0.0300141 -0.13799 0.211877 127 0 255
-0.1148 -0.211373 0.212594 127 0 255
0.0720615 -0.375551 0.208896 127 0 255
0.162523 -0.158843 0.204402 127 0 255
0.127232 -0.387932 0.209591 127 0 255
0.248273 -0.26123 0.204225 127 0 255
0.2458 -0.423124 0.24469 127 0 255
-0.151723 -0.134043 0.247669 127 0 255
0.111638 -0.29371 0.201185 127 0 255
0.0225078 -0.289947 0.215501 127 0 255
-0.150133 -0.269926 0.247935 127 0 255
-0.150327 -0.199798 0.324961 127 0 255
-0.150396 -0.335183 0.273821 127 0 255
-0.0413693 -0.368307 0.201945 127 0 255
0.17554 -0.309461 0.206324 127 0 255
0.284608 -0.236751 0.212612 127 0 255
0.134394 -0.22354 0.207879 127 0 255
-0.148823 -0.399104 0.253343 127 0 255
-0.0947038 -0.0663558 0.215671 127 0 255
0.10409 -0.454927 0.203323 127 0 255
-0.0877663 -0.321754 0.209858 127 0 255
-0.063978 -0.205029 0.211022 127 0 255
0.074673 -0.412283 0.287451 127 0 255
-0.0984876 -0.479154 0.227125 127 0 255
0.255356 -0.451626 0.214661 127 0 255
0.181196 -0.224566 0.20507 127 0 255
-0.0642443 -0.424921 0.209488 127 0 255
-0.144692 -0.382956 0.301414 127 0 255
0.294988 -0.299331 0.211792 127 0 255
0.27377 -0.381543 0.208504 127 0 255
0.205379 -0.401278 0.210576 127 0 255
0.022769 -0.354583 0.199054 127 0 255
-0.149995 -0.329674 0.222413 127 0 255
-0.141675 -0.470917 0.29329 127 0 255
-0.12871 -0.423785 0.223804 127 0 255
-0.0464952 -0.0735835 0.214898 127 0 255
0.0344106 -0.099571 0.204873 127 0 255
0.0254209 -0.42566 0.217644 127 0 255
-0.0798778 -0.27459 0.206412 127 0 255
0.102803 -0.324228 0.211482 127 0 255
0.212173 -0.337278 0.237448 127 0 255
0.0297529 -0.19624 0.213414 127 0 255
-0.144975 -0.0540332 0.234674 127 0 255
0.0496731 -0.48728 0.249949 127 0 255
0.192441 -0.09941 0.204484 127 0 255
0.0487654 -0.252214 0.206157 127 0 255
0.293467 -0.170819 0.205318 127 0 255
-0.147136 -0.105981 0.217897 127 0 255
0.172005 -0.379391 0.210196 127 0 255
0.212173 -0.424779 0.262448 127 0 255
-0.0281468 -0.455867 0.200301 127 0 255
0.258172 -0.109683 0.208119 127 0 255
0.154482 -0.279656 0.19895 127 0 255
0.162173 -0.0622798 0.199949 127 0 255
0.0839086 -0.192823 0.210553 127 0 255
-0.0845625 -0.163772 0.210718 127 0 255
-0.0378433 -0.109572 0.212419 127 0 255
0.217871 -0.190954 0.203716 127 0 255
0.0593394 -0.150949 0.205464 127 0 255
-0.147278 -0.294363 0.283187 127 0 255
0.180841 -0.139189 0.200597 127 0 255
0.305609 -0.272269 0.203999 127 0 255
0.137521 -0.432028 0.209496 127 0 255
-0.142735 -0.193143 0.267825 127 0 255
-0.0224148 -0.179697 0.210102 127 0 255
0.079462 -0.399709 0.199447 127 0 255
-0.00823315 -0.332969 0.207186 127 0 255
0.223322 -0.458444 0.209847 127 0 255
0.252615 -0.346854 0.207104 127 0 255
-0.0596076 -0.324842 0.207004 127 0 255
-0.150444 -0.245738 0.273162 127 0 255
-0.162827 -0.249788 0.199954 127 0 255
0.195532 -0.296164 0.205365 127 0 255
-0.148643 -0.298164 0.241519 127 0 255
0.123564 -0.110538 0.202516 127 0 255
-0.0929813 -0.127182 0.208724 127 0 255
0.327024 -0.421432 0.215763 127 0 255
0.24179 -0.152999 0.205222 127 0 255
-0.150734 -0.182289 0.214709 127 0 255
-0.0170853 -0.256568 0.206131 127 0 255
0.108069 -0.475932 0.22034 127 0 255
-0.124641 -0.396035 0.208547 127 0 255
-0.00141514 -0.121533 0.214222 127 0 255
-0.147068 -0.143507 0.265268 127 0 255
0.0344647 -0.376837 0.198 127 0 255
0.0110928 -0.464752 0.201124 127 0 255
-0.0077553 -0.412924 0.201573 127 0 255
0.246746 -0.305957 0.203907 127 0 255
0.277103 -0.445751 0.217516 127 0 255
-0.108268 -0.464297 0.197303 127 0 255
0.0496731 -0.43728 0.249949 127 0 255
-0.116787 -0.0501367 0.215474 127 0 255
0.137665 -0.3257 0.196612 127 0 255
-0.14038 -0.479539 0.259264 127 0 255
0.0175854 -0.158785 0.203141 127 0 255
0.118095 -0.253828 0.209223 127 0 255
0.200205 -0.243119 0.20724 127 0 255
-0.118704 -0.326521 0.210541 127 0 255
0.0518096 -0.483092 0.212151 127 0 255
-0.145875 -0.381515 0.235276 127 0 255
0.292319 -0.323509 0.204599 127 0 255
0.0522153 -0.315032 0.215079 127 0 255
-0.0741145 -0.373249 0.202201 127 0 255
-0.0969071 -0.422228 0.211598 127 0 255
-0.162827 -0.424781 0.19995 127 0 255
0.262823 -0.411756 0.254372 127 0 255
0.0908458 -0.221818 0.214044 127 0 255
0.337173 -0.387283 0.237451 127 0 255
0.106035 -0.147249 0.204046 127 0 255
0.191227 -0.420219 0.209811 127 0 255
0.297736 -0.196181 0.210978 127 0 255
-0.104134 -0.285004 0.211167 127 0 255
0.0547736 -0.0714684 0.204031 127 0 255
0.0186966 -0.248237 0.213952 127 0 255
0.287173 -0.0747842 0.212452 127 0 255
-0.155709 -0.445198 0.253435 127 0 255
-0.145926 -0.228064 0.297048 127 0 255
-0.0719773 -0.451062 0.209774 127 0 255
0.143917 -0.188044 0.201863 127 0 255
0.224673 -0.362279 0.249949 127 0 255
-0.0989335 -0.231607 0.210639 127 0 255
0.208308 -0.141126 0.203482 127 0 255
0.10385 -0.400285 0.201298 127 0 255
-0.0286246 -0.205409 0.207094 127 0 255
0.237703 -0.410382 0.20197 127 0 255
-0.0172019 -0.485699 0.217401 127 0 255
0.155235 -0.35634 0.1979 127 0 255
0.0885001 -0.297208 0.200036 127 0 255
0.293332 -0.378473 0.210993 127 0 255
0.237386 -0.213484 0.209403 127 0 255
-0.153672 -0.123657 0.288465 127 0 255
-0.162827 -0.474788 0.324954 127 0 255
-0.0583343 -0.281811 0.206446 127 0 255
-0.147951 -0.405606 0.274658 127 0 255
0.00141206 -0.0773522 0.215847 127 0 255
0.0496731 -0.399783 0.262451 127 0 255
0.158773 -0.398418 0.209254 127 0 255
0.0621002 -0.117825 0.205795 127 0 255
-0.15018 -0.158611 0.214422 127 0 255
0.220754 -0.371675 0.210675 127 0 255
0.0862543 -0.344749 0.212003 127 0 255
0.140125 -0.146203 0.205041 127 0 255
0.0548416 -0.400153 0.215548 127 0 255
0.204212 -0.456467 0.221278 127 0 255
-0.106646 -0.108394 0.211243 127 0 255
-0.0174147 -0.37461 0.212167 127 0 255
0.28111 -0.131066 0.211291 127 0 255
-0.134582 -0.446871 0.224361 127 0 255
-0.153725 -0.270594 0.226327 127 0 255
0.157479 -0.218104 0.199816 127 0 255
0.101543 -0.0806292 0.205218 127 0 255
-0.0176821 -0.306837 0.208079 127 0 255
0.21725 -0.311606 0.201974 127 0 255
-0.0835697 -0.481424 0.226573 127 0 255
0.0439439 -0.180352 0.214183 127 0 255
-0.0476746 -0.242524 0.206512 127 0 255
-0.150285 -0.313014 0.283969 127 0 255
-0.0854738 -0.0630724 0.205882 127 0 255
0.228247 -0.258076 0.206596 127 0 255
-0.116156 -0.178956 0.207683 127 0 255
0.137173 -0.399779 0.274948 127 0 255
-0.0458598 -0.483917 0.207876 127 0 255
0.185291 -0.174148 0.206531 127 0 255
-0.148181 -0.208452 0.240956 127 0 255
0.264661 -0.423463 0.2056 127 0 255
-0.0412894 -0.0676586 0.205259 127 0 255
0.175443 -0.269951 0.209477 127 0 255
0.265913 -0.199591 0.204383 127 0 255
0.00767858 -0.27235 0.214826 127 0 255
0.181111 -0.357537 0.210565 127 0 255
0.320061 -0.432792 0.206463 127 0 255
-0.133255 -0.481446 0.202695 127 0 255
0.0546529 -0.218196 0.209844 127 0 255
0.136216 -0.302124 0.208508 127 0 255
-0.0715901 -0.111224 0.207768 127 0 255
-0.142285 -0.099615 0.255984 127 0 255
0.162173 -0.487274 0.199946 127 0 255
-0.133261 -0.251895 0.205375 127 0 255
0.203557 -0.101134 0.210178 127 0 255
0.305975 -0.341777 0.203523 127 0 255
-0.148168 -0.188137 0.291713 127 0 255
0.120355 -0.370214 0.195619 127 0 255
0.279889 -0.238806 0.202894 127 0 255
-0.00511795 -0.206314 0.208369 127 0 255
0.252414 -0.365386 0.215592 127 0 255
0.0732969 -0.272718 0.20587 127 0 255
0.0949569 -0.447498 0.200247 127 0 255
-0.10122 -0.348593 0.20774 127 0 255
0.017108 -0.364505 0.217332 127 0 255
0.031234 -0.0733472 0.215727 127 0 255
-0.0371176 -0.137689 0.213096 127 0 255
0.337173 -0.299784 0.199952 127 0 255
-0.0729395 -0.221633 0.208585 127 0 255
-0.143932 -0.260344 0.284809 127 0 255
0.312173 -0.0872858 0.199953 127 0 255
0.179429 -0.449281 0.22478 127 0 255
-0.147723 -0.0647037 0.220581 127 0 255
-0.14613 -0.334611 0.231045 127 0 255
-0.0521528 -0.421605 0.208886 127 0 255
0.108598 -0.186805 0.205762 127 0 255
-0.00783461 -0.443686 0.200292 127 0 255
0.229409 -0.44024 0.230726 127 0 255
0.313619 -0.395647 0.203626 127 0 255
0.264885 -0.299745 0.20544 127 0 255
0.0172626 -0.134808 0.198091 127 0 255
0.163468 -0.313512 0.195307 127 0 255
0.0420965 -0.428679 0.199859 127 0 255
0.145387 -0.434038 0.214518 127 0 255
0.253649 -0.10745 0.208372 127 0 255
-0.0603424 -0.172909 0.209736 127 0 255
0.112173 -0.387277 0.249948 127 0 255
-0.124964 -0.213802 0.209325 127 0 255
-0.0722546 -0.303109 0.212346 127 0 255
-0.146409 -0.151808 0.246953 127 0 255
0.157457 -0.246622 0.207184 127 0 255
0.202611 -0.197138 0.209283 127 0 255
0.0391366 -0.33051 0.20131 127 0 255
0.0204364 -0.479595 0.220361 127 0 255
-0.14963 -0.434204 0.271299 127 0 255
0.306231 -0.247366 0.208731 127 0 255
0.142732 -0.105614 0.209479 127 0 255
-0.0380462 -0.331773 0.207124 127 0 255
-0.133523 -0.291404 0.20446 127 0 255
-0.147779 -0.103657 0.220474 127 0 255
0.0906201 -0.11792 0.206023 127 0 255
0.183783 -0.377341 0.193928 127 0 255
-0.0298243 -0.273272 0.204704 127 0 255
0.12305 -0.330851 0.210772 127 0 255
0.242141 -0.165931 0.205954 127 0 255
0.287173 -0.412283 0.274951 127 0 255
0.0788884 -0.47906 0.21531 127 0 255
-0.154674 -0.244305 0.231928 127 0 255
-0.13535 -0.390148 0.209841 127 0 255
0.113602 -0.224596 0.201641 127 0 255
0.087173 -0.287283 0.237451 127 0 255
0.203571 -0.33378 0.198824 127 0 255
-0.0849305 -0.253796 0.206231 127 0 255
-0.150903 -0.313728 0.262688 127 0 255
-0.061709 -0.390663 0.208769 127 0 255
0.126967 -0.282919 0.199349 127 0 255
0.00921275 -0.329397 0.212088 127 0 255
-0.150327 -0.112299 0.324962 127 0 255
0.00090327 -0.170473 0.212852 127 0 255
0.0417003 -0.270768 0.210942 127 0 255
0.282625 -0.444634 0.206522 127 0 255
0.0856405 -0.156225 0.206127 127 0 255
-0.140186 -0.478802 0.252172 127 0 255
-0.154232 -0.0728357 0.251312 127 0 255
0.246957 -0.277419 0.203253 127 0 255
-0.150327 -0.162299 0.324962 127 0 255
0.241879 -0.417509 0.245834 127 0 255
0.0420987 -0.183577 0.197794 127 0 255
0.0463683 -0.106334 0.205085 127 0 255
-0.162827 -0.337285 0.199953 127 0 255
0.168328 -0.128721 0.208146 127 0 255
-0.00958981 -0.242233 0.213264 127 0 255
-0.0886536 -0.188517 0.207073 127 0 255
-0.142135 -0.203828 0.287833 127 0 255
0.0650871 -0.349711 0.210505 127 0 255
0.12588 -0.406894 0.210032 127 0 255
-0.00480095 -0.0677716 0.208174 127 0 255
0.278208 -0.34492 0.20934 127 0 255
-0.150327 -0.324795 0.324959 127 0 255
0.290842 -0.121183 0.206586 127 0 255
-0.0442185 -0.45244 0.199238 127 0 255
-0.0988847 -0.435489 0.20958 127 0 255
-0.0692987 -0.0923272 0.203928 127 0 255
0.266887 -0.396405 0.208783 127 0 255
0.0801314 -0.246024 0.211018 127 0 255
-0.119273 -0.116909 0.213131 127 0 255
0.0292926 -0.419797 0.217738 127 0 255
0.324673 -0.174785 0.199953 127 0 255
0.145532 -0.45757 0.220779 127 0 255
0.195946 -0.401584 0.198415 127 0 255
-0.062827 -0.48729 0.274956 127 0 255
0.0496731 -0.424783 0.274951 127 0 255
-0.0662443 -0.4827 0.209394 127 0 255
-0.0196879 -0.11665 0.213348 127 0 255
-0.120388 -0.0496711 0.215239 127 0 255
-0.148146 -0.401546 0.26891 127 0 255
0.0187398 -0.217608 0.213085 127 0 255
0.197192 -0.287049 0.20595 127 0 255
-0.0941546 -0.389275 0.207305 127 0 255
-0.0431864 -0.192336 0.211459 127 0 255
0.185377 -0.218801 0.205579 127 0 255
-0.01973 -0.374716 0.206205 127 0 255
0.2384 -0.324643 0.210492 127 0 255
0.108964 -0.100284 0.201601 127 0 255
-0.147653 -0.168706 0.277199 127 0 255
-0.131985 -0.324296 0.205938 127 0 255
0.297021 -0.211704 0.203356 127 0 255
0.234936 -0.218145 0.202874 127 0 255
0.264453 -0.159493 0.207294 127 0 255
-0.0885532 -0.155889 0.210916 127 0 255
0.166587 -0.179482 0.203183 127 0 255
-0.0693629 -0.348883 0.209496 127 0 255
-0.152341 -0.121093 0.251351 127 0 255
0.225847 -0.102571 0.210807 127 0 255
0.290643 -0.283993 0.210504 127 0 255
0.0399192 -0.386201 0.197925 127 0 255
0.0865491 -0.444192 0.216277 127 0 255
-0.136093 -0.455439 0.228179 127 0 255
0.087173 -0.412282 0.287451 127 0 255
0.163677 -0.418867 0.201736 127 0 255
0.0853877 -0.201579 0.202229 127 0 255
-0.0939258 -0.296801 0.21024 127 0 255
0.205297 -0.446544 0.205209 127 0 255
-0.00660115 -0.468442 0.199665 127 0 255
-0.150473 -0.197289 0.217044 127 0 255
0.217391 -0.160144 0.204675 127 0 255
0.1009 -0.351515 0.211947 127 0 255
0.129539 -0.150089 0.206267 127 0 255
0.0265656 -0.306938 0.215812 127 0 255
0.0524624 -0.148105 0.203337 127 0 255
0.299313 -0.406371 0.207359 127 0 255
-0.150488 -0.352778 0.223133 127 0 255
-0.162827 -0.0622961 0.28746 127 0 255
0.0371871 -0.0682733 0.204892 127 0 255
-0.148042 -0.276414 0.246601 127 0 255
0.231031 -0.380236 0.206181 127 0 255
-0.117891 -0.0850807 0.207276 127 0 255
0.137173 -0.424774 0.249946 127 0 255
0.0621188 -0.421916 0.21457 127 0 255
0.254732 -0.452366 0.212813 127 0 255
-0.0994173 -0.479724 0.222346 127 0 255
0.143285 -0.340575 0.208811 127 0 255
0.189667 -0.127137 0.198279 127 0 255
-0.132744 -0.150185 0.209542 127 0 255
0.0711912 -0.307999 0.212024 127 0 255
0.0460355 -0.240555 0.210408 127 0 255
0.0729718 -0.0927608 0.214442 127 0 255
-0.026892 -0.0787926 0.203718 127 0 255
-0.148661 -0.228784 0.271312 127 0 255
-0.0117261 -0.153657 0.213049 127 0 255
-0.0293919 -0.233361 0.212184 127 0 255
0.138846 -0.195848 0.209585 127 0 255
0.209672 -0.251309 0.206784 127 0 255
0.0100756 -0.367802 0.199564 127 0 255
0.0380397 -0.461952 0.201469 127 0 255
-0.153595 -0.110917 0.28398 127 0 255
-0.118399 -0.257929 0.203774 127 0 255
-0.130058 -0.404312 0.225409 127 0 255
-0.00866048 -0.433124 0.200477 127 0 255
-0.0186948 -0.280022 0.204335 127 0 255
0.00662892 -0.108116 0.214924 127 0 255
-0.144347 -0.26415 0.293975 127 0 255
0.285342 -0.32006 0.210647 127 0 255
-0.151047 -0.186369 0.254944 127 0 255
0.127127 -0.255952 0.198793 127 0 255
0.251727 -0.122908 0.200872 127 0 255
-0.017224 -0.484985 0.221064 127 0 255
-0.162827 -0.224788 0.199954 127 0 255
0.0758408 -0.378369 0.208026 127 0 255
-0.0813548 -0.133051 0.205907 127 0 255
-0.0492479 -0.314877 0.208608 127 0 255
0.219342 -0.343566 0.210884 127 0 255
0.116327 -0.471312 0.210804 127 0 255
0.264098 -0.407386 0.255597 127 0 255
-0.0612708 -0.0741496 0.215578 127 0 255
-0.122313 -0.354113 0.210362 127 0 255
0.303697 -0.367984 0.204475 127 0 255
0.167189 -0.395447 0.195636 127 0 255
-0.0477965 -0.152441 0.203144 127 0 255
0.0958148 -0.279322 0.203073 127 0 255
-0.113809 -0.205729 0.21292 127 0 255
0.178344 -0.457774 0.223426 127 0 255
0.309421 -0.441081 0.218093 127 0 255
0.290981 -0.170878 0.207056 127 0 255
0.113954 -0.414326 0.200923 127 0 255
-0.146862 -0.311024 0.233277 127 0 255
-0.142455 -0.470776 0.265378 127 0 255
0.197073 -0.0993905 0.205645 127 0 255
0.0496731 -0.48728 0.249949 127 0 255
-0.0643804 -0.368663 0.202305 127 0 255
-0.162827 -0.462279 0.199949 127 0 255
-0.147162 -0.42555 0.244059 127 0 255
-0.0753638 -0.423647 0.208787 127 0 255
-0.162827 -0.474788 0.324954 127 0 255
-0.0508681 -0.212514 0.206698 127 0 255
0.0219039 -0.174274 0.213345 127 0 255
0.273654 -0.233415 0.20422 127 0 255
0.161715 -0.312447 0.195607 127 0 255
0.140499 -0.12057 0.203804 127 0 255
0.209951 -0.416572 0.209152 127 0 255
-0.00777478 -0.403002 0.210378 127 0 255
0.192267 -0.166388 0.202506 127 0 255
0.0652389 -0.328796 0.202146 127 0 255
0.252423 -0.189401 0.204056 127 0 255
0.161831 -0.24937 0.207146 127 0 255
-0.0235063 -0.333083 0.207219 127 0 255
-0.144371 -0.128796 0.213333 127 0 255
-0.145459 -0.377156 0.230867 127 0 255
0.0961866 -0.165337 0.20432 127 0 255
0.112173 -0.312279 0.237449 127 0 255
-0.0987398 -0.0694899 0.215574 127 0 255
0.241673 -0.26718 0.206314 127 0 255
0.198728 -0.316175 0.198139 127 0 255
-0.0822759 -0.248129 0.206929 127 0 255
0.0513439 -0.482458 0.215548 127 0 255
0.0888823 -0.228096 0.199996 127 0 255
0.293952 -0.265358 0.204191 127 0 255
0.143485 -0.383057 0.207888 127 0 255
-0.117633 -0.479879 0.228029 127 0 255
-0.150327 -0.212298 0.324961 127 0 255
0.046867 -0.119977 0.202145 127 0 255
0.00494179 -0.301243 0.206993 127 0 255
-0.045831 -0.429651 0.210357 127 0 255
-0.148371 -0.0843351 0.227143 127 0 255
0.185544 -0.364528 0.2126 127 0 255
-0.148116 -0.401915 0.27501 127 0 255
0.225151 -0.439829 0.230361 127 0 255
-0.153359 -0.159806 0.231859 127 0 255
-0.114152 -0.314597 0.20929 127 0 255
0.0832333 -0.443002 0.200104 127 0 255
0.0136506 -0.0657468 0.212504 127 0 255
0.320834 -0.419184 0.22516 127 0 255
0.0154179 -0.205272 0.212645 127 0 255
-0.150629 -0.216316 0.246321 127 0 255
0.129883 -0.223107 0.201833 127 0 255
0.299673 -0.387285 0.274952 127 0 255
-0.0688783 -0.482568 0.220969 127 0 255
0.040628 -0.282546 0.207831 127 0 255
0.26922 -0.382505 0.207224 127 0 255
0.27775 -0.105523 0.206913 127 0 255
-0.149461 -0.320355 0.272201 127 0 255
-0.0566609 -0.285604 0.211975 127 0 255
0.219691 -0.133373 0.203415 127 0 255
-0.146252 -0.135634 0.269486 127 0 255
0.157547 -0.151696 0.2051 127 0 255
0.182727 -0.276111 0.19808 127 0 255
0.0574436 -0.206623 0.210248 127 0 255
0.262119 -0.33009 0.204357 127 0 255
0.124673 -0.38728 0.274949 127 0 255
-0.162827 -0.424781 0.19995 127 0 255
0.111578 -0.328463 0.198204 127 0 255
-0.162827 -0.287288 0.199955 127 0 255
0.162173 -0.062282 0.212451 127 0 255
0.0892451 -0.40295 0.209917 127 0 255
-0.129817 -0.252224 0.220981 127 0 255
0.0328887 -0.405475 0.199172 127 0 255
0.108346 -0.12812 0.203085 127 0 255
0.191905 -0.209387 0.20706 127 0 255
0.091408 -0.47671 0.207592 127 0 255
-0.141959 -0.475688 0.28652 127 0 255
0.309254 -0.345434 0.206217 127 0 255
-0.0397111 -0.354887 0.210963 127 0 255
-0.0746418 -0.199404 0.21073 127 0 255
0.257775 -0.413117 0.206309 127 0 255
-0.154666 -0.0977466 0.271703 127 0 255
0.297146 -0.207598 0.211097 127 0 255
-0.0797383 -0.451503 0.208554 127 0 255
0.0130441 -0.243576 0.213656 127 0 255
-0.0919336 -0.358186 0.207594 127 0 255
0.028526 -0.354056 0.199595 127 0 255
-0.0127662 -0.109172 0.201896 127 0 255
0.0445141 -0.438777 0.216166 127 0 255
0.0822325 -0.0840799 0.203677 127 0 255
-0.116918 -0.425606 0.217044 127 0 255
0.237014 -0.299061 0.206307 127 0 255
-0.0671647 -0.104821 0.206382 127 0 255
0.173777 -0.112715 0.211265 127 0 255
0.187173 -0.437276 0.249946 127 0 255
0.0109174 -0.465275 0.201152 127 0 255
0.223955 -0.186945 0.207362 127 0 255
-0.130244 -0.183662 0.209377 127 0 255
-0.142067 -0.472227 0.21509 127 0 255
-0.143341 -0.23652 0.286812 127 0 255
-0.0339442 -0.484509 0.221458 127 0 255
-0.0322972 -0.182823 0.207975 127 0 255
-0.0453656 -0.248338 0.206762 127 0 255
0.282737 -0.136088 0.203218 127 0 255
0.219015 -0.380832 0.210378 127 0 255
0.141209 -0.273356 0.198577 127 0 255
-0.14631 -0.0597068 0.240664 127 0 255
0.132038 -0.179856 0.208886 127 0 255
0.0618571 -0.372785 0.20826 127 0 255
0.244009 -0.41845 0.2468 127 0 255
0.139979 -0.427535 0.204313 127 0 255
-0.162827 -0.387282 0.199951 127 0 255
0.0934974 -0.248042 0.200713 127 0 255
-0.0976993 -0.134945 0.208506 127 0 255
-0.154175 -0.274154 0.233986 127 0 255
0.251505 -0.216356 0.203098 127 0 255
-0.07222 -0.403614 0.209595 127 0 255
0.0728782 -0.164077 0.2057 127 0 255
-0.103722 -0.280456 0.209797 127 0 255
0.116475 -0.301795 0.199591 127 0 255
0.0134503 -0.335568 0.21461 127 0 255
0.289398 -0.445105 0.210794 127 0 255
0.249024 -0.355566 0.213037 127 0 255
0.149112 -0.0973935 0.203869 127 0 255
0.0496731 -0.399783 0.262451 127 0 255
-0.0799112 -0.0732385 0.203769 127 0 255
0.160414 -0.222205 0.200239 127 0 255
-0.115891 -0.223445 0.206726 127 0 255
0.281401 -0.304857 0.210499 127 0 255
0.310893 -0.380443 0.203514 127 0 255
0.230915 -0.452883 0.207225 127 0 255
-0.152239 -0.45139 0.252868 127 0 255
0.0739633 -0.284664 0.20265 127 0 255
0.247309 -0.105672 0.20129 127 0 255
-0.0048194 -0.381388 0.212989 127 0 255
-0.123675 -0.0926829 0.207456 127 0 255
0.15274 -0.372006 0.194641 127 0 255
-0.0382902 -0.0717101 0.203673 127 0 255
0.212687 -0.267116 0.20357 127 0 255
0.180762 -0.427404 0.210727 127 0 255
-0.0274313 -0.45434 0.200357 127 0 255
0.0182585 -0.109681 0.214583 127 0 255
0.304787 -0.246389 0.208741 127 0 255
-0.142047 -0.201557 0.286038 127 0 255
-0.106843 -0.398065 0.207715 127 0 255
-0.0976455 -0.332172 0.211345 127 0 255
-0.149353 -0.158374 0.25755 127 0 255
0.0533335 -0.255496 0.207968 127 0 255
-0.100114 -0.16378 0.208282 127 0 255
0.0612894 -0.0985541 0.214705 127 0 255
-0.018046 -0.2172 0.212327 127 0 255
0.253847 -0.148021 0.20528 127 0 255
-0.050395 -0.148337 0.208351 127 0 255
0.022751 -0.154257 0.203603 127 0 255
-0.087827 -0.48729 0.287456 127 0 255
-0.150327 -0.112299 0.324962 127 0 255
-0.150128 -0.320359 0.230594 127 0 255
0.237173 -0.36228 0.249949 127 0 255
-0.14618 -0.390655 0.240105 127 0 255
0.19744 -0.233304 0.207933 127 0 255
-0.0366152 -0.301073 0.206851 127 0 255
0.0734522 -0.339215 0.200177 127 0 255
-0.131307 -0.46396 0.200422 127 0 255
0.0800567 -0.199499 0.202646 127 0 255
0.200087 -0.459865 0.208793 127 0 255
-0.00131834 -0.483939 0.217866 127 0 255
0.0645724 -0.462844 0.201747 127 0 255
-0.138175 -0.0525696 0.21605 127 0 255
0.311764 -0.432509 0.204566 127 0 255
-0.144155 -0.261958 0.291608 127 0 255
-0.150593 -0.309341 0.272771 127 0 255
-0.0587946 -0.337983 0.207067 127 0 255
-0.0101797 -0.273792 0.213776 127 0 255
0.0183194 -0.424011 0.216265 127 0 255
0.0210598 -0.0673406 0.213765 127 0 255
-0.162827 -0.0747976 0.312461 127 0 255
0.0918457 -0.132621 0.207722 127 0 255
0.191946 -0.160767 0.206991 127 0 255
0.106843 -0.457051 0.215724 127 0 255
0.220574 -0.410672 0.202145 127 0 255
0.181665 -0.347016 0.199909 127 0 255
0.110714 -0.385471 0.201177 127 0 255
-0.0832532 -0.269678 0.211055 127 0 255
-0.0657546 -0.447181 0.200601 127 0 255
-0.143042 -0.10212 0.254035 127 0 255
0.155579 -0.285817 0.199396 127 0 255
-0.144943 -0.196693 0.232924 127 0 255
0.209258 -0.314457 0.207384 127 0 255
0.112173 -0.399781 0.28745 127 0 255
0.26907 -0.193264 0.205976 127 0 255
0.112799 -0.201939 0.206038 127 0 255
0.0135011 -0.198379 0.205319 127 0 255
-0.0150478 -0.412512 0.20711 127 0 255
-0.14372 -0.476529 0.242758 127 0 255
0.114123 -0.348572 0.19796 127 0 255
0.112662 -0.0938699 0.204031 127 0 255
0.286264 -0.356611 0.208113 127 0 255
-0.140416 -0.289464 0.207995 127 0 255
-0.133982 -0.12725 0.22148 127 0 255
0.144598 -0.44705 0.214418 127 0 255
0.118749 -0.157479 0.205066 127 0 255
-0.140812 -0.35196 0.227263 127 0 255
-0.102774 -0.445722 0.210784 127 0 255
-0.0968787 -0.0933463 0.213119 127 0 255
-0.149744 -0.422513 0.249534 127 0 255
-0.0247309 -0.107395 0.211662 127 0 255
-0.150327 -0.287298 0.324961 127 0 255
0.256834 -0.433726 0.205942 127 0 255
0.0882814 -0.40935 0.204274 127 0 255
0.0264823 -0.27904 0.204214 127 0 255
0.123112 -0.242161 0.206665 127 0 255
0.226989 -0.250179 0.204037 127 0 255
-0.0852415 -0.207863 0.210345 127 0 255
0.165774 -0.177757 0.203227 127 0 255
-0.0616837 -0.380008 0.210763 127 0 255
0.074673 -0.424782 0.287451 127 0 255
0.301448 -0.312425 0.206407 127 0 255
0.186979 -0.377432 0.212806 127 0 255
0.0385461 -0.227194 0.204087 127 0 255
-0.0165869 -0.174026 0.207189 127 0 255
-0.152069 -0.233491 0.223233 127 0 255
-0.0670342 -0.29797 0.212383 127 0 255
0.0298049 -0.378381 0.198039 127 0 255
0.0457817 -0.146439 0.203316 127 0 255
-0.150327 -0.187299 0.324961 127 0 255
0.229814 -0.14273 0.204788 127 0 255
0.232981 -0.3446 0.212373 127 0 255
0.148986 -0.321348 0.206804 127 0 255
-0.130127 -0.166253 0.20906 127 0 255
0.294139 -0.17654 0.206919 127 0 255
0.287173 -0.362283 0.249952 127 0 255
0.321005 -0.418901 0.224927 127 0 255
-0.0448702 -0.484908 0.215739 127 0 255
0.303714 -0.274453 0.207227 127 0 255
0.14505 -0.401375 0.199732 127 0 255
-0.0319283 -0.265423 0.212651 127 0 255
0.0496731 -0.43728 0.249949 127 0 255
0.244209 -0.279874 0.203131 127 0 255
0.0618538 -0.324694 0.202123 127 0 255
0.225444 -0.218159 0.203236 127 0 255
-0.012827 -0.487288 0.262454 127 0 255
0.0694701 -0.233822 0.213311 127 0 255
-0.133298 -0.258123 0.205299 127 0 255
0.195916 -0.102191 0.202952 127 0 255
0.171935 -0.45974 0.222607 127 0 255
0.287173 -0.0747828 0.199951 127 0 255
0.0411045 -0.0714027 0.214303 127 0 255
0.144786 -0.130559 0.20456 127 0 255
0.0351929 -0.435433 0.20013 127 0 255
0.124673 -0.387277 0.249947 127 0 255
-0.134488 -0.418041 0.210403 127 0 255
0.299391 -0.225376 0.205307 127 0 255
-0.150433 -0.224828 0.272695 127 0 255
0.29336 -0.390921 0.209081 127 0 255
-0.0994488 -0.0622057 0.21567 127 0 255
-0.0610773 -0.172175 0.20652 127 0 255
-0.14317 -0.101529 0.278092 127 0 255
0.101191 -0.315629 0.211162 127 0 255
0.176839 -0.249921 0.200501 127 0 255
-0.149429 -0.300495 0.239266 127 0 255
0.00603406 -0.140916 0.203269 127 0 255
0.0996731 -0.474776 0.249946 127 0 255
-0.122864 -0.352642 0.210471 127 0 255
-0.151234 -0.185824 0.257032 127 0 255
-0.0810268 -0.125814 0.209296 127 0 255
-0.037809 -0.22118 0.20619 127 0 255
0.207599 -0.181556 0.20818 127 0 255
0.11007 -0.426049 0.200963 127 0 255
0.0227405 -0.344758 0.216472 127 0 255
-0.0397558 -0.0708316 0.212497 127 0 255
-0.101034 -0.232834 0.210408 127 0 255
0.169241 -0.210764 0.204198 127 0 255
0.186752 -0.307023 0.205165 127 0 255
-0.0349043 -0.450598 0.20977 127 0 255
-0.110088 -0.295098 0.212294 127 0 255
0.0582839 -0.40547 0.20005 127 0 255
0.31062 -0.343336 0.208392 127 0 255
0.236001 -0.446296 0.225209 127 0 255
0.280902 -0.420384 0.212536 127 0 255
0.0291258 -0.306801 0.204095 127 0 255
0.251603 -0.375234 0.207827 127 0 255
0.00702619 -0.229967 0.205524 127 0 255
0.26861 -0.10633 0.207158 127 0 255
-0.150327 -0.149799 0.324962 127 0 255
0.0913491 -0.266151 0.206593 127 0 255
-0.104874 -0.479143 0.215375 127 0 255
-0.150855 -0.140501 0.264007 127 0 255
-0.150071 -0.256437 0.244046 127 0 255
0.25272 -0.320195 0.204425 127 0 255
0.287173 -0.412283 0.274951 127 0 255
0.188008 -0.40445 0.210361 127 0 255
-0.068876 -0.253574 0.206697 127 0 255
-0.142893 -0.477531 0.268255 127 0 255
-0.147785 -0.0679515 0.221839 127 0 255
0.173838 -0.139559 0.200841 127 0 255
0.141086 -0.369379 0.207668 127 0 255
-0.142558 -0.382713 0.213678 127 0 255
0.0365373 -0.465783 0.217669 127 0 255
-0.0948346 -0.393395 0.207291 127 0 255
0.0988887 -0.085383 0.204073 127 0 255
0.0439314 -0.119545 0.202122 127 0 255
-0.138072 -0.437169 0.226658 127 0 255
-0.0398571 -0.119565 0.207661 127 0 255
0.280002 -0.142626 0.20589 127 0 255
-0.0978091 -0.185282 0.208896 127 0 255
-0.00581418 -0.339632 0.207084 127 0 255
0.010078 -0.404455 0.215069 127 0 255
0.12813 -0.30431 0.209074 127 0 255
0.0606335 -0.287301 0.206768 127 0 255
0.0844271 -0.178685 0.20441 127 0 255
0.203909 -0.346876 0.199079 127 0 255
0.0183709 -0.0890183 0.215075 127 0 255
-0.148228 -0.108588 0.223937 127 0 255
0.190115 -0.275906 0.209005 127 0 255
0.245957 -0.419321 0.246117 127 0 255
0.115366 -0.470443 0.214664 127 0 255
-0.058894 -0.333267 0.208818 127 0 255
0.220947 -0.108275 0.211271 127 0 255
0.128098 -0.205974 0.204973 127 0 255
0.151286 -0.0999202 0.207051 127 0 255
0.0873865 -0.385732 0.209077 127 0 255
0.0323705 -0.167334 0.211315 127 0 255
0.236218 -0.40312 0.202108 127 0 255
0.247353 -0.169373 0.205906 127 0 255
0.131899 -0.259934 0.208245 127 0 255
0.00689431 -0.468526 0.201129 127 0 255
0.159197 -0.419613 0.201686 127 0 255
-0.0671138 -0.0656969 0.212539 127 0 255
0.00267087 -0.257114 0.204774 127 0 255
0.262892 -0.213666 0.20624 127 0 255
-0.0269236 -0.364405 0.20652 127 0 255
0.0608739 -0.207204 0.210259 127 0 255
-0.0699908 -0.41508 0.20715 127 0 255
0.0869347 -0.140609 0.203829 127 0 255
0.324673 -0.174785 0.199953 127 0 255
-0.05991 -0.205638 0.211042 127 0 255
0.290263 -0.29138 0.210126 127 0 255
-0.143881 -0.255772 0.286056 127 0 255
-0.0167068 -0.0869133 0.210757 127 0 255
-0.162827 -0.212288 0.199954 127 0 255
0.145283 -0.163078 0.207598 127 0 255
-0.0829298 -0.465844 0.215945 127 0 255
-0.0989503 -0.338244 0.208216 127 0 255
-0.146306 -0.395376 0.243987 127 0 255
-0.133086 -0.150523 0.209627 127 0 255
0.0804654 -0.439837 0.214804 127 0 255
-0.162827 -0.0622961 0.28746 127 0 255
-0.0237055 -0.159572 0.205007 127 0 255
-0.150424 -0.213947 0.245266 127 0 255
0.149673 -0.487274 0.199946 127 0 255
0.254683 -0.451402 0.213435 127 0 255
0.087173 -0.287283 0.237451 127 0 255
0.0155845 -0.371813 0.215612 127 0 255
-0.120427 -0.0754341 0.207791 127 0 255
-0.0288283 -0.481734 0.226339 127 0 255
0.203581 -0.430906 0.208739 127 0 255
-0.143238 -0.317885 0.211959 127 0 255
-0.141889 -0.19687 0.282778 127 0 255
0.0593339 -0.0774162 0.214366 127 0 255
0.321683 -0.421694 0.224536 127 0 255
-0.0773664 -0.297909 0.211998 127 0 255
0.11926 -0.116375 0.202726 127 0 255
-0.153808 -0.0735611 0.24809 127 0 255
-0.147618 -0.170331 0.243067 127 0 255
0.0893705 -0.237191 0.212795 127 0 255
-0.134493 -0.454412 0.208034 127 0 255
0.195972 -0.139915 0.202631 127 0 255
-0.0416228 -0.42733 0.208559 127 0 255
0.216954 -0.375934 0.210498 127 0 255
0.293912 -0.257679 0.203653 127 0 255
0.271184 -0.349667 0.20712 127 0 255
0.0320022 -0.248074 0.203815 127 0 255
-0.153861 -0.121747 0.276508 127 0 255
-0.12373 -0.214281 0.20931 127 0 255
-0.0379305 -0.308848 0.210463 127 0 255
-0.0832309 -0.156399 0.21057 127 0 255
-0.150743 -0.462442 0.25441 127 0 255
0.0371731 -0.487281 0.24995 127 0 255
0.0648724 -0.359013 0.208025 127 0 255
0.151829 -0.22772 0.207793 127 0 255
0.242049 -0.296997 0.20418 127 0 255
0.0543389 -0.454491 0.201482 127 0 255
0.205607 -0.230037 0.204197 127 0 255
0.337173 -0.337283 0.199951 127 0 255
0.0126499 -0.311944 0.20847 127 0 255
0.299337 -0.197751 0.207777 127 0 255
-0.103597 -0.263532 0.209935 127 0 255
0.111597 -0.17209 0.209645 127 0 255
0.309176 -0.373493 0.212733 127 0 255
0.160791 -0.367845 0.207519 127 0 255
-0.0570622 -0.380794 0.208147 127 0 255
0.262173 -0.387283 0.274951 127 0 255
0.11204 -0.422744 0.21292 127 0 255
-0.148265 -0.132128 0.23251 127 0 255
0.110645 -0.287886 0.202705 127 0 255
-0.0970645 -0.433243 0.209215 127 0 255
-0.0481161 -0.248537 0.207309 127 0 255
0.162173 -0.062282 0.212451 127 0 255
0.180984 -0.328275 0.202896 127 0 255
0.205755 -0.189377 0.208258 127 0 255
0.0496731 -0.399783 0.262451 127 0 255
0.00574665 -0.19463 0.207245 127 0 255
0.252022 -0.127767 0.208736 127 0 255
0.108057 -0.370409 0.207491 127 0 255
-0.0994521 -0.104438 0.208623 127 0 255
0.14873 -0.457866 0.219127 127 0 255
-0.150327 -0.437288 0.324955 127 0 255
-0.150293 -0.339743 0.222777 127 0 255
-0.150327 -0.224798 0.324961 127 0 255
-0.00657374 -0.393634 0.209487 127 0 255
0.0427651 -0.417421 0.216438 127 0 255
-0.142114 -0.0521946 0.228216 127 0 255
0.257437 -0.396018 0.212493 127 0 255
0.0721444 -0.306851 0.211892 127 0 255
0.153115 -0.268149 0.206139 127 0 255
0.212716 -0.459012 0.214057 127 0 255
0.236689 -0.265814 0.20639 127 0 255
-0.151489 -0.420109 0.229081 127 0 255
0.152172 -0.18949 0.201502 127 0 255
0.28137 -0.443346 0.206598 127 0 255
0.0541416 -0.104432 0.205025 127 0 255
0.0662205 -0.470292 0.223361 127 0 255
0.0136406 -0.448036 0.206829 127 0 255
-0.0487849 -0.180418 0.210626 127 0 255
0.112961 -0.328828 0.211011 127 0 255
0.225181 -0.323835 0.20545 127 0 255
-0.153365 -0.277507 0.228216 127 0 255
0.101176 -0.221733 0.200124 127 0 255
-0.0857687 -0.364215 0.208073 127 0 255
-0.0165079 -0.239749 0.212954 127 0 255
-0.130812 -0.18862 0.209519 127 0 255
0.275449 -0.321665 0.204395 127 0 255
-0.13004 -0.377374 0.218104 127 0 255
-0.0382267 -0.484706 0.210221 127 0 255
0.169445 -0.101036 0.203572 127 0 255
0.0845916 -0.082529 0.205002 127 0 255
0.137173 -0.399777 0.262448 127 0 255
-0.011636 -0.131094 0.206563 127 0 255
0.0133405 -0.0697199 0.204222 127 0 255
0.309459 -0.41249 0.204764 127 0 255
0.165978 -0.385837 0.194379 127 0 255
0.261144 -0.168401 0.203415 127 0 255
0.153922 -0.30738 0.197036 127 0 255
-0.150327 -0.337294 0.324958 127 0 255
-0.117265 -0.476088 0.228029 127 0 255
0.0519905 -0.259436 0.206724 127 0 255
-0.1316 -0.0945592 0.209048 127 0 255
0.280074 -0.229197 0.202765 127 0 255
-0.114172 -0.310393 0.209026 127 0 255
-0.0454848 -0.280521 0.206275 127 0 255
-0.0254715 -0.442736 0.200954 127 0 255
-0.150277 -0.231257 0.275483 127 0 255
0.0105201 -0.356717 0.19969 127 0 255
0.18312 -0.456986 0.207965 127 0 255
0.0544277 -0.163026 0.205598 127 0 255
-0.109901 -0.0557551 0.215572 127 0 255
0.134815 -0.405934 0.200571 127 0 255
0.194071 -0.287776 0.205685 127 0 255
0.0903309 -0.454482 0.200358 127 0 255
0.210273 -0.134282 0.205087 127 0 255
0.0338827 -0.395091 0.198393 127 0 255
-0.135053 -0.267314 0.206299 127 0 255
0.237173 -0.36228 0.249949 127 0 255
0.074673 -0.412283 0.287451 127 0 255
0.267062 -0.107019 0.207356 127 0 255
-0.121545 -0.412247 0.220186 127 0 255
-0.0641681 -0.0865563 0.203523 127 0 255
0.197585 -0.386789 0.211624 127 0 255
0.301345 -0.312761 0.206439 127 0 255
0.0140978 -0.173762 0.213004 127 0 255
0.0314777 -0.479634 0.211329 127 0 255
0.0932397 -0.127707 0.206509 127 0 255
-0.0117109 -0.27205 0.213661 127 0 255
0.151341 -0.14428 0.206042 127 0 255
-0.0871474 -0.247607 0.209588 127 0 255
0.192744 -0.246774 0.20725 127 0 255
0.187173 -0.349777 0.237447 127 0 255
-0.0571924 -0.339342 0.207054 127 0 255
0.230763 -0.421945 0.22299 127 0 255
-0.142312 -0.473769 0.270182 127 0 255
-0.0217097 -0.078257 0.205196 127 0 255
0.0440084 -0.290126 0.207802 127 0 255
-0.149311 -0.149742 0.261517 127 0 255
0.0495662 -0.369105 0.208457 127 0 255
-0.0739466 -0.450309 0.208839 127 0 255
-0.0832318 -0.198581 0.21052 127 0 255
0.251032 -0.213285 0.206686 127 0 255
-0.150849 -0.104507 0.241572 127 0 255
0.0626956 -0.192364 0.210667 127 0 255
0.207995 -0.104093 0.202676 127 0 255
0.231919 -0.3522 0.213686 127 0 255
-0.150047 -0.242551 0.241445 127 0 255
0.10345 -0.47553 0.218261 127 0 255
-0.01291 -0.220464 0.20627 127 0 255
-0.012815 -0.484778 0.213129 127 0 255
0.11172 -0.255452 0.200519 127 0 255
-0.0954309 -0.140883 0.208757 127 0 255
-0.144035 -0.257572 0.290748 127 0 255
0.297068 -0.242634 0.212543 127 0 255
0.272902 -0.376329 0.208278 127 0 255
0.286387 -0.169649 0.204895 127 0 255
-0.142789 -0.19544 0.268051 127 0 255
0.0933969 -0.367078 0.205866 127 0 255
-0.112896 -0.444852 0.203524 127 0 255
-0.150437 -0.407923 0.247092 127 0 255
0.171511 -0.173119 0.204478 127 0 255
0.108711 -0.179069 0.205975 127 0 255
0.0996731 -0.32478 0.237449 127 0 255
0.173831 -0.418943 0.209622 127 0 255
0.268125 -0.302769 0.205451 127 0 255
0.268215 -0.442534 0.219372 127 0 255
0.0603395 -0.429104 0.214641 127 0 255
-0.0642958 -0.479879 0.219894 127 0 255
-0.0419421 -0.199011 0.211524 127 0 255
-0.012827 -0.487288 0.262454 127 0 255
-0.0661208 -0.390376 0.210168 127 0 255
-0.0370708 -0.321289 0.208421 127 0 255
-0.162827 -0.312286 0.199954 127 0 255
-0.146545 -0.140736 0.217246 127 0 255
0.138963 -0.352477 0.198517 127 0 255
0.128214 -0.118818 0.203151 127 0 255
