ply
format ascii 1.0
comment Created by Open3D
element vertex 1167
property double x
property double y
property double z
property uchar red
property uchar green
property uchar blue
end_header
-0.215724 -0.181897 -0.0431898 78 177 255
0.203814 0.0722144 0.00427581 143 112 255
-0.215094 -0.0452316 -0.175078 113 142 255
-0.117001 -0.482934 -0.169049 1 254 255
-0.179896 -0.335177 -0.231655 39 216 255
0.089868 -0.401461 -0.245736 22 233 255
0.125315 -0.0754233 0.112177 105 150 255
0.0606383 -0.483747 -0.174463 1 254 255
-0.144118 0.0739549 -0.120543 143 112 255
0.0123686 -0.250582 -0.240091 60 195 255
-0.00255841 -0.0389399 -0.243612 113 141 255
-0.217745 -0.39877 -0.0393126 22 233 255
0.397023 -0.0504635 -0.239735 111 144 255
0.306514 -0.372827 -0.23864 29 226 255
0.171913 0.0740824 -0.112453 143 112 255
0.162715 -0.289607 -0.242385 50 205 255
0.065943 -0.128904 -0.235573 91 163 255
-0.211963 0.0156704 -0.176474 128 127 255
-0.214161 -0.144894 0.0501876 87 168 255
-0.151541 -0.315921 0.148994 44 211 255
0.0127195 -0.483951 -0.0500656 1 254 255
-0.0389176 -0.337473 -0.240556 38 217 255
0.212017 -0.341118 -0.243413 36 218 255
-0.0944555 -0.0703565 -0.244735 105 149 255
-0.137185 -0.137923 0.0121772 89 166 255
-0.200422 -0.379838 0.160066 27 228 255
0.256344 -0.203858 -0.24304 72 183 255
0.255774 0.0596557 -0.245538 140 114 255
-0.218245 -0.335422 0.236804 39 216 255
-0.189932 0.0716089 -0.0429293 143 112 255
-0.21416 0.0139011 0.0448886 128 127 255
-0.214798 -0.24291 0.199297 62 193 255
-0.168883 -0.484196 -0.16444 0 255 255
-0.215682 -0.237452 -0.0179204 64 191 255
0.15523 0.0117994 -0.23545 127 128 255
-0.214673 -0.453205 0.22338 8 247 255
-0.000660378 -0.14155 -0.238597 88 167 255
-0.215489 0.0523983 -0.101029 138 117 255
-0.21689 -0.187459 0.129868 76 179 255
-0.0800413 0.0289832 -0.243841 131 123 255
-0.207584 -0.0955876 -0.230967 100 155 255
-0.0383371 -0.449502 -0.247833 9 246 255
-0.213313 -0.27404 0.117065 54 201 255
-0.186268 -0.324307 0.256552 40 214 255
0.380849 -0.300303 -0.239353 48 207 255
-0.216625 -0.32329 -0.00376058 42 213 255
0.0955856 -0.319851 -0.242795 43 211 255
0.237867 -0.439187 -0.245912 12 243 255
-0.215957 -0.258287 0.282813 58 197 255
-0.217387 -0.308437 -0.131749 44 210 255
-0.21967 -0.399605 -0.208419 22 233 255
-0.113011 -0.483462 -0.0469841 1 254 255
0.0160761 0.0727352 -0.0931303 143 112 255
-0.131397 -0.481002 0.0663747 1 254 255
-0.17653 0.0741825 0.142131 143 112 255
-0.208016 -0.218569 -0.142222 68 187 255
0.354192 0.0706737 -0.201072 143 112 255
0.20255 0.0724894 -0.171311 143 112 255
0.100315 -0.362923 0.449677 32 223 255
-0.16296 -0.312523 0.0520602 44 211 255
-0.214056 -0.0105873 -0.108459 121 133 255
0.318682 -0.1004 -0.23801 99 156 255
-0.153468 -0.286341 -0.244524 51 204 255
-0.113373 -0.416614 -0.247783 18 237 255
-0.206037 -0.407343 0.0865749 20 235 255
0.0879532 -0.483826 -0.0821011 1 254 255
-0.20926 -0.0153437 0.1684 120 135 255
0.234083 -0.0287874 -0.244148 117 138 255
-0.193585 -0.429173 0.270661 15 240 255
0.318567 0.0735897 -0.0514956 143 112 255
0.364355 -0.429002 -0.243941 15 240 255
-0.17055 -0.170146 -0.24115 81 174 255
-0.200719 -0.46615 0.170718 5 250 255
0.112815 -0.362923 0.362177 32 223 255
0.280487 -0.308203 -0.242383 46 209 255
0.060834 -0.0651875 -0.232672 108 147 255
0.00206918 -0.484002 -0.219781 1 254 255
0.132028 -0.226159 -0.242789 67 188 255
0.0291965 -0.327544 -0.237291 40 214 255
-0.20717 -0.306371 -0.196106 46 209 255
-0.218748 -0.448617 0.0171186 10 245 255
-0.164399 -0.110874 0.0575431 96 159 255
-0.185586 0.0250172 -0.239248 131 124 255
-0.217298 0.0415479 0.0851902 135 120 255
0.348062 -0.208578 -0.239274 71 184 255
-0.0946274 0.0729419 0.038847 143 112 255
-0.216066 -0.139277 0.237434 89 166 255
0.141165 -0.0616731 -0.242611 109 146 255
-0.212167 -0.484826 0.121131 0 255 255
-0.113988 -0.34912 -0.237491 35 220 255
0.193989 -0.383182 -0.245226 26 229 255
-0.208705 -0.2562 0.0497142 59 195 255
-0.149685 -0.0504233 -0.0253228 112 143 255
-0.0711287 0.0726409 -0.197714 143 112 255
0.0211756 0.0124274 -0.23406 128 127 255
-0.205261 -0.0469818 -0.228734 112 143 255
-0.213648 0.0609168 0.0204336 140 114 255
0.272635 0.0716399 -0.00694215 143 112 255
-0.144173 -0.355115 0.304059 32 222 255
0.180135 0.0560837 -0.246386 139 116 255
0.280435 -0.485101 -0.233856 0 255 255
-0.156805 -0.123888 -0.227349 93 162 255
-0.148738 -0.483322 -0.00938921 1 254 255
-0.132154 -0.346965 0.128387 36 219 255
0.332555 0.0132828 -0.240676 128 127 255
-0.217505 -0.160094 -0.147743 83 172 255
0.366211 -0.370939 -0.244939 29 226 255
0.100851 0.0741412 0.0474078 143 112 255
-0.0296297 -0.369972 0.385583 30 225 255
-0.215713 -0.0844819 -0.147374 103 152 255
-0.205823 -0.37174 -0.079415 29 226 255
-0.168891 0.0717496 -0.1762 143 112 255
-0.0140995 0.0729372 -0.154399 143 112 255
-0.219228 0.0345074 0.212158 133 121 255
-0.207857 -0.381545 0.230678 27 228 255
-0.107218 0.0734233 -0.0534859 143 112 255
-0.204024 -0.150576 -0.0117672 86 169 255
-0.176957 -0.484025 -0.0949871 0 255 255
-0.0784186 -0.375334 0.275426 28 227 255
0.0869388 0.0720983 -0.216357 143 112 255
0.0419979 -0.483444 -0.132049 1 254 255
-0.21639 -0.212719 -0.0893542 70 185 255
-0.188838 -0.140082 0.140943 89 166 255
0.0503154 0.0745767 0.124677 144 111 255
0.339601 -0.261106 -0.236845 58 197 255
-0.214533 -0.247824 -0.215691 60 194 255
-0.0413769 0.0748119 0.100454 144 111 255
-0.217555 -0.444224 -0.17535 11 244 255
-0.13097 0.0509434 -0.24064 137 118 255
-0.1062 -0.483486 -0.112191 1 254 255
-0.213029 -0.00448882 -0.00840485 123 131 255
-0.0891199 -0.192686 -0.237742 75 179 255
-0.127791 -0.3869 0.360376 25 230 255
0.19345 -0.146581 -0.242309 87 168 255
-0.2048 -0.0874192 -0.0148506 102 153 255
0.360989 -0.0395365 -0.241572 113 141 255
0.256042 0.0163019 -0.234815 129 126 255
0.164187 -0.473371 -0.243608 3 252 255
-0.212242 -0.350622 0.142611 35 220 255
0.287344 -0.223508 -0.243067 67 188 255
-0.0313067 -0.0790156 -0.237158 104 151 255
-0.100707 -0.264676 -0.23934 56 198 255
-0.218449 -0.448822 -0.0824424 10 245 255
0.085535 -0.430045 -0.24775 14 241 255
-0.219102 -0.0472486 0.170679 112 143 255
-0.212972 -0.36605 0.0237589 31 224 255
-0.204326 -0.195728 0.180752 73 181 255
0.18411 -0.0274034 -0.239542 117 138 255
-0.218196 -0.269529 0.245498 55 200 255
-0.215901 0.0481785 -0.160498 137 118 255
-0.209225 -0.104044 0.271068 97 157 255
-0.00981682 -0.290668 -0.239915 50 205 255
0.399506 0.069935 -0.217623 142 113 255
0.00257615 -0.384551 -0.240757 26 229 255
-0.210796 -0.0142969 0.0627858 121 134 255
0.0296789 0.0556654 -0.244879 139 116 255
-0.180023 0.0715056 0.073877 143 112 255
-0.149685 -0.287923 -0.0503228 51 204 255
0.125228 -0.177905 -0.241365 79 176 255
-0.135419 -0.0620904 -0.244782 109 146 255
-0.173719 -0.38266 -0.235351 26 229 255
0.303655 0.0718066 -0.189327 143 112 255
-0.220875 -0.17395 -0.210815 80 175 255
-0.180679 -0.297012 0.186418 48 207 255
0.365428 -0.147031 -0.240723 87 168 255
0.0918307 0.0740074 -0.0913168 143 112 255
-0.0617396 -0.484061 -0.202236 0 255 255
0.0253154 -0.375423 0.437177 28 227 255
0.263385 -0.151239 -0.239837 86 169 255
0.10155 -0.0255293 -0.233018 118 137 255
-0.217897 -0.132392 -0.0727515 91 163 255
0.22332 -0.277125 -0.24394 52 202 255
0.268906 -0.408799 -0.245239 20 235 255
-0.21687 -0.259332 -0.128431 58 197 255
-0.216338 -0.123464 0.137634 93 162 255
-0.213315 -0.318811 0.0930953 43 211 255
0.12837 -0.357963 -0.243635 32 222 255
0.162815 -0.0629233 0.0621772 108 147 255
-0.0367298 -0.483809 -0.0348815 1 254 255
0.260628 -0.0586543 -0.242633 109 146 255
-0.218319 -0.443039 0.105855 11 244 255
-0.168396 -0.205345 -0.241372 72 183 255
0.251743 0.072307 -0.143593 143 112 255
-0.0563678 -0.00492043 -0.233311 123 131 255
0.007721 -0.3849 0.350331 26 229 255
0.0293352 0.0723282 0.0365196 143 112 255
-0.160054 -0.458105 -0.246832 7 248 255
-0.217507 -0.355081 -0.158602 34 221 255
-0.0421663 -0.148245 -0.238145 86 169 255
0.221945 -0.483371 -0.205057 1 254 255
-0.212321 -0.0478622 0.249844 112 143 255
-0.218178 -0.0612016 0.0931757 109 146 255
0.125649 0.0723225 0.0116843 143 112 255
-0.170865 -0.478529 0.109824 2 253 255
-0.032869 0.0729192 -0.0457066 143 112 255
0.24166 0.0720818 -0.215398 143 112 255
0.337935 -0.327044 -0.241132 40 214 255
-0.215894 -0.310894 -0.0482877 44 210 255
-0.198983 -0.484953 -0.1412 0 255 255
-0.200712 -0.484441 -0.0134668 0 255 255
0.0744266 -0.277032 -0.242441 52 202 255
0.402723 -0.0184377 -0.235246 120 135 255
-0.0776758 -0.310919 -0.23716 44 210 255
-0.216711 -0.0362987 -0.0533073 115 140 255
-0.21426 -0.0206217 -0.213969 119 136 255
0.104487 -0.48357 -0.194315 1 254 255
0.261593 -0.342327 -0.242974 36 218 255
0.0616947 -0.19438 -0.241672 75 179 255
-0.217474 -0.417193 0.203796 18 237 255
-0.18025 -0.109538 0.107792 96 159 255
0.331406 -0.48492 -0.21982 0 255 255
-0.0447356 0.0730083 -0.128109 143 112 255
-0.214936 -0.221778 0.112313 68 187 255
-0.212185 0.0745767 -0.225323 144 111 255
-0.198518 -0.348811 0.300421 35 220 255
-0.167921 0.0704696 -0.0558271 142 113 255
0.0791363 0.0725291 -0.168358 143 112 255
0.175315 -0.375423 0.374677 28 227 255
-0.0258301 -0.231448 -0.24166 65 190 255
-0.178063 -0.320951 0.104385 42 213 255
0.130482 -0.483113 -0.105042 1 254 255
0.17492 0.0739229 -0.0408646 143 112 255
-0.13548 0.0726378 0.0882608 143 112 255
-0.146643 -0.483062 0.0291606 1 254 255
-0.158242 -0.326961 0.233131 40 214 255
-0.205607 -0.451256 -0.238758 9 246 255
-0.193878 -0.0462521 0.146424 113 142 255
-0.217149 -0.000936068 0.250165 124 131 255
0.0569919 -0.390297 -0.241048 24 231 255
-0.106309 -0.128155 -0.234466 92 163 255
-0.218704 -0.0960028 0.202948 100 155 255
-0.0689277 -0.448692 -0.248691 10 245 255
0.114972 -0.113988 -0.236598 95 160 255
-0.217513 -0.409337 -0.0156962 20 235 255
0.189306 -0.426011 -0.246042 15 240 255
-0.213839 -0.0906829 0.0408715 101 154 255
0.314876 0.0717389 -0.121154 143 112 255
0.0352953 -0.0200869 -0.23171 119 136 255
0.0460808 -0.483818 -0.0942782 1 254 255
-0.0226046 0.0657735 -0.236914 141 113 255
-0.138247 -0.483714 -0.209381 1 254 255
-0.211702 -0.0846415 -0.0866085 103 152 255
-0.213905 -0.225757 0.0128423 67 188 255
-0.137185 -0.412923 -0.0253228 19 236 255
0.316277 -0.0205821 -0.236242 119 136 255
0.205291 -0.0971687 -0.239696 100 155 255
-0.218035 -0.00726972 0.122187 123 131 255
-0.120632 0.0665252 -0.166864 141 113 255
-0.199635 -0.0778236 -0.192834 104 151 255
-0.215978 -0.225665 0.226292 67 188 255
-0.219088 -0.368694 0.256822 30 225 255
-0.195192 -0.298944 -0.225678 48 207 255
-0.213132 0.0661771 -0.0726006 141 113 255
-0.206347 0.0723823 0.149579 143 112 255
0.00920772 -0.0893981 -0.242925 102 153 255
0.296833 0.0577254 -0.244054 139 116 255
-0.105004 0.0752675 0.137754 144 111 255
-0.22052 -0.421985 -0.120954 16 239 255
0.144892 0.0499455 -0.246204 137 118 255
-0.216041 -0.143588 0.0838034 88 167 255
-0.0760464 -0.387153 0.386818 25 230 255
0.0661867 0.0308486 -0.230436 131 123 255
0.249193 0.0719459 0.000557464 143 112 255
-0.211386 -0.314828 0.172146 44 211 255
-0.0585101 -0.367185 -0.239641 30 225 255
0.342072 -0.401937 -0.240985 22 233 255
0.185861 -0.306919 -0.24262 46 209 255
-0.149685 -0.0879233 -0.0503228 102 153 255
-0.00368806 -0.184577 -0.239687 77 178 255
-0.217397 -0.183462 0.277447 77 178 255
0.392603 -0.100007 -0.239917 99 156 255
-0.118134 -0.363641 0.271484 31 224 255
0.292353 -0.0996197 -0.236921 99 156 255
-0.152085 0.0724712 0.0231365 143 112 255
0.109725 -0.252379 -0.24146 60 195 255
0.172001 -0.48374 -0.19758 1 254 255
-0.21598 -0.257171 -0.0640509 59 195 255
0.228969 -0.233296 -0.241584 65 190 255
-0.191143 -0.237414 0.180193 64 191 255
-0.209832 -0.290986 0.0306427 50 205 255
-0.0358194 0.072805 0.00995986 143 112 255
0.314829 -0.167259 -0.239897 81 173 255
0.208222 0.0636161 -0.245594 141 113 255
-0.184357 0.0719605 -0.120674 143 112 255
-0.131445 -0.165095 -0.244917 81 173 255
-0.219674 -0.107011 -0.200683 97 158 255
0.12302 0.0740347 -0.096795 143 112 255
-0.21459 -0.0128044 -0.144055 121 134 255
-0.212403 -0.437699 0.0668481 12 243 255
-0.0724363 0.0746433 0.0819801 144 111 255
-0.211062 0.0679571 -0.0131688 142 113 255
-0.155505 -0.483918 -0.0792239 1 254 255
-0.158323 0.0667242 -0.225117 141 113 255
-0.172643 -0.146376 0.0818464 87 168 255
-0.00287342 -0.480554 -0.0394745 1 254 255
0.0569948 -0.143304 -0.239565 88 167 255
-0.21639 -0.12831 -0.128266 92 163 255
-0.213117 -0.176058 0.0163316 79 176 255
-0.215225 -0.0469541 0.0217567 112 143 255
-0.127788 -0.00942745 -0.24393 121 133 255
0.374853 0.0604054 -0.238963 140 114 255
0.0325671 0.074596 -0.149791 144 111 255
0.112815 -0.0629233 0.0746772 108 147 255
-0.176695 -0.238171 -0.227242 63 192 255
0.0198486 -0.424536 -0.244187 16 239 255
-0.216562 -0.408936 -0.22567 20 235 255
0.1641 -0.236719 -0.243387 64 191 255
-0.214025 -0.249246 0.152808 60 194 255
0.230336 -0.38194 -0.244858 27 228 255
0.105943 -0.483683 -0.139183 1 254 255
0.0683508 -0.328063 -0.242279 40 215 255
-0.15584 -0.353427 -0.242313 34 221 255
-0.215835 -0.189863 -0.06941 76 179 255
-0.115351 -0.483341 -0.148546 1 254 255
0.00651558 -0.483386 -0.189002 1 254 255
-0.101922 -0.397936 0.349481 23 232 255
0.392348 -0.190027 -0.23869 76 179 255
-0.207329 -0.308876 0.22127 44 210 255
-0.215383 -0.438381 0.249791 12 243 255
-0.137185 -0.400423 0.0371772 22 233 255
0.378638 -0.284384 -0.243394 52 203 255
0.137815 0.0620767 0.0996772 140 114 255
0.120514 -0.475381 -0.241725 3 252 255
0.137815 -0.0504233 0.137177 112 143 255
-0.216054 -0.361033 -0.0723859 32 223 255
-0.210607 -0.420557 0.144707 17 238 255
0.278301 -0.484053 -0.205025 0 255 255
0.278508 -0.278408 -0.242487 52 202 255
-0.214341 0.0253906 -0.092178 131 124 255
-0.207291 -0.222027 0.0569449 68 187 255
0.021466 -0.364709 0.36555 31 224 255
-0.201925 0.0537789 0.106131 138 117 255
0.349237 0.0713416 -0.0857358 143 112 255
-0.152123 -0.327506 0.189613 40 214 255
-0.149685 -0.237923 0.287177 64 191 255
0.158722 -0.113687 -0.243232 95 160 255
-0.211053 0.025827 -0.222259 131 124 255
-0.0453691 0.042301 -0.244449 135 120 255
0.185457 0.0724307 -0.186142 143 112 255
0.295768 0.0735846 -0.0327545 143 112 255
0.181228 -0.346798 -0.243864 36 219 255
0.205084 -0.176335 -0.242182 79 176 255
-0.21512 -0.148491 0.193431 86 169 255
0.139009 -0.0263732 -0.235666 118 137 255
-0.0774686 -0.483361 -0.0440171 1 254 255
0.0440219 -0.23165 -0.242544 65 190 255
-0.21615 -0.265982 -0.15881 56 199 255
-0.203693 -0.39249 0.0740415 24 231 255
-0.117541 0.0688985 -0.00298233 142 113 255
-0.217568 -0.352964 -0.212398 34 221 255
-0.208156 -0.0570911 0.214262 110 145 255
-0.187152 -0.485127 -0.218795 0 255 255
-0.162034 -0.0852095 -0.244361 103 152 255
-0.162185 -0.225423 -0.0503228 67 188 255
-0.208689 -0.130313 0.270426 91 163 255
-0.217473 -0.0567516 -0.124941 110 145 255
-0.0474585 -0.106041 -0.243387 97 158 255
-0.203494 -0.483004 0.0682913 1 254 255
-0.213229 -0.484753 -0.0538155 0 255 255
-0.218719 -0.315993 0.273377 44 211 255
-0.214498 -0.342491 -0.0222371 36 218 255
-0.0115309 -0.0145375 -0.243429 121 134 255
0.126461 -0.40957 -0.243279 20 235 255
-0.196881 -0.131999 -0.206508 91 163 255
0.225841 0.0739562 -0.0423452 143 112 255
0.0651217 -0.0866991 -0.23578 102 153 255
0.322889 -0.059654 -0.236951 109 146 255
-0.224685 0.0120767 0.299677 128 127 255
-0.0260406 -0.370157 0.327497 30 225 255
-0.168316 -0.417693 -0.239445 17 238 255
0.0124864 0.0744662 -0.102909 143 112 255
-0.162867 -0.342459 0.0425798 36 218 255
-0.134491 -0.269982 -0.238229 55 200 255
0.309254 -0.440008 -0.246516 12 243 255
-0.137185 -0.350423 -0.0378228 35 220 255
-0.214091 -0.192767 -0.177216 75 179 255
-0.132952 -0.345922 0.129573 36 219 255
-0.137185 -0.275423 -0.0128228 54 201 255
-0.149788 0.0726289 -0.0911788 143 112 255
0.365448 0.0198785 -0.238475 129 126 255
-0.216585 -0.0929089 0.122666 101 154 255
-0.215187 -0.367917 0.187951 30 225 255
0.049809 -0.483513 -0.215973 1 254 255
-0.162185 -0.150423 -0.0503228 86 169 255
-0.216496 -0.249302 0.280958 60 194 255
0.109305 0.0583558 -0.245518 139 116 255
-0.211804 -0.288562 0.0833845 51 204 255
0.234098 -0.117949 -0.242271 94 161 255
-0.214905 -0.271028 -0.0185102 55 200 255
-0.204556 0.0543939 0.189281 138 117 255
0.315391 -0.233895 -0.240067 65 190 255
-0.0930966 -0.395906 -0.245617 23 232 255
-0.217587 -0.165418 0.14331 81 173 255
0.02172 -0.483234 -0.130365 1 254 255
-0.202521 -0.452018 0.16931 9 246 255
0.0584124 0.0745291 0.0641004 143 112 255
-0.217097 -0.331519 -0.120279 40 215 255
0.272536 0.0720996 -0.130242 143 112 255
-0.210344 -0.42916 -0.149011 15 240 255
0.0514806 0.0722176 -0.213751 143 112 255
0.00894938 -0.326829 -0.240499 40 214 255
0.397462 -0.0702692 -0.240005 105 149 255
-0.0823426 0.0692244 -0.224901 142 113 255
-0.195683 0.0688712 -0.17957 142 113 255
-0.175633 -0.0225758 -0.239022 119 136 255
0.213144 -0.484857 -0.231087 0 255 255
0.330132 0.0719813 -0.23441 143 112 255
0.191702 -0.0512828 -0.237605 111 144 255
-0.203143 0.0726741 0.0444145 143 112 255
-0.211778 -0.484477 0.00919577 0 255 255
-0.0969338 -0.197965 -0.243898 73 181 255
0.137832 -0.342387 -0.236221 36 218 255
0.154381 -0.194409 -0.239746 75 179 255
-0.137185 -0.200423 0.0121772 73 182 255
-0.0717998 0.0731647 -0.0318699 143 112 255
0.285105 0.0130134 -0.234968 128 127 255
-0.214081 -0.0661456 -0.0229924 107 147 255
-0.0681387 -0.373391 0.294082 29 226 255
-0.215615 -0.157807 -0.0212812 84 171 255
-0.0933896 -0.483657 -0.190953 1 254 255
-0.217214 -0.0450026 0.270896 113 142 255
-0.0671021 -0.0658234 -0.241636 108 147 255
0.365218 -0.433275 -0.244037 13 242 255
-0.214604 -0.234864 -0.214206 64 191 255
-0.210431 -0.331686 0.0486703 39 216 255
-0.21354 -0.0227824 -0.0860978 119 136 255
-0.167155 -0.105627 0.05793 97 158 255
-0.157722 0.0721343 0.122887 143 112 255
-0.21675 -0.187792 -0.113215 76 179 255
-0.031197 0.0725416 0.09709 143 112 255
0.412815 0.0745767 -0.0878228 144 111 255
-0.134902 -0.483378 0.0427069 1 254 255
-0.216188 -0.448013 -0.196309 10 245 255
0.0879156 -0.483797 -0.0825947 1 254 255
0.0179261 -0.27758 -0.239717 52 202 255
0.289106 -0.348798 -0.24295 35 220 255
-0.215815 -0.285052 0.199262 51 204 255
-0.212529 -0.370588 0.129002 30 225 255
-0.206461 -0.368388 0.28339 30 225 255
-0.0640867 0.0729619 -0.158457 143 112 255
-0.0903452 -0.309187 -0.239945 44 210 255
-0.202937 -0.125164 0.0252497 92 163 255
-0.211509 0.00455859 0.102946 126 129 255
-0.176503 -0.478672 0.110156 2 253 255
0.099273 -0.167423 -0.241796 81 173 255
-0.173758 -0.484203 -0.122968 0 255 255
0.412815 -0.337923 -0.225323 38 217 255
0.11595 -0.0651966 -0.24302 108 147 255
-0.176745 -0.34947 0.164296 35 220 255
-0.215099 -0.00821112 -0.0195379 121 133 255
-0.211526 -0.420242 -0.020498 17 238 255
-0.107881 -0.101219 -0.242224 97 157 255
-0.217788 -1.28269e-05 0.190879 124 131 255
-0.162185 -0.0629233 -0.125323 108 147 255
0.114876 -0.290911 -0.241309 50 205 255
0.33484 -0.159305 -0.238411 84 171 255
-0.103851 -0.371655 0.24615 29 226 255
-0.0206812 -0.48333 -0.171103 1 254 255
0.0119467 -0.13832 -0.237593 89 166 255
0.221166 0.0757114 -0.000274755 144 111 255
-0.0754597 -0.240553 -0.239684 63 192 255
-0.198014 -0.196222 -0.214672 73 181 255
-0.216755 -0.256592 -0.105642 59 195 255
-0.124012 -0.483551 -0.075599 1 254 255
0.131553 -0.483638 -0.176617 1 254 255
-0.214503 -0.178754 0.0765052 79 176 255
0.126812 0.0723047 0.0175298 143 112 255
-0.214664 -0.207027 0.188183 71 184 255
0.347614 -0.36671 -0.237004 31 224 255
0.285684 -0.198141 -0.241629 73 181 255
0.113055 0.0119998 -0.244906 127 128 255
0.23913 -0.0200024 -0.244283 119 136 255
-0.216058 -0.0854962 0.167933 103 152 255
-0.102284 -0.483313 -0.00789066 1 254 255
-0.156747 -0.352944 0.302099 34 221 255
-0.20414 -0.294752 -0.224244 48 206 255
-0.215676 0.0332982 -0.14719 133 121 255
-0.219126 -0.456729 0.143019 7 248 255
0.187815 -0.362923 0.399677 32 223 255
-0.214487 -0.10463 -0.0670229 97 157 255
0.233969 -0.425711 -0.24893 15 240 255
-0.031263 -0.376938 -0.240407 28 227 255
-0.205958 -0.384805 -0.0978669 26 229 255
0.00159827 -0.372513 0.389338 29 226 255
-0.203103 -0.0413008 -0.177799 113 141 255
0.175315 -0.0504233 0.0996772 112 143 255
-0.0792954 0.00971846 -0.244599 127 128 255
0.199904 -0.254222 -0.243144 59 195 255
0.0892916 0.0739776 -0.0815254 143 112 255
-0.214033 0.0188678 0.0401339 129 126 255
-0.21907 -0.478798 -0.147677 2 253 255
0.337059 -0.284304 -0.236524 52 203 255
-0.205863 -0.223706 0.269757 67 188 255
0.0161713 -0.483643 -0.0610872 1 254 255
0.437815 0.0745767 -0.200323 144 111 255
-0.215953 -0.166227 0.235665 81 173 255
0.0849677 -0.376485 -0.23846 28 227 255
-0.218559 -0.0473025 0.121701 112 143 255
0.0518506 0.0221296 -0.24872 130 125 255
0.330113 -0.48455 -0.211785 0 255 255
0.258598 -0.316851 -0.241297 43 211 255
-0.0390296 -0.170746 -0.242081 81 174 255
-0.207484 -0.398352 0.224713 22 233 255
-0.182549 -0.317683 0.125201 43 211 255
-0.218803 -0.447664 0.0341728 10 245 255
0.248332 -0.0862369 -0.239572 102 153 255
-0.125873 0.0732179 -0.0586128 143 112 255
0.0597496 -0.483583 -0.159249 1 254 255
-0.185033 -0.251826 0.18441 60 195 255
-0.21679 -0.299103 -0.156147 48 207 255
-0.135071 0.0724821 -0.142061 143 112 255
-0.125881 -0.475156 -0.241086 3 252 255
0.225048 0.0334244 -0.234282 133 121 255
0.064929 -0.456476 -0.24741 8 247 255
-0.102505 -0.361289 -0.236409 32 223 255
-0.215133 0.039048 -0.0313985 134 121 255
-0.207626 -0.254254 0.111374 59 195 255
-0.166152 -0.32614 0.247111 40 214 255
0.386648 -0.128975 -0.237554 91 163 255
-0.212615 -0.105607 -0.162288 97 158 255
-0.174445 0.0333844 -0.24079 133 121 255
-0.129818 -0.402125 0.347148 21 234 255
-0.133046 -0.0537856 -0.229142 111 144 255
0.391909 0.00806587 -0.238844 126 129 255
-0.18498 0.0741477 0.163698 143 112 255
0.328403 0.0715213 -0.0540692 143 112 255
0.0253921 -0.0601636 -0.233264 109 146 255
-0.133489 -0.203945 -0.237409 72 183 255
-0.213865 -0.384297 0.0345415 26 229 255
0.156502 -0.43274 -0.247147 14 241 255
-0.0734323 0.0752534 0.121092 144 111 255
0.125315 -0.362923 0.437177 32 223 255
-0.219134 -0.119924 0.282598 94 161 255
-0.00561606 -0.238495 -0.23986 63 192 255
0.238582 -0.157525 -0.242759 84 171 255
-0.159423 -0.316914 -0.236704 43 211 255
-0.216648 0.0520779 0.100903 138 117 255
-0.16785 -0.31618 0.0571363 43 211 255
0.0361858 0.0741748 -0.0862827 143 112 255
0.161008 -0.154308 -0.239193 85 170 255
-0.217527 0.0384398 0.211831 134 121 255
0.0272865 0.0738722 0.0570078 143 112 255
-0.155964 -0.483876 -0.16388 1 254 255
0.0855134 0.0724528 -0.181391 143 112 255
0.282272 -0.409992 -0.244985 19 236 255
-0.0377578 -0.293359 -0.242123 48 206 255
-0.0523226 -0.380473 0.389782 27 228 255
-0.0256993 -0.452339 -0.247095 9 246 255
-0.19533 -0.159425 -0.232738 84 171 255
-0.216226 -0.111915 0.0765694 96 159 255
0.250315 -0.487923 -0.0753228 0 255 255
-0.199188 -0.40128 -0.226853 22 233 255
0.334671 -0.108126 -0.240256 97 158 255
-0.213897 -0.207384 -0.0239184 71 184 255
-0.215633 -0.0356265 0.0602768 115 140 255
-0.215817 -0.340729 0.204845 36 218 255
0.123329 -0.482687 -0.094776 1 254 255
0.175674 0.0724158 -0.033103 143 112 255
-0.0371894 0.0745282 0.0033546 143 112 255
0.0423774 -0.364842 -0.23796 31 224 255
-0.20818 -0.224841 -0.140865 67 188 255
-0.0366227 0.0632257 -0.218897 141 113 255
-0.18487 0.0648839 0.0139106 141 113 255
0.257722 -0.24632 -0.241727 60 194 255
-0.215988 -0.0631468 -0.209731 108 147 255
0.252609 0.0715987 -0.240063 143 112 255
0.285949 0.0720377 -0.147497 143 112 255
-0.203571 0.0723666 -0.13514 143 112 255
-0.114401 0.0745329 0.0392101 143 112 255
-0.210156 -0.322651 -0.0112607 42 213 255
0.241642 -0.485001 -0.232062 0 255 255
-0.0507184 0.0730172 -0.13133 143 112 255
-0.201911 -0.322183 0.282507 42 213 255
-0.0841539 -0.426673 -0.247077 15 240 255
0.0331842 0.0726605 -0.178126 143 112 255
0.348122 0.0707889 -0.204533 143 112 255
-0.212516 -0.152688 -0.146936 85 170 255
-0.109488 0.0716376 -0.210277 143 112 255
-0.215609 -0.109284 -0.0102105 96 159 255
0.350511 -0.197261 -0.243181 73 181 255
-0.216713 -0.11266 0.222774 96 159 255
-0.142579 -0.125582 -0.244142 92 163 255
-0.057788 -0.483208 -0.0334144 1 254 255
-0.217453 -0.407215 -0.0620724 20 235 255
0.139734 0.055828 -0.233817 139 116 255
-0.216742 -0.402712 -0.179341 21 234 255
-0.20848 -0.242183 0.0407734 62 193 255
-0.0238492 -0.00130047 -0.236061 124 131 255
-0.215659 0.0449285 -0.203573 136 119 255
0.185061 -0.294938 -0.244412 48 206 255
0.0770896 -0.204397 -0.240421 72 183 255
0.0971953 0.0741665 0.0485395 143 112 255
-0.109256 -0.48352 -0.11688 1 254 255
0.0719728 -0.0380799 -0.24362 115 140 255
0.351207 -0.0482217 -0.237144 112 143 255
-0.212688 -0.314846 0.144039 44 211 255
-0.209244 -0.0236706 0.186481 118 137 255
0.339548 -0.323457 -0.240967 42 213 255
-0.214691 -0.484121 -0.11097 0 255 255
-0.196572 -0.481709 -0.234071 1 254 255
-0.216926 -0.185731 0.130138 77 178 255
0.0501675 0.063553 -0.243764 141 113 255
-0.135408 -0.402743 -0.24562 21 234 255
-0.141956 -0.48316 -0.00643421 1 254 255
0.0993808 -0.118375 -0.236518 94 161 255
-0.217994 -0.341532 -0.163941 36 218 255
-0.214555 -0.289607 -0.0466464 50 205 255
-0.149685 -0.0504233 0.0121772 112 143 255
0.191773 0.00411278 -0.239154 125 130 255
-0.0483379 0.0730297 -0.0566564 143 112 255
0.0171444 -0.414866 -0.246431 18 237 255
0.387815 0.0745767 -0.0253228 144 111 255
-0.217238 0.000953791 0.245595 125 130 255
0.149281 -0.366976 -0.244255 30 225 255
-0.0637415 -0.484065 -0.202556 0 255 255
0.164055 -0.0741608 -0.242888 105 150 255
-0.220077 -0.0820517 0.266449 103 152 255
-0.214322 0.0602958 -0.0896029 140 114 255
0.058869 -0.264808 -0.242557 56 198 255
0.296178 -0.125645 -0.239225 92 163 255
-0.201483 -0.48494 -0.0449719 0 255 255
-0.218411 -0.401631 0.245978 22 233 255
0.290163 -0.0292804 -0.236459 117 138 255
0.163543 -0.483788 -0.195533 1 254 255
0.386428 -0.391149 -0.242316 24 231 255
0.215648 -0.356884 -0.241686 32 222 255
-0.188358 -0.128096 0.134636 92 163 255
-0.213913 -0.160017 0.0490505 83 172 255
-0.214856 -0.407923 0.103739 20 235 255
-0.168668 0.0726189 -0.0541433 143 112 255
-0.217692 -0.252922 0.243893 60 195 255
-0.0822473 -0.140271 -0.24211 88 167 255
0.120424 0.0740305 -0.0941429 143 112 255
-0.217865 -0.0705257 -0.115079 105 149 255
-0.128358 0.0217033 -0.243052 130 125 255
0.0404944 -0.168406 -0.237392 81 174 255
-0.201525 -0.0933558 0.0281001 101 154 255
-0.213713 0.002425 -0.180985 125 130 255
-0.146412 0.0742074 0.0920965 143 112 255
0.279026 0.0736679 -0.0306271 143 112 255
0.0980399 -0.484217 -0.220916 0 255 255
-0.195264 -0.0795703 -0.235906 104 151 255
-0.07881 -0.0338935 -0.236202 116 139 255
-0.215777 -0.406192 0.17385 20 235 255
-0.219694 -0.329178 0.254279 40 215 255
0.323824 0.0253393 -0.241316 131 124 255
0.223307 -0.207967 -0.241376 71 184 255
-0.215123 -0.370267 -0.000695646 30 225 255
-0.015261 -0.386895 0.339919 25 230 255
0.425315 0.0745767 -0.150323 144 111 255
-0.129977 -0.242748 -0.243084 62 193 255
-0.198458 -0.346396 -0.230908 36 219 255
0.112815 -0.0254233 0.0871772 118 137 255
-0.121764 -0.375997 0.359786 28 227 255
0.210519 0.0718423 -0.226889 143 112 255
-0.209443 0.0413613 0.133939 135 120 255
-0.160463 -0.316521 0.189639 43 211 255
0.100315 -0.362923 0.362177 32 223 255
0.363677 -0.268827 -0.237198 56 199 255
0.132103 -0.238863 -0.242989 63 192 255
-0.188188 -0.479867 0.106993 2 253 255
-0.212546 -0.318252 0.0831786 43 211 255
-0.218204 -0.167268 0.272409 81 173 255
0.223874 -0.0567687 -0.243543 110 145 255
-0.00184176 -0.106039 -0.238084 97 158 255
-0.21793 -0.447363 -0.0233271 10 245 255
-0.208972 -0.262368 -0.00579046 56 198 255
-0.215293 -0.0290444 -0.0475203 117 138 255
0.311412 0.0717666 -0.118324 143 112 255
0.0835444 -0.315372 -0.237762 44 211 255
0.375315 -0.487923 -0.162823 0 255 255
-0.192509 -0.233446 0.214981 65 190 255
-0.196036 0.0593463 -0.230728 140 114 255
-0.217598 -0.139429 -0.0796425 89 166 255
-0.0373018 -0.327725 -0.241037 40 214 255
-0.2068 -0.25464 0.142212 59 195 255
-0.202849 -0.469054 0.159589 4 251 255
-0.0354643 -0.216715 -0.242525 69 186 255
-0.219874 -0.110803 -0.206213 96 159 255
-0.194002 -0.217101 -0.231804 69 186 255
0.390196 0.0525552 -0.237761 138 117 255
-0.0976065 0.0753474 0.135947 144 111 255
0.0533279 -0.483861 -0.0957649 1 254 255
-0.181785 -0.0383617 -0.23793 115 140 255
-0.0998121 -0.366023 0.291271 31 224 255
-0.221443 -0.0443711 0.236781 113 142 255
-0.163438 -0.348166 0.111557 35 220 255
-0.214424 -0.00319837 -0.11868 124 131 255
-0.215998 -0.102164 0.160397 97 157 255
-0.0315952 0.0744547 0.088473 143 112 255
-0.210093 -0.0562059 0.0865986 110 145 255
-0.215494 -0.216033 0.0855512 69 186 255
-0.138881 -0.329174 -0.242741 40 215 255
-0.205707 -0.191273 -0.0156647 75 179 255
0.39486 -0.0784017 -0.237836 104 151 255
0.2794 -0.371035 -0.242443 29 226 255
0.2545 0.0722412 -0.134406 143 112 255
0.00720683 0.0729147 -0.137457 143 112 255
-0.218573 -0.452965 0.0782786 8 247 255
-0.214711 -0.0177178 0.0209336 120 135 255
0.000831651 0.0366124 -0.244363 134 121 255
-0.167973 -0.138001 0.0654617 89 166 255
0.254534 -0.272093 -0.243929 55 200 255
-0.216856 -0.355063 -0.120478 34 221 255
0.0929202 0.00800053 -0.234796 126 129 255
0.170434 -0.134557 -0.239155 89 165 255
-0.12373 -0.482601 0.0415069 1 254 255
-0.194682 0.0588039 0.0713672 139 116 255
-0.21784 -0.218217 0.276756 69 186 255
-0.196777 0.0727237 -0.0295735 143 112 255
0.332399 -0.445731 -0.24546 10 245 255
-0.216113 -0.253911 -0.0711315 59 195 255
0.381934 -0.147342 -0.239104 87 168 255
-0.149685 -0.375423 -0.0503228 28 227 255
-0.209592 -0.432871 -0.111765 14 241 255
0.0922673 -0.421553 -0.247485 16 239 255
0.102052 -0.483673 -0.131678 1 254 255
-0.217741 -0.262812 -0.190825 56 198 255
0.293012 0.0569647 -0.2443 139 116 255
-0.0104245 -0.0394316 -0.243667 113 141 255
-0.0481519 -0.400287 -0.243302 22 233 255
-0.103121 0.0726934 -0.164823 143 112 255
-0.190371 -0.482896 -0.161555 1 254 255
0.0274212 -0.483613 -0.157888 1 254 255
0.176386 -0.44355 -0.247883 11 244 255
-0.104018 -0.483462 -0.0522072 1 254 255
-0.180123 -0.284516 -0.229603 52 203 255
0.00530403 -0.467451 -0.244736 5 250 255
-0.215072 -0.149687 0.191537 86 169 255
-0.215923 -0.189587 -0.0742264 76 179 255
0.293978 -0.169573 -0.243633 81 174 255
0.139702 -0.0244407 -0.235629 118 137 255
-0.215981 -0.351717 -0.0551854 34 221 255
-0.0818591 -0.280765 -0.242498 52 202 255
-0.213609 -0.367809 0.0708654 30 225 255
-0.150176 0.072569 -0.102358 143 112 255
-0.141632 -0.483646 -0.198085 1 254 255
0.0965212 -0.0872653 -0.242747 102 153 255
-0.149685 -0.112923 -0.0378228 96 159 255
0.147463 -0.296268 -0.243902 48 206 255
-0.212349 -0.453722 0.218491 8 247 255
0.0154598 -0.48364 -0.0576023 1 254 255
-0.127173 0.0701557 -0.0249904 142 113 255
-0.137185 -0.200423 0.149677 73 182 255
-0.0881018 -0.369458 0.374911 30 225 255
0.0207959 -0.200126 -0.241613 73 182 255
-0.21173 -0.0698167 -0.0740699 107 147 255
-0.209449 -0.283911 0.0358308 52 203 255
-0.0326725 -0.483573 -0.188493 1 254 255
-0.190297 0.0739903 0.171238 143 112 255
-0.14325 -0.158763 -0.244133 84 171 255
-0.158661 -0.332709 0.247457 39 216 255
0.185472 -0.200091 -0.242317 73 182 255
0.208165 0.0723421 -0.0358738 143 112 255
-0.214241 -0.214086 0.170265 70 185 255
0.0378154 -0.362923 0.449677 32 223 255
-0.217857 -0.0122282 0.16961 121 134 255
-0.137185 -0.362923 0.0121772 32 223 255
0.127353 0.0757709 0.0324184 144 111 255
-0.218151 -0.475993 0.0230989 3 252 255
-0.216424 -0.138303 0.111878 89 166 255
-0.135851 -0.342878 0.140472 36 218 255
-0.215023 -0.368789 0.273546 30 225 255
0.0477034 -0.109215 -0.241455 96 159 255
-0.180835 -0.292049 0.1823 50 205 255
-0.119881 0.0642305 -0.232357 141 113 255
-0.212063 -0.361365 0.131296 32 223 255
0.032195 0.0723092 0.0416938 143 112 255
0.220893 -0.421156 -0.248949 17 238 255
0.118296 -0.212126 -0.239716 70 185 255
0.0284544 -0.295702 -0.243325 48 206 255
0.30884 -0.484899 -0.226599 0 255 255
0.223998 -0.128338 -0.243055 92 163 255
0.372517 -0.421893 -0.244296 16 239 255
0.278772 -0.0642276 -0.241697 108 147 255
0.396029 -0.0398319 -0.238053 113 141 255
-0.216305 -0.434583 -0.21426 13 242 255
-0.19927 0.0713468 -0.159434 143 112 255
0.311753 -0.227689 -0.240622 65 189 255
-0.214151 0.0433978 0.0261053 136 119 255
0.302094 -0.328838 -0.240445 40 215 255
-0.211216 -0.118417 -0.0451455 94 161 255
-0.215732 -0.218548 -0.156943 68 187 255
0.0723287 -0.483493 -0.181401 1 254 255
0.0908659 0.0618307 -0.244914 140 114 255
-0.149063 -0.395708 -0.239994 23 232 255
0.216474 -0.318972 -0.242584 43 211 255
-0.219181 -0.288201 0.266555 51 204 255
-0.212669 -0.0518486 -0.148486 111 144 255
0.100541 -0.360973 -0.236497 32 223 255
-0.211601 -0.303581 -0.218806 47 208 255
-0.0484559 -0.130854 -0.242876 91 163 255
0.226119 -0.483955 -0.207681 1 254 255
-0.213643 0.0387185 -0.0621663 134 121 255
0.392421 0.0697394 -0.203764 142 113 255
-0.191847 0.0168689 -0.219444 129 126 255
-0.111412 -0.483194 -0.137169 1 254 255
-0.210944 -0.00277447 0.115873 124 131 255
-0.216196 -0.0843658 0.281558 103 152 255
0.241292 0.0248113 -0.234532 131 124 255
0.0241562 -0.372774 -0.239497 29 226 255
-0.0314581 -0.368895 0.331129 30 225 255
-0.118685 -0.0494808 -0.244715 112 143 255
-0.0903142 -0.47661 -0.239904 2 253 255
-0.151334 -0.352672 0.297238 34 221 255
0.102012 -0.157318 -0.237294 84 171 255
0.164235 -0.484717 -0.23275 0 255 255
-0.215441 -0.193572 0.215487 75 179 255
0.0253154 0.0745767 0.137177 144 111 255
0.276714 0.0717133 -0.0118277 143 112 255
-0.0657404 0.0731824 -0.0538467 143 112 255
-0.137185 -0.275423 -0.000322794 54 201 255
-0.162185 -0.0504233 -0.0503228 112 143 255
-0.214947 -0.144851 -0.110823 87 168 255
-0.21544 -0.483421 -0.0597535 1 254 255
0.331787 -0.0787345 -0.23752 104 151 255
-0.217847 -0.442627 0.140339 11 244 255
-0.212961 -0.279746 0.119592 52 202 255
-0.0351499 -0.483709 -0.0421206 1 254 255
-0.0921085 -0.374054 0.260218 29 226 255
-0.200805 -0.0759469 0.0440287 105 150 255
0.0476961 -0.0343273 -0.243867 116 139 255
0.336727 0.0713979 -0.0674428 143 112 255
-0.218344 0.0278277 0.218465 131 123 255
0.337815 -0.487923 -0.112823 0 255 255
-0.216851 -0.416252 0.0507125 18 237 255
-0.208323 -0.360905 0.211314 32 223 255
0.0438136 -0.463343 -0.237289 6 249 255
-0.21478 -0.330315 0.0344946 40 215 255
0.168109 0.0174255 -0.238955 129 126 255
-0.0350226 -0.268805 -0.241691 56 199 255
-0.209234 -0.369264 -0.200767 30 225 255
0.179275 -0.262332 -0.24339 56 198 255
-0.0918078 -0.192518 -0.243955 75 179 255
-0.0497641 0.0452974 -0.244374 136 119 255
-0.0966705 -0.37612 -0.236202 28 227 255
-0.200735 -0.162645 -0.210586 83 172 255
-0.216806 -0.407656 -0.143221 20 235 255
-0.131101 0.0727068 0.0490795 143 112 255
0.157727 -0.406006 -0.247054 20 235 255
-0.216706 -0.30262 -0.147659 47 208 255
0.276053 0.0592601 -0.215744 140 114 255
-0.206665 -0.482105 0.0645716 1 254 255
0.290432 -0.412129 -0.244819 19 236 255
-0.209842 -0.0415411 0.218567 113 141 255
0.202385 -0.0820777 -0.238909 103 152 255
0.393893 0.0132088 -0.237138 128 127 255
-0.209685 -0.405932 -0.0411487 20 235 255
-0.137185 -0.0504233 0.0746772 112 143 255
0.0256562 -0.37379 0.360016 29 226 255
-0.0312259 -0.0771055 -0.241122 105 150 255
0.150315 -0.0754233 0.0996772 105 150 255
-0.213756 -0.144536 0.0403776 87 168 255
-0.210401 -0.102703 -0.145699 97 157 255
-0.0431301 0.0745905 -0.00689921 144 111 255
0.320335 -0.00844664 -0.236634 121 133 255
0.356936 -0.310604 -0.238947 44 210 255
-0.214179 -0.253322 0.0733458 60 195 255
-0.214797 -0.27157 0.198842 55 200 255
-0.169099 -0.330376 0.0795788 40 215 255
-0.217423 -0.427866 0.241998 15 240 255
-0.197128 0.0714381 -0.105382 143 112 255
-0.11634 -0.280314 -0.241429 52 202 255
-0.151099 -0.0846056 -0.244471 103 152 255
-0.218529 -0.149042 0.276364 86 169 255
-0.217356 -0.091712 0.0861297 101 154 255
-0.215191 -0.313047 -0.0541216 44 211 255
-0.0327401 -0.373247 0.38727 29 226 255
0.0860597 -0.245448 -0.241172 62 193 255
-0.00522138 -0.171548 -0.241716 80 175 255
0.238858 -0.379762 -0.244419 27 228 255
-0.200112 -0.312087 0.269633 44 210 255
-0.213785 0.06101 0.0929231 140 114 255
-0.048005 0.0747425 -0.137762 144 111 255
-0.216584 -0.065237 0.156856 108 147 255
-0.149685 -0.237923 -0.0378228 64 191 255
-0.212791 -0.0530778 0.0102855 111 144 255
-0.147021 -0.483153 0.00768135 1 254 255
-0.190878 -0.474574 -0.221722 3 252 255
-0.180325 0.0651547 0.027942 141 113 255
-0.167184 -0.123044 0.0477801 93 162 255
-0.216568 -0.241915 -0.106472 62 193 255
0.329417 -0.262871 -0.237464 56 198 255
-0.0731944 0.0728842 0.0957408 143 112 255
0.173104 -0.356898 -0.244037 32 222 255
-0.217908 -0.0191873 0.0815057 119 136 255
-0.212429 -0.203177 0.0244871 72 183 255
0.0318595 0.072757 -0.155341 143 112 255
-0.207919 0.00103352 -0.139482 125 130 255
0.127713 -0.0799596 -0.236221 104 151 255
0.351496 -0.3793 -0.238453 27 228 255
0.125315 -0.375423 0.399677 28 227 255
0.116341 -0.468379 -0.24716 5 250 255
-0.0235712 -0.344535 -0.238878 36 219 255
0.00916912 -0.0107811 -0.233262 121 133 255
0.224185 -0.0245015 -0.236383 118 137 255
-0.176616 -0.35938 -0.238536 32 223 255
-0.0959604 0.00253079 -0.244305 125 130 255
-0.217772 -0.149476 0.13866 86 169 255
0.336804 0.0713056 -0.208273 143 112 255
0.425315 -0.175423 -0.212823 80 175 255
0.182505 0.0738872 -0.0212183 143 112 255
-0.218943 -0.480642 -0.14342 1 254 255
0.108575 -0.482083 -0.168386 1 254 255
0.274011 -0.118145 -0.239955 94 161 255
-0.177919 -0.47926 0.104726 2 253 255
-0.177721 0.0742194 0.143934 143 112 255
0.104238 0.0724662 -0.096635 143 112 255
-0.204678 -0.0501508 -0.229336 112 143 255
-0.171861 0.0586307 -0.234216 139 116 255
-0.0889342 -0.0949684 -0.241782 100 155 255
0.206139 0.0574606 -0.246074 139 116 255
0.269725 -0.484059 -0.211801 0 255 255
-0.0570678 -0.463938 -0.247768 6 249 255
0.282494 -0.293073 -0.242384 48 206 255
-0.120498 -0.483465 -0.0896576 1 254 255
-0.188495 -0.250427 -0.225161 60 195 255
-0.199782 -0.335647 0.108832 38 217 255
-0.215213 -0.393954 0.171104 24 231 255
0.0201964 -0.483361 -0.141429 1 254 255
0.098937 0.072247 0.0470576 143 112 255
-0.211021 -0.220022 -0.0437911 68 187 255
-0.0778916 0.0727592 -0.186397 143 112 255
0.343253 -0.161269 -0.243975 83 172 255
-0.211268 -0.250857 0.282297 60 195 255
0.267809 -0.218468 -0.242467 68 187 255
-0.218522 -0.408875 -0.0833809 20 235 255
0.114329 -0.325267 -0.242835 40 214 255
-0.174047 -0.340773 0.176769 36 218 255
-0.105305 -0.483722 -0.184231 1 254 255
0.225315 -0.487923 -0.0753228 0 255 255
0.101106 -0.0226603 -0.244254 119 136 255
0.0790076 0.0720571 -0.219044 143 112 255
-0.213227 -0.0296475 -0.0811518 117 138 255
-0.212938 0.0625005 -0.0160065 140 114 255
0.437815 -0.0379233 -0.225323 115 140 255
0.0325791 -0.0863382 -0.236247 102 153 255
-0.213735 -0.186909 -0.112745 77 178 255
0.0134451 -0.23609 -0.239955 64 191 255
-0.158149 -0.200723 -0.234425 73 182 255
0.137042 -0.168249 -0.241333 81 174 255
-0.203238 -0.348042 0.296203 35 220 255
0.144984 0.049917 -0.234237 137 118 255
-0.208791 0.0447108 0.153241 136 119 255
-0.213547 -0.203371 -0.187283 72 183 255
-0.196255 -0.45175 -0.243403 9 246 255
-0.214933 -0.396949 0.0138782 23 232 255
-0.214509 -0.222543 0.142407 67 188 255
0.234355 -0.15734 -0.242839 84 171 255
-0.216334 -0.32495 0.215245 40 214 255
-0.133473 0.0730563 -0.0660437 143 112 255
-0.213296 -0.484245 -0.00437113 0 255 255
-0.2026 -0.121599 0.00626701 93 162 255
-0.193987 -0.139524 0.0917769 89 166 255
-0.0705003 -0.219301 -0.239365 68 187 255
0.0420765 -0.415354 -0.244047 18 237 255
-0.213843 0.0549755 -0.168923 138 117 255
-0.213114 -0.108627 0.230417 97 158 255
0.275315 0.0745767 0.0496772 144 111 255
0.171503 -0.0342234 -0.239513 116 139 255
0.412815 -0.325423 -0.212823 40 214 255
-0.167004 -0.316581 0.230168 43 211 255
0.330932 -0.484647 -0.214851 0 255 255
-0.137185 -0.425423 0.0371772 16 239 255
-0.212562 -0.474384 0.172853 3 252 255
-0.162815 -0.324324 0.0442178 40 214 255
-0.215849 -0.200834 0.0751873 73 182 255
-0.214557 0.0224166 0.0501572 130 125 255
0.0601627 -0.304594 -0.243063 46 209 255
-0.0269941 -0.414652 -0.246462 18 237 255
0.388484 -0.106394 -0.237712 97 158 255
-0.222095 -0.0180988 0.253842 120 135 255
-0.149685 -0.250423 0.287177 60 195 255
-0.14593 -0.48352 -0.147703 1 254 255
-0.149129 0.0741369 0.0874646 143 112 255
0.064648 -0.140893 -0.236846 88 167 255
0.285825 0.0719719 -0.126609 143 112 255
-0.0310363 0.0657957 -0.236097 141 113 255
0.293046 0.02 -0.243053 130 125 255
-0.102578 -0.345467 -0.241043 36 219 255
0.369191 -0.194686 -0.238761 75 179 255
-0.215364 -0.336053 -0.215832 38 217 255
-0.215091 0.0303907 -0.0898074 131 123 255
-0.21461 -0.261623 0.0165846 56 198 255
-0.202912 -0.0437629 -0.181632 113 142 255
-0.218533 -0.336284 -0.126917 38 217 255
0.107586 -0.412879 -0.243512 19 236 255
0.25174 -0.325042 -0.241006 40 214 255
-0.218065 -0.201625 0.254865 73 182 255
-0.179214 -0.139368 -0.238837 89 166 255
0.112725 -0.482665 -0.100467 1 254 255
-0.209147 -0.172013 -0.0358266 80 175 255
-0.162185 -0.0629233 -0.100323 108 147 255
-0.204191 0.0651322 0.192706 141 113 255
-0.0580154 -0.0326441 -0.236319 116 139 255
-0.205295 0.0412027 -0.232537 135 120 255
0.170993 -0.116391 -0.242756 95 160 255
0.0476616 0.0656399 -0.241554 141 113 255
0.281354 -0.449517 -0.246925 9 246 255
-0.0799023 -0.370279 0.296314 30 225 255
0.160517 -0.2223 -0.243239 67 188 255
-0.211286 -0.406416 0.118812 20 235 255
0.00293178 -0.483463 -0.196395 1 254 255
-0.0933133 -0.483328 -0.0219629 1 254 255
-0.102381 -0.145627 -0.237175 87 168 255
-0.211818 -0.323577 0.156393 42 213 255
-0.139897 -0.471243 -0.243358 4 251 255
-0.172966 -0.015302 -0.239546 120 135 255
0.351057 -0.0389104 -0.23691 113 141 255
-0.0891616 -0.370494 0.375515 30 225 255
0.346293 0.066797 -0.237511 142 113 255
-0.215878 -0.263368 -0.153683 56 198 255
-0.211993 -0.476331 -0.0906688 2 253 255
-0.219711 -0.405773 -0.203071 21 234 255
0.235092 -0.24613 -0.244069 60 194 255
-0.0863822 0.073267 -0.0323379 143 112 255
-0.215807 -0.363974 -0.0260836 31 224 255
0.332103 -0.109984 -0.244776 96 159 255
0.0162919 -0.330164 -0.238703 40 215 255
-0.00473025 -0.48372 -0.0578836 1 254 255
-0.149685 -0.375423 0.237177 28 227 255
-0.217505 -0.416714 0.204978 18 237 255
-0.212583 -0.0724611 -0.0432819 105 149 255
0.27638 -0.026689 -0.239312 118 137 255
-0.137579 -0.338681 0.129345 38 217 255
-0.218707 -0.018796 0.131224 120 135 255
0.114092 -0.291588 -0.241291 50 205 255
-0.216518 -0.11118 -0.117345 96 159 255
-0.20637 -0.263784 0.220667 56 198 255
0.372411 -0.276657 -0.237487 54 201 255
-0.137185 -0.212923 0.0121772 70 185 255
-0.149702 -0.304799 -0.23779 46 209 255
0.185542 -0.484785 -0.230929 0 255 255
-0.208883 -0.121099 0.271053 93 162 255
0.0573504 -0.483503 -0.0969047 1 254 255
-0.137819 -0.409717 -0.24649 20 235 255
0.226235 0.0721637 -0.0122128 143 112 255
-0.215002 -0.268921 -0.0337147 56 199 255
-0.0450265 -0.168523 -0.241574 81 174 255
0.0614421 0.0742186 0.060412 143 112 255
0.0607224 0.0744873 -0.172903 143 112 255
0.325923 -0.416841 -0.244105 18 237 255
0.0209442 0.0190486 -0.233985 129 126 255
-0.142014 0.0352044 -0.220629 133 121 255
0.0772672 -0.483651 -0.219022 1 254 255
-0.0752189 0.0752469 0.121278 144 111 255
0.0878154 -0.362923 0.449677 32 223 255
0.079799 -0.198593 -0.241719 73 181 255
-0.210545 -0.354967 0.0481108 34 221 255
-0.208174 -0.267829 -0.220376 56 199 255
0.0792306 -0.0703797 -0.233482 105 149 255
-0.218536 -0.451214 0.110287 9 246 255
-0.207336 -0.063002 0.185674 108 147 255
-0.109715 -0.247277 -0.243732 60 194 255
-0.100911 -0.0585434 -0.230246 109 146 255
-0.201477 -0.12881 0.152379 91 163 255
-0.0598061 -0.342513 -0.237939 36 218 255
0.186559 -0.321238 -0.242062 42 213 255
0.328453 -0.34825 -0.243734 35 220 255
-0.220921 -0.0555026 0.262089 110 145 255
-0.210354 -0.10249 -0.183294 97 157 255
-0.212619 -0.282397 0.0684645 52 203 255
0.175315 -0.0504233 0.0746772 112 143 255
0.175315 -0.362923 0.374677 32 223 255
0.396632 0.0688366 -0.22384 142 113 255
-0.192648 -0.244628 0.176301 62 193 255
-0.20621 -0.370461 -0.0728222 30 225 255
0.20991 -0.194133 -0.242596 75 179 255
-0.00200215 -0.369064 0.339241 30 225 255
0.207037 -0.403144 -0.244887 21 234 255
-0.219286 -0.332405 0.269049 39 216 255
0.260993 -0.0891988 -0.239456 102 153 255
-0.0768767 -0.417108 -0.246354 18 237 255
-0.212643 -0.019647 0.0300353 119 136 255
0.387684 -0.400048 -0.242386 22 233 255
-0.121754 -0.483095 0.0265613 1 254 255
-0.130546 0.0727292 0.0261313 143 112 255
0.306625 -0.19877 -0.240437 73 181 255
0.222993 0.0600453 -0.245857 140 114 255
0.000179669 -0.127048 -0.238099 92 163 255
-0.217652 -0.44555 -0.0123228 10 245 255
-0.210152 -0.317152 -0.00997858 43 211 255
-0.154301 -0.351167 0.292904 35 220 255
0.272972 0.0736964 -0.0295123 143 112 255
-0.215907 -0.111727 -0.0260898 96 159 255
-0.209845 -0.0819983 0.100483 103 152 255
0.275315 -0.487923 -0.0878228 0 255 255
-0.210145 0.0680426 0.00746866 142 113 255
-0.21191 0.0118037 -0.179634 127 128 255
-0.21595 -0.177962 -0.193727 79 176 255
-0.215425 -0.358706 -0.154456 32 222 255
-0.167442 0.0725187 -0.0842624 143 112 255
-0.216019 -0.397577 0.0753561 23 232 255
0.13586 -0.121707 -0.238543 93 162 255
0.138203 -0.480814 -0.208875 1 254 255
-0.214187 -0.159348 0.195924 84 171 255
-0.0262411 -0.282232 -0.240972 52 203 255
-0.162185 -0.162923 -0.0503228 83 172 255
0.0878154 -0.375423 0.362177 28 227 255
0.06572 -0.364792 -0.239947 31 224 255
-0.191435 -0.481194 -0.165602 1 254 255
-0.0966599 0.0660437 -0.229811 141 113 255
0.0765296 0.0096854 -0.234488 127 128 255
-0.166151 -0.0774073 -0.243977 105 150 255
-0.215272 -0.224077 -0.0897923 67 188 255
0.284337 -0.257248 -0.243086 59 195 255
0.00246658 -0.06275 -0.243297 108 147 255
0.229781 -0.483976 -0.20843 1 254 255
-0.149685 -0.412923 -0.000322794 19 236 255
-0.181478 -0.375875 -0.232915 28 227 255
0.0591314 -0.242166 -0.242345 62 193 255
-0.208255 -0.39413 0.244541 24 231 255
-0.178099 -0.211459 -0.239047 70 185 255
-0.211034 -0.201693 0.116773 73 182 255
-0.219167 -0.440397 -0.137891 12 243 255
0.104333 0.072468 -0.0939208 143 112 255
-0.15248 -0.321521 0.168776 42 213 255
-0.0371846 -0.362923 0.424677 32 223 255
0.157906 -0.268646 -0.24379 56 199 255
-0.0788026 0.0729829 -0.159573 143 112 255
0.283331 0.0581355 -0.244741 139 116 255
0.118749 0.0498177 -0.2461 137 118 255
-0.212475 -0.170001 0.0322698 81 174 255
-0.215524 -0.0616591 -0.209275 109 146 255
-0.167863 0.0722837 0.0749695 143 112 255
0.312475 -0.147342 -0.238888 87 168 255
0.0702873 -0.483745 -0.149963 1 254 255
-0.212279 0.0679814 -0.0469855 142 113 255
-0.200267 -0.484584 -0.0476601 0 255 255
-0.216962 -0.0143347 -0.107831 121 134 255
-0.218294 0.0214158 0.220787 130 125 255
-0.0377697 -0.483422 -0.039941 1 254 255
-0.216631 0.0501728 0.0953463 137 118 255
-0.19078 0.0717295 -0.144078 143 112 255
-0.0424273 0.0729196 -0.0317979 143 112 255
0.225315 0.0745767 0.0621772 144 111 255
-0.212983 -0.300329 0.128237 48 207 255
0.125315 -0.0254233 0.0996772 118 137 255
-0.120654 -0.000825744 -0.243901 124 131 255
0.358931 -0.447757 -0.242007 10 245 255
-0.110377 -0.483587 -0.121449 1 254 255
-0.0724004 -0.483948 -0.218396 1 254 255
0.158269 -0.0575249 -0.237253 110 145 255
0.149843 -0.369592 -0.243751 30 225 255
-0.0427491 0.0746583 0.0959907 144 111 255
-0.0184171 -0.384182 -0.240622 26 229 255
0.0303812 -0.166399 -0.240941 81 173 255
-0.21318 -0.0693554 0.00883826 107 147 255
-0.116699 -0.364075 0.267883 31 224 255
0.283971 -0.37497 -0.242449 28 227 255
-0.216059 -0.22161 0.231257 68 187 255
-0.0226191 0.0357666 -0.244245 134 121 255
-0.19395 -0.0990828 0.0677777 99 156 255
-0.215441 -0.168011 -0.118053 81 174 255
-0.204429 -0.471161 0.150407 4 251 255
-0.162185 -0.325423 -0.0503228 40 214 255
0.377346 -0.156157 -0.239039 84 171 255
-0.215518 -0.299782 -0.17585 48 207 255
0.122263 -0.443632 -0.249435 11 244 255
-0.116705 -0.118586 -0.242924 94 161 255
-0.215272 -0.0318165 -0.0514057 116 139 255
0.208409 -0.0832186 -0.239028 103 152 255
0.172269 -0.180167 -0.24248 78 177 255
-0.212796 -0.351389 0.15242 34 221 255
0.437815 0.0370767 -0.212823 134 121 255
-0.203529 -0.476444 -0.234224 2 253 255
-0.0267918 -0.483143 -0.18882 1 254 255
