ply
format ascii 1.0
comment Created by Open3D
element vertex 1171
property double x
property double y
property double z
property uchar red
property uchar green
property uchar blue
end_header
-0.0635263 -0.421846 -0.289929 127 0 255
-0.225327 -0.374774 -0.425054 127 0 255
-0.0642473 -0.199423 -0.235821 127 0 255
-0.0665395 -0.39267 -0.0508452 127 0 255
-0.286 -0.40706 0.0110472 127 0 255
-0.150327 -0.337274 -0.137554 127 0 255
-0.0646801 -0.199089 -0.336272 127 0 255
-0.175327 -0.337274 -0.0500543 127 0 255
-0.162921 -0.211785 0.0119054 127 0 255
-0.139986 -0.310665 0.0178544 127 0 255
-0.400327 -0.362273 -0.0625542 127 0 255
-0.0831239 -0.360083 -0.157718 127 0 255
-0.0828189 -0.340106 -0.0775645 127 0 255
-0.0737249 -0.366237 -0.00319082 127 0 255
-0.375327 -0.187272 0.0124459 127 0 255
-0.0680578 -0.12609 -0.0915372 127 0 255
-0.351857 -0.44591 -0.00459869 127 0 255
-0.0681267 -0.448863 -0.0371185 127 0 255
-0.358199 -0.253408 -0.0106981 127 0 255
-0.069478 -0.386456 -0.328623 127 0 255
-0.0827691 -0.456165 -0.234098 127 0 255
-0.215601 -0.472322 0.000536317 127 0 255
-0.0697548 -0.245942 -0.0604013 127 0 255
-0.067899 -0.418431 -0.187584 127 0 255
-0.19787 -0.16176 0.0117476 127 0 255
-0.354076 -0.341617 0.00621507 127 0 255
-0.0713968 -0.249245 -0.340232 127 0 255
-0.0762619 -0.341998 -0.376562 127 0 255
-0.0647083 -0.0838277 -0.0593908 127 0 255
-0.182576 -0.36638 -0.000416864 127 0 255
-0.0715118 -0.242969 -0.222348 127 0 255
-0.0634548 -0.156371 -0.208661 127 0 255
-0.127553 -0.482626 -0.06864 127 0 255
-0.0732338 -0.27728 -0.00146407 127 0 255
-0.268496 -0.10348 0.0118577 127 0 255
-0.17268 -0.415194 0.01452 127 0 255
-0.0763354 -0.483451 -0.0897172 127 0 255
-0.202708 -0.088321 0.0117514 127 0 255
-0.250327 -0.399774 -0.237554 127 0 255
-0.0850006 -0.0830024 0.00877687 127 0 255
-0.224288 -0.201616 0.00851366 127 0 255
-0.101033 -0.392665 0.0125135 127 0 255
-0.277921 -0.280651 -0.00238457 127 0 255
-0.117645 -0.143097 0.0115961 127 0 255
-0.325327 -0.449774 -0.0375543 127 0 255
-0.0677036 -0.308038 -0.269579 127 0 255
-0.226415 -0.276095 -0.00133909 127 0 255
-0.0677903 -0.184999 -0.0691516 127 0 255
-0.0677257 -0.463882 -0.318434 127 0 255
-0.0653879 -0.349843 -0.183413 127 0 255
-0.337827 -0.374773 -0.262554 127 0 255
-0.161695 -0.482924 0.000932071 127 0 255
-0.0693533 -0.425365 -0.123216 127 0 255
-0.350327 -0.399773 -0.0875542 127 0 255
-0.251099 -0.482295 -0.0426173 127 0 255
-0.232086 -0.344168 0.000128857 127 0 255
-0.325327 -0.224771 -0.037554 127 0 255
-0.0731336 -0.146855 -0.276592 127 0 255
-0.061273 -0.241521 -0.15542 127 0 255
-0.387827 -0.262272 -0.0875542 127 0 255
-0.0762819 -0.257643 -0.380532 127 0 255
-0.134889 -0.277438 -0.00172729 127 0 255
-0.125327 -0.349774 -0.0500543 127 0 255
-0.175327 -0.337274 -0.237554 127 0 255
-0.0705813 -0.437495 -0.349636 127 0 255
-0.315778 -0.155628 0.00529603 127 0 255
-0.0712507 -0.39292 -0.218029 127 0 255
-0.0703189 -0.10476 -0.122623 127 0 255
-0.0654913 -0.20025 -0.278519 127 0 255
-0.357008 -0.306284 -0.00928362 127 0 255
-0.127803 -0.221383 0.00522988 127 0 255
-0.29227 -0.343189 0.0124136 127 0 255
-0.0701157 -0.190491 -0.196466 127 0 255
-0.0885811 -0.364211 -0.354669 127 0 255
-0.350327 -0.112272 -0.0375541 127 0 255
-0.0632361 -0.274791 -0.210404 127 0 255
-0.100648 -0.432074 0.00803523 127 0 255
-0.312741 -0.425998 0.00674445 127 0 255
-0.23657 -0.437153 0.0151933 127 0 255
-0.267961 -0.171564 0.0111211 127 0 255
-0.0671502 -0.223818 -0.0860705 127 0 255
-0.0679281 -0.339885 -0.296889 127 0 255
-0.073695 -0.30977 -0.120234 127 0 255
-0.06701 -0.281236 -0.0540197 127 0 255
-0.175327 -0.387274 -0.362554 127 0 255
-0.0503269 -0.0872744 -0.237554 127 0 255
-0.0811336 -0.140118 0.011327 127 0 255
-0.0628955 -0.370516 -0.255084 127 0 255
-0.110238 -0.0823795 -0.00548944 127 0 255
-0.0620115 -0.0598008 -0.043371 127 0 255
-0.102556 -0.353446 -0.109146 127 0 255
-0.115071 -0.481112 -0.0422488 127 0 255
-0.0701509 -0.261624 -0.263168 127 0 255
-0.0503269 -0.124774 -0.362554 127 0 255
-0.229285 -0.137237 0.00604142 127 0 255
-0.112827 -0.337274 -0.400054 127 0 255
-0.154399 -0.376452 -0.00169441 127 0 255
-0.337827 -0.449774 -0.0875543 127 0 255
-0.0863178 -0.48204 -0.227602 127 0 255
-0.0701638 -0.294181 -0.325275 127 0 255
-0.0702553 -0.359096 -0.0606999 127 0 255
-0.192159 -0.238829 0.00971574 127 0 255
-0.350327 -0.299771 -0.087554 127 0 255
-0.0774386 -0.425382 -0.158837 127 0 255
-0.187827 -0.374774 -0.425054 127 0 255
-0.0835885 -0.306362 -0.0173008 127 0 255
-0.295782 -0.199651 0.0070722 127 0 255
-0.0801025 -0.469551 -0.281058 127 0 255
-0.250327 -0.437274 -0.250054 127 0 255
-0.153386 -0.171949 0.0130807 127 0 255
-0.0724067 -0.111435 -0.261045 127 0 255
-0.355227 -0.395925 0.00872746 127 0 255
-0.314182 -0.463558 0.00605035 127 0 255
-0.0719111 -0.256711 -0.127641 127 0 255
-0.112827 -0.387274 -0.275054 127 0 255
-0.387827 -0.274772 -0.0375541 127 0 255
-0.220767 -0.403671 0.0114982 127 0 255
-0.342036 -0.137708 0.00784342 127 0 255
-0.135714 -0.479041 -0.183494 127 0 255
-0.0764241 -0.127615 -0.309363 127 0 255
-0.0703849 -0.102555 -0.195853 127 0 255
-0.122158 -0.453999 0.0180384 127 0 255
-0.0644817 -0.401536 -0.27653 127 0 255
-0.387827 -0.374774 -0.0875543 127 0 255
-0.066269 -0.171235 -0.0273232 127 0 255
-0.0666726 -0.166248 -0.107635 127 0 255
-0.188968 -0.307956 -0.00161949 127 0 255
-0.346247 -0.253446 0.00474086 127 0 255
-0.325327 -0.424774 -0.212554 127 0 255
-0.364879 -0.470304 -0.0596032 127 0 255
-0.0886062 -0.225266 0.00274475 127 0 255
-0.0771483 -0.441667 -0.0662408 127 0 255
-0.325327 -0.34977 -0.037554 127 0 255
-0.281602 -0.482134 -0.0530395 127 0 255
-0.0754853 -0.310628 -0.185576 127 0 255
-0.0716718 -0.311578 -0.376654 127 0 255
-0.325327 -0.27477 -0.037554 127 0 255
-0.337827 -0.374773 -0.225054 127 0 255
-0.279825 -0.120436 0.00414331 127 0 255
-0.252334 -0.25907 -0.00313598 127 0 255
-0.0698476 -0.438889 -0.384384 127 0 255
-0.250327 -0.487274 -0.200054 127 0 255
-0.150327 -0.337274 -0.0875543 127 0 255
-0.0735273 -0.304779 -0.0879708 127 0 255
-0.0650057 -0.0883937 -0.148241 127 0 255
-0.26768 -0.453666 0.00608343 127 0 255
-0.0832305 -0.472329 -0.00151126 127 0 255
-0.151897 -0.0869033 0.00720866 127 0 255
-0.0860849 -0.393419 -0.376031 127 0 255
-0.0666564 -0.136976 -0.0566692 127 0 255
-0.0699922 -0.16256 -0.164942 127 0 255
-0.325327 -0.187271 -0.0625541 127 0 255
-0.237827 -0.374774 -0.387554 127 0 255
-0.281147 -0.306069 0.0129126 127 0 255
-0.0615285 -0.463934 -0.201108 127 0 255
-0.0771205 -0.418252 0.00240526 127 0 255
-0.0654281 -0.223271 -0.0371074 127 0 255
-0.129427 -0.359754 0.0196645 127 0 255
-0.0791502 -0.437336 -0.240222 127 0 255
-0.0503269 -0.0997744 0.0124457 127 0 255
-0.0879986 -0.482631 -0.159775 127 0 255
-0.0503269 -0.162274 -0.375054 127 0 255
-0.180444 -0.455451 0.0167324 127 0 255
-0.0738178 -0.306923 -0.250469 127 0 255
-0.323979 -0.226573 0.00696087 127 0 255
-0.12407 -0.184277 0.00196303 127 0 255
-0.0810177 -0.366574 -0.188125 127 0 255
-0.0879895 -0.316618 0.00956989 127 0 255
-0.300327 -0.387274 -0.362554 127 0 255
-0.150327 -0.349774 -0.287554 127 0 255
-0.0679191 -0.150517 -0.227493 127 0 255
-0.182329 -0.191251 0.0115073 127 0 255
-0.0678882 -0.0900464 -0.101007 127 0 255
-0.236506 -0.182558 0.0130744 127 0 255
-0.300327 -0.487274 -0.150054 127 0 255
-0.243962 -0.312268 0.000290164 127 0 255
-0.0773726 -0.411527 -0.102163 127 0 255
-0.0664467 -0.202483 -0.108071 127 0 255
-0.137827 -0.399774 -0.412554 127 0 255
-0.0606203 -0.445533 -0.287771 127 0 255
-0.187827 -0.337274 -0.112554 127 0 255
-0.290124 -0.254363 0.00797558 127 0 255
-0.0642401 -0.232774 -0.239752 127 0 255
-0.070594 -0.254251 -0.298319 127 0 255
-0.106508 -0.243905 0.0126411 127 0 255
-0.312827 -0.412274 -0.262554 127 0 255
-0.251028 -0.39364 0.00387833 127 0 255
-0.0712609 -0.198632 -0.155048 127 0 255
-0.3453 -0.18844 0.00496759 127 0 255
-0.0719579 -0.358634 -0.323366 127 0 255
-0.090223 -0.385074 -0.0143364 127 0 255
-0.125327 -0.349774 -0.225054 127 0 255
-0.0773941 -0.138375 -0.0170388 127 0 255
-0.320722 -0.110284 0.00747704 127 0 255
-0.342359 -0.332989 -0.00430339 127 0 255
-0.0654998 -0.350687 -0.140602 127 0 255
-0.0654853 -0.17721 -0.283672 127 0 255
-0.312827 -0.399773 -0.175054 127 0 255
-0.195907 -0.422115 -0.000692829 127 0 255
-0.0670336 -0.47281 -0.0490486 127 0 255
-0.0699337 -0.412862 -0.334404 127 0 255
-0.071625 -0.190148 -0.354932 127 0 255
-0.387827 -0.412274 -0.0875543 127 0 255
-0.214419 -0.0927959 0.000987065 127 0 255
-0.0665863 -0.35735 -0.217667 127 0 255
-0.153119 -0.31192 -0.002898 127 0 255
-0.0762736 -0.0460332 -0.00102986 127 0 255
-0.328473 -0.283833 0.00599484 127 0 255
-0.37556 -0.466523 -0.0346227 127 0 255
-0.128241 -0.407391 0.0029412 127 0 255
-0.0675659 -0.258313 -0.0353905 127 0 255
-0.0664993 -0.257269 -0.106593 127 0 255
-0.133764 -0.481802 -0.205113 127 0 255
-0.212827 -0.399774 -0.350054 127 0 255
-0.295337 -0.365056 0.00262472 127 0 255
-0.065492 -0.393306 -0.0459156 127 0 255
-0.355784 -0.426339 0.0117703 127 0 255
-0.387827 -0.324772 -0.0875542 127 0 255
-0.193881 -0.27544 0.00884816 127 0 255
-0.0682575 -0.390078 -0.147646 127 0 255
-0.0651974 -0.342077 -0.0234768 127 0 255
-0.0676325 -0.475049 -0.100641 127 0 255
-0.152317 -0.483054 0.00822894 127 0 255
-0.0681221 -0.0973291 -0.0433185 127 0 255
-0.350327 -0.124772 -0.0625541 127 0 255
-0.138612 -0.244582 0.00115546 127 0 255
-0.0503269 -0.362274 -0.387554 127 0 255
-0.0670888 -0.303288 -0.151272 127 0 255
-0.0716352 -0.273143 -0.3398 127 0 255
-0.17944 -0.136445 0.00797078 127 0 255
-0.0704855 -0.122601 -0.217358 127 0 255
-0.300327 -0.374774 -0.412554 127 0 255
-0.0661848 -0.137174 -0.112549 127 0 255
-0.294975 -0.40406 0.0120098 127 0 255
-0.0692769 -0.419877 -0.226759 127 0 255
-0.217477 -0.334948 0.00918521 127 0 255
-0.0688222 -0.224405 -0.316441 127 0 255
-0.162827 -0.337274 -0.175054 127 0 255
-0.0711734 -0.348001 -0.0980101 127 0 255
-0.0728244 -0.281236 -0.195119 127 0 255
-0.0675897 -0.313309 -0.311253 127 0 255
-0.24388 -0.235283 -0.000179505 127 0 255
-0.0696392 -0.105423 -0.159959 127 0 255
-0.0712297 -0.478065 -0.143245 127 0 255
-0.231664 -0.450462 0.0156646 127 0 255
-0.0708615 -0.200584 -0.192159 127 0 255
-0.0908667 -0.120605 0.0112802 127 0 255
-0.265577 -0.138617 0.00367647 127 0 255
-0.275327 -0.412274 -0.212554 127 0 255
-0.375327 -0.224771 0.0124459 127 0 255
-0.126766 -0.331568 0.0198132 127 0 255
-0.0669869 -0.335961 -0.276201 127 0 255
-0.375327 -0.237272 -0.0875541 127 0 255
-0.325327 -0.412272 -0.0500542 127 0 255
-0.292659 -0.46911 0.0068239 127 0 255
-0.188666 -0.362468 -9.39085e-05 127 0 255
-0.0768882 -0.431364 -0.0272818 127 0 255
-0.131948 -0.101966 0.0092447 127 0 255
-0.0833071 -0.351636 0.00486497 127 0 255
-0.199937 -0.229469 0.00145209 127 0 255
-0.0643915 -0.328491 -0.222984 127 0 255
-0.275327 -0.399774 -0.262554 127 0 255
-0.0776047 -0.442641 -0.170354 127 0 255
-0.0665582 -0.388234 -0.308749 127 0 255
-0.128919 -0.483328 -0.0648703 127 0 255
-0.0678401 -0.214013 -0.0609088 127 0 255
-0.36311 -0.401698 -0.00715984 127 0 255
-0.259861 -0.192665 0.00905332 127 0 255
-0.0659663 -0.316974 -0.0412307 127 0 255
-0.0503269 -0.0747744 -0.187554 127 0 255
-0.126395 -0.472277 -0.0112253 127 0 255
-0.0931738 -0.18624 0.00434927 127 0 255
-0.077164 -0.451564 -0.389965 127 0 255
-0.0721321 -0.132639 -0.325504 127 0 255
-0.066415 -0.146808 -0.178774 127 0 255
-0.31822 -0.181455 0.00746096 127 0 255
-0.0640793 -0.065734 -0.0593859 127 0 255
-0.0670378 -0.286924 -0.0881786 127 0 255
-0.0640933 -0.290134 -0.364249 127 0 255
-0.362827 -0.349771 -0.0875541 127 0 255
-0.336956 -0.366324 0.00763426 127 0 255
-0.22254 -0.157972 0.00715992 127 0 255
-0.349148 -0.146347 0.00381855 127 0 255
-0.350327 -0.487274 -0.100054 127 0 255
-0.0805162 -0.372853 -0.108611 127 0 255
-0.169728 -0.103606 0.0090802 127 0 255
-0.0703203 -0.173088 -0.241796 127 0 255
-0.112827 -0.312274 -0.212554 127 0 255
-0.078429 -0.370881 -0.382093 127 0 255
-0.354784 -0.46356 -0.00535185 127 0 255
-0.0612892 -0.458572 -0.264595 127 0 255
-0.0733254 -0.243009 -0.156667 127 0 255
-0.0712457 -0.240368 -0.36504 127 0 255
-0.077497 -0.385454 -0.251084 127 0 255
-0.0849444 -0.482964 -0.0683578 127 0 255
-0.06409 -0.285135 -0.232203 127 0 255
-0.2963 -0.334386 0.000962108 127 0 255
-0.154296 -0.408454 0.00112858 127 0 255
-0.0681912 -0.141123 -0.0841861 127 0 255
-0.15949 -0.253577 0.0131044 127 0 255
-0.325327 -0.149771 -0.0625541 127 0 255
-0.0659337 -0.213733 -0.29292 127 0 255
-0.354705 -0.293537 0.0055853 127 0 255
-0.0784974 -0.445792 -0.106124 127 0 255
-0.150903 -0.148677 0.0115829 127 0 255
-0.22714 -0.281608 0.0108094 127 0 255
-0.212827 -0.337274 -0.125054 127 0 255
-0.400327 -0.387274 -0.0625543 127 0 255
-0.0744137 -0.416923 -0.366491 127 0 255
-0.295004 -0.481458 -0.0454021 127 0 255
-0.177883 -0.329068 0.011801 127 0 255
-0.0719939 -0.183154 -0.140702 127 0 255
-0.0840434 -0.335735 -0.366162 127 0 255
-0.0692049 -0.220358 -0.222375 127 0 255
-0.257967 -0.347256 0.00125857 127 0 255
-0.150327 -0.337274 -0.262554 127 0 255
-0.078995 -0.179224 -0.0230515 127 0 255
-0.154437 -0.209694 0.0114056 127 0 255
-0.112827 -0.337274 -0.0375543 127 0 255
-0.0704406 -0.386527 -0.191238 127 0 255
-0.0697467 -0.278079 -0.0140864 127 0 255
-0.182638 -0.469335 0.0161077 127 0 255
-0.325327 -0.31227 -0.062554 127 0 255
-0.154243 -0.371537 0.01505 127 0 255
-0.0756594 -0.445599 -0.334155 127 0 255
-0.0719725 -0.38087 -0.0748335 127 0 255
-0.0687025 -0.460698 -0.0250819 127 0 255
-0.0709225 -0.143672 -0.289824 127 0 255
-0.387827 -0.287272 -0.0875542 127 0 255
-0.325327 -0.224771 -0.062554 127 0 255
-0.350327 -0.174771 -0.0875541 127 0 255
-0.124913 -0.286083 0.0027535 127 0 255
-0.291884 -0.210869 0.00575909 127 0 255
-0.189695 -0.397904 0.00499074 127 0 255
-0.0794385 -0.359806 -0.299722 127 0 255
-0.175327 -0.337274 -0.212554 127 0 255
-0.0704944 -0.281434 -0.278557 127 0 255
-0.250327 -0.399774 -0.187554 127 0 255
-0.0821021 -0.479114 -0.251221 127 0 255
-0.0936852 -0.0621003 0.00329679 127 0 255
-0.333634 -0.424897 0.00820942 127 0 255
-0.257075 -0.482286 -0.0417962 127 0 255
-0.296168 -0.152192 0.00450186 127 0 255
-0.283661 -0.301792 -0.00212514 127 0 255
-0.069624 -0.111714 -0.230727 127 0 255
-0.228722 -0.414659 -0.000327108 127 0 255
-0.0660351 -0.235831 -0.115039 127 0 255
-0.0788483 -0.440565 -0.218575 127 0 255
-0.0758133 -0.429163 -0.0604174 127 0 255
-0.0737049 -0.220929 -0.00800531 127 0 255
-0.248253 -0.113695 0.00523262 127 0 255
-0.312827 -0.424774 -0.175054 127 0 255
-0.0665132 -0.0899498 -0.0815632 127 0 255
-0.0680686 -0.183658 -0.0739946 127 0 255
-0.0657986 -0.340888 -0.18079 127 0 255
-0.187827 -0.337274 -0.0750543 127 0 255
-0.0785131 -0.399355 -0.275742 127 0 255
-0.0692103 -0.244395 -0.263796 127 0 255
-0.123388 -0.45213 0.0179769 127 0 255
-0.0631358 -0.264364 -0.190312 127 0 255
-0.0706224 -0.0988667 -0.0218003 127 0 255
-0.154481 -0.292129 0.0149045 127 0 255
-0.125327 -0.337274 -0.175054 127 0 255
-0.0717699 -0.315735 -0.0716352 127 0 255
-0.137827 -0.387274 -0.362554 127 0 255
-0.359628 -0.259801 -0.0117765 127 0 255
-0.325327 -0.374774 -0.387554 127 0 255
-0.28187 -0.433004 0.0113068 127 0 255
-0.070868 -0.431059 -0.133694 127 0 255
-0.111896 -0.367753 -2.22017e-05 127 0 255
-0.0730804 -0.323812 -0.123408 127 0 255
-0.0956586 -0.156174 0.0121364 127 0 255
-0.325327 -0.424773 -0.0750542 127 0 255
-0.0748179 -0.345491 -0.24583 127 0 255
-0.198368 -0.165285 0.0119 127 0 255
-0.296181 -0.256937 0.00837346 127 0 255
-0.0610297 -0.447893 -0.301845 127 0 255
-0.225951 -0.464075 0.00102348 127 0 255
-0.189104 -0.0939414 0.00882106 127 0 255
-0.29461 -0.107249 0.0106345 127 0 255
-0.353223 -0.342926 0.00634827 127 0 255
-0.0654833 -0.0856182 -0.124042 127 0 255
-0.227252 -0.205565 0.0083444 127 0 255
-0.0775294 -0.358533 -0.0462241 127 0 255
-0.212509 -0.303574 0.0093538 127 0 255
-0.0707185 -0.313513 -0.00516594 127 0 255
-0.0957067 -0.473777 -0.000661117 127 0 255
-0.0794477 -0.410809 -0.387782 127 0 255
-0.0633165 -0.220196 -0.176967 127 0 255
-0.300327 -0.487274 -0.112554 127 0 255
-0.184667 -0.433197 0.0160469 127 0 255
-0.150327 -0.337274 -0.125054 127 0 255
-0.0695152 -0.152335 -0.123745 127 0 255
-0.0778511 -0.390967 -0.160379 127 0 255
-0.341381 -0.215009 0.00579475 127 0 255
-0.21102 -0.367581 -0.000568136 127 0 255
-0.362827 -0.112272 0.0124458 127 0 255
-0.376046 -0.464815 -0.0358432 127 0 255
-0.0629303 -0.186088 -0.264895 127 0 255
-0.0503269 -0.137274 0.0124457 127 0 255
-0.0815063 -0.346047 -0.330245 127 0 255
-0.0672764 -0.138087 -0.0495091 127 0 255
-0.0689625 -0.248179 -0.0809571 127 0 255
-0.120078 -0.262194 0.0148973 127 0 255
-0.212827 -0.374774 -0.387554 127 0 255
-0.0744257 -0.480409 -0.189168 127 0 255
-0.0695309 -0.268489 -0.310094 127 0 255
-0.131127 -0.142618 0.00920012 127 0 255
-0.0698453 -0.200787 -0.322644 127 0 255
-0.325327 -0.374771 -0.037554 127 0 255
-0.216418 -0.260438 -0.00092787 127 0 255
-0.337827 -0.374773 -0.212554 127 0 255
-0.142456 -0.428377 0.00234603 127 0 255
-0.0657976 -0.274082 -0.142373 127 0 255
-0.0628269 -0.0247744 0.0124457 127 0 255
-0.0503269 -0.0497744 -0.0875543 127 0 255
-0.0716493 -0.118485 -0.192475 127 0 255
-0.0846147 -0.381033 -0.34888 127 0 255
-0.0676543 -0.247871 -0.0268042 127 0 255
-0.14313 -0.482646 -0.0516763 127 0 255
-0.140483 -0.477202 -0.200741 127 0 255
-0.295585 -0.378051 0.0115386 127 0 255
-0.0709763 -0.136415 -0.25488 127 0 255
-0.127441 -0.204802 0.00412037 127 0 255
-0.31242 -0.301751 0.00589434 127 0 255
-0.0649782 -0.322041 -0.19912 127 0 255
-0.0689221 -0.401671 -0.221621 127 0 255
-0.162827 -0.374774 -0.387554 127 0 255
-0.187827 -0.337274 -0.162554 127 0 255
-0.34798 -0.166794 0.00435251 127 0 255
-0.0943628 -0.431758 -0.00265583 127 0 255
-0.337827 -0.412274 -0.237554 127 0 255
-0.253134 -0.279881 0.0105997 127 0 255
-0.170352 -0.239964 0.000747768 127 0 255
-0.262827 -0.387274 -0.375054 127 0 255
-0.175327 -0.349774 -0.262554 127 0 255
-0.0637722 -0.253617 -0.220745 127 0 255
-0.0643573 -0.30002 -0.360279 127 0 255
-0.0725102 -0.400239 -0.0865612 127 0 255
-0.0658198 -0.196509 -0.0410788 127 0 255
-0.329077 -0.444788 0.0102153 127 0 255
-0.337827 -0.362271 -0.0875541 127 0 255
-0.0921312 -0.330978 0.0118727 127 0 255
-0.155521 -0.352715 0.00180191 127 0 255
-0.0661085 -0.0698906 -0.0239941 127 0 255
-0.100332 -0.474991 -0.0624959 127 0 255
-0.0650326 -0.189287 -0.209732 127 0 255
-0.0824254 -0.482362 -0.230047 127 0 255
-0.250327 -0.437274 -0.250054 127 0 255
-0.0660152 -0.214813 -0.141572 127 0 255
-0.114918 -0.105374 0.00070763 127 0 255
-0.265249 -0.455587 0.0111861 127 0 255
-0.158386 -0.179691 0.0066938 127 0 255
-0.0791558 -0.436091 -0.256841 127 0 255
-0.070936 -0.447317 -0.151798 127 0 255
-0.275327 -0.487274 -0.162554 127 0 255
-0.0707175 -0.384447 -0.128476 127 0 255
-0.194115 -0.118807 0.00803641 127 0 255
-0.350327 -0.274771 -0.087554 127 0 255
-0.0843722 -0.341748 -0.283394 127 0 255
-0.15441 -0.482977 0.00152602 127 0 255
-0.187827 -0.374774 -0.425054 127 0 255
-0.0676116 -0.286028 -0.0568479 127 0 255
-0.0828051 -0.263623 0.00145602 127 0 255
-0.0706986 -0.315501 -0.325931 127 0 255
-0.282501 -0.22796 0.00606298 127 0 255
-0.0856112 -0.337779 -0.100583 127 0 255
-0.0753119 -0.43294 -0.313254 127 0 255
-0.0665016 -0.201147 -0.0967247 127 0 255
-0.233165 -0.350077 0.00107102 127 0 255
-0.125327 -0.299774 -0.0500543 127 0 255
-0.0688699 -0.222028 -0.351336 127 0 255
-0.351103 -0.319764 -0.00662344 127 0 255
-0.0714872 -0.113972 0.00152782 127 0 255
-0.232458 -0.147707 0.00935557 127 0 255
-0.0697679 -0.445223 -0.0913845 127 0 255
-0.0941775 -0.388403 0.0081392 127 0 255
-0.068576 -0.469293 -0.282715 127 0 255
-0.0709057 -0.147296 -0.177322 127 0 255
-0.252235 -0.403061 0.00434517 127 0 255
-0.0752155 -0.413024 -0.184487 127 0 255
-0.0712925 -0.0950362 -0.170957 127 0 255
-0.150361 -0.0870229 0.00732304 127 0 255
-0.064396 -0.293241 -0.230262 127 0 255
-0.0713674 -0.447899 -0.364272 127 0 255
-0.0725279 -0.46033 0.000997222 127 0 255
-0.0768264 -0.27034 -0.382164 127 0 255
-0.0653264 -0.405275 -0.0343616 127 0 255
-0.0716665 -0.134841 -0.320958 127 0 255
-0.271432 -0.173907 0.00905206 127 0 255
-0.0503269 -0.324774 -0.387554 127 0 255
-0.0680355 -0.21998 -0.259832 127 0 255
-0.325327 -0.199771 -0.037554 127 0 255
-0.122844 -0.33382 0.0202079 127 0 255
-0.288295 -0.482124 -0.0507406 127 0 255
-0.0996425 -0.218594 0.00136651 127 0 255
-0.0626101 -0.374576 -0.254024 127 0 255
-0.300327 -0.399774 -0.225054 127 0 255
-0.173311 -0.453609 0.00203575 127 0 255
-0.0692376 -0.124036 -0.0696307 127 0 255
-0.369224 -0.448459 -0.0119407 127 0 255
-0.0771593 -0.482772 -0.0924066 127 0 255
-0.305528 -0.134771 0.00375877 127 0 255
-0.180855 -0.199706 0.00496894 127 0 255
-0.0671444 -0.300143 -0.108302 127 0 255
-0.193535 -0.301888 -0.00151358 127 0 255
-0.260998 -0.317332 0.00543957 127 0 255
-0.342922 -0.395862 0.00873324 127 0 255
-0.065216 -0.354297 -0.15206 127 0 255
-0.077822 -0.390744 -0.387972 127 0 255
-0.254113 -0.244911 -0.000332751 127 0 255
-0.292575 -0.419208 0.00306873 127 0 255
-0.064745 -0.278036 -0.164074 127 0 255
-0.0503269 -0.487274 -0.150054 127 0 255
-0.225327 -0.487274 -0.225054 127 0 255
-0.158085 -0.2667 -0.00217565 127 0 255
-0.361182 -0.27356 -0.0126473 127 0 255
-0.0813731 -0.0810176 0.0082126 127 0 255
-0.321716 -0.354336 0.00776878 127 0 255
-0.0671719 -0.165745 -0.0406044 127 0 255
-0.0626071 -0.0596624 -0.0487046 127 0 255
-0.0693889 -0.330598 -0.0581803 127 0 255
-0.0685941 -0.150648 -0.222368 127 0 255
-0.0681607 -0.302005 -0.269576 127 0 255
-0.0809858 -0.452052 -0.198498 127 0 255
-0.0674481 -0.403711 -0.297281 127 0 255
-0.0645966 -0.232686 -0.194553 127 0 255
-0.204208 -0.0902544 0.0120663 127 0 255
-0.0669598 -0.363872 -0.220375 127 0 255
-0.0719841 -0.115118 -0.260362 127 0 255
-0.0886202 -0.356637 -0.356635 127 0 255
-0.0651957 -0.171001 -0.130205 127 0 255
-0.226465 -0.385404 -7.76276e-05 127 0 255
-0.12467 -0.159229 0.00781291 127 0 255
-0.366969 -0.474561 -0.0426506 127 0 255
-0.362827 -0.424774 -0.0875543 127 0 255
-0.0701834 -0.198668 -0.291995 127 0 255
-0.121609 -0.381872 0.00183515 127 0 255
-0.150327 -0.337274 -0.212554 127 0 255
-0.208143 -0.252305 0.0105481 127 0 255
-0.066673 -0.237656 -0.0661059 127 0 255
-0.18139 -0.33121 0.0115124 127 0 255
-0.325327 -0.33727 -0.075054 127 0 255
-0.226931 -0.432024 0.000613403 127 0 255
-0.0670726 -0.09947 -0.115939 127 0 255
-0.350327 -0.149772 -0.0875541 127 0 255
-0.250327 -0.399774 -0.237554 127 0 255
-0.0841901 -0.296759 -0.0144261 127 0 255
-0.325327 -0.24977 -0.037554 127 0 255
-0.348462 -0.189851 -0.00499691 127 0 255
-0.0829944 -0.0490358 -0.00225601 127 0 255
-0.0770682 -0.332747 -0.173928 127 0 255
-0.305704 -0.454789 0.00905037 127 0 255
-0.08524 -0.47975 -0.147906 127 0 255
-0.0684945 -0.170857 -0.0822712 127 0 255
-0.283423 -0.345077 0.0129457 127 0 255
-0.133002 -0.48143 -0.192382 127 0 255
-0.140428 -0.427929 0.0174321 127 0 255
-0.0661553 -0.382126 -0.0276828 127 0 255
-0.190311 -0.157903 0.0126398 127 0 255
-0.0675975 -0.286179 -0.323114 127 0 255
-0.300327 -0.387274 -0.362554 127 0 255
-0.266653 -0.132355 0.00386421 127 0 255
-0.226775 -0.203478 0.00776867 127 0 255
-0.0670392 -0.270673 -0.104928 127 0 255
-0.0655312 -0.108994 -0.0441048 127 0 255
-0.0735113 -0.144986 -0.281564 127 0 255
-0.113366 -0.479986 -0.070627 127 0 255
-0.187827 -0.387274 -0.362554 127 0 255
-0.0741497 -0.241809 -0.363403 127 0 255
-0.310689 -0.172213 0.0070046 127 0 255
-0.307185 -0.273248 0.00592405 127 0 255
-0.234795 -0.297353 -0.00261534 127 0 255
-0.0680636 -0.47996 -0.0719428 127 0 255
-0.155604 -0.297968 0.0147815 127 0 255
-0.263739 -0.481862 -0.0403861 127 0 255
-0.163877 -0.385596 -0.0006403 127 0 255
-0.110295 -0.128965 0.0111387 127 0 255
-0.069793 -0.27085 -0.263784 127 0 255
-0.35975 -0.399237 -0.00613448 127 0 255
-0.342196 -0.126984 0.00421299 127 0 255
-0.0503269 -0.437274 0.0124457 127 0 255
-0.0644595 -0.207751 -0.242755 127 0 255
-0.32806 -0.228739 0.00429921 127 0 255
-0.0829536 -0.369361 0.00350357 127 0 255
-0.10203 -0.244736 0.0010359 127 0 255
-0.196523 -0.437325 0.0159189 127 0 255
-0.066423 -0.372072 -0.29624 127 0 255
-0.0669393 -0.436789 -0.248509 127 0 255
-0.0663218 -0.431691 -0.335156 127 0 255
-0.064435 -0.239093 -0.131237 127 0 255
-0.0691541 -0.452415 -0.116657 127 0 255
-0.0800278 -0.144675 -0.0137309 127 0 255
-0.0646082 -0.201349 -0.177304 127 0 255
-0.0798411 -0.357143 -0.0674686 127 0 255
-0.325326 -0.29977 -0.037554 127 0 255
-0.0697718 -0.408326 -0.154557 127 0 255
-0.0729199 -0.196419 -0.0109351 127 0 255
-0.132055 -0.482772 -0.0407944 127 0 255
-0.245617 -0.462924 0.00750681 127 0 255
-0.0680396 -0.435654 -0.0571671 127 0 255
-0.0698158 -0.332137 -0.00517061 127 0 255
-0.078109 -0.326637 -0.374479 127 0 255
-0.314871 -0.327649 0.00617388 127 0 255
-0.0987372 -0.433964 0.00617713 127 0 255
-0.0503269 -0.112274 -0.325054 127 0 255
-0.0680596 -0.327518 -0.134701 127 0 255
-0.275327 -0.374774 -0.412554 127 0 255
-0.0750826 -0.327005 -0.261154 127 0 255
-0.337827 -0.449774 -0.0875543 127 0 255
-0.262827 -0.412274 -0.187554 127 0 255
-0.0711528 -0.38668 -0.364887 127 0 255
-0.0672659 -0.10468 -0.197592 127 0 255
-0.140521 -0.0846481 0.00781134 127 0 255
-0.0807211 -0.369065 -0.178527 127 0 255
-0.0778427 -0.387013 -0.0994241 127 0 255
-0.161716 -0.229512 0.011432 127 0 255
-0.0643359 -0.158776 -0.190326 127 0 255
-0.0797211 -0.482461 -0.229727 127 0 255
-0.225712 -0.101561 0.00736066 127 0 255
-0.0702224 -0.220742 -0.334593 127 0 255
-0.0662419 -0.140722 -0.112548 127 0 255
-0.150327 -0.374774 -0.412554 127 0 255
-0.210988 -0.326622 0.000129335 127 0 255
-0.0705814 -0.434824 -0.383486 127 0 255
-0.0716071 -0.258508 -0.210375 127 0 255
-0.136363 -0.467851 0.0170893 127 0 255
-0.278514 -0.369818 0.0104592 127 0 255
-0.350327 -0.249771 -0.087554 127 0 255
-0.116948 -0.188506 0.0013557 127 0 255
-0.337827 -0.387274 -0.262554 127 0 255
-0.116852 -0.362048 0.0193022 127 0 255
-0.082827 -0.46672 -0.0336739 127 0 255
-0.162827 -0.337274 -0.0750543 127 0 255
-0.0652757 -0.310022 -0.194584 127 0 255
-0.0700861 -0.16989 -0.241377 127 0 255
-0.187827 -0.337274 -0.137554 127 0 255
-0.300327 -0.487274 -0.150054 127 0 255
-0.0503269 -0.0747744 0.0124457 127 0 255
-0.0686549 -0.408484 -0.208021 127 0 255
-0.253078 -0.195625 0.00946098 127 0 255
-0.258083 -0.264337 -0.00352281 127 0 255
-0.150327 -0.349774 -0.287554 127 0 255
-0.0664874 -0.213997 -0.0992849 127 0 255
-0.152676 -0.142378 0.00774384 127 0 255
-0.362827 -0.387273 -0.0875542 127 0 255
-0.0651879 -0.21291 -0.0379544 127 0 255
-0.112827 -0.324774 -0.162554 127 0 255
-0.34374 -0.286703 0.0068865 127 0 255
-0.0793353 -0.410038 -0.269252 127 0 255
-0.344924 -0.45492 0.0048889 127 0 255
-0.193044 -0.273487 -0.00160075 127 0 255
-0.0693688 -0.282098 -0.0547105 127 0 255
-0.0737382 -0.261633 -0.152772 127 0 255
-0.0649139 -0.0771513 -0.0659607 127 0 255
-0.337827 -0.399774 -0.187554 127 0 255
-0.225327 -0.387274 -0.412554 127 0 255
-0.0700907 -0.110341 -0.241631 127 0 255
-0.112827 -0.349774 -0.237554 127 0 255
-0.325327 -0.449774 -0.0500543 127 0 255
-0.17848 -0.474268 -0.00183278 127 0 255
-0.300794 -0.409755 0.0118522 127 0 255
-0.0685394 -0.305348 -0.304442 127 0 255
-0.104196 -0.0770769 0.00535544 127 0 255
-0.387827 -0.487274 -0.0125543 127 0 255
-0.225327 -0.387274 -0.362554 127 0 255
-0.275327 -0.399774 -0.262554 127 0 255
-0.353946 -0.245246 -0.00710172 127 0 255
-0.0690504 -0.10745 -0.166488 127 0 255
-0.400327 -0.437274 -0.0500543 127 0 255
-0.0781147 -0.455274 -0.280839 127 0 255
-0.0687587 -0.392244 -0.316727 127 0 255
-0.0645633 -0.342109 -0.0365301 127 0 255
-0.070038 -0.216012 -0.287892 127 0 255
-0.20987 -0.39931 0.0097063 127 0 255
-0.175327 -0.337274 -0.0375543 127 0 255
-0.0682157 -0.403747 -0.00798761 127 0 255
-0.356995 -0.416152 0.0106558 127 0 255
-0.068943 -0.258423 -0.0186355 127 0 255
-0.136314 -0.248994 0.000770608 127 0 255
-0.342913 -0.365584 0.00647545 127 0 255
-0.284003 -0.206437 0.0074824 127 0 255
-0.296502 -0.127086 0.00948337 127 0 255
-0.0706089 -0.452899 -0.33329 127 0 255
-0.155266 -0.192806 0.0122849 127 0 255
-0.065114 -0.181612 -0.156049 127 0 255
-0.077574 -0.428834 -0.161884 127 0 255
-0.0761182 -0.137985 -0.300677 127 0 255
-0.0503269 -0.0622744 -0.150054 127 0 255
-0.0683634 -0.359934 -0.131379 127 0 255
-0.181743 -0.361778 -5.4389e-05 127 0 255
-0.0684707 -0.265662 -0.355642 127 0 255
-0.375327 -0.337272 -0.0875541 127 0 255
-0.0917289 -0.295062 -0.00105937 127 0 255
-0.187501 -0.137067 0.00793952 127 0 255
-0.0766751 -0.413268 -0.0945311 127 0 255
-0.0800868 -0.346573 -0.322497 127 0 255
-0.0684817 -0.136714 -0.081139 127 0 255
-0.0705355 -0.252694 -0.271562 127 0 255
-0.350306 -0.31916 -0.00638364 127 0 255
-0.270923 -0.306228 6.37656e-05 127 0 255
-0.325327 -0.374771 -0.0750541 127 0 255
-0.0667376 -0.291265 -0.156176 127 0 255
-0.06887 -0.475158 -0.252575 127 0 255
-0.096019 -0.472561 -0.00212668 127 0 255
-0.13759 -0.478646 -0.189247 127 0 255
-0.0664104 -0.39187 -0.232482 127 0 255
-0.137191 -0.37087 0.0185349 127 0 255
-0.0836797 -0.338824 -0.0855693 127 0 255
-0.165283 -0.0958147 0.00769963 127 0 255
-0.293514 -0.253643 0.00812505 127 0 255
-0.325327 -0.374774 -0.387554 127 0 255
-0.204282 -0.236598 0.000718412 127 0 255
-0.0658266 -0.357284 -0.280505 127 0 255
-0.254724 -0.151674 0.0106476 127 0 255
-0.221508 -0.457026 0.0134759 127 0 255
-0.312827 -0.487274 -0.112554 127 0 255
-0.0654222 -0.472604 -0.197353 127 0 255
-0.0729526 -0.123906 -0.025244 127 0 255
-0.101356 -0.337562 0.00072458 127 0 255
-0.102794 -0.408461 -0.00234631 127 0 255
-0.150327 -0.337274 -0.112554 127 0 255
-0.318014 -0.192853 0.00681003 127 0 255
-0.271885 -0.458184 0.00758121 127 0 255
-0.0669492 -0.196636 -0.210967 127 0 255
-0.0702519 -0.101272 -0.132503 127 0 255
-0.066313 -0.198 -0.117678 127 0 255
-0.282283 -0.481504 -0.0512698 127 0 255
-0.0503269 -0.474774 0.0124457 127 0 255
-0.0694539 -0.475609 -0.123938 127 0 255
-0.15196 -0.311488 0.0151222 127 0 255
-0.0765401 -0.395951 -0.0441125 127 0 255
-0.0710425 -0.365046 -0.358213 127 0 255
-0.132412 -0.457182 -0.000553419 127 0 255
-0.078793 -0.364439 -0.210985 127 0 255
-0.0730899 -0.18736 -0.269194 127 0 255
-0.333613 -0.153512 0.00923045 127 0 255
-0.264062 -0.358921 0.00299081 127 0 255
-0.0663146 -0.24172 -0.0928879 127 0 255
-0.125327 -0.349774 -0.0625543 127 0 255
-0.0707282 -0.302779 -0.0849988 127 0 255
-0.162827 -0.0497744 0.0124457 127 0 255
-0.0694084 -0.20133 -0.330069 127 0 255
-0.375327 -0.212271 0.0124459 127 0 255
-0.093253 -0.213393 0.0034268 127 0 255
-0.0627992 -0.278917 -0.200154 127 0 255
-0.300327 -0.399773 -0.200054 127 0 255
-0.0870352 -0.124597 0.0114066 127 0 255
-0.128414 -0.483349 -0.0638119 127 0 255
-0.0804002 -0.0635716 -0.0181998 127 0 255
-0.0703507 -0.405531 -0.124067 127 0 255
-0.0781007 -0.439411 -0.219843 127 0 255
-0.184939 -0.428447 0.0157995 127 0 255
-0.0705196 -0.279816 -0.297179 127 0 255
-0.071066 -0.308857 -0.241883 127 0 255
-0.0672612 -0.178241 -0.0209138 127 0 255
-0.375781 -0.4647 -0.0397846 127 0 255
-0.0679183 -0.44798 -0.0738659 127 0 255
-0.175327 -0.337274 -0.225054 127 0 255
-0.0693482 -0.143457 -0.210751 127 0 255
-0.229901 -0.332362 0.000444029 127 0 255
-0.0712738 -0.2461 -0.236112 127 0 255
-0.0671195 -0.380349 -0.162124 127 0 255
-0.322383 -0.407461 0.00756292 127 0 255
-0.233342 -0.182727 0.0128261 127 0 255
-0.325327 -0.212271 -0.062554 127 0 255
-0.242822 -0.240767 -0.000459837 127 0 255
-0.300327 -0.412274 -0.250054 127 0 255
-0.112827 -0.312274 -0.200054 127 0 255
-0.304307 -0.292891 0.0104832 127 0 255
-0.0640476 -0.230964 -0.186637 127 0 255
-0.0628269 -0.174774 -0.387554 127 0 255
-0.0766633 -0.311514 -0.366358 127 0 255
-0.269764 -0.116544 0.00510816 127 0 255
-0.0681622 -0.242597 -0.0573585 127 0 255
-0.0733537 -0.477836 -0.167653 127 0 255
-0.150327 -0.337274 -0.162554 127 0 255
-0.200327 -0.349774 -0.0750543 127 0 255
-0.0640806 -0.394206 -0.270487 127 0 255
-0.0727811 -0.292581 -0.115915 127 0 255
-0.166278 -0.161833 0.0129209 127 0 255
-0.325327 -0.124772 -0.0375541 127 0 255
-0.227283 -0.388635 -0.000235833 127 0 255
-0.0781696 -0.407225 -0.385784 127 0 255
-0.325327 -0.399772 -0.0500541 127 0 255
-0.137827 -0.337274 -0.250054 127 0 255
-0.165134 -0.392623 0.00708001 127 0 255
-0.136421 -0.218621 0.00793688 127 0 255
-0.066394 -0.191123 -0.0793639 127 0 255
-0.155564 -0.482999 0.0047204 127 0 255
-0.0772829 -0.318902 -0.288013 127 0 255
-0.0719905 -0.11733 -0.263655 127 0 255
-0.237827 -0.487274 -0.212554 127 0 255
-0.065982 -0.0898558 -0.0660599 127 0 255
-0.0789078 -0.386088 -0.335755 127 0 255
-0.0714207 -0.375142 -0.0630788 127 0 255
-0.246798 -0.434611 0.0125338 127 0 255
-0.184891 -0.215928 0.00670513 127 0 255
-0.351105 -0.221514 -0.0049662 127 0 255
-0.141263 -0.26958 -0.00167991 127 0 255
-0.065457 -0.219931 -0.147392 127 0 255
-0.0738322 -0.423621 -0.0407062 127 0 255
-0.337827 -0.374773 -0.200054 127 0 255
-0.275327 -0.487274 -0.125054 127 0 255
-0.29348 -0.170818 0.00884133 127 0 255
-0.0774257 -0.483479 -0.0849295 127 0 255
-0.0685293 -0.303741 -0.0287659 127 0 255
-0.223005 -0.100982 0.00478188 127 0 255
-0.362827 -0.312271 -0.0875541 127 0 255
-0.0729438 -0.440473 -0.35481 127 0 255
-0.0648689 -0.320574 -0.214934 127 0 255
-0.125327 -0.387274 -0.387554 127 0 255
-0.0610305 -0.453216 -0.282474 127 0 255
-0.354118 -0.354801 0.000681467 127 0 255
-0.0693102 -0.329554 -0.161835 127 0 255
-0.172562 -0.30789 0.0127972 127 0 255
-0.329523 -0.445895 0.00643008 127 0 255
-0.236546 -0.291402 0.0112196 127 0 255
-0.0784917 -0.437442 -0.109869 127 0 255
-0.0768203 -0.275804 -0.381127 127 0 255
-0.0709389 -0.154457 -0.175416 127 0 255
-0.299661 -0.380267 0.0113561 127 0 255
-0.347766 -0.265351 0.00451007 127 0 255
-0.0679024 -0.152485 -0.0946978 127 0 255
-0.106079 -0.165642 0.00651822 127 0 255
-0.146802 -0.108217 0.00838813 127 0 255
-0.0724964 -0.0478526 8.18242e-05 127 0 255
-0.147831 -0.449356 0.0174807 127 0 255
-0.0649281 -0.42318 -0.311834 127 0 255
-0.347382 -0.132839 -0.00474893 127 0 255
-0.311889 -0.326766 0.00614586 127 0 255
-0.147239 -0.34403 0.0136102 127 0 255
-0.0707842 -0.349123 -0.107924 127 0 255
-0.077527 -0.414588 -0.232313 127 0 255
-0.125327 -0.287274 -0.0375543 127 0 255
-0.0688386 -0.155592 -0.255777 127 0 255
-0.262827 -0.387274 -0.375054 127 0 255
-0.0920973 -0.253247 0.00104958 127 0 255
-0.0682961 -0.0974298 -0.180423 127 0 255
-0.187827 -0.487274 -0.225054 127 0 255
-0.06758 -0.220811 -0.312154 127 0 255
-0.325327 -0.33727 -0.050054 127 0 255
-0.0836655 -0.369974 0.00361819 127 0 255
-0.0836853 -0.473518 -0.0379766 127 0 255
-0.358283 -0.417507 -0.00479391 127 0 255
-0.0746209 -0.480809 -0.209788 127 0 255
-0.136706 -0.404121 0.0090417 127 0 255
-0.280784 -0.249867 0.00756584 127 0 255
-0.0633865 -0.253895 -0.173059 127 0 255
-0.295047 -0.447562 0.0099626 127 0 255
-0.175327 -0.349774 -0.262554 127 0 255
-0.337827 -0.374773 -0.237554 127 0 255
-0.0688965 -0.274483 -0.314311 127 0 255
-0.0955906 -0.448774 0.00192539 127 0 255
-0.0701379 -0.208484 -0.353737 127 0 255
-0.0643971 -0.229969 -0.242485 127 0 255
-0.0710496 -0.412258 -0.176693 127 0 255
-0.250327 -0.424774 -0.237554 127 0 255
-0.207355 -0.421706 -0.000293203 127 0 255
-0.0713389 -0.128934 -0.308571 127 0 255
-0.0653923 -0.20829 -0.0384628 127 0 255
-0.125327 -0.349774 -0.200054 127 0 255
-0.0714097 -0.333498 -0.0024245 127 0 255
-0.0700391 -0.188233 -0.195701 127 0 255
-0.0698379 -0.108396 -0.0456263 127 0 255
-0.0703261 -0.175744 -0.133651 127 0 255
-0.0781914 -0.361143 -0.281489 127 0 255
-0.0735065 -0.150832 8.51551e-05 127 0 255
-0.0706473 -0.118982 -0.216309 127 0 255
-0.0662965 -0.350149 -0.193184 127 0 255
-0.185852 -0.166741 0.00657472 127 0 255
-0.135066 -0.478015 -0.191687 127 0 255
-0.0628269 -0.0497744 -0.100054 127 0 255
-0.193812 -0.248134 0.00948223 127 0 255
-0.375327 -0.249772 -0.0875541 127 0 255
-0.0702424 -0.186935 -0.286164 127 0 255
-0.115602 -0.480525 -0.0504098 127 0 255
-0.194623 -0.304567 -0.00142727 127 0 255
-0.200327 -0.349774 -0.112554 127 0 255
-0.0713287 -0.275125 -0.102296 127 0 255
-0.0713928 -0.104478 -0.000416254 127 0 255
-0.350691 -0.315588 -0.00659477 127 0 255
-0.0702529 -0.274267 -0.253947 127 0 255
-0.125327 -0.349774 -0.0375543 127 0 255
-0.0675834 -0.100231 -0.129891 127 0 255
-0.26733 -0.332766 0.00958398 127 0 255
-0.076224 -0.373957 -0.380324 127 0 255
-0.20969 -0.461917 0.00493897 127 0 255
-0.191601 -0.354589 0.000733652 127 0 255
-0.0750853 -0.447597 -0.144522 127 0 255
-0.249026 -0.143995 0.00335008 127 0 255
-0.0819481 -0.457236 -0.259154 127 0 255
-0.244455 -0.219738 0.0090137 127 0 255
-0.281234 -0.481533 -0.0501605 127 0 255
-0.0680018 -0.2675 -0.0319088 127 0 255
-0.324768 -0.21773 0.00448777 127 0 255
-0.0637956 -0.0648624 -0.0393139 127 0 255
-0.0729344 -0.41555 -0.0732765 127 0 255
-0.0984457 -0.415511 0.00749961 127 0 255
-0.0688893 -0.302022 -0.175702 127 0 255
-0.0769923 -0.362183 -0.0448454 127 0 255
-0.110573 -0.13409 0.0113518 127 0 255
-0.0796608 -0.368665 -0.131001 127 0 255
-0.323683 -0.117755 0.00610826 127 0 255
-0.133832 -0.314517 0.0154781 127 0 255
-0.173981 -0.106827 0.00899236 127 0 255
-0.288988 -0.416425 0.0114638 127 0 255
-0.0682039 -0.298884 -0.0618071 127 0 255
-0.187827 -0.374774 -0.387554 127 0 255
-0.125327 -0.374774 -0.275054 127 0 255
-0.0701203 -0.303143 -0.323077 127 0 255
-0.0737754 -0.347322 -0.234409 127 0 255
-0.0974614 -0.477108 -0.0819538 127 0 255
-0.118148 -0.259532 0.00244975 127 0 255
-0.350327 -0.399773 -0.0875542 127 0 255
-0.23134 -0.26081 0.0108186 127 0 255
-0.125327 -0.0372744 0.0124457 127 0 255
-0.0814648 -0.352902 -0.326592 127 0 255
-0.0745697 -0.250102 -0.366382 127 0 255
-0.0670977 -0.172989 -0.0389783 127 0 255
-0.153284 -0.189165 0.0122621 127 0 255
-0.262827 -0.487274 -0.175054 127 0 255
-0.325327 -0.26227 -0.037554 127 0 255
-0.336355 -0.379596 0.00834066 127 0 255
-0.287827 -0.374774 -0.412554 127 0 255
-0.0687435 -0.12353 -0.0719906 127 0 255
-0.0994287 -0.190697 0.00471766 127 0 255
-0.0632582 -0.447344 -0.315225 127 0 255
-0.0739423 -0.386535 -0.20389 127 0 255
-0.0661772 -0.263606 -0.133953 127 0 255
-0.348561 -0.162285 -0.00506329 127 0 255
-0.164903 -0.471538 0.0171597 127 0 255
-0.250327 -0.399774 -0.212554 127 0 255
-0.0957764 -0.314166 0.000583386 127 0 255
-0.067799 -0.228595 -0.0773056 127 0 255
-0.283265 -0.215277 0.00625795 127 0 255
-0.0727222 -0.333212 -0.0761055 127 0 255
-0.0643143 -0.282122 -0.223606 127 0 255
-0.0712721 -0.34686 -0.36462 127 0 255
-0.0748895 -0.407315 -0.361672 127 0 255
-0.300327 -0.387274 -0.362554 127 0 255
-0.279709 -0.166168 0.00981833 127 0 255
-0.175327 -0.337274 -0.200054 127 0 255
-0.387827 -0.424774 -0.0875543 127 0 255
-0.148974 -0.265621 0.0152114 127 0 255
-0.357507 -0.434452 0.0112086 127 0 255
-0.259851 -0.456448 0.0114079 127 0 255
-0.0667493 -0.204909 -0.238295 127 0 255
-0.100181 -0.0991994 0.00465897 127 0 255
-0.224438 -0.197053 0.00855277 127 0 255
-0.28756 -0.298292 0.0123803 127 0 255
-0.325327 -0.437274 -0.0625542 127 0 255
-0.07134 -0.203866 -0.138842 127 0 255
-0.079319 -0.425332 -0.259371 127 0 255
-0.137827 -0.337274 -0.137554 127 0 255
-0.073148 -0.460352 -0.00169574 127 0 255
-0.0680122 -0.328713 -0.290434 127 0 255
-0.0674389 -0.303135 -0.131119 127 0 255
-0.0800498 -0.45327 -0.196136 127 0 255
-0.0727454 -0.382343 -0.0863853 127 0 255
-0.0688085 -0.250486 -0.278087 127 0 255
-0.229303 -0.331381 0.000454209 127 0 255
-0.0701046 -0.0882421 -0.150836 127 0 255
-0.242464 -0.401429 0.00457677 127 0 255
-0.0684556 -0.146764 -0.242538 127 0 255
-0.312827 -0.412274 -0.175054 127 0 255
-0.135489 -0.162498 0.00775531 127 0 255
-0.166491 -0.233419 0.0013691 127 0 255
-0.0760517 -0.423353 -0.0307294 127 0 255
-0.0760861 -0.40346 -0.139653 127 0 255
-0.340505 -0.290433 0.00664091 127 0 255
-0.0503269 -0.162274 -0.325054 127 0 255
-0.142313 -0.439666 0.00300859 127 0 255
-0.193031 -0.0948072 0.00874285 127 0 255
-0.297924 -0.355302 0.0020401 127 0 255
-0.37101 -0.461647 -0.0443943 127 0 255
-0.289 -0.119333 0.0100848 127 0 255
-0.0865228 -0.239919 0.00188338 127 0 255
-0.0684141 -0.475476 -0.09922 127 0 255
-0.169718 -0.374489 -0.00153087 127 0 255
-0.0689749 -0.17666 -0.0873036 127 0 255
-0.0632684 -0.379411 -0.260369 127 0 255
-0.11103 -0.382643 -0.000851766 127 0 255
-0.0693434 -0.234946 -0.214082 127 0 255
-0.0725342 -0.416122 -0.298738 127 0 255
-0.208944 -0.280284 -0.00107181 127 0 255
-0.0822692 -0.462313 -0.161131 127 0 255
-0.225327 -0.374774 -0.387554 127 0 255
-0.0675074 -0.359383 -0.0269931 127 0 255
-0.153695 -0.300239 -0.00164345 127 0 255
-0.0723962 -0.0716346 0.0056325 127 0 255
-0.068053 -0.132232 -0.0388568 127 0 255
-0.337827 -0.399774 -0.262554 127 0 255
-0.0503269 -0.0872744 -0.225054 127 0 255
-0.133562 -0.482647 -0.0589581 127 0 255
-0.0994015 -0.473227 -0.0013463 127 0 255
-0.0719884 -0.450212 -0.33937 127 0 255
-0.253755 -0.275915 0.0105363 127 0 255
-0.0700026 -0.167307 -0.175951 127 0 255
-0.22892 -0.170381 0.00849423 127 0 255
-0.070934 -0.143744 -0.279562 127 0 255
-0.0804674 -0.369689 -0.168289 127 0 255
-0.346199 -0.204692 -0.00380257 127 0 255
-0.0503269 -0.324774 -0.387554 127 0 255
-0.190424 -0.428876 0.0157798 127 0 255
-0.0690089 -0.413104 -0.198687 127 0 255
-0.0707414 -0.236287 -0.102626 127 0 255
-0.0765978 -0.18372 -0.00490861 127 0 255
-0.0686984 -0.264966 -0.356763 127 0 255
-0.0642492 -0.0695999 -0.0598098 127 0 255
-0.375327 -0.274772 -0.0875541 127 0 255
-0.375327 -0.362273 -0.0875542 127 0 255
-0.0696838 -0.293307 -0.277403 127 0 255
-0.234404 -0.463764 0.00697002 127 0 255
-0.126717 -0.122592 0.00682893 127 0 255
-0.0751249 -0.328092 -0.100724 127 0 255
-0.262827 -0.412274 -0.187554 127 0 255
-0.0763939 -0.321844 -0.200757 127 0 255
-0.365148 -0.449115 -0.00863802 127 0 255
-0.119299 -0.207394 0.00389355 127 0 255
-0.0677544 -0.147532 -0.106414 127 0 255
-0.125327 -0.337274 -0.287554 127 0 255
-0.0710255 -0.221279 -0.340636 127 0 255
-0.0777601 -0.437712 -0.0786765 127 0 255
-0.221379 -0.105343 0.00666824 127 0 255
-0.0669988 -0.167455 -0.21995 127 0 255
-0.327517 -0.35529 0.0073664 127 0 255
-0.175327 -0.337274 -0.162554 127 0 255
-0.387827 -0.462274 -0.0875543 127 0 255
-0.125327 -0.349774 -0.400054 127 0 255
-0.0648097 -0.205047 -0.172106 127 0 255
-0.0768255 -0.337311 -0.264872 127 0 255
-0.0710215 -0.42952 -0.127443 127 0 255
-0.0678599 -0.114378 -0.253116 127 0 255
-0.1749 -0.474426 -0.00196126 127 0 255
-0.295281 -0.250246 0.00707127 127 0 255
-0.0753301 -0.455474 -0.0340078 127 0 255
-0.0737142 -0.259341 -0.15398 127 0 255
-0.0503269 -0.487274 -0.225054 127 0 255
-0.0858092 -0.390375 -0.363833 127 0 255
-0.311661 -0.176048 0.00699877 127 0 255
-0.0671697 -0.285404 -0.0375502 127 0 255
-0.187827 -0.337274 -0.0750543 127 0 255
-0.276101 -0.429944 0.00639074 127 0 255
-0.141832 -0.364407 0.0174348 127 0 255
-0.0672947 -0.209026 -0.0526482 127 0 255
-0.287827 -0.487274 -0.112554 127 0 255
-0.066 -0.207797 -0.295715 127 0 255
-0.18527 -0.170026 0.0125113 127 0 255
-0.0692316 -0.469685 -0.275195 127 0 255
-0.0740204 -0.44961 -0.378124 127 0 255
-0.0698118 -0.329091 -0.141513 127 0 255
-0.0681678 -0.399392 -0.0109768 127 0 255
-0.337827 -0.112272 -0.0375541 127 0 255
-0.337827 -0.487274 -0.100054 127 0 255
-0.21738 -0.39285 -0.000665862 127 0 255
-0.254994 -0.130544 0.00389962 127 0 255
-0.0717681 -0.111698 -0.177707 127 0 255
-0.0682443 -0.383895 -0.311323 127 0 255
-0.0628734 -0.26687 -0.196059 127 0 255
-0.0503269 -0.174774 -0.375054 127 0 255
-0.162827 -0.374774 -0.387554 127 0 255
-0.0701931 -0.440845 -0.217409 127 0 255
-0.205157 -0.339454 0.00823849 127 0 255
-0.337368 -0.235186 0.00479806 127 0 255
-0.0757836 -0.392124 -0.236662 127 0 255
-0.114498 -0.454934 0.0141141 127 0 255
-0.354707 -0.388971 0.00544525 127 0 255
-0.153863 -0.401306 0.00917302 127 0 255
-0.325327 -0.387273 -0.175054 127 0 255
-0.162827 -0.0497744 0.0124457 127 0 255
-0.247558 -0.315268 0.00280526 127 0 255
-0.177848 -0.268959 0.000981186 127 0 255
-0.074347 -0.385195 -0.112325 127 0 255
-0.0828325 -0.265285 1.94336e-05 127 0 255
-0.307062 -0.388482 0.00143865 127 0 255
-0.329191 -0.443322 0.00646476 127 0 255
-0.0894281 -0.329278 0.0096915 127 0 255
-0.305365 -0.290542 0.00163361 127 0 255
-0.0760527 -0.136116 -0.301478 127 0 255
-0.262827 -0.399774 -0.262554 127 0 255
-0.179192 -0.205791 0.00609118 127 0 255
-0.200327 -0.487274 -0.175054 127 0 255
-0.256179 -0.183984 0.00961651 127 0 255
-0.0713549 -0.0979274 -0.0208285 127 0 255
-0.337827 -0.412274 -0.225054 127 0 255
-0.0699403 -0.177643 -0.121193 127 0 255
-0.139952 -0.0937475 0.00835428 127 0 255
-0.0641401 -0.182717 -0.276554 127 0 255
-0.0737778 -0.326754 -0.235091 127 0 255
-0.0741325 -0.294582 -0.375175 127 0 255
-0.0683858 -0.234959 -0.0352951 127 0 255
-0.078931 -0.34161 -0.0405031 127 0 255
-0.0722284 -0.413721 -0.326301 127 0 255
-0.0753269 -0.0247744 0.0124457 127 0 255
-0.260608 -0.247492 0.009469 127 0 255
-0.314043 -0.137106 0.00646277 127 0 255
-0.168854 -0.44319 0.016369 127 0 255
-0.0797755 -0.34289 -0.314101 127 0 255
-0.349557 -0.311376 -0.00641912 127 0 255
-0.137827 -0.337274 -0.0750543 127 0 255
-0.0731977 -0.392707 -0.0725622 127 0 255
-0.0711792 -0.47506 -0.145024 127 0 255
-0.131724 -0.230252 0.00641373 127 0 255
-0.0726247 -0.298686 -0.081482 127 0 255
-0.2858 -0.363394 0.0126345 127 0 255
-0.325327 -0.374771 -0.0625541 127 0 255
-0.0927298 -0.365164 0.00899099 127 0 255
-0.125327 -0.349774 -0.225054 127 0 255
-0.262827 -0.487274 -0.137554 127 0 255
-0.0696331 -0.14263 -0.201724 127 0 255
-0.0651817 -0.346866 -0.168693 127 0 255
-0.131801 -0.289355 0.00386076 127 0 255
-0.22364 -0.234641 0.00885499 127 0 255
-0.0763576 -0.150413 0.00414054 127 0 255
-0.20769 -0.2987 0.0091732 127 0 255
-0.0732316 -0.348666 -0.371027 127 0 255
-0.066875 -0.25185 -0.095917 127 0 255
-0.112827 -0.312274 -0.175054 127 0 255
-0.200327 -0.374774 -0.425054 127 0 255
-0.131222 -0.338495 0.00740861 127 0 255
-0.35337 -0.252855 -0.00685474 127 0 255
-0.217667 -0.41763 0.013442 127 0 255
-0.0647563 -0.232368 -0.244603 127 0 255
-0.076744 -0.447545 -0.284731 127 0 255
-0.0780702 -0.419387 -0.381616 127 0 255
-0.0655019 -0.290368 -0.180198 127 0 255
-0.0876538 -0.42807 0.000989751 127 0 255
-0.0697945 -0.307899 -0.318819 127 0 255
-0.325326 -0.31227 -0.037554 127 0 255
-0.0899719 -0.209907 -0.00237149 127 0 255
-0.200327 -0.487274 -0.225054 127 0 255
-0.0659339 -0.0879852 -0.0662626 127 0 255
-0.0767996 -0.433789 -0.154789 127 0 255
-0.362827 -0.312271 -0.0875541 127 0 255
-0.0768004 -0.370164 -0.222651 127 0 255
-0.0822505 -0.355642 -0.136827 127 0 255
-0.0734527 -0.304924 -0.00422105 127 0 255
-0.300327 -0.412274 -0.237554 127 0 255
-0.0687947 -0.0581156 0.0026186 127 0 255
-0.06857 -0.087521 -0.146511 127 0 255
-0.338139 -0.185356 0.00556662 127 0 255
-0.250327 -0.374774 -0.387554 127 0 255
-0.0672458 -0.466293 -0.0945297 127 0 255
-0.304895 -0.421991 0.00429872 127 0 255
-0.0692634 -0.202181 -0.335769 127 0 255
-0.315144 -0.329147 0.00251228 127 0 255
-0.0702988 -0.291316 -0.230973 127 0 255
-0.166087 -0.343372 0.00810799 127 0 255
-0.0660513 -0.13194 -0.0485967 127 0 255
-0.0726921 -0.243483 -0.146059 127 0 255
-0.069657 -0.185436 -0.200311 127 0 255
-0.325327 -0.23727 -0.037554 127 0 255
-0.0695674 -0.111407 -0.2059 127 0 255
-0.0695539 -0.211514 -0.0971797 127 0 255
-0.0848059 -0.365807 -0.337943 127 0 255
-0.139882 -0.43282 0.0174432 127 0 255
-0.0652579 -0.175587 -0.144648 127 0 255
-0.0705603 -0.280143 -0.296823 127 0 255
-0.0691931 -0.176515 -0.040605 127 0 255
-0.270102 -0.221657 0.00796605 127 0 255
-0.0659986 -0.381133 -0.290558 127 0 255
-0.320513 -0.117005 0.00595138 127 0 255
-0.175327 -0.349774 -0.250054 127 0 255
-0.0767588 -0.479269 -0.0593674 127 0 255
-0.169681 -0.159571 0.00751041 127 0 255
-0.0792314 -0.423982 -0.248184 127 0 255
-0.348728 -0.36111 0.00490724 127 0 255
-0.325327 -0.449774 -0.0500543 127 0 255
-0.069688 -0.401141 -0.161276 127 0 255
-0.0695898 -0.167842 -0.242159 127 0 255
