ply
format ascii 1.0
comment Created by Open3D
element vertex 1181
property double x
property double y
property double z
property uchar red
property uchar green
property uchar blue
end_header
-0.117079 -0.164168 -0.262097 81 173 255
0.138363 -0.441945 -0.20298 11 244 255
0.15714 -0.225598 0.156905 67 188 255
-0.0630682 -0.486139 -0.0335261 0 255 255
-0.0708404 -0.20385 -0.170342 72 183 255
0.159512 -0.242313 0.0276861 62 193 255
0.155939 -0.423668 0.178658 16 239 255
0.121604 -0.315774 0.126649 43 211 255
0.148182 -0.36767 -0.189716 30 225 255
-0.137619 -0.485761 0.0945417 0 255 255
-0.236807 -0.316122 -0.29024 43 211 255
-0.0767473 -0.423731 -0.148007 16 239 255
0.156405 -0.300012 0.0782712 47 208 255
-0.16002 -0.456761 -0.323625 7 248 255
0.0627235 -0.485146 -0.148544 0 255 255
-0.0524006 -0.485948 -0.115562 0 255 255
-0.144614 -0.486138 -0.198821 0 255 255
0.153532 -0.151907 0.135061 85 170 255
0.0148469 -0.149702 -0.308702 86 169 255
0.155662 -0.317562 -0.28582 43 211 255
0.054097 -0.485013 -0.239221 0 255 255
-0.0507007 -0.186544 0.200973 77 178 255
0.0658386 -0.430358 -0.234528 14 241 255
0.154765 -0.429264 0.0511301 14 241 255
-0.243221 -0.478213 -0.268603 2 253 255
-0.209109 -0.369204 -0.310603 30 225 255
0.157153 -0.20031 -0.0432163 73 182 255
0.0241831 -0.119587 0.207931 94 161 255
-0.0832507 -0.246145 -0.0125712 60 194 255
0.154026 -0.0256335 0.199875 118 137 255
0.157721 -0.195475 -0.217663 73 181 255
0.0766527 -0.29618 0.199733 48 207 255
0.106264 -0.485348 -0.271894 0 255 255
0.156777 -0.0323821 -0.0724358 116 139 255
0.116075 -0.484779 -0.0594803 0 255 255
0.147005 -0.44537 -0.133605 10 245 255
0.156228 -0.165373 0.0330111 81 173 255
-0.284477 -0.486243 -0.203206 0 255 255
-0.0873589 -0.228399 -0.247824 65 189 255
-0.0862524 -0.173085 -0.0784575 80 175 255
-0.0445238 -0.438083 -0.31316 12 243 255
0.0123829 -0.354827 -0.304518 32 222 255
-0.0818632 -0.485708 0.0645972 0 255 255
-0.0825871 -0.267109 -0.105659 56 199 255
-0.0628546 -0.485237 0.178973 0 255 255
0.0991035 -0.139395 0.195647 89 166 255
0.140493 -0.321279 -0.242455 42 213 255
-0.0804518 -0.108525 -0.218002 96 159 255
0.157197 -0.25536 0.0986192 59 195 255
0.00411213 -0.0941562 -0.306587 100 155 255
0.0549695 -0.485453 -0.0799777 0 255 255
-0.0915699 -0.167888 0.0375075 81 174 255
-0.284321 -0.486052 -0.0886454 0 255 255
0.156231 -0.329622 0.00888086 40 215 255
-0.28018 -0.333523 -0.193701 39 216 255
0.153243 -0.215893 0.201951 69 186 255
-0.235712 -0.45742 -0.320952 7 248 255
0.15622 -0.0419304 0.0370761 113 141 255
-0.203943 -0.486279 -0.0232445 0 255 255
0.0544841 -0.485372 0.173843 0 255 255
0.156538 -0.146832 -0.213082 87 168 255
0.157234 -0.248046 -0.241612 60 194 255
0.143328 -0.37118 -0.0989544 29 226 255
0.152761 -0.465666 -0.232817 5 250 255
-0.0699827 -0.291984 -0.202032 50 205 255
-0.264204 -0.486578 0.0108913 0 255 255
0.0736406 -0.158967 -0.311349 84 171 255
-0.355675 -0.329561 -0.18897 40 215 255
0.158826 -0.17906 0.127105 78 177 255
-0.194217 -0.486322 -0.138965 0 255 255
-0.0441763 -0.48513 -0.25028 0 255 255
-0.0190329 -0.346135 0.205981 36 219 255
-0.0164992 -0.485545 -0.142993 0 255 255
-0.0220649 -0.181941 -0.300846 78 177 255
0.157546 -0.113203 0.0890335 95 160 255
0.13607 -0.387775 0.162643 25 230 255
-0.153432 -0.133748 -0.316858 89 165 255
-0.291337 -0.342267 -0.256024 36 218 255
-0.083865 -0.0936051 -0.287045 100 155 255
-0.149792 -0.486007 -0.00234988 0 255 255
0.151079 -0.40254 0.200038 21 234 255
0.138927 -0.459689 -0.00487973 7 248 255
0.156016 -0.376478 -0.227291 28 227 255
0.15889 -0.0888041 -0.0287102 102 153 255
0.0569546 -0.485476 -0.020064 0 255 255
-0.0116615 -0.0469996 -0.301993 112 143 255
-0.0694265 -0.177658 -0.142505 79 176 255
-0.18109 -0.337021 -0.236208 38 217 255
-0.0194078 -0.270998 -0.307384 55 200 255
0.156002 -0.343729 -0.1432 36 219 255
0.159741 -0.163636 0.191184 81 173 255
-0.0383177 -0.252212 0.200738 60 195 255
-0.195987 -0.422957 -0.315625 16 239 255
-0.0513413 -0.394582 -0.304333 23 232 255
0.156011 -0.441277 0.134923 11 244 255
0.148755 -0.095972 -0.128715 100 155 255
-0.111946 -0.285717 -0.315612 51 204 255
0.140948 -0.346181 0.0859682 36 219 255
-0.190108 -0.249655 -0.310822 60 195 255
0.0408224 -0.30463 -0.31127 46 209 255
0.155145 -0.102754 0.167627 97 157 255
0.0687302 -0.465756 -0.317103 5 250 255
-0.0167843 -0.485797 0.127695 0 255 255
-0.11995 -0.460959 -0.267797 6 249 255
-0.0725177 -0.390697 -0.214517 24 231 255
0.150814 -0.36207 -0.28071 32 223 255
-0.0853311 -0.160072 -0.237822 83 172 255
-0.096683 -0.486119 -0.185687 0 255 255
0.129675 -0.051393 -0.284128 111 144 255
-0.0999374 -0.387422 0.0620462 25 230 255
-0.0351497 -0.136485 0.210852 89 166 255
0.0500626 -0.387422 0.162046 25 230 255
0.110632 -0.0281934 0.199511 117 138 255
0.155815 -0.0581757 -0.17428 109 146 255
0.0534031 -0.148452 0.19994 86 169 255
-0.069586 -0.122301 -0.132082 93 162 255
-0.0880679 -0.221295 -0.0530539 68 187 255
-0.166017 -0.331633 -0.313223 39 216 255
0.093542 -0.485406 0.0694832 0 255 255
0.156882 -0.294306 -0.147994 48 206 255
-0.0834583 -0.323208 -0.237003 42 213 255
-0.14002 -0.22023 -0.285465 68 187 255
-0.0845385 -0.486077 0.00860949 0 255 255
0.0723964 -0.485488 -0.192098 0 255 255
0.153761 -0.27731 -0.072944 52 202 255
0.15608 -0.352523 0.168098 34 221 255
0.158329 -0.152836 -0.0230993 85 170 255
0.142991 -0.18077 -0.256041 78 177 255
-0.250997 -0.375647 -0.291482 28 227 255
-0.0629898 -0.485965 -0.297666 0 255 255
-0.120279 -0.0909676 -0.317984 101 154 255
-0.397359 -0.348859 -0.154731 35 220 255
0.0375626 -0.312422 0.162046 44 211 255
-0.12878 -0.387113 -0.274986 25 230 255
0.0471735 -0.310255 -0.252529 44 210 255
-0.220294 -0.486186 -0.215131 0 255 255
0.00243619 -0.381133 0.197924 27 228 255
0.0410052 -0.0704345 0.206751 105 149 255
0.127354 -0.469068 0.184569 4 251 255
-0.0570661 -0.461825 0.208213 6 249 255
-0.015157 -0.485859 -0.0688372 0 255 255
0.156159 -0.394617 -0.0649306 23 232 255
0.000844853 -0.485711 0.0388954 0 255 255
0.156732 -0.207948 -0.086266 71 184 255
0.121852 -0.408513 -0.298757 20 235 255
-0.241823 -0.347086 -0.200822 35 220 255
-0.0650299 -0.294447 -0.163999 48 206 255
-0.164714 -0.485086 0.185295 0 255 255
-0.0802499 -0.0826299 -0.161397 103 152 255
0.157465 -0.234656 -0.194003 64 191 255
-0.188564 -0.167304 -0.313706 81 174 255
-0.0746911 -0.42523 -0.286043 15 240 255
0.159576 -0.179332 0.0890739 78 177 255
0.0201875 -0.217129 -0.308164 69 186 255
0.1563 -0.309665 -0.207272 44 210 255
0.13753 -0.249095 -0.283807 60 194 255
0.15356 -0.0372296 -0.216771 115 140 255
0.157769 -0.0421344 0.159555 113 142 255
-0.0900993 -0.128656 -0.0469915 91 163 255
-0.0851973 -0.485957 0.104326 0 255 255
-0.191287 -0.486254 -0.0891252 0 255 255
-0.227998 -0.486542 0.0644091 0 255 255
0.156089 -0.30837 0.0456019 44 210 255
0.118238 -0.484582 -0.12485 0 255 255
0.155508 -0.446343 -0.26153 10 245 255
0.138796 -0.296137 0.192676 48 207 255
0.0274467 -0.454377 0.200579 8 247 255
0.152548 -0.460553 0.200358 6 249 255
0.156212 -0.413629 -0.0153898 18 237 255
0.0461902 -0.0989527 -0.30432 99 156 255
-0.0776798 -0.327985 -0.119081 40 215 255
0.0514943 -0.398998 -0.255756 22 233 255
-0.0685484 -0.241092 -0.202715 63 192 255
-0.0448163 -0.345897 -0.305065 36 219 255
0.156949 -0.0517105 -0.115564 111 144 255
-0.0579916 -0.160046 -0.311257 83 172 255
-0.0332153 -0.320614 0.200736 42 213 255
-0.326603 -0.469599 -0.187641 4 251 255
0.135477 -0.107023 0.204741 97 158 255
-0.154354 -0.485993 -0.248365 0 255 255
-0.132311 -0.0999784 -0.278842 99 156 255
0.050367 -0.25885 -0.262375 58 197 255
0.147318 -0.400987 -0.14353 22 233 255
0.156215 -0.41504 0.111682 18 237 255
-0.261499 -0.43995 -0.295122 12 243 255
-0.272854 -0.486397 -0.125973 0 255 255
0.110382 -0.485326 0.00527463 0 255 255
-0.104635 -0.339313 0.0228321 36 218 255
-0.0829428 -0.261423 -0.290259 56 198 255
0.0793643 -0.414832 0.199334 18 237 255
0.156674 -0.358653 0.0326466 32 223 255
0.158594 -0.132653 0.151027 89 165 255
-0.0145278 -0.192612 0.207926 75 179 255
-0.142646 -0.391408 -0.317378 24 231 255
-0.053688 -0.485867 -0.201524 0 255 255
0.156151 -0.243675 -0.000116078 62 193 255
0.116546 -0.191148 0.199477 75 179 255
0.102149 -0.0115396 -0.289398 121 134 255
0.0856038 -0.321942 -0.312001 42 213 255
-0.170193 -0.486284 0.0330586 0 255 255
-0.0964558 -0.486096 -0.116869 0 255 255
0.157327 -0.305482 -0.0452267 46 209 255
0.156829 -0.109247 -0.165116 96 159 255
0.130918 -0.45794 -0.311668 7 248 255
-0.0999374 -0.0624224 0.0120461 108 147 255
0.142482 -0.0830286 -0.256227 103 152 255
-0.336774 -0.357788 -0.174815 32 222 255
-0.0539803 -0.0692461 -0.297455 107 147 255
0.156415 -0.244792 0.185089 62 193 255
0.154756 -0.407916 -0.281821 20 235 255
5.31636e-05 -0.485794 -0.25103 0 255 255
-0.108411 -0.484899 0.192474 0 255 255
-0.229191 -0.486246 0.128103 0 255 255
0.091796 -0.129948 -0.311194 91 163 255
-0.0335795 -0.097178 0.206598 99 156 255
-0.0865746 -0.340659 -0.275513 36 218 255
0.157617 -0.0432185 0.111813 113 142 255
-0.0874374 -0.299922 0.0620462 48 207 255
0.157754 -0.0592069 0.014293 109 146 255
-0.404192 -0.384697 -0.158543 26 229 255
0.1526 -0.344844 0.200157 36 219 255
0.0287399 -0.485378 -0.135786 0 255 255
-0.121521 -0.485962 -0.0436778 0 255 255
0.120453 -0.339131 0.11934 36 218 255
0.156879 -0.185286 -0.1208 77 178 255
-0.15604 -0.485935 -0.14728 0 255 255
0.057595 -0.337059 0.199644 38 217 255
0.156647 -0.328174 0.13011 40 215 255
0.15521 -0.451106 0.0361074 9 246 255
-0.096482 -0.418206 0.0114607 17 238 255
-0.190023 -0.464952 -0.300658 5 250 255
0.156088 -0.443907 -0.113229 11 244 255
0.156101 -0.156174 -0.282932 84 171 255
-0.0589654 -0.356001 -0.1769 32 222 255
0.126195 -0.485403 -0.201746 0 255 255
-0.135588 -0.486217 0.139811 0 255 255
-0.0909057 -0.235992 0.0250041 64 191 255
-0.0457207 -0.48554 0.0496995 0 255 255
0.156652 -0.322054 -0.0945662 42 213 255
-0.159703 -0.0835369 -0.315718 103 152 255
0.00983328 -0.485703 -0.0169126 0 255 255
0.13453 -0.434378 -0.0798213 13 242 255
-0.0756089 -0.239775 -0.150933 63 192 255
-0.142983 -0.273044 -0.290804 54 201 255
0.154216 -0.0818981 0.201385 103 152 255
0.136217 -0.30333 -0.26364 47 208 255
0.0484643 -0.483826 0.125223 0 255 255
-0.261626 -0.486231 -0.170993 0 255 255
-0.0796887 -0.207703 -0.311056 71 184 255
0.160764 -0.197997 0.0287786 73 181 255
-0.125176 -0.443406 -0.319012 11 244 255
-0.00278652 -0.401031 0.205185 22 233 255
-0.0804714 -0.421528 -0.210158 16 239 255
-0.078432 -0.138486 0.0234282 89 166 255
0.156589 -0.236514 -0.114993 64 191 255
0.158026 -0.228413 0.128772 65 189 255
0.0940408 -0.485323 -0.243815 0 255 255
-0.0999374 -0.0499224 -0.225454 112 143 255
-0.276778 -0.486138 -0.232461 0 255 255
0.157589 -0.138215 -0.0867101 89 166 255
-0.0365759 -0.243023 0.210672 62 193 255
-0.0699433 -0.132966 -0.185668 89 165 255
0.114351 -0.255702 0.199868 59 195 255
0.156047 -0.358707 0.0850201 32 223 255
-0.0406029 -0.485473 0.182345 0 255 255
0.103133 -0.48518 0.168032 0 255 255
-0.116549 -0.341217 -0.319295 36 218 255
-0.226643 -0.486342 -0.0615301 0 255 255
0.157446 -0.0766123 0.0658148 105 150 255
-0.0812297 -0.182126 -0.123282 78 177 255
-0.04361 -0.297663 -0.306344 48 207 255
-0.0538662 -0.485916 -0.0678242 0 255 255
0.0713159 -0.485416 0.0249552 0 255 255
0.0284286 -0.43078 -0.298347 14 241 255
0.157543 -0.0788035 -0.0667615 104 151 255
0.15641 -0.227834 -0.276089 65 189 255
0.0666407 -0.0373992 -0.308182 115 140 255
-0.00875325 -0.48548 -0.184845 0 255 255
0.0618533 -0.213186 0.200565 70 185 255
0.0449614 -0.484686 -0.263376 0 255 255
0.158833 -0.110567 0.0182085 96 159 255
0.153328 -0.272807 0.147434 54 201 255
0.146519 -0.224219 -0.17448 67 188 255
0.137597 -0.357553 0.165561 32 222 255
-0.0999374 -0.387422 -0.0754538 25 230 255
-0.0314159 -0.109152 -0.312868 96 159 255
0.141903 -0.453322 -0.16402 8 247 255
0.155935 -0.362824 -0.0106263 31 224 255
0.159049 -0.223792 -0.0348423 67 188 255
-0.172286 -0.486027 -0.21243 0 255 255
0.15432 -0.460396 0.175012 6 249 255
-0.0453608 -0.163426 0.201659 81 173 255
-0.262306 -0.486049 -0.294055 0 255 255
0.0399027 -0.361404 -0.308429 32 223 255
-0.126688 -0.177862 -0.301115 79 176 255
0.156074 -0.382374 -0.171936 26 229 255
-0.0249374 -0.387422 -0.250454 25 230 255
0.104112 -0.484573 0.12113 0 255 255
-0.191394 -0.374652 -0.312732 28 227 255
-0.0883276 -0.264118 -0.0643614 56 198 255
-0.182184 -0.48638 0.0683314 0 255 255
0.148598 -0.130128 -0.243407 91 163 255
0.0579582 -0.384491 -0.22894 26 229 255
0.00414019 -0.485671 0.0688272 0 255 255
0.0243417 -0.0770859 -0.316946 105 150 255
0.0513365 -0.263051 -0.310419 56 198 255
0.0625626 -0.0249224 0.212046 118 137 255
0.0904846 -0.326654 0.197625 40 214 255
0.15632 -0.134821 0.105156 89 165 255
-0.0428398 -0.451077 -0.312833 9 246 255
0.146291 -0.468715 -0.0588658 4 251 255
0.0929254 -0.129051 0.200206 91 163 255
-0.102696 -0.384858 -0.317173 26 229 255
-0.0335972 -0.486014 0.00310471 0 255 255
0.134787 -0.378419 0.202159 27 228 255
0.157459 -0.220976 0.0796723 68 187 255
-0.368663 -0.336008 -0.156366 38 217 255
-0.0128517 -0.485981 -0.0977001 0 255 255
-0.0963163 -0.432547 -0.269117 14 241 255
-0.313521 -0.340598 -0.205182 36 218 255
-0.0874556 -0.199767 -0.0670739 73 182 255
-0.115332 -0.486143 0.0375896 0 255 255
-0.249937 -0.437422 -0.150454 12 243 255
0.156089 -0.279726 0.0130966 52 202 255
-0.0279587 -0.435259 0.201872 13 242 255
-0.114885 -0.32221 -0.268239 42 213 255
0.14977 -0.32796 -0.162008 40 215 255
-0.100557 -0.312096 0.017604 44 211 255
0.0579105 -0.485173 -0.0855343 0 255 255
-0.0908238 -0.152502 -0.02151 85 170 255
-0.129823 -0.485911 -0.0831663 0 255 255
-0.0757293 -0.081401 -0.200368 103 152 255
-0.198159 -0.206143 -0.311891 72 183 255
-0.236141 -0.318908 -0.293168 43 211 255
0.155602 -0.399418 0.025472 22 233 255
0.156449 -0.030057 -0.0463599 117 138 255
-0.00923759 -0.485287 0.154127 0 255 255
-0.0175756 -0.29888 0.208004 48 207 255
-0.0499374 -0.0374224 -0.312954 115 140 255
0.155813 -0.0819987 -0.229201 103 152 255
0.157005 -0.161286 -0.159272 83 172 255
-0.0054757 -0.06941 0.206229 107 147 255
0.155834 -0.404139 -0.112277 21 234 255
-0.136692 -0.234197 -0.316014 64 191 255
-0.245246 -0.48654 0.0431718 0 255 255
-0.257774 -0.398032 -0.28986 22 233 255
-0.249556 -0.349524 -0.176842 35 220 255
0.134246 -0.157966 -0.295879 84 171 255
0.132882 -0.485421 0.0360242 0 255 255
0.051967 -0.485494 -0.203222 0 255 255
-0.0660674 -0.390616 -0.163223 24 231 255
-0.287664 -0.486368 -0.0812334 0 255 255
-0.0675777 -0.485532 0.125031 0 255 255
6.26276e-05 -0.324922 0.124546 40 214 255
0.137164 -0.0561653 -0.29708 110 145 255
-0.134817 -0.474774 -0.309965 3 252 255
-0.0450718 -0.248582 -0.29589 60 194 255
0.156395 -0.323002 -0.244515 42 213 255
0.0371265 -0.20862 -0.286682 71 184 255
-0.0840514 -0.485806 -0.24134 0 255 255
0.0421815 -0.117322 0.19999 94 161 255
-0.19853 -0.48617 -0.167329 0 255 255
0.148408 -0.268373 -0.209454 56 199 255
0.0510412 -0.437662 -0.23042 12 243 255
0.155859 -0.308901 0.197351 44 210 255
0.0633158 -0.323983 -0.23638 40 214 255
-0.0874374 -0.0999224 0.0620462 99 156 255
0.138686 -0.0391371 0.207902 113 141 255
-0.0934382 -0.123648 -0.31416 93 162 255
0.14536 -0.432051 0.164543 14 241 255
-0.180903 -0.338897 -0.236694 38 217 255
0.156388 -0.348424 -0.091209 35 220 255
-0.100757 -0.181963 -0.25827 78 177 255
0.0976812 -0.409237 -0.311207 20 235 255
0.0735052 -0.264566 0.200624 56 198 255
0.0445913 -0.400436 0.199999 22 233 255
-0.0483578 -0.485905 -0.145209 0 255 255
-0.345154 -0.460512 -0.184071 6 249 255
0.155455 -0.405467 -0.247426 20 235 255
0.0915094 -0.485015 -0.160012 0 255 255
-0.223715 -0.485842 -0.240046 0 255 255
0.15638 -0.200683 -0.0106801 73 182 255
-0.294867 -0.34361 -0.251773 36 219 255
-0.0963148 -0.39351 0.0290362 24 231 255
0.143322 -0.14718 0.178899 87 168 255
0.154542 -0.280563 -0.124178 52 203 255
0.0808771 -0.485355 -0.0437643 0 255 255
-0.0711016 -0.3228 -0.202678 42 213 255
0.155499 -0.43929 0.101527 12 243 255
0.0190213 -0.15012 -0.309033 86 169 255
-0.0478803 -0.133366 0.191671 89 165 255
-0.0874374 -0.0499224 -0.112954 112 143 255
-0.0874374 -0.0749224 -0.0254538 105 150 255
0.15614 -0.136217 -0.0538184 89 166 255
0.157344 -0.303458 0.092134 47 208 255
0.15512 -0.0203049 -0.123419 119 136 255
-0.0584867 -0.433652 -0.194049 13 242 255
0.0945857 -0.457392 0.196834 7 248 255
-0.0877512 -0.132496 -0.24005 89 165 255
-0.0850033 -0.486108 -0.0361866 0 255 255
0.0341321 -0.29895 0.200918 48 207 255
-0.00700874 -0.311461 -0.307077 44 210 255
0.143035 -0.374052 -0.0569023 29 226 255
-0.0975485 -0.30561 -0.316254 46 209 255
-0.0837947 -0.250726 -0.230233 60 195 255
-0.0999191 -0.486007 -0.149545 0 255 255
0.0590469 -0.480587 0.167277 1 254 255
0.0898269 -0.3826 0.197743 26 229 255
-0.190421 -0.425004 -0.316144 15 240 255
0.144931 -0.225859 -0.244552 65 189 255
0.157243 -0.0456207 0.0691304 113 142 255
0.140424 -0.203548 0.185562 72 183 255
0.156002 -0.430767 -0.062245 14 241 255
-0.0811941 -0.130461 -0.126353 91 163 255
0.138084 -0.445245 -0.203626 10 245 255
0.0817139 -0.293132 -0.313106 48 206 255
0.00267175 -0.485331 -0.210738 0 255 255
-0.0817259 -0.435748 -0.316427 13 242 255
0.156026 -0.312626 -0.024419 44 211 255
0.15127 -0.386285 0.126748 25 230 255
0.157405 -0.0956964 0.141621 100 155 255
0.140025 -0.112588 -0.286081 95 160 255
0.157108 -0.188435 -0.181874 76 179 255
-0.0903498 -0.197592 0.0106411 73 181 255
-0.137025 -0.412508 -0.281607 19 236 255
0.0103427 -0.355933 0.202413 32 222 255
-0.21344 -0.48645 -0.111926 0 255 255
-0.0769951 -0.264585 -0.106709 56 198 255
-0.164854 -0.100518 -0.317968 99 156 255
0.139055 -0.472825 -0.31503 3 252 255
0.0101976 -0.463024 0.201211 6 249 255
-0.116206 -0.485907 -0.221058 0 255 255
0.155122 -0.453078 -0.00275105 8 247 255
0.115593 -0.484889 -0.088701 0 255 255
-0.00498466 -0.145115 0.207493 87 168 255
-0.211192 -0.333837 -0.309341 39 216 255
-0.0408336 -0.199988 -0.307719 73 182 255
-0.299937 -0.424922 -0.150454 16 239 255
-0.0864309 -0.159997 -0.0729573 83 172 255
-0.0763578 -0.146634 0.0506253 87 168 255
0.0625626 -0.424922 0.149546 16 239 255
0.0479413 -0.24185 -0.261593 62 193 255
0.151664 -0.471397 -0.24919 4 251 255
0.157504 -0.134389 -0.119767 89 165 255
0.143641 -0.0304656 -0.235284 116 139 255
0.15845 -0.262091 -0.0422343 56 198 255
-0.0392112 -0.374356 -0.304322 28 227 255
-0.132944 -0.485974 0.123954 0 255 255
0.0139032 -0.485643 -0.275142 0 255 255
-0.0865654 -0.377033 -0.252925 28 227 255
-0.227827 -0.486055 -0.285986 0 255 255
-0.0999374 -0.0499224 -0.162954 112 143 255
0.158063 -0.107294 -0.0289563 97 158 255
0.0945705 -0.485341 0.0897718 0 255 255
0.14772 -0.176618 0.204968 79 176 255
0.121844 -0.485353 -0.00996162 0 255 255
0.15435 -0.42771 0.0592392 15 240 255
0.144997 -0.466565 -0.147485 5 250 255
-0.191656 -0.17399 -0.313302 80 175 255
-0.122273 -0.121938 -0.258333 93 162 255
0.153819 -0.149667 -0.2093 86 169 255
-0.131999 -0.486192 0.0105483 0 255 255
-0.105482 -0.289242 -0.271957 50 205 255
0.150945 -0.260334 -0.151731 58 197 255
-0.303506 -0.345469 -0.170539 36 219 255
0.156396 -0.166687 0.107298 81 173 255
0.157087 -0.296568 0.155091 48 207 255
0.0133054 -0.057748 -0.291515 109 146 255
-0.0811214 -0.0936503 -0.313678 100 155 255
0.151788 -0.0503087 -0.0952836 111 144 255
0.143637 -0.0951627 0.190322 100 155 255
-0.0738375 -0.192989 -0.160876 75 179 255
-0.157678 -0.485495 0.18466 0 255 255
-0.233329 -0.486493 -0.15144 0 255 255
0.0414459 -0.485632 -0.153525 0 255 255
0.155654 -0.321918 -0.284048 42 213 255
0.157225 -0.226828 0.0442466 65 189 255
-0.140989 -0.348361 -0.314798 35 220 255
0.144791 -0.428633 0.201724 15 240 255
0.155616 -0.070189 -0.186739 105 149 255
0.0479597 -0.485206 -0.0377688 0 255 255
0.121543 -0.305599 0.201166 46 209 255
-0.0702255 -0.46126 0.199743 6 249 255
0.124451 -0.328314 0.131113 40 215 255
-0.0716741 -0.282087 -0.168136 52 203 255
-0.145553 -0.486172 -0.182826 0 255 255
0.0619005 -0.165226 -0.310981 81 173 255
0.156955 -0.0388268 -0.0218518 113 141 255
0.0426318 -0.148029 0.201004 86 169 255
0.157386 -0.237267 -0.0809302 64 191 255
-0.401607 -0.385291 -0.153678 26 229 255
0.146289 -0.38272 0.0256762 26 229 255
0.158164 -0.0991231 0.080718 99 156 255
0.143928 -0.334286 -0.194735 39 216 255
0.144109 -0.466902 0.155742 5 250 255
-0.062572 -0.486056 0.0872292 0 255 255
0.00628288 -0.24911 -0.3067 60 194 255
-0.172198 -0.458422 -0.323784 7 248 255
-0.0336865 -0.485262 -0.240475 0 255 255
-0.139 -0.147475 -0.314739 87 168 255
-0.219843 -0.486449 0.0859537 0 255 255
-0.0281219 -0.350162 0.201095 35 220 255
0.00594649 -0.485656 0.110721 0 255 255
-0.260246 -0.486373 -0.0733046 0 255 255
0.0179061 -0.411773 -0.302792 19 236 255
0.107631 -0.233402 0.200658 65 190 255
-0.080454 -0.384853 -0.188449 26 229 255
0.142391 -0.282448 -0.240476 52 203 255
-0.393327 -0.333208 -0.168087 39 216 255
-0.00873394 -0.42304 0.193694 16 239 255
0.151928 -0.371645 -0.280735 29 226 255
-0.284542 -0.486268 -0.180907 0 255 255
-0.0225743 -0.27773 0.209592 52 202 255
-0.0608044 -0.140004 -0.312435 88 167 255
-0.0269846 -0.18298 0.210284 77 178 255
-0.122706 -0.203928 -0.315066 72 183 255
-0.0811497 -0.113149 -0.15925 95 160 255
-0.0390954 -0.485869 -0.0267305 0 255 255
-0.257026 -0.34429 -0.285044 36 219 255
0.156129 -0.362932 0.180172 31 224 255
0.14935 -0.484025 0.196982 0 255 255
0.15801 -0.252357 0.119163 60 195 255
-0.184056 -0.485738 -0.260203 0 255 255
-0.0906915 -0.239239 0.0207982 63 192 255
-0.235588 -0.351436 -0.191793 34 221 255
0.157961 -0.0427439 0.13881 113 142 255
0.156477 -0.162761 -0.0465472 83 172 255
0.0210666 -0.485641 0.00922911 0 255 255
-0.143417 -0.337255 -0.249576 38 217 255
0.0369859 -0.338386 -0.293152 38 217 255
0.156252 -0.361518 -0.140678 32 223 255
0.13703 -0.402763 -0.0445778 21 234 255
-0.259193 -0.435233 -0.296078 13 242 255
0.14026 -0.19332 -0.268938 75 179 255
0.0406815 -0.446216 0.200065 10 245 255
0.156094 -0.409146 0.151562 20 235 255
0.0719192 -0.483102 -0.298214 1 254 255
-0.0999374 -0.437422 -0.0504539 12 243 255
0.158496 -0.144585 0.15197 87 168 255
-0.0779738 -0.486137 0.14206 0 255 255
-0.121194 -0.24781 -0.276649 60 194 255
0.152107 -0.201217 -0.138055 73 182 255
0.00534991 -0.107105 0.201995 97 158 255
-0.0628388 -0.281704 -0.307182 52 203 255
-0.0355782 -0.0696256 -0.312593 105 149 255
0.0500626 -0.362422 0.149546 32 223 255
-0.289793 -0.471414 -0.240507 4 251 255
0.149127 -0.354928 0.0548127 32 222 255
0.150163 -0.100758 -0.123036 97 157 255
0.156305 -0.411244 -0.17166 19 236 255
-0.0529925 -0.485899 -0.185202 0 255 255
0.141619 -0.132388 0.20629 89 165 255
-0.0346736 -0.485097 0.203124 0 255 255
0.0967983 -0.485435 0.0417949 0 255 255
-0.09437 -0.130266 -0.0175502 91 163 255
-0.0813808 -0.260503 -0.0532786 58 197 255
0.156757 -0.305731 -0.107223 46 209 255
0.124208 -0.485109 0.122733 0 255 255
-0.359581 -0.329943 -0.188546 40 215 255
0.156353 -0.19135 0.0230452 75 179 255
-0.0836942 -0.304943 -0.229913 46 209 255
0.156572 -0.231438 0.177625 65 190 255
0.159186 -0.266689 0.0111178 56 199 255
-0.116916 -0.486188 0.0590904 0 255 255
-0.0531088 -0.485967 -0.0889839 0 255 255
0.142685 -0.472179 -0.126803 3 252 255
-0.0681736 -0.239931 -0.198459 63 192 255
-0.0115434 -0.125685 -0.306889 92 163 255
0.159147 -0.206256 0.0979887 71 184 255
0.155161 -0.382848 0.0961485 26 229 255
-0.198368 -0.486269 -0.0784497 0 255 255
0.156504 -0.337774 -0.0497154 38 217 255
-0.133104 -0.48609 -0.140848 0 255 255
-0.00861712 -0.474755 -0.317237 3 252 255
0.157356 -0.0951515 0.0417766 100 155 255
-0.102111 -0.452695 -0.316683 8 247 255
-0.0741458 -0.485688 0.0158283 0 255 255
-0.0776572 -0.340387 -0.306318 36 218 255
0.0198521 -0.0586336 0.200811 109 146 255
0.0411014 -0.420755 -0.221283 17 238 255
-0.062755 -0.316446 -0.167231 43 211 255
0.0224276 -0.485719 -0.0701091 0 255 255
-0.118662 -0.485852 -0.256107 0 255 255
-0.204067 -0.486121 -0.20161 0 255 255
0.137598 -0.437076 -0.245706 12 243 255
-0.209779 -0.358923 -0.226824 32 223 255
-0.104833 -0.343716 0.018057 36 219 255
0.153346 -0.0349915 0.201649 115 140 255
0.0534564 -0.276115 -0.264157 54 201 255
0.150608 -0.46515 -0.0794381 5 250 255
-0.0999374 -0.0624224 -0.0629538 108 147 255
-0.387437 -0.437422 -0.150454 12 243 255
-0.00258241 -0.485455 -0.152316 0 255 255
-0.0874374 -0.0624224 0.0370462 108 147 255
-0.172819 -0.384031 -0.305289 26 229 255
0.0618962 -0.220433 0.201499 68 187 255
0.152248 -0.297972 -0.181619 48 207 255
-0.0441327 -0.106478 0.201467 97 158 255
0.114172 -0.485323 -0.186395 0 255 255
-0.176259 -0.486128 0.043196 0 255 255
-0.128842 -0.0999592 -0.278356 99 156 255
0.157616 -0.2247 -0.210947 67 188 255
0.156371 -0.1989 -0.090381 73 182 255
-0.287437 -0.487422 0.0870461 0 255 255
-0.108336 -0.261413 -0.315797 56 198 255
0.155834 -0.41997 -0.0212015 17 238 255
0.0635685 -0.37648 -0.297844 28 227 255
-0.0048977 -0.191481 -0.307488 75 179 255
0.138516 -0.0650015 -0.29497 108 147 255
0.155206 -0.456897 0.129204 7 248 255
0.158348 -0.0582228 0.00385644 109 146 255
0.125549 -0.357012 0.201552 32 222 255
0.046569 -0.343979 0.200453 36 219 255
-0.0977571 -0.415134 0.00906224 18 237 255
-0.0874374 -0.262422 0.0620462 56 198 255
0.157493 -0.103818 -0.0805498 97 157 255
-0.0547408 -0.197747 0.206936 73 181 255
0.0702587 -0.485168 0.183257 0 255 255
0.0322179 -0.0958611 -0.315155 100 155 255
0.156011 -0.314841 0.013988 44 211 255
0.146549 -0.412337 -0.287606 19 236 255
0.0294795 -0.458247 -0.312514 7 248 255
-0.151999 -0.211003 -0.316287 70 185 255
0.156636 -0.330867 0.134394 40 215 255
-0.0891509 -0.198088 -0.0449785 73 181 255
0.0775089 -0.485325 -0.107982 0 255 255
0.137233 -0.334145 -0.257584 39 216 255
-0.0745521 -0.0872315 -0.206275 102 153 255
0.156647 -0.269628 0.186722 55 200 255
-0.134639 -0.319704 -0.3149 42 213 255
0.0655241 -0.485616 -0.213259 0 255 255
-0.122142 -0.485887 -0.098226 0 255 255
0.15476 -0.458544 -0.185099 7 248 255
-0.103878 -0.192762 -0.261543 75 179 255
-0.214425 -0.433122 -0.313493 13 242 255
0.00514247 -0.485231 0.0565275 0 255 255
-0.0736154 -0.171845 -0.116922 80 175 255
0.10254 -0.485351 -0.272267 0 255 255
0.011917 -0.280199 -0.307126 52 202 255
0.115238 -0.412553 -0.311264 19 236 255
-0.341585 -0.355945 -0.196907 32 222 255
0.146556 -0.0699627 -0.203778 105 149 255
0.0975888 -0.288202 0.19704 51 204 255
0.144444 -0.066894 0.189253 107 147 255
-0.0689984 -0.237653 -0.155268 63 192 255
-0.113398 -0.486182 -0.0197694 0 255 255
-0.0188206 -0.237547 0.206791 63 192 255
0.156994 -0.272199 0.0982143 55 200 255
0.0819512 -0.126831 -0.310474 92 163 255
0.154699 -0.179112 0.169631 78 177 255
0.15385 -0.279031 -0.0806257 52 202 255
0.153453 -0.454669 0.0453992 8 247 255
0.133959 -0.418745 -0.0849893 17 238 255
-0.125875 -0.485602 0.178136 0 255 255
0.153237 -0.0415776 -0.0745077 113 141 255
-0.0510225 -0.390433 -0.304229 24 231 255
0.157414 -0.174106 -0.218439 80 175 255
0.158527 -0.118937 -0.00591162 94 161 255
0.107431 -0.209416 0.195055 71 184 255
-0.0744847 -0.355156 -0.206373 32 222 255
-0.156764 -0.0808623 -0.30758 104 151 255
0.0467247 -0.319886 -0.258624 42 213 255
0.138332 -0.0324504 -0.257041 116 139 255
-0.231938 -0.467587 -0.325371 5 250 255
-0.216609 -0.351654 -0.308199 34 221 255
-0.223787 -0.486445 0.0423928 0 255 255
0.14346 -0.358344 -0.102885 32 222 255
0.133921 -0.373709 0.17101 29 226 255
0.11568 -0.484463 -0.0330361 0 255 255
-0.0606617 -0.226171 -0.308565 65 189 255
0.143332 -0.36795 -0.0213484 30 225 255
-0.0302514 -0.485364 0.143737 0 255 255
0.15657 -0.224103 -0.27462 67 188 255
-0.0972091 -0.485989 -0.18593 0 255 255
-0.28052 -0.485245 -0.150009 0 255 255
-0.0787471 -0.463477 -0.280747 6 249 255
0.0546982 -0.383624 -0.227429 26 229 255
-0.0529989 -0.154318 0.206881 85 170 255
0.0968771 -0.411512 0.196821 19 236 255
0.149979 -0.355002 -0.214328 32 222 255
0.00315922 -0.372129 -0.305914 29 226 255
0.142622 -0.125146 -0.258347 92 163 255
-0.180357 -0.349721 -0.254666 35 220 255
-0.171311 -0.135817 -0.315818 89 165 255
-0.144302 -0.282249 -0.295119 52 203 255
0.0791169 -0.27527 -0.312297 54 201 255
0.15756 -0.0410339 0.0645598 113 141 255
-0.0124374 -0.412422 -0.175454 19 236 255
-0.185156 -0.486042 -0.291693 0 255 255
0.157121 -0.20261 -0.0408626 72 183 255
0.0588128 -0.485475 0.00488222 0 255 255
-0.0825497 -0.0860967 -0.154948 102 153 255
0.00468643 -0.476768 0.183761 2 253 255
0.0119485 -0.0433891 -0.307858 113 142 255
0.157263 -0.114274 0.104531 95 160 255
-0.252283 -0.48626 -0.202486 0 255 255
-0.118709 -0.424037 -0.319838 16 239 255
-0.0836387 -0.393808 -0.239684 23 232 255
-0.0912775 -0.179293 0.0204257 78 177 255
0.155157 -0.457166 -0.142015 7 248 255
-0.095391 -0.168199 -0.297996 81 174 255
-0.285201 -0.349478 -0.172174 35 220 255
-0.0987343 -0.486042 0.0912329 0 255 255
0.157133 -0.243179 -0.150578 62 193 255
-0.184126 -0.486178 -0.12914 0 255 255
0.157703 -0.160381 -0.144323 83 172 255
0.15685 -0.176095 0.0416586 79 176 255
0.0538759 -0.295772 0.202341 48 206 255
-0.0712885 -0.274499 -0.102033 54 201 255
0.157697 -0.200925 0.130752 73 182 255
-0.0922512 -0.0825592 -0.304072 103 152 255
-0.0999374 -0.387422 -0.100454 25 230 255
0.155503 -0.436221 -0.217064 13 242 255
0.146838 -0.321327 0.0986589 42 213 255
0.0665744 -0.146806 0.200473 87 168 255
-0.00582742 -0.39606 0.205318 23 232 255
0.0311023 -0.157822 -0.283574 84 171 255
-0.359187 -0.341057 -0.155419 36 218 255
0.155862 -0.38163 0.0610971 27 228 255
0.138773 -0.283196 -0.257972 52 203 255
0.0441389 -0.485215 -0.123519 0 255 255
0.155826 -0.39342 -0.111931 24 231 255
0.028459 -0.485286 -0.23942 0 255 255
-0.122435 -0.358962 -0.28018 32 223 255
-0.0376707 -0.485513 0.0225625 0 255 255
-0.183539 -0.189237 -0.297316 76 179 255
-0.0626545 -0.48497 -0.115811 0 255 255
0.153009 -0.127643 0.154813 92 163 255
-0.246664 -0.382166 -0.294953 26 229 255
0.154817 -0.249444 -0.0347191 60 195 255
-0.403859 -0.360065 -0.168045 32 223 255
-0.0268469 -0.335646 0.2063 38 217 255
0.0367326 -0.485045 0.123156 0 255 255
-0.306381 -0.483368 -0.200953 1 254 255
0.0072998 -0.485828 -0.0367428 0 255 255
0.15386 -0.408419 0.196156 20 235 255
-0.259598 -0.486053 -0.283429 0 255 255
-0.0348785 -0.485679 -0.269981 0 255 255
0.138492 -0.461262 -0.00506398 6 249 255
0.157745 -0.049249 0.123941 112 143 255
0.156223 -0.166503 -0.280443 81 173 255
-0.091254 -0.244948 -0.255073 62 193 255
-0.0874374 -0.0499224 -0.237954 112 143 255
-0.0619187 -0.48535 0.17337 0 255 255
0.119822 -0.0403627 0.197093 113 141 255
0.0125626 -0.312422 0.124546 44 211 255
0.158228 -0.0815675 -0.0412387 103 152 255
-0.249937 -0.387422 -0.150454 25 230 255
-0.0775825 -0.335729 -0.162112 38 217 255
0.056188 -0.411082 -0.309862 19 236 255
-0.0763552 -0.143396 0.0410081 88 167 255
-0.0364731 -0.172986 -0.298751 80 175 255
0.0610684 -0.42002 0.196353 17 238 255
0.122432 -0.322647 0.123491 42 213 255
-0.278316 -0.486233 -0.0829382 0 255 255
0.0326624 -0.0717719 0.201344 105 149 255
-0.0683588 -0.430371 -0.316445 14 241 255
0.142615 -0.201795 0.204817 73 182 255
0.157387 -0.252898 -0.200503 60 195 255
0.149304 -0.3607 -0.16653 32 223 255
-0.0922019 -0.1294 -0.031905 91 163 255
-0.152873 -0.486164 -0.194654 0 255 255
-0.100344 -0.388935 0.018219 25 230 255
-0.0170736 -0.485717 -0.110995 0 255 255
-0.214164 -0.486307 -0.0630373 0 255 255
0.155399 -0.395203 -0.251064 23 232 255
-0.0584236 -0.315451 -0.306293 44 211 255
0.117577 -0.4848 -0.0646063 0 255 255
0.155657 -0.145534 -0.0810118 87 168 255
-0.102618 -0.328168 0.00956871 40 215 255
-0.137697 -0.486082 0.149115 0 255 255
0.156103 -0.328063 0.0477904 40 215 255
0.0983141 -0.484959 -0.147477 0 255 255
-0.179872 -0.39963 -0.315102 22 233 255
-0.0889981 -0.152169 -0.245216 85 170 255
-0.139554 -0.486219 -0.00679943 0 255 255
0.156278 -0.158393 0.0987762 84 171 255
0.152704 -0.301743 -0.139354 47 208 255
0.0101479 -0.229147 -0.307403 65 189 255
-0.0629337 -0.485826 -0.222458 0 255 255
-0.312437 -0.399922 -0.150454 22 233 255
0.0679196 -0.332995 -0.311222 39 216 255
-0.113615 -0.437585 -0.277809 12 243 255
-0.0574085 -0.400493 -0.186241 22 233 255
-0.0897808 -0.229796 0.0108309 65 190 255
0.0427844 -0.485263 -0.187477 0 255 255
0.160007 -0.217833 0.045679 69 186 255
-0.0704441 -0.265544 -0.215271 56 199 255
0.116455 -0.484066 0.176683 0 255 255
-0.125288 -0.0902634 -0.318055 101 154 255
0.152903 -0.239079 -0.100207 63 192 255
-0.144622 -0.166652 -0.295718 81 173 255
-0.245704 -0.345203 -0.202104 36 219 255
-0.0773531 -0.171597 -0.15019 80 175 255
0.115657 -0.484605 0.0789912 0 255 255
-0.203614 -0.486436 0.0812835 0 255 255
0.157268 -0.0798658 0.162991 104 151 255
-0.249937 -0.437422 -0.187954 12 243 255
0.155834 -0.43348 0.0251847 13 242 255
-0.0370099 -0.259414 0.201369 58 197 255
-0.177981 -0.485984 -0.243839 0 255 255
0.147921 -0.123146 -0.139177 93 162 255
0.0625626 -0.312422 0.162046 44 211 255
-0.0997835 -0.485841 -0.0715095 0 255 255
-0.0367006 -0.447809 0.198444 10 245 255
0.156206 -0.426528 -0.0714519 15 240 255
-0.0282803 -0.0902808 -0.313163 101 154 255
-0.0916636 -0.369045 -0.3071 30 225 255
0.152909 -0.129361 -0.230221 91 163 255
-0.0137734 -0.194823 0.207107 73 181 255
0.156928 -0.294829 -0.220847 48 206 255
0.157518 -0.113723 0.0566348 95 160 255
0.157197 -0.259073 0.149792 58 197 255
-0.0148125 -0.114365 0.208161 95 160 255
0.152597 -0.147596 0.204314 86 169 255
-0.183086 -0.221936 -0.313509 67 188 255
0.156399 -0.0495445 -0.201702 112 143 255
0.13594 -0.453807 -0.291524 8 247 255
0.157364 -0.301014 -0.0391742 47 208 255
0.0725958 -0.484924 -0.245825 0 255 255
0.14107 -0.399058 -0.00907473 22 233 255
0.113669 -0.257791 0.191594 58 197 255
-0.128521 -0.482759 -0.278095 1 254 255
-0.0890246 -0.220315 -0.311811 68 187 255
0.156005 -0.418946 0.105195 17 238 255
-0.0886203 -0.269132 -0.0676945 55 200 255
-0.254186 -0.33439 -0.285754 39 216 255
-0.0201691 -0.485844 -0.195702 0 255 255
-0.0874374 -0.337422 0.0620462 38 217 255
-0.08698 -0.177696 -0.0726331 79 176 255
0.0297636 -0.372249 0.20184 29 226 255
0.0500626 -0.0249224 0.212046 118 137 255
0.0945181 -0.14792 0.200208 86 169 255
-0.0809257 -0.341546 -0.240979 36 218 255
0.00469388 -0.332488 -0.305638 39 216 255
0.154318 -0.460991 0.176358 6 249 255
0.123227 -0.0243568 -0.294543 118 137 255
0.158222 -0.151873 -0.0289172 85 170 255
-0.255113 -0.477039 -0.260508 2 253 255
0.134597 -0.326351 0.20118 40 214 255
-0.3082 -0.348704 -0.204018 35 220 255
0.0832557 -0.485425 0.0319375 0 255 255
-0.228378 -0.486236 -0.152338 0 255 255
-0.136533 -0.444933 -0.320249 10 245 255
0.142456 -0.0780218 -0.255911 104 151 255
-0.1649 -0.35177 -0.309106 34 221 255
0.157117 -0.258413 0.0167856 58 197 255
-0.104107 -0.115301 -0.247294 95 160 255
-0.256843 -0.409323 -0.291856 19 236 255
0.154282 -0.0981584 0.201287 99 156 255
-0.0834334 -0.484274 -0.153619 0 255 255
0.0329545 -0.145315 0.203192 87 168 255
0.14243 -0.477328 0.124736 2 253 255
0.0486583 -0.248828 -0.262084 60 194 255
0.0099088 -0.118934 -0.30277 94 161 255
0.0948493 -0.45175 0.196778 9 246 255
0.10778 -0.484294 -0.209813 0 255 255
-0.0636336 -0.126572 -0.31315 92 163 255
0.157477 -0.201427 -0.201158 73 182 255
0.156922 -0.308917 0.1521 44 210 255
0.0744392 -0.15505 -0.311358 85 170 255
0.137174 -0.03514 0.208074 115 140 255
-0.0145558 -0.306921 0.207069 46 209 255
-0.0517879 -0.4858 -0.0399463 0 255 255
0.0469587 -0.42279 -0.238755 16 239 255
0.156255 -0.351686 0.000195176 34 221 255
0.155984 -0.405604 -0.149369 20 235 255
0.154635 -0.379202 0.196424 27 228 255
0.144741 -0.344583 -0.0861273 36 219 255
-0.0929717 -0.297961 -0.274842 48 207 255
0.085861 -0.46649 -0.318472 5 250 255
0.155454 -0.445902 -0.25294 10 245 255
0.156494 -0.0325897 -0.0481382 116 139 255
0.0328795 -0.0804254 -0.315557 104 151 255
0.159544 -0.18792 0.0871127 76 179 255
-0.0931287 -0.486135 0.0629467 0 255 255
0.158027 -0.0651208 0.0169391 108 147 255
0.155668 -0.281672 0.195866 52 203 255
0.1578 -0.192811 -0.00833083 75 179 255
0.0586143 -0.481503 0.170504 1 254 255
0.0784534 -0.313672 0.200819 44 211 255
0.0756143 -0.205614 0.199507 72 183 255
-0.172236 -0.486298 0.038799 0 255 255
0.156252 -0.350314 0.083651 35 220 255
0.156866 -0.189114 -0.0981511 76 179 255
-0.0368295 -0.242971 -0.306913 62 193 255
-0.0752879 -0.134994 -0.149915 89 165 255
-0.0264715 -0.412344 0.202091 19 236 255
-0.113118 -0.407046 -0.25961 20 235 255
-0.0874374 -0.412422 0.0620462 19 236 255
-0.337441 -0.331763 -0.163585 39 216 255
0.157048 -0.21334 -0.152283 70 185 255
-0.0249374 -0.424922 -0.225454 16 239 255
-0.126481 -0.25617 -0.315628 59 195 255
0.0501758 -0.377592 -0.266422 28 227 255
-0.0999374 -0.237422 0.0620462 64 191 255
0.0188616 -0.485595 0.0158822 0 255 255
0.138202 -0.164435 -0.27967 81 173 255
0.00933401 -0.485036 0.105694 0 255 255
-0.211213 -0.485964 -0.235523 0 255 255
-0.00748608 -0.485901 -0.072517 0 255 255
-0.0556842 -0.0766136 -0.293916 105 150 255
0.141305 -0.485512 0.0189158 0 255 255
-0.0999374 -0.0749224 -0.0879538 105 150 255
0.15087 -0.458157 -0.0974732 7 248 255
-0.217108 -0.459572 -0.321201 7 248 255
-0.0744485 -0.103755 -0.199439 97 157 255
0.151008 -0.251466 -0.264868 60 195 255
-0.141764 -0.392904 -0.317498 24 231 255
-0.0713961 -0.484186 -0.284915 0 255 255
-0.138068 -0.33484 -0.253943 39 216 255
-0.0889944 -0.486093 0.131597 0 255 255
-0.109891 -0.15197 -0.314733 85 170 255
-0.070747 -0.278144 -0.173018 52 202 255
0.151757 -0.465306 0.200184 5 250 255
-0.0999374 -0.0624224 -0.0129538 108 147 255
0.101803 -0.370089 0.195463 30 225 255
-0.0496902 -0.120632 0.206719 93 162 255
0.0255977 -0.45937 0.199897 7 248 255
0.115898 -0.424661 -0.313073 16 239 255
-0.137849 -0.485904 -0.143284 0 255 255
0.156382 -0.359058 -0.049724 32 223 255
0.155122 -0.224768 0.19719 67 188 255
0.154405 -0.292605 0.0940184 48 206 255
-0.0794576 -0.136284 0.0188527 89 166 255
0.14899 -0.156662 -0.157651 84 171 255
-0.0740857 -0.418859 -0.21102 17 238 255
-0.122247 -0.485893 -0.22857 0 255 255
0.00863395 -0.296019 -0.306059 48 207 255
0.0497114 -0.485232 -0.0698687 0 255 255
-0.0169797 -0.485734 -0.232891 0 255 255
-0.231574 -0.486346 0.0424505 0 255 255
0.139028 -0.118763 -0.282601 94 161 255
0.145924 -0.430632 0.149592 14 241 255
-0.0585394 -0.337523 -0.177931 38 217 255
-0.0347633 -0.485603 -0.156823 0 255 255
-0.0360815 -0.360655 -0.304403 32 223 255
0.153702 -0.291586 -0.0777744 50 205 255
0.0499851 -0.231737 -0.300624 65 190 255
0.157442 -0.114707 -0.0952787 95 160 255
0.156202 -0.326403 -0.257669 40 214 255
-0.00198397 -0.476974 -0.317311 2 253 255
-0.0999374 -0.387422 -0.0629538 25 230 255
-0.189968 -0.486148 -0.172033 0 255 255
-0.0945978 -0.486089 0.00873629 0 255 255
0.154889 -0.243406 0.128761 62 193 255
-0.0774839 -0.479234 0.199448 2 253 255
-0.10156 -0.213186 -0.271827 70 185 255
-0.0710551 -0.229111 -0.167076 65 189 255
-0.358545 -0.358882 -0.191928 32 223 255
0.152013 -0.0460298 -0.0899624 112 143 255
-0.30649 -0.483486 -0.182213 1 254 255
0.156152 -0.305985 -0.166239 46 209 255
-0.15857 -0.0819269 -0.31434 103 152 255
0.158674 -0.133081 0.144892 89 165 255
0.0865189 -0.278783 -0.302149 52 202 255
0.152485 -0.4399 -0.0389513 12 243 255
-0.287437 -0.487422 0.124546 0 255 255
0.154728 -0.42009 0.059347 17 238 255
-0.404373 -0.374562 -0.162755 28 227 255
-0.0820105 -0.147689 -0.118759 86 169 255
0.0947656 -0.484202 -0.297056 0 255 255
0.057262 -0.485197 -0.150292 0 255 255
-0.118557 -0.48617 -0.0637449 0 255 255
0.0452345 -0.113102 0.202075 95 160 255
0.0512153 -0.39332 -0.213903 24 231 255
-0.212101 -0.486438 -0.113838 0 255 255
-0.0851239 -0.276125 -0.310453 54 201 255
0.147657 -0.358327 -0.192692 32 222 255
0.158859 -0.0903763 -0.0194452 101 154 255
0.0875626 -0.0124224 0.212046 121 134 255
-0.0229393 -0.485105 0.184235 0 255 255
-0.024977 -0.298882 0.200731 48 207 255
0.15589 -0.4002 -0.0809179 22 233 255
-0.035869 -0.157869 0.210935 84 171 255
0.0198363 -0.416766 -0.302133 18 237 255
0.0419103 -0.321154 0.19944 42 213 255
0.147732 -0.427424 -0.206637 15 240 255
-0.00516423 -0.173836 -0.308047 80 175 255
-0.0906724 -0.188252 0.00940914 76 179 255
0.140831 -0.347959 0.099735 35 220 255
0.0700335 -0.485001 -0.0144569 0 255 255
-0.0970009 -0.415554 0.0160939 18 237 255
0.15738 -0.156105 -0.218255 84 171 255
0.0505092 -0.406635 0.199911 20 235 255
-0.089564 -0.135873 -0.0433547 89 166 255
-0.0768586 -0.401144 -0.305208 22 233 255
-0.182809 -0.438598 -0.317571 12 243 255
0.104102 -0.485319 0.102071 0 255 255
-0.15568 -0.13074 -0.316752 91 163 255
0.0982315 -0.485255 -0.105925 0 255 255
0.120981 -0.185952 0.196462 77 178 255
-0.142248 -0.486041 0.155357 0 255 255
0.154789 -0.24808 -0.0358259 60 194 255
0.15597 -0.431396 -0.144449 14 241 255
-0.00855368 -0.485865 -0.0113618 0 255 255
0.155402 -0.0528938 -0.186672 111 144 255
-0.101907 -0.323037 0.0148991 42 213 255
-0.0999374 -0.0999224 0.0495462 99 156 255
0.157817 -0.0482218 0.146048 112 143 255
0.158344 -0.0935099 0.0752405 100 155 255
-0.258367 -0.45194 -0.301918 9 246 255
-0.0801744 -0.0977685 -0.139485 99 156 255
0.155336 -0.38662 -0.268338 25 230 255
0.155258 -0.455467 0.121302 8 247 255
0.0827633 -0.476338 -0.226874 2 253 255
0.158058 -0.290289 0.0101939 50 205 255
-0.148741 -0.478818 -0.301273 2 253 255
-0.0161901 -0.380971 0.204982 27 228 255
-0.0877431 -0.195109 -0.0650641 73 181 255
-0.273332 -0.486155 -0.220008 0 255 255
0.137563 -0.262422 0.0620462 56 198 255
-0.0851759 -0.303901 -0.240065 46 209 255
-0.196204 -0.207584 -0.303496 71 184 255
0.156686 -0.178982 0.0396109 78 177 255
0.119468 -0.484457 -0.161398 0 255 255
-0.19643 -0.365253 -0.312395 31 224 255
0.154528 -0.381904 0.145884 27 228 255
0.00664214 -0.0450966 -0.3062 113 142 255
-0.086825 -0.25929 -0.0790038 58 197 255
-0.0374374 -0.387422 -0.237954 25 230 255
-0.100661 -0.485951 -0.201278 0 255 255
-0.117311 -0.31463 -0.315593 44 211 255
0.157222 -0.190736 0.126584 75 179 255
0.149227 -0.111061 -0.149892 96 159 255
0.132563 -0.445402 0.191568 10 245 255
-0.0879757 -0.484311 -0.111844 0 255 255
-0.249937 -0.399922 -0.187954 22 233 255
-0.0530644 -0.486031 0.0159161 0 255 255
-0.0999374 -0.0499224 -0.187954 112 143 255
-0.132701 -0.101929 -0.277658 97 157 255
0.111398 -0.485292 0.0389688 0 255 255
-0.0668285 -0.155523 -0.312069 84 171 255
0.145928 -0.387577 -0.148601 25 230 255
0.0309431 -0.0763559 0.201478 105 150 255
0.155215 -0.45101 -0.00148186 9 246 255
0.156696 -0.244222 -0.116674 62 193 255
0.144899 -0.0359001 -0.234651 115 140 255
-0.0525462 -0.452545 -0.314752 8 247 255
0.156251 -0.176894 -0.279509 79 176 255
-0.0468734 -0.218259 0.207006 68 187 255
0.0462183 -0.169782 -0.310308 81 174 255
-0.0186783 -0.271791 -0.301182 55 200 255
-0.261186 -0.485726 -0.149784 0 255 255
-0.0891487 -0.161803 -0.245572 83 172 255
-0.376948 -0.339602 -0.153554 36 218 255
0.148799 -0.151473 0.162668 86 169 255
0.144829 -0.2543 -0.240243 59 195 255
6.26276e-05 -0.324922 0.162046 40 214 255
0.0400063 -0.463885 -0.313369 6 249 255
-0.237437 -0.349922 -0.150454 35 220 255
-0.204741 -0.486061 -0.291934 0 255 255
0.0893854 -0.485262 0.175537 0 255 255
0.156707 -0.312802 -0.109043 44 211 255
0.0754216 -0.321678 -0.311847 42 213 255
0.0930395 -0.277309 0.197659 52 202 255
0.14332 -0.473884 -0.222615 3 252 255
-0.0746634 -0.312679 -0.160661 44 211 255
0.157351 -0.245969 -0.177949 60 194 255
0.146064 -0.0896641 -0.241429 101 154 255
-0.00648403 -0.485481 -0.163144 0 255 255
-0.141198 -0.235934 -0.315633 64 191 255
0.156979 -0.309783 0.119686 44 210 255
-0.22546 -0.486331 -0.0739066 0 255 255
-0.0586479 -0.387578 -0.180965 25 230 255
-0.116984 -0.366116 -0.317104 31 224 255
0.157529 -0.157823 -0.0734407 84 171 255
-0.220389 -0.486164 -0.197438 0 255 255
0.131243 -0.36811 0.176573 30 225 255
-0.0596296 -0.332286 -0.305919 39 216 255
-0.0874374 -0.287422 0.0620462 51 204 255
0.156155 -0.311907 -0.197778 44 211 255
0.155095 -0.058451 0.181784 109 146 255
-0.00220089 -0.140486 0.202192 88 167 255
0.155831 -0.373632 0.0115162 29 226 255
0.10582 -0.48479 -0.0532856 0 255 255
-0.140237 -0.486204 0.00510132 0 255 255
0.158285 -0.13101 -0.0167057 91 163 255
0.121425 -0.132228 0.197491 89 165 255
-0.0772496 -0.48611 0.0924591 0 255 255
0.143744 -0.465887 -0.124 5 250 255
-0.28 -0.335951 -0.19349 38 217 255
-0.127455 -0.463577 -0.261033 6 249 255
0.0216567 -0.485801 -0.256643 0 255 255
-0.0761614 -0.18485 -0.153528 77 178 255
0.154725 -0.217118 -0.046879 69 186 255
0.157644 -0.158603 0.0798958 84 171 255
0.158349 -0.0602194 -0.0586886 109 146 255
-0.244881 -0.407863 -0.299432 20 235 255
-0.0648648 -0.486028 -0.0493629 0 255 255
0.155044 -0.399688 0.10237 22 233 255
0.160527 -0.215803 0.0231486 69 186 255
-0.12545 -0.300554 -0.279103 47 208 255
-0.0489778 -0.485069 0.204759 0 255 255
-0.0693085 -0.0807903 -0.293149 104 151 255
-0.0792768 -0.353409 -0.234452 34 221 255
0.0112822 -0.360803 0.200559 32 223 255
0.136971 -0.319894 -0.259548 42 213 255
0.139272 -0.0486371 -0.287966 112 143 255
-0.084228 -0.259785 -0.231346 58 197 255
0.00409846 -0.485691 0.116665 0 255 255
-0.0150508 -0.485624 -0.107194 0 255 255
0.156124 -0.330931 -0.0252538 40 215 255
0.156943 -0.169651 -0.130326 81 174 255
-0.123916 -0.484765 0.132033 0 255 255
-0.0907031 -0.227064 0.0244077 65 189 255
0.154163 -0.18547 0.201101 77 178 255
0.0136791 -0.445227 0.200613 10 245 255
0.157394 -0.223998 0.145571 67 188 255
0.152566 -0.184011 -0.223213 77 178 255
0.15473 -0.420261 0.194547 17 238 255
0.039615 -0.375945 -0.308488 28 227 255
0.0469396 -0.090616 -0.309302 101 154 255
0.0419092 -0.485219 -0.125857 0 255 255
0.15593 -0.392606 -0.0346356 24 231 255
0.152844 -0.336088 -0.13939 38 217 255
-0.124016 -0.484097 -0.190947 0 255 255
-0.0831793 -0.485821 -0.259562 0 255 255
0.101089 -0.416339 -0.312735 18 237 255
-0.0727199 -0.0875205 -0.188103 102 153 255
0.0721821 -0.397369 0.200478 23 232 255
-0.229134 -0.346481 -0.302105 36 219 255
0.00073677 -0.485312 -0.217524 0 255 255
0.157907 -0.11249 0.0494771 95 160 255
0.15636 -0.325954 0.0237362 40 214 255
-0.0188532 -0.104762 0.201338 97 158 255
0.143535 -0.287263 0.191214 51 204 255
0.157425 -0.216292 0.0730175 69 186 255
0.0375626 -0.312422 0.124546 44 211 255
-0.287437 -0.487422 0.0745462 0 255 255
0.13515 -0.417222 -0.0649641 17 238 255
-0.0630931 -0.485795 0.160315 0 255 255
-0.0496971 -0.192618 -0.308684 75 179 255
0.157335 -0.094827 0.153525 100 155 255
-0.12913 -0.42084 -0.280291 17 238 255
-0.077541 -0.486068 -0.170212 0 255 255
0.112089 -0.485133 0.136018 0 255 255
0.0774675 -0.455382 0.197734 8 247 255
-0.174344 -0.486323 0.0481435 0 255 255
0.140992 -0.215821 -0.269733 69 186 255
-0.402223 -0.350463 -0.168701 35 220 255
-0.149572 -0.327874 -0.313557 40 215 255
-0.260303 -0.486044 -0.287663 0 255 255
-0.0250501 -0.0593696 -0.312646 109 146 255
-0.0999374 -0.424922 -0.0504539 16 239 255
-0.293825 -0.48323 -0.225488 1 254 255
0.152881 -0.111555 0.202005 96 159 255
0.10194 -0.335241 0.195878 38 217 255
-0.0232725 -0.339122 0.206399 36 218 255
-0.16052 -0.486031 -0.233735 0 255 255
0.113489 -0.485254 -0.0094302 0 255 255
-0.122802 -0.48589 -0.0942529 0 255 255
-0.0277294 -0.132679 -0.311359 89 165 255
0.156102 -0.34491 0.178193 36 219 255
-0.0955975 -0.143105 0.0166822 88 167 255
0.156644 -0.0975296 -0.0624266 99 156 255
-0.0999374 -0.0624224 0.0370462 108 147 255
0.155445 -0.409286 0.0264279 20 235 255
0.0699719 -0.230615 0.200117 65 190 255
0.155183 -0.453305 -0.198837 8 247 255
0.00847203 -0.485715 0.0221757 0 255 255
-0.123785 -0.137576 -0.31462 89 166 255
-0.0999374 -0.387422 -0.112954 25 230 255
-0.112571 -0.443507 -0.318273 11 244 255
-0.0857422 -0.242455 -0.311135 62 193 255
0.133928 -0.467422 -0.314859 5 250 255
0.156123 -0.271517 -0.158806 55 200 255
0.0139872 -0.212186 -0.307449 70 185 255
-0.330778 -0.335856 -0.163346 38 217 255
0.0500626 -0.437422 0.149546 12 243 255
0.162563 7.76117e-05 0.174546 124 131 255
-0.19437 -0.486308 -0.0993479 0 255 255
0.157626 -0.286276 -0.0512316 51 204 255
0.155545 -0.434613 -0.100673 13 242 255
-0.100544 -0.394869 0.012642 23 232 255
0.154587 -0.441768 -0.269167 11 244 255
-0.168993 -0.164578 -0.314969 81 173 255
-0.119211 -0.364544 -0.262937 31 224 255
-0.0810105 -0.180097 -0.122762 78 177 255
0.0454531 -0.30004 -0.282588 47 208 255
-0.108664 -0.486151 0.0369043 0 255 255
