ply
format ascii 1.0
comment Created by Open3D
element vertex 1228
property double x
property double y
property double z
property uchar red
property uchar green
property uchar blue
end_header
0.413711 -0.178415 0.140949 127 0 255
0.0126453 -0.342653 -0.309521 127 0 255
0.0829185 -0.468541 -0.34949 127 0 255
0.0624879 -0.492583 0.427915 127 0 255
-0.190204 -0.346822 -0.280004 127 0 255
0.230914 -0.478506 0.181741 127 0 255
0.417692 0.0602233 0.416036 97 46 253
0.0649478 -0.449327 -0.163947 127 0 255
0.413188 -0.303535 0.0878705 127 0 255
0.158514 -0.482882 0.0564998 127 0 255
-0.0729875 -0.382316 -0.146051 127 0 255
-0.383197 -0.426186 0.425887 127 0 255
-0.320726 -0.470652 0.128895 127 0 255
-0.187372 -0.491248 0.400515 127 0 255
0.443264 -0.173101 -0.000630373 127 0 255
-0.422152 -0.16579 0.450106 127 0 255
-0.14739 -0.484838 0.103452 127 0 255
0.448716 -0.302227 -0.0152397 127 0 255
0.133395 -0.492059 0.383115 127 0 255
0.408856 -0.409465 0.230794 127 0 255
-0.412826 -0.324812 0.18747 127 0 255
0.208023 -0.466846 0.421586 127 0 255
0.385106 -0.0804289 0.42229 127 0 255
0.42109 0.00987592 0.167486 123 6 254
0.0573551 -0.483036 0.0739357 127 0 255
-0.112921 -0.506426 -0.087618 127 0 255
-0.0287143 -0.510464 0.204572 127 0 255
-0.291811 -0.483431 0.275963 127 0 255
0.394507 -0.317798 0.358986 127 0 255
-0.433916 -0.30283 0.305629 127 0 255
0.252793 -0.500236 0.114869 127 0 255
0.27546 -0.368336 -0.266237 127 0 255
0.123097 -0.478699 0.267612 127 0 255
-0.163262 -0.415174 0.377877 127 0 255
-0.249831 -0.464673 0.342981 127 0 255
0.423165 -0.483272 0.251483 127 0 255
0.387212 -0.447979 0.100395 127 0 255
-0.0274211 -0.295771 -0.188886 127 0 255
0.125523 -0.35659 -0.338528 127 0 255
-0.0231256 -0.485125 -0.28663 127 0 255
0.123258 -0.495205 -0.0476694 127 0 255
0.0555092 -0.482707 0.162818 127 0 255
0.156848 -0.495383 -0.143567 127 0 255
0.258624 -0.500801 -0.155808 127 0 255
0.318489 -0.485574 0.385325 127 0 255
0.433786 -0.103229 0.210448 127 0 255
0.403506 -0.351957 -0.0560919 127 0 255
-0.151664 -0.447445 -0.0434878 127 0 255
0.356825 -0.438842 -0.217503 127 0 255
0.449879 -0.353757 0.07467 127 0 255
-0.373403 -0.426277 0.243053 127 0 255
0.422802 -0.483218 0.429143 127 0 255
0.189826 -0.503457 0.229388 127 0 255
0.415115 -0.0795508 -0.102233 127 0 255
0.434744 -0.0101401 0.0881923 127 0 255
-0.0946225 -0.503089 0.0492417 127 0 255
-0.240646 -0.399715 0.218935 127 0 255
0.433369 -0.408592 0.394765 127 0 255
-0.141219 -0.473131 0.183578 127 0 255
0.38766 -0.0639086 0.350207 127 0 255
0.324673 0.0751672 0.449984 89 59 253
0.252549 -0.483118 -0.23833 127 0 255
-0.389961 -0.227901 0.277271 127 0 255
0.180761 -0.396397 -0.325418 127 0 255
-0.25734 -0.498608 -0.0417894 127 0 255
-0.433704 -0.383894 0.45748 127 0 255
0.00691966 -0.481998 0.30812 127 0 255
0.356985 -0.500165 -0.0624716 127 0 255
0.417045 -0.215104 0.445591 127 0 255
0.188473 -0.499015 0.129175 127 0 255
0.4445 -0.303377 0.313798 127 0 255
0.383751 -0.444513 0.0109429 127 0 255
-0.425322 -0.0998046 0.337465 127 0 255
0.107094 -0.494111 -0.180008 127 0 255
-0.103364 -0.314629 -0.246291 127 0 255
0.414768 -0.416579 0.510275 127 0 255
0.410517 -0.0797313 0.0619347 127 0 255
-0.300327 -0.487286 -0.300047 127 0 255
0.249307 -0.437634 0.358542 127 0 255
0.39599 -0.22267 -0.162566 127 0 255
0.328862 -0.378036 -0.185539 127 0 255
-0.4361 -0.215604 0.394357 127 0 255
0.437086 -0.395131 -0.0950838 127 0 255
0.382458 -0.482705 0.194837 127 0 255
0.0568717 -0.483346 -0.300122 127 0 255
0.304956 -0.491639 0.00992907 127 0 255
0.397178 -0.140112 0.320338 127 0 255
0.0154144 -0.512563 0.112908 127 0 255
-0.384485 -0.391554 0.191579 127 0 255
-0.410119 -0.468586 0.44971 127 0 255
0.201672 -0.4696 0.313051 127 0 255
0.224839 -0.451759 -0.322453 127 0 255
-0.251642 -0.504234 0.107017 127 0 255
0.410525 -0.198591 0.0582566 127 0 255
0.42605 -0.34829 0.464551 127 0 255
0.405556 -0.335044 -0.155685 127 0 255
-0.367567 -0.498246 0.214514 127 0 255
0.399728 -0.382235 0.105155 127 0 255
-0.428967 -0.39172 0.305412 127 0 255
-0.246934 -0.482102 -0.203897 127 0 255
0.025186 -0.489619 -0.132835 127 0 255
0.0115779 -0.388356 -0.23065 127 0 255
0.41187 -0.214286 0.191933 127 0 255
0.00362175 -0.49487 0.44392 127 0 255
-0.0376387 -0.466584 -0.0188699 127 0 255
0.40022 -0.414724 0.309711 127 0 255
0.445316 -0.472873 -0.139555 127 0 255
-0.414425 -0.300123 0.389592 127 0 255
-0.0253268 -0.487313 -0.400025 127 0 255
0.148061 -0.442783 -0.36723 127 0 255
-0.0848958 -0.349338 -0.315135 127 0 255
0.40883 -0.000298242 0.244673 127 0 255
0.111566 -0.354447 -0.282594 127 0 255
-0.310793 -0.434404 0.219933 127 0 255
0.42864 -0.0566036 -0.0477518 127 0 255
0.287536 -0.456539 0.301532 127 0 255
0.0243519 -0.483301 -0.240122 127 0 255
0.188964 -0.483423 -0.228548 127 0 255
-0.17173 -0.501041 0.260931 127 0 255
0.386381 0.00321743 0.426896 127 0 255
-0.275306 -0.509411 -0.117269 127 0 255
0.0830376 -0.485261 0.4795 127 0 255
0.441881 -0.0543162 0.346956 127 0 255
-0.211848 -0.416582 -0.270011 127 0 255
0.38207 -0.225268 0.375721 127 0 255
-0.39185 -0.287737 0.267343 127 0 255
-0.1022 -0.483385 -0.188049 127 0 255
0.0422088 -0.3248 -0.242028 127 0 255
-0.429451 -0.106593 0.4445 127 0 255
0.373072 -0.482516 -0.236313 127 0 255
0.437173 -0.0248328 0.487484 127 0 255
-0.325209 -0.398412 0.387652 127 0 255
-0.330316 -0.481556 -0.187638 127 0 255
0.363636 -0.376666 0.4352 127 0 255
-0.186199 -0.504113 0.0812762 127 0 255
0.262623 -0.472788 0.232702 127 0 255
-0.189064 -0.399555 0.234326 127 0 255
-0.132131 -0.420146 -0.320345 127 0 255
0.403509 -0.48977 0.0492676 127 0 255
0.447635 -0.254079 0.349987 127 0 255
0.173286 -0.360411 -0.217898 127 0 255
-0.415316 -0.485035 0.282466 127 0 255
0.117997 -0.482684 0.131173 127 0 255
-0.294169 -0.44007 0.0417675 127 0 255
0.390688 -0.271702 0.482823 127 0 255
0.405456 -0.492937 -0.0972401 127 0 255
-0.0143536 -0.323581 -0.144984 127 0 255
0.397539 -0.0894675 0.488866 127 0 255
-0.392228 -0.365093 0.391543 127 0 255
-0.2095 -0.490968 -0.065266 127 0 255
-0.364231 -0.482171 -0.0165276 127 0 255
-0.0744583 -0.501687 0.294958 127 0 255
0.0823735 -0.482952 0.0030963 127 0 255
0.385601 -0.153554 0.393348 127 0 255
0.326195 -0.470238 -0.124501 127 0 255
0.44676 -0.379845 0.306764 127 0 255
-0.382705 -0.486386 0.0910248 127 0 255
0.438165 -0.100756 0.00246012 127 0 255
-0.0715128 -0.486582 0.469342 127 0 255
0.4181 0.0428374 0.336623 107 31 254
-0.185886 -0.459647 -0.230578 127 0 255
0.447798 -0.347086 0.134573 127 0 255
0.0845789 -0.520381 0.204529 127 0 255
0.138222 -0.43608 -0.264052 127 0 255
0.167187 -0.482912 0.00236564 127 0 255
0.438806 -0.217724 -0.0859096 127 0 255
0.0707036 -0.479482 0.29684 127 0 255
-0.0659069 -0.450087 -0.0826927 127 0 255
0.0457361 -0.434701 -0.393953 127 0 255
0.437948 -0.457223 0.333335 127 0 255
-0.343462 -0.486454 0.37844 127 0 255
0.149859 -0.486136 0.428058 127 0 255
-0.0125545 -0.482517 0.232348 127 0 255
0.453969 -0.453665 0.0886978 127 0 255
0.418087 -0.286286 -0.132546 127 0 255
-0.434142 -0.322232 0.446124 127 0 255
-0.0233184 -0.381678 -0.320006 127 0 255
-0.162144 -0.486638 0.467403 127 0 255
0.327132 -0.483282 0.456151 127 0 255
-0.0547708 -0.483003 0.157707 127 0 255
-0.359748 -0.445053 0.467627 127 0 255
0.433344 -0.0947062 0.160507 127 0 255
0.367865 -0.461275 0.2398 127 0 255
0.0107775 -0.443467 -0.123609 127 0 255
0.278691 -0.43412 -0.273648 127 0 255
-0.114864 -0.428331 0.384821 127 0 255
0.4298 -0.314229 0.409743 127 0 255
-0.0821466 -0.420058 -0.190732 127 0 255
-0.14402 -0.496373 0.329945 127 0 255
0.43772 -0.0650131 0.291783 127 0 255
-0.412824 -0.0373035 0.312464 127 0 255
0.0639617 -0.439534 0.355414 127 0 255
-0.128467 -0.379573 -0.266944 127 0 255
0.394817 -0.430868 -0.180928 127 0 255
0.434631 -0.486626 -0.0363297 127 0 255
0.409019 -0.22435 0.285573 127 0 255
-0.293951 -0.502932 0.224954 127 0 255
0.447046 -0.36227 0.202886 127 0 255
-0.104004 -0.483397 0.010576 127 0 255
0.230785 -0.475593 -0.0567144 127 0 255
-0.215663 -0.474982 0.0364168 127 0 255
0.234726 -0.499618 0.358858 127 0 255
0.33605 -0.485904 0.0736268 127 0 255
-0.0473844 -0.330345 -0.272759 127 0 255
0.167166 -0.455075 0.344881 127 0 255
-0.212999 -0.489818 0.355046 127 0 255
0.42073 -0.115166 0.419051 127 0 255
-0.436466 -0.428718 0.382292 127 0 255
-0.0701155 -0.449596 -0.263055 127 0 255
0.441961 -0.271133 0.138178 127 0 255
0.408459 -0.147398 -0.119372 127 0 255
0.33007 -0.483629 0.328116 127 0 255
-0.39563 -0.255459 0.317999 127 0 255
0.408141 -0.233367 0.0233458 127 0 255
0.063275 -0.406807 -0.190966 127 0 255
-0.426302 -0.222032 0.449295 127 0 255
0.403625 -0.320151 -0.0274494 127 0 255
0.219198 -0.462884 -0.174325 127 0 255
0.391895 -0.220093 0.488476 127 0 255
0.027109 -0.370321 -0.368206 127 0 255
-0.123419 -0.49374 0.405245 127 0 255
0.422764 -0.445377 0.473096 127 0 255
-0.42398 -0.445585 0.246304 127 0 255
0.416332 -0.133115 -0.0498463 127 0 255
-0.00834792 -0.431269 -0.393911 127 0 255
0.189403 -0.318755 -0.278137 127 0 255
0.295006 -0.482942 -0.210225 127 0 255
0.464539 -0.442718 0.177162 127 0 255
-0.263081 -0.486628 0.40301 127 0 255
0.283519 -0.350773 -0.195105 127 0 255
-0.316237 -0.451865 0.176636 127 0 255
-0.33229 -0.506933 -0.083148 127 0 255
0.0577512 -0.343966 -0.304647 127 0 255
0.393419 -0.150809 0.490149 127 0 255
-0.119914 -0.508034 0.216466 127 0 255
0.191994 -0.486212 0.466532 127 0 255
0.12921 -0.51249 0.221708 127 0 255
-0.03211 -0.500593 0.00357369 127 0 255
0.335453 -0.378314 0.348393 127 0 255
-0.360174 -0.482465 0.285149 127 0 255
0.415418 -0.141795 0.240357 127 0 255
-0.225327 -0.299793 -0.300039 127 0 255
0.148161 -0.483321 -0.317919 127 0 255
0.112173 -0.274809 -0.300032 127 0 255
-0.078077 -0.471596 0.0642537 127 0 255
0.434928 -0.0526854 0.215589 127 0 255
-0.271678 -0.386749 0.380364 127 0 255
-0.435782 -0.333275 0.259871 127 0 255
-0.395342 -0.486333 0.154514 127 0 255
-0.119978 -0.281016 -0.203665 127 0 255
-0.127123 -0.422546 -0.152201 127 0 255
0.258458 -0.485574 -0.106325 127 0 255
-0.413112 -0.485235 0.365418 127 0 255
-0.39097 -0.180353 0.293893 127 0 255
-0.221325 -0.444786 0.473213 127 0 255
0.30195 -0.472253 0.124801 127 0 255
0.208493 -0.499115 0.0555335 127 0 255
0.439212 -0.178668 0.100018 127 0 255
-0.253484 -0.490215 -0.258855 127 0 255
-0.124816 -0.485459 -0.249961 127 0 255
0.421549 -0.435994 -0.0383502 127 0 255
0.259202 -0.377633 0.372184 127 0 255
0.0828465 -0.38993 -0.378613 127 0 255
0.168966 -0.509799 0.309214 127 0 255
-0.412821 -0.11231 0.387468 127 0 255
-0.425321 -0.0123056 0.399966 127 0 255
0.433118 -0.0568046 0.110813 127 0 255
0.306008 -0.265336 -0.233862 127 0 255
0.126951 -0.474226 -0.0717181 127 0 255
0.013133 -0.483293 0.0678753 127 0 255
0.370647 -0.313331 0.434437 127 0 255
-0.141527 -0.352845 -0.311624 127 0 255
-0.130664 -0.481929 -0.115351 127 0 255
0.416048 -0.258974 0.223731 127 0 255
-0.0581044 -0.489002 -0.161664 127 0 255
0.441633 -0.376174 -0.00515632 127 0 255
-0.335625 -0.501761 0.0126927 127 0 255
0.373473 -0.443932 0.39719 127 0 255
0.241621 -0.480585 -0.327868 127 0 255
0.108384 -0.376263 -0.194705 127 0 255
-0.00348391 -0.431297 0.380646 127 0 255
0.0297918 -0.483139 -0.330532 127 0 255
0.0648748 -0.491218 -0.112138 127 0 255
-0.202435 -0.506152 0.19151 127 0 255
-0.386 -0.420843 0.361097 127 0 255
-0.12143 -0.506591 0.133792 127 0 255
-0.0146767 -0.494576 -0.0750099 127 0 255
0.40978 0.0442391 0.472128 105 34 254
0.104519 -0.460728 -0.382713 127 0 255
0.41337 -0.302318 0.0499311 127 0 255
-0.000608119 -0.482828 0.173419 127 0 255
-0.232132 -0.504994 0.266453 127 0 255
-0.360043 -0.2905 0.196909 127 0 255
0.365325 -0.440268 -0.103687 127 0 255
-0.436841 -0.347714 0.381108 127 0 255
0.00289867 -0.477262 0.480819 127 0 255
0.040656 -0.33128 -0.156053 127 0 255
0.0801907 -0.483234 -0.262044 127 0 255
-0.297369 -0.484352 0.0896659 127 0 255
0.312179 -0.482993 -0.263916 127 0 255
0.0560974 -0.494547 0.359297 127 0 255
0.370865 -0.482428 0.141425 127 0 255
0.198773 -0.427979 -0.268735 127 0 255
-0.121307 -0.424912 -0.0422399 127 0 255
-0.438543 -0.374357 0.225759 127 0 255
-0.348729 -0.481803 -0.124401 127 0 255
-0.202395 -0.427107 0.3922 127 0 255
-0.172733 -0.384809 -0.235873 127 0 255
0.257542 -0.41472 -0.168281 127 0 255
0.414233 -0.157637 0.18346 127 0 255
0.397212 -0.410632 0.0216726 127 0 255
0.197401 -0.474664 0.260631 127 0 255
0.438816 -0.3205 0.259568 127 0 255
-0.346729 -0.401054 0.252751 127 0 255
0.399608 -0.103775 0.366203 127 0 255
0.332935 -0.499974 0.281756 127 0 255
0.0240008 -0.512055 0.278058 127 0 255
0.268298 -0.487965 0.379802 127 0 255
0.245425 -0.308753 -0.269035 127 0 255
-0.0381872 -0.460694 0.422574 127 0 255
0.181901 -0.493361 -0.0666532 127 0 255
0.439255 -0.0122327 0.290476 127 0 255
0.304321 -0.473641 0.193652 127 0 255
0.02685 -0.422143 -0.237018 127 0 255
0.419469 -0.382697 -0.12847 127 0 255
0.101298 -0.507773 0.085793 127 0 255
0.399389 -0.395007 0.214824 127 0 255
0.425684 -0.362613 0.512053 127 0 255
-0.0708923 -0.419745 -0.325306 127 0 255
-0.41282 -0.0498158 0.48747 127 0 255
0.387361 -0.0541615 0.459375 127 0 255
-0.0389026 -0.484216 0.109614 127 0 255
0.111375 -0.336077 -0.250209 127 0 255
0.316981 -0.482447 -0.0266826 127 0 255
-0.137187 -0.440663 0.0165017 127 0 255
0.435421 -0.00925224 0.126801 127 0 255
-0.264849 -0.501621 0.312991 127 0 255
-0.106415 -0.343297 -0.213616 127 0 255
0.415304 -0.1699 0.448676 127 0 255
0.433284 -0.0406015 -0.00348889 127 0 255
0.443675 -0.374252 0.369927 127 0 255
-0.419774 -0.165503 0.411888 127 0 255
0.394212 -0.273809 -0.171545 127 0 255
-0.30222 -0.459099 0.425214 127 0 255
0.444695 -0.474085 0.203007 127 0 255
-0.0372728 -0.485677 0.339992 127 0 255
0.254979 -0.290091 -0.202309 127 0 255
-0.035509 -0.417021 -0.214454 127 0 255
0.184667 -0.426594 -0.21151 127 0 255
-0.406242 -0.342592 0.301475 127 0 255
0.234658 -0.480953 0.0240086 127 0 255
0.105009 -0.465403 0.454706 127 0 255
-0.319778 -0.481494 -0.229413 127 0 255
0.346066 -0.310746 0.383297 127 0 255
-0.0736417 -0.301418 -0.161712 127 0 255
0.442966 -0.351025 -0.0679653 127 0 255
0.424795 -0.415634 0.435923 127 0 255
0.417166 -0.206127 0.37657 127 0 255
0.436816 -0.119493 0.0484668 127 0 255
-0.0503269 -0.274808 -0.300029 127 0 255
0.0367991 -0.482907 -0.0242492 127 0 255
0.442771 -0.198932 -0.04939 127 0 255
0.417755 -0.0166579 0.381055 127 0 255
0.206726 -0.483332 -0.284683 127 0 255
-0.412825 -0.124806 0.262466 127 0 255
-0.117761 -0.481473 -0.0542153 127 0 255
-0.435197 -0.274139 0.433258 127 0 255
0.163303 -0.331494 -0.204676 127 0 255
0.0136437 -0.309237 -0.198375 127 0 255
0.121669 -0.450191 -0.182956 127 0 255
-0.147028 -0.432021 -0.239892 127 0 255
0.193119 -0.480195 0.187255 127 0 255
0.289899 -0.418 0.380603 127 0 255
0.189339 -0.49025 0.396554 127 0 255
-0.377668 -0.373589 0.461666 127 0 255
0.170998 -0.483676 0.0987763 127 0 255
0.447464 -0.273836 0.00383152 127 0 255
-0.169927 -0.48546 0.152551 127 0 255
-0.0842611 -0.482869 0.250279 127 0 255
0.123644 -0.462595 0.331323 127 0 255
-0.263209 -0.492992 0.0168505 127 0 255
-0.199535 -0.482048 -0.161716 127 0 255
0.418753 -0.480307 -0.17872 127 0 255
0.287837 -0.482869 0.474198 127 0 255
0.396625 -0.424273 0.0767779 127 0 255
0.44534 -0.415538 0.268237 127 0 255
0.418244 -0.298458 0.494074 127 0 255
-0.196751 -0.43173 -0.292107 127 0 255
-0.369815 -0.458607 0.201095 127 0 255
0.331878 -0.441735 -0.170978 127 0 255
0.442851 -0.472283 0.0112474 127 0 255
-0.273612 -0.482175 -0.120211 127 0 255
-0.252324 -0.484097 0.201949 127 0 255
-0.189751 -0.48277 0.28917 127 0 255
0.453135 -0.389555 0.115289 127 0 255
0.438298 -6.06806e-05 0.221493 127 0 255
0.424344 -0.263881 -0.0624635 127 0 255
0.0789579 -0.510643 0.265876 127 0 255
-0.0227316 -0.48285 -0.321468 127 0 255
0.411662 -0.322382 0.200578 127 0 255
-0.0191398 -0.363792 -0.185344 127 0 255
0.0230523 -0.49477 0.401531 127 0 255
0.395766 -0.450875 0.329554 127 0 255
-0.37356 -0.486899 0.0591656 127 0 255
0.445365 -0.158073 0.31485 127 0 255
0.375044 -0.269059 0.426843 127 0 255
0.377931 -0.371945 0.371002 127 0 255
0.335885 -0.389855 -0.221557 127 0 255
-0.184677 -0.483433 -0.0881396 127 0 255
-0.3758 -0.235071 0.220619 127 0 255
0.113031 -0.483054 0.0295701 127 0 255
0.358436 -0.443872 0.461464 127 0 255
0.452745 -0.435306 -0.0831314 127 0 255
-0.190084 -0.488496 -0.266817 127 0 255
-0.279205 -0.473787 0.139987 127 0 255
0.403806 -0.204083 -0.15364 127 0 255
0.413546 -0.270271 0.107953 127 0 255
0.242034 -0.38432 -0.251888 127 0 255
-0.384945 -0.325709 0.222586 127 0 255
-0.276533 -0.439886 0.469876 127 0 255
0.135488 -0.488653 -0.131458 127 0 255
0.00236397 -0.420551 -0.291903 127 0 255
0.122517 -0.48465 0.1786 127 0 255
0.435148 -0.12798 0.13281 127 0 255
0.439891 -0.170799 0.0250505 127 0 255
0.357094 -0.493885 0.0109768 127 0 255
0.047608 -0.483082 0.122897 127 0 255
-0.225327 -0.287296 -0.250037 127 0 255
-0.426226 -0.469897 0.32349 127 0 255
-0.0621691 -0.495674 0.397309 127 0 255
0.41169 -0.413279 0.162597 127 0 255
-0.362606 -0.489095 -0.0703409 127 0 255
0.405512 -0.262271 0.290397 127 0 255
-0.158609 -0.4946 -0.206636 127 0 255
-0.00275438 -0.483288 -0.224175 127 0 255
0.24964 -0.479669 0.149844 127 0 255
-0.417433 -0.484602 0.239851 127 0 255
0.440832 -0.232535 0.159087 127 0 255
0.181324 -0.433352 -0.346503 127 0 255
-0.436627 -0.316456 0.352717 127 0 255
-0.1682 -0.492085 0.418351 127 0 255
0.385471 -0.0654306 0.292552 127 0 255
-0.253575 -0.446288 0.359922 127 0 255
-0.32322 -0.499022 0.284463 127 0 255
0.0415795 -0.483012 0.222659 127 0 255
-0.438439 -0.417171 0.451295 127 0 255
-0.412819 -0.174817 0.487472 127 0 255
0.162173 -0.274804 -0.262535 127 0 255
0.43685 -0.192481 0.220415 127 0 255
-0.103437 -0.381334 -0.163988 127 0 255
-0.232643 -0.385419 0.221199 127 0 255
-0.0178922 -0.488976 -0.13887 127 0 255
0.100307 -0.35593 -0.338524 127 0 255
0.0231831 -0.414216 -0.173487 127 0 255
0.435655 -0.294936 -0.112925 127 0 255
0.380673 -0.377721 0.489458 127 0 255
0.448551 -0.339408 0.0326815 127 0 255
-0.0225817 -0.482366 0.270103 127 0 255
0.439068 -0.106015 0.334274 127 0 255
-0.0574332 -0.320983 -0.222924 127 0 255
0.421245 -0.48262 0.138585 127 0 255
0.0204247 -0.349038 -0.278544 127 0 255
-0.132658 -0.468373 0.348539 127 0 255
0.308916 -0.482817 -0.0806532 127 0 255
0.427381 -0.470904 0.385055 127 0 255
0.432116 -0.274326 0.431636 127 0 255
0.150115 -0.394211 -0.187178 127 0 255
0.225218 -0.43504 0.388 127 0 255
0.0483819 -0.472364 0.482846 127 0 255
-0.209479 -0.379667 -0.274328 127 0 255
0.43758 -0.110651 0.256433 127 0 255
-0.422754 -0.229062 0.351743 127 0 255
0.211276 -0.482769 -0.11114 127 0 255
-0.182636 -0.493029 -0.00414227 127 0 255
0.0804145 -0.426186 -0.259265 127 0 255
-0.069476 -0.472145 -0.300274 127 0 255
-0.157423 -0.308585 -0.255369 127 0 255
0.0504285 -0.48334 -0.18832 127 0 255
0.144086 -0.483342 -0.230228 127 0 255
0.405839 0.00807017 0.481589 123 6 254
-0.385283 -0.370532 0.198586 127 0 255
0.384873 -0.483589 0.270143 127 0 255
0.42276 -0.116902 -0.0831704 127 0 255
0.410833 -0.277304 0.358393 127 0 255
0.346929 -0.485016 0.359502 127 0 255
-0.176045 -0.507004 0.217267 127 0 255
0.289798 -0.474211 0.07856 127 0 255
-0.0723396 -0.370609 -0.283278 127 0 255
-0.134287 -0.502226 0.0530425 127 0 255
-0.3303 -0.502073 0.219965 127 0 255
0.0754763 -0.331795 -0.169238 127 0 255
-0.39532 -0.474123 0.456051 127 0 255
0.388474 -0.389864 -0.176239 127 0 255
0.173214 -0.418658 0.36175 127 0 255
0.44308 0.00164342 0.348515 127 0 255
-0.0787711 -0.483035 0.19259 127 0 255
0.390325 -0.0451601 0.399943 127 0 255
-0.398529 -0.32432 0.458562 127 0 255
-0.307948 -0.505436 -0.158626 127 0 255
0.444835 -0.263181 0.0542396 127 0 255
-0.0878592 -0.470465 0.443178 127 0 255
0.200857 -0.493831 -0.0239805 127 0 255
-0.238511 -0.486633 0.462882 127 0 255
0.106631 -0.483262 -0.31605 127 0 255
-0.292612 -0.485134 0.349801 127 0 255
-0.0681871 -0.495731 -0.0683651 127 0 255
-0.37708 -0.186067 0.238225 127 0 255
0.397469 -0.480801 -0.215958 127 0 255
-0.305203 -0.414399 0.22963 127 0 255
-0.394144 -0.423002 0.318584 127 0 255
0.36185 -0.485557 -0.13075 127 0 255
0.224538 -0.347469 -0.287117 127 0 255
-0.0133449 -0.509533 0.0692822 127 0 255
0.415823 -0.0561657 0.158629 127 0 255
0.171039 -0.471875 0.483989 127 0 255
-0.0701575 -0.410893 -0.124188 127 0 255
-0.21494 -0.461873 0.0826058 127 0 255
0.241232 -0.486422 0.258841 127 0 255
0.380594 -0.446847 -0.0244928 127 0 255
0.416715 -0.326469 0.142093 127 0 255
0.340253 -0.401842 0.397112 127 0 255
0.122482 -0.49171 0.39394 127 0 255
0.402065 -0.478787 0.463092 127 0 255
0.257369 -0.486819 0.416338 127 0 255
-0.428062 -0.411423 0.220111 127 0 255
0.433326 -0.475971 0.0834441 127 0 255
-0.281519 -0.484012 -0.0288369 127 0 255
0.299673 0.0751634 0.487486 89 59 253
0.235959 -0.483078 -0.188509 127 0 255
0.277658 -0.451139 0.316335 127 0 255
0.317716 -0.421747 -0.239329 127 0 255
0.131622 -0.401457 -0.368298 127 0 255
0.398765 -0.376736 -0.0895327 127 0 255
0.414489 -0.0624216 0.0133915 127 0 255
0.4124 -0.11285 0.0946205 127 0 255
-0.109219 -0.462563 0.14329 127 0 255
-0.151403 -0.438531 0.395872 127 0 255
-0.103858 -0.499697 0.30975 127 0 255
-0.392581 -0.20289 0.311176 127 0 255
0.405539 -0.344356 0.333966 127 0 255
0.0799215 -0.483218 -0.0519793 127 0 255
-0.307069 -0.483754 0.463565 127 0 255
0.214736 -0.482074 0.0992186 127 0 255
-0.377982 -0.485662 0.334059 127 0 255
0.264146 -0.444076 -0.28875 127 0 255
-0.431332 -0.369108 0.319697 127 0 255
0.119894 -0.507561 0.139686 127 0 255
0.180835 -0.378151 -0.319107 127 0 255
0.280855 -0.278051 -0.195682 127 0 255
0.0621728 -0.487321 -0.425024 127 0 255
0.0593211 -0.412508 -0.301282 127 0 255
-0.0868227 -0.48096 -0.235969 127 0 255
-0.137827 -0.487302 -0.362534 127 0 255
0.455912 -0.402186 0.190747 127 0 255
0.405846 -0.358026 0.0033263 127 0 255
-0.454596 -0.307477 0.422902 127 0 255
0.418103 0.0203299 0.271284 117 15 254
0.21268 -0.417582 -0.175903 127 0 255
0.440657 -0.213243 0.0926228 127 0 255
0.44809 -0.475828 -0.100943 127 0 255
0.417815 0.0499398 0.38421 103 37 254
-0.0573485 -0.455407 0.36512 127 0 255
0.446294 -0.221262 0.307421 127 0 255
-0.412824 -0.0623036 0.287465 127 0 255
0.131326 -0.477156 0.277652 127 0 255
0.0247425 -0.510496 0.180607 127 0 255
-0.0646214 -0.507593 0.130228 127 0 255
-0.387388 -0.27677 0.252015 127 0 255
-0.31238 -0.503959 0.169682 127 0 255
-0.129883 -0.491997 0.473728 127 0 255
-0.238755 -0.491396 -0.19532 127 0 255
0.445074 -0.217498 0.00530835 127 0 255
-0.0138063 -0.347971 -0.315139 127 0 255
0.386982 -0.187623 0.456772 127 0 255
0.410814 -0.493028 -0.0346664 127 0 255
0.439168 -0.413396 0.349392 127 0 255
-0.39106 -0.48698 0.132721 127 0 255
0.267996 -0.482379 -0.0165691 127 0 255
-0.350129 -0.486782 0.412399 127 0 255
-0.0395777 -0.486412 0.474976 127 0 255
0.417616 -0.178116 -0.115383 127 0 255
0.440511 -0.270601 0.193556 127 0 255
0.392238 -0.39472 0.117999 127 0 255
-0.0979403 -0.481149 -0.13378 127 0 255
0.0368465 -0.459328 -0.355225 127 0 255
-0.31501 -0.509221 -0.0612803 127 0 255
-0.0317502 -0.444357 -0.179592 127 0 255
0.418217 -0.156902 -0.0293311 127 0 255
0.168042 -0.498347 0.0172252 127 0 255
0.232988 -0.510907 0.177506 127 0 255
0.419967 -0.146019 0.393186 127 0 255
-0.261027 -0.485217 0.0666558 127 0 255
0.433783 -0.024266 0.0617417 127 0 255
-0.162827 -0.274796 -0.300037 127 0 255
0.408442 -0.481997 0.205096 127 0 255
0.142398 -0.33465 -0.291912 127 0 255
0.406489 -0.365108 0.25767 127 0 255
0.443333 -0.327398 0.378293 127 0 255
0.353459 -0.483738 0.0820605 127 0 255
-0.120958 -0.430875 -0.278021 127 0 255
0.231182 -0.486324 0.469751 127 0 255
-0.0192303 -0.513112 0.245109 127 0 255
-0.0064261 -0.483042 0.0164739 127 0 255
0.126567 -0.461754 -0.383825 127 0 255
-0.345265 -0.402198 0.180105 127 0 255
0.321928 -0.483564 0.422026 127 0 255
0.0258274 -0.454994 0.363024 127 0 255
0.326989 -0.484585 -0.217475 127 0 255
-0.398477 -0.296215 0.319694 127 0 255
-0.414889 -0.247582 0.404398 127 0 255
0.410308 -0.255461 -0.119211 127 0 255
0.10922 -0.400204 -0.236342 127 0 255
-0.160973 -0.488352 -0.284466 127 0 255
0.238291 -0.407154 0.362297 127 0 255
0.278582 -0.302759 -0.250482 127 0 255
0.21037 -0.472655 -0.343238 127 0 255
-0.168948 -0.346373 -0.228445 127 0 255
0.447357 -0.405539 0.0346912 127 0 255
0.42624 -0.35333 0.456118 127 0 255
-0.437151 -0.364545 0.452561 127 0 255
-0.000139943 -0.484224 -0.277352 127 0 255
0.432505 -0.331333 -0.127544 127 0 255
-0.347467 -0.431591 0.390437 127 0 255
0.412034 -0.20826 0.245452 127 0 255
0.415603 -0.0525884 0.216384 127 0 255
0.23271 -0.483224 -0.253352 127 0 255
0.0832315 -0.494304 0.347826 127 0 255
0.0186893 -0.409587 -0.394969 127 0 255
0.395819 -0.113859 0.489063 127 0 255
-0.00869077 -0.328539 -0.23912 127 0 255
0.218433 -0.323319 -0.209095 127 0 255
-0.23408 -0.491107 -0.112783 127 0 255
-0.319972 -0.482465 0.0233183 127 0 255
0.0739146 -0.483677 0.0385447 127 0 255
0.0101238 -0.445724 -0.119042 127 0 255
0.390421 -0.0357485 0.316659 127 0 255
-0.207318 -0.493945 0.320151 127 0 255
0.413734 -0.0467823 0.441058 127 0 255
-0.0938368 -0.48326 -0.0103247 127 0 255
0.446124 -0.319624 0.0793753 127 0 255
0.448667 -0.327155 -0.0212086 127 0 255
0.467658 -0.444533 0.228705 127 0 255
-0.43674 -0.161575 0.420178 127 0 255
0.425451 -0.420479 -0.134862 127 0 255
0.378358 -0.462046 0.49759 127 0 255
0.0496728 -0.274811 -0.30003 127 0 255
0.287456 -0.472692 0.212519 127 0 255
0.383603 -0.198317 0.386479 127 0 255
0.411284 -0.0972124 -0.0236985 127 0 255
-0.125616 -0.341541 -0.308659 127 0 255
0.328038 -0.422761 0.35446 127 0 255
0.252069 -0.500752 -0.142577 127 0 255
-0.105393 -0.383025 -0.210141 127 0 255
-0.132469 -0.283216 -0.209262 127 0 255
0.43654 -0.00345792 0.168637 127 0 255
-0.158232 -0.475972 0.0987127 127 0 255
0.41308 -0.158929 0.132207 127 0 255
-0.148074 -0.484273 0.255135 127 0 255
0.424473 -0.388273 0.512489 127 0 255
0.182765 -0.483118 -0.189156 127 0 255
0.0651135 -0.483319 -0.149276 127 0 255
-0.265844 -0.482994 0.264759 127 0 255
-0.262412 -0.490397 -0.254745 127 0 255
0.414846 -0.123563 0.203277 127 0 255
-0.412819 -0.262318 0.487473 127 0 255
0.246542 -0.480467 0.329215 127 0 255
-0.354918 -0.497856 0.0898091 127 0 255
-0.423277 -0.467665 0.423955 127 0 255
0.2696 -0.438831 -0.204696 127 0 255
0.321612 -0.491387 0.0339678 127 0 255
-0.203808 -0.444409 0.473635 127 0 255
-0.0200397 -0.321942 -0.147045 127 0 255
0.15328 -0.445543 -0.269719 127 0 255
-0.122309 -0.432213 -0.123858 127 0 255
0.0858344 -0.482374 0.191683 127 0 255
0.0287819 -0.493082 -0.0815632 127 0 255
-0.40464 -0.476977 0.19413 127 0 255
0.171347 -0.486462 -0.107965 127 0 255
0.10368 -0.439194 0.357484 127 0 255
0.437173 0.0751682 0.474983 89 59 253
0.397752 -0.416958 -0.0589708 127 0 255
0.0739238 -0.491924 0.429012 127 0 255
0.0666762 -0.33337 -0.208794 127 0 255
0.0711355 -0.483284 -0.234071 127 0 255
0.133934 -0.482425 -0.0283877 127 0 255
-0.0518723 -0.392992 -0.242678 127 0 255
-0.272363 -0.392773 0.375226 127 0 255
0.184418 -0.48556 0.371096 127 0 255
0.122408 -0.483231 0.0860574 127 0 255
-0.24332 -0.50544 0.175402 127 0 255
0.439276 -0.457708 0.298423 127 0 255
-0.0628268 -0.487308 -0.387528 127 0 255
-0.412819 -0.112316 0.487471 127 0 255
0.299081 -0.465077 0.2839 127 0 255
-0.178382 -0.46246 0.00673781 127 0 255
-0.00576399 -0.398729 -0.322163 127 0 255
0.290993 -0.4829 -0.280825 127 0 255
0.271667 -0.375233 -0.266163 127 0 255
-0.00612833 -0.493806 0.338318 127 0 255
0.362741 -0.483668 0.175637 127 0 255
0.130831 -0.486233 0.476795 127 0 255
-0.374198 -0.44023 0.466705 127 0 255
-0.441852 -0.40422 0.410141 127 0 255
-0.40431 -0.363186 0.261362 127 0 255
0.249673 0.075165 0.474985 89 59 253
0.398547 -0.152047 0.328782 127 0 255
0.324536 -0.482687 0.483058 127 0 255
0.395858 0.0183582 0.421137 119 12 254
0.14099 -0.329424 -0.206389 127 0 255
-0.165503 -0.490355 -0.114479 127 0 255
0.454174 -0.463172 -0.0302426 127 0 255
-0.230602 -0.482227 -0.0444308 127 0 255
-0.362178 -0.256786 0.204567 127 0 255
0.417476 -0.0738739 0.384829 127 0 255
0.411549 -0.0686888 -0.070037 127 0 255
-0.200295 -0.457707 0.356878 127 0 255
-0.325513 -0.481471 -0.215596 127 0 255
0.332275 -0.406148 -0.177539 127 0 255
0.438173 -0.267411 0.239389 127 0 255
0.0197822 -0.51264 0.110914 127 0 255
-0.164838 -0.41297 -0.306179 127 0 255
0.421358 -0.254401 0.478296 127 0 255
0.460394 -0.440521 0.144611 127 0 255
0.411551 -0.301708 -0.0358409 127 0 255
0.436636 -0.473567 -0.165458 127 0 255
0.36699 -0.333729 0.408447 127 0 255
0.414766 -0.071469 0.0879026 127 0 255
0.395476 -0.288042 -0.17145 127 0 255
0.252479 -0.49276 0.0508612 127 0 255
0.378156 -0.456372 0.0387043 127 0 255
0.175323 -0.49875 0.252238 127 0 255
-0.430697 -0.405432 0.343318 127 0 255
0.190783 -0.401523 -0.243462 127 0 255
0.0285763 -0.384208 -0.196867 127 0 255
0.0923284 -0.414425 -0.382768 127 0 255
0.446252 -0.239516 0.347937 127 0 255
-0.105228 -0.507203 0.0688654 127 0 255
0.17231 -0.48983 0.165524 127 0 255
-0.063556 -0.449573 -0.0957133 127 0 255
0.0765863 -0.339151 -0.270955 127 0 255
-0.247094 -0.486552 0.400042 127 0 255
0.406538 -0.365782 0.190572 127 0 255
0.416999 0.0289961 0.323407 113 21 254
-0.423159 -0.206741 0.451008 127 0 255
-0.425322 -0.149806 0.337466 127 0 255
0.364428 -0.484966 -0.179303 127 0 255
-0.120891 -0.458033 0.477377 127 0 255
0.415504 -0.285157 0.157566 127 0 255
-0.287419 -0.446461 0.0473293 127 0 255
-0.322376 -0.476219 0.301145 127 0 255
0.169278 -0.483347 -0.31707 127 0 255
0.437377 -0.037769 0.268401 127 0 255
-0.322305 -0.385065 0.250467 127 0 255
0.39269 -0.481878 0.340994 127 0 255
0.403629 -0.388444 0.0755715 127 0 255
-0.127079 -0.483601 -0.191222 127 0 255
0.423266 -0.237621 -0.0408004 127 0 255
-0.365019 -0.44317 0.170939 127 0 255
0.104896 -0.489194 -0.108024 127 0 255
0.28979 -0.48263 -0.110976 127 0 255
-0.0483096 -0.482721 0.30783 127 0 255
0.410865 -0.30704 0.314122 127 0 255
0.414485 -0.19561 0.166155 127 0 255
0.0425994 -0.499555 -0.0127414 127 0 255
0.254064 -0.500708 0.120998 127 0 255
0.425402 -0.410352 0.432494 127 0 255
-0.0712648 -0.440739 -0.226504 127 0 255
-0.188505 -0.346788 -0.282508 127 0 255
-0.087888 -0.294087 -0.175093 127 0 255
-0.132569 -0.507222 0.159234 127 0 255
-0.0843555 -0.422142 -0.324749 127 0 255
0.444821 -0.35591 0.241447 127 0 255
-0.100081 -0.466024 0.407788 127 0 255
-0.351929 -0.48474 -0.119631 127 0 255
-0.0578117 -0.349224 -0.315562 127 0 255
0.380788 -0.394463 -0.0225794 127 0 255
0.151335 -0.43661 0.387385 127 0 255
-0.0259307 -0.482814 0.18957 127 0 255
-0.00609135 -0.450785 -0.362497 127 0 255
0.412544 -0.425104 0.268644 127 0 255
0.410266 -0.214062 0.0532726 127 0 255
0.0641916 -0.48317 -0.337122 127 0 255
0.0492922 -0.361115 -0.358862 127 0 255
-0.389889 -0.400983 0.39643 127 0 255
0.362173 0.0751625 0.487487 89 59 253
0.142801 -0.36046 -0.340161 127 0 255
-0.264731 -0.482134 -0.159017 127 0 255
-0.420589 -0.425302 0.28418 127 0 255
-0.050037 -0.483127 0.0400714 127 0 255
-0.41282 -0.0498117 0.437469 127 0 255
0.0471513 -0.431038 -0.160213 127 0 255
0.420296 -0.481369 0.436737 127 0 255
-0.100327 -0.274802 -0.300033 127 0 255
0.0101883 -0.471392 0.446531 127 0 255
0.421953 0.0144837 0.199046 121 9 254
0.38526 -0.111885 0.421157 127 0 255
0.0232417 -0.482806 0.288408 127 0 255
0.394067 -0.430385 0.135592 127 0 255
0.414505 -0.12025 -0.1088 127 0 255
-0.209456 -0.463264 -0.272332 127 0 255
-0.202723 -0.483959 0.227587 127 0 255
0.451951 -0.442258 0.058279 127 0 255
0.107554 -0.484679 0.232908 127 0 255
0.389499 -0.315373 0.474537 127 0 255
0.412546 -0.17466 0.274877 127 0 255
-0.312354 -0.486486 0.384108 127 0 255
0.0183513 -0.440563 -0.249549 127 0 255
0.353331 -0.430928 0.412109 127 0 255
-0.416253 -0.28452 0.374708 127 0 255
0.44951 -0.353275 0.122743 127 0 255
0.290179 -0.476957 0.15775 127 0 255
-0.212827 -0.312298 -0.212535 127 0 255
0.38844 -0.496871 -0.00964835 127 0 255
-0.383365 -0.486153 0.368658 127 0 255
-0.0985963 -0.485532 -0.271692 127 0 255
-0.131908 -0.482126 -0.0394502 127 0 255
0.445692 -0.397931 -0.0641801 127 0 255
0.407665 -0.0959636 0.322624 127 0 255
0.21807 -0.48776 0.427159 127 0 255
-0.0943324 -0.508526 0.225496 127 0 255
0.413722 -0.232271 0.400874 127 0 255
0.0252087 -0.330924 -0.15024 127 0 255
0.385311 -0.48707 0.0942101 127 0 255
0.397167 -0.0379506 0.474803 127 0 255
-0.0576152 -0.483163 -0.196679 127 0 255
0.412237 -0.164975 0.0890456 127 0 255
0.240373 -0.483026 -0.0659368 127 0 255
0.211488 -0.471863 0.286601 127 0 255
-0.0732088 -0.377054 -0.189262 127 0 255
-0.334866 -0.44181 0.450897 127 0 255
-0.41282 0.00018504 0.487469 127 0 255
0.433768 -0.475914 0.257901 127 0 255
0.0210315 -0.482972 0.145689 127 0 255
0.296555 -0.360683 -0.201089 127 0 255
-0.0476465 -0.492526 -0.0873558 127 0 255
-0.134683 -0.484488 0.309201 127 0 255
0.433554 -0.428713 0.380758 127 0 255
0.435581 -0.176577 -0.0770708 127 0 255
-0.425322 -0.062305 0.362465 127 0 255
-0.170683 -0.492073 0.438218 127 0 255
0.186037 -0.483181 -0.25327 127 0 255
-0.374816 -0.324921 0.199022 127 0 255
0.0914136 -0.427173 -0.203315 127 0 255
0.436959 -0.0983397 0.0278024 127 0 255
-0.330863 -0.482329 -0.0244178 127 0 255
0.292289 -0.483566 -0.183447 127 0 255
0.0918543 -0.496283 0.312044 127 0 255
0.0345474 -0.483345 0.0620361 127 0 255
-0.394892 -0.245455 0.314048 127 0 255
0.345896 -0.471703 -0.251201 127 0 255
-0.20698 -0.483372 0.146426 127 0 255
0.39012 -0.444295 -0.109617 127 0 255
0.294472 -0.494077 0.354169 127 0 255
-0.200414 -0.483373 0.0375856 127 0 255
0.00827078 -0.484384 -0.168391 127 0 255
-0.281331 -0.482223 -0.0888029 127 0 255
-0.187827 -0.487299 -0.337537 127 0 255
0.341946 -0.48342 0.211533 127 0 255
0.443402 -0.392956 0.31058 127 0 255
-0.337327 -0.485542 0.132568 127 0 255
-0.0297442 -0.297105 -0.187778 127 0 255
0.325091 -0.48239 -0.0530699 127 0 255
0.277302 -0.462363 0.478605 127 0 255
-0.374472 -0.482221 0.282119 127 0 255
-0.106099 -0.324088 -0.268145 127 0 255
0.414766 -0.285606 0.0400202 127 0 255
0.0947661 -0.49941 -0.013406 127 0 255
-0.226665 -0.455663 0.431653 127 0 255
-0.00105236 -0.49293 -0.038175 127 0 255
-0.165491 -0.460758 -0.216769 127 0 255
0.302566 -0.265228 -0.232284 127 0 255
0.376087 -0.415465 0.485927 127 0 255
0.156939 -0.496033 -0.15246 127 0 255
-0.427223 -0.134965 0.446576 127 0 255
-0.275327 -0.487288 -0.312545 127 0 255
0.438775 -0.181521 0.32981 127 0 255
0.0900934 -0.482922 0.133232 127 0 255
0.415868 -0.0932803 0.166846 127 0 255
0.227294 -0.312121 -0.274562 127 0 255
-0.208756 -0.394181 0.220075 127 0 255
-0.0665682 -0.505853 0.103108 127 0 255
0.410971 -0.434114 0.203798 127 0 255
0.432686 -0.0451968 -0.0184912 127 0 255
0.164422 -0.492896 0.343146 127 0 255
0.142007 -0.482966 0.0621286 127 0 255
0.24225 -0.476036 0.201365 127 0 255
0.407959 -0.288287 0.242569 127 0 255
0.413595 -0.224357 0.120851 127 0 255
-0.435665 -0.191312 0.400071 127 0 255
0.434945 -0.0816859 0.244377 127 0 255
-0.0513058 -0.424871 -0.298103 127 0 255
0.347468 -0.492831 0.287423 127 0 255
-0.441791 -0.350299 0.41653 127 0 255
0.442924 -0.311265 -0.0628984 127 0 255
0.442777 -0.0289284 0.352271 127 0 255
0.246732 -0.423029 -0.277097 127 0 255
-0.0717291 -0.49404 0.352354 127 0 255
0.371393 -0.481475 0.395935 127 0 255
0.398098 -0.228673 -0.160394 127 0 255
-0.0129522 -0.378045 -0.236471 127 0 255
-0.178669 -0.473188 -0.0622865 127 0 255
0.395014 -0.161622 0.486714 127 0 255
0.0932206 -0.483229 -0.291919 127 0 255
-0.278489 -0.502873 0.242516 127 0 255
-0.000327052 -0.274812 -0.300028 127 0 255
0.217604 -0.363451 -0.229922 127 0 255
-0.417826 -0.484602 0.242824 127 0 255
0.411543 -0.324764 0.0962018 127 0 255
0.0513737 -0.359863 -0.285288 127 0 255
0.294125 -0.420158 -0.173604 127 0 255
0.197463 -0.385258 -0.3109 127 0 255
-0.28274 -0.493855 -0.211778 127 0 255
0.446489 -0.301954 0.368254 127 0 255
-0.295382 -0.48613 0.462961 127 0 255
0.0294644 -0.472152 0.40589 127 0 255
-0.356999 -0.484316 0.0272304 127 0 255
-0.394698 -0.308296 0.273964 127 0 255
0.371901 -0.286809 0.404417 127 0 255
-0.356334 -0.403596 0.250366 127 0 255
0.451941 -0.464646 0.121591 127 0 255
0.404048 -0.362329 0.294014 127 0 255
0.139892 -0.368392 -0.219563 127 0 255
-0.385328 -0.221039 0.255419 127 0 255
0.439378 -0.124216 -0.039036 127 0 255
-0.14102 -0.377786 -0.231747 127 0 255
0.122871 -0.483134 -0.23095 127 0 255
0.426157 -0.369313 0.423349 127 0 255
-0.0825657 -0.506696 0.276596 127 0 255
0.136746 -0.475835 -0.357058 127 0 255
0.43818 -0.1565 0.0411773 127 0 255
0.436273 -0.15225 0.241781 127 0 255
-0.277419 -0.479708 0.131132 127 0 255
-0.168016 -0.486184 0.379283 127 0 255
-0.0925111 -0.299873 -0.217335 127 0 255
-0.17676 -0.491324 -0.151079 127 0 255
0.132259 -0.482857 0.425971 127 0 255
-0.289116 -0.406489 0.387371 127 0 255
0.379608 -0.485628 -0.0725922 127 0 255
-0.437241 -0.380364 0.229309 127 0 255
0.275971 -0.418822 0.379705 127 0 255
0.0947824 -0.372073 -0.369019 127 0 255
0.254566 -0.476457 -0.00644729 127 0 255
0.0491719 -0.509286 0.208092 127 0 255
-0.244275 -0.480627 -0.00672317 127 0 255
-0.410866 -0.280614 0.456397 127 0 255
0.192288 -0.483966 0.140676 127 0 255
0.0366973 -0.418132 -0.327199 127 0 255
-0.437485 -0.458962 0.399583 127 0 255
0.38619 -0.0139662 0.410072 127 0 255
-0.125842 -0.416963 -0.13268 127 0 255
0.410369 -0.33635 0.026244 127 0 255
-0.401806 -0.338352 0.331782 127 0 255
0.45721 -0.409171 0.231176 127 0 255
0.0707381 -0.480223 0.480683 127 0 255
0.432868 -0.224351 -0.10036 127 0 255
0.410277 -0.351169 -0.14272 127 0 255
0.362962 -0.419737 -0.207012 127 0 255
0.0233115 -0.324427 -0.240052 127 0 255
-0.0385846 -0.484592 -0.274075 127 0 255
0.41716 -0.422181 0.505622 127 0 255
0.33193 -0.488693 0.137105 127 0 255
-0.210627 -0.39715 -0.277658 127 0 255
0.38516 -0.176855 0.413139 127 0 255
0.428474 -0.478801 0.342722 127 0 255
-0.214635 -0.489932 -0.211941 127 0 255
-0.246824 -0.502905 0.30174 127 0 255
-0.422828 -0.426357 0.460667 127 0 255
0.384493 -0.367977 0.368759 127 0 255
-0.326658 -0.481803 -0.16357 127 0 255
0.439911 -0.431967 -0.00565407 127 0 255
0.187173 -0.274803 -0.300036 127 0 255
0.401871 -0.344529 -0.0705968 127 0 255
-0.368158 -0.441317 0.368519 127 0 255
-0.0813772 -0.476358 0.47886 127 0 255
0.435337 -0.0123959 0.140721 127 0 255
0.0996728 -0.27481 -0.262531 127 0 255
0.449005 -0.405529 0.0764917 127 0 255
0.452205 -0.45882 -0.109916 127 0 255
-0.0181781 -0.507468 0.155309 127 0 255
0.423838 0.0211814 0.265293 117 15 254
0.272063 -0.476315 -0.30118 127 0 255
0.0751074 -0.474919 -0.0985543 127 0 255
0.167177 -0.435212 -0.356951 127 0 255
0.17034 -0.493065 -0.0435455 127 0 255
0.147519 -0.484507 0.225282 127 0 255
-0.252306 -0.45593 0.0635331 127 0 255
0.39385 -0.239894 0.483136 127 0 255
0.286846 -0.484609 0.251571 127 0 255
-0.157076 -0.496622 0.051948 127 0 255
0.200973 -0.482821 0.0634022 127 0 255
-0.326349 -0.449323 0.174826 127 0 255
0.0469712 -0.446541 -0.385913 127 0 255
-0.140453 -0.367896 -0.313508 127 0 255
-0.0303262 -0.499433 0.00110251 127 0 255
0.279642 -0.333624 -0.247038 127 0 255
-0.174529 -0.484088 0.191101 127 0 255
-0.0231376 -0.437864 0.373174 127 0 255
-0.0535898 -0.339661 -0.172638 127 0 255
0.295257 -0.486004 0.421984 127 0 255
-0.16139 -0.425059 0.375258 127 0 255
0.0353144 -0.483134 -0.298555 127 0 255
-0.427852 -0.444071 0.338406 127 0 255
-0.360586 -0.485441 0.452965 127 0 255
0.0635655 -0.389349 -0.23228 127 0 255
-0.0243524 -0.330433 -0.268287 127 0 255
0.436063 -0.275171 0.281508 127 0 255
0.428261 -0.297901 0.426337 127 0 255
0.378363 -0.485903 -0.149816 127 0 255
0.374673 0.0751712 0.437481 89 59 253
0.320803 -0.476916 0.00552286 127 0 255
0.421272 -0.479263 0.0531821 127 0 255
0.435837 -0.113918 0.280355 127 0 255
-0.080057 -0.489415 -0.152354 127 0 255
-0.30893 -0.490474 0.0912391 127 0 255
0.419477 -0.0486344 0.0438183 127 0 255
0.41686 -0.123837 0.462856 127 0 255
-0.224835 -0.446277 0.362681 127 0 255
0.128399 -0.40593 -0.187944 127 0 255
-0.431198 -0.285952 0.315401 127 0 255
0.414209 -0.236953 0.166504 127 0 255
-0.104025 -0.484341 0.198506 127 0 255
-0.391532 -0.186169 0.297244 127 0 255
0.408977 -0.207594 0.323219 127 0 255
0.408978 -0.481773 0.168343 127 0 255
0.185227 -0.335228 -0.302105 127 0 255
-0.434519 -0.365037 0.363856 127 0 255
-0.340863 -0.483634 0.244131 127 0 255
0.413225 -0.353445 0.158694 127 0 255
-0.399008 -0.372683 0.462123 127 0 255
0.107026 -0.502138 0.278859 127 0 255
0.446175 -0.24491 -0.033712 127 0 255
-0.143778 -0.443564 -0.0128463 127 0 255
0.364336 -0.483226 0.473103 127 0 255
0.139759 -0.426606 -0.259038 127 0 255
0.0327149 -0.483299 -0.22446 127 0 255
-0.385701 -0.486203 0.103005 127 0 255
-0.212827 -0.274794 -0.300038 127 0 255
0.220143 -0.482871 -0.123854 127 0 255
-0.200167 -0.48672 0.462969 127 0 255
0.249599 -0.483725 -0.236449 127 0 255
0.0189445 -0.483946 0.479108 127 0 255
-0.0139885 -0.491062 -0.110043 127 0 255
0.406978 0.00610897 0.478027 125 3 254
-0.0256384 -0.432016 -0.18402 127 0 255
0.114902 -0.487049 -0.151924 127 0 255
-0.0183574 -0.483303 -0.324056 127 0 255
0.414897 -0.0726352 0.111465 127 0 255
0.417409 0.0376898 0.405611 109 28 254
0.179912 -0.473545 0.445648 127 0 255
-0.412824 -0.0873043 0.274965 127 0 255
0.391633 -0.129722 0.379777 127 0 255
0.0287116 -0.384447 -0.38051 127 0 255
0.239278 -0.409134 -0.199353 127 0 255
0.330164 -0.454797 -0.155681 127 0 255
-0.0785453 -0.475537 0.0658547 127 0 255
0.386388 -0.367008 0.469289 127 0 255
-0.132857 -0.487365 -0.282313 127 0 255
0.206257 -0.429613 0.375442 127 0 255
0.421191 -0.173216 -0.018246 127 0 255
0.403768 -0.408995 0.353457 127 0 255
-0.296906 -0.485034 0.341426 127 0 255
0.437281 -0.19491 0.208805 127 0 255
0.0933425 -0.36864 -0.321993 127 0 255
-0.436373 -0.2339 0.397227 127 0 255
0.400375 -0.396722 0.0396797 127 0 255
-0.0999305 -0.395878 -0.251819 127 0 255
0.403748 -0.0198303 0.306214 127 0 255
-0.0696155 -0.482715 -0.0357774 127 0 255
0.44215 -0.255409 0.119573 127 0 255
0.286476 -0.489679 0.0708582 127 0 255
0.457813 -0.458168 -0.0536275 127 0 255
-0.170786 -0.485311 0.291363 127 0 255
0.00238167 -0.510491 0.221634 127 0 255
0.196302 -0.478624 0.206505 127 0 255
0.276199 -0.283729 -0.195877 127 0 255
0.437197 -0.338867 0.312141 127 0 255
0.388905 -0.483614 0.248019 127 0 255
-0.263323 -0.48329 0.199009 127 0 255
0.40081 -0.0723164 0.48447 127 0 255
-0.110194 -0.442015 -0.179509 127 0 255
-0.393278 -0.391817 0.202424 127 0 255
-0.412821 -0.0123077 0.399967 127 0 255
0.0860801 -0.482779 0.407339 127 0 255
0.0948874 -0.334511 -0.208313 127 0 255
-0.359777 -0.488712 -0.0940405 127 0 255
0.343419 -0.473683 0.314595 127 0 255
0.188129 -0.482767 0.014257 127 0 255
-0.4031 -0.478666 0.183094 127 0 255
0.277535 -0.396823 -0.262216 127 0 255
0.124551 -0.47501 -0.068463 127 0 255
0.0627255 -0.484274 0.0775188 127 0 255
-0.362105 -0.259886 0.203982 127 0 255
0.408935 -0.345185 0.225046 127 0 255
-0.434818 -0.339188 0.259767 127 0 255
0.401257 -0.434115 -0.15791 127 0 255
-0.076841 -0.412251 -0.115431 127 0 255
0.378864 -0.242222 0.418303 127 0 255
-0.414799 -0.485228 0.321938 127 0 255
0.416032 -0.0383231 0.196682 127 0 255
0.0156693 -0.493573 0.3349 127 0 255
0.440127 -0.393193 -0.0233553 127 0 255
0.237152 -0.481309 -0.325454 127 0 255
-0.154112 -0.300345 -0.229001 127 0 255
0.431441 -0.265405 -0.114664 127 0 255
-0.453848 -0.309351 0.423508 127 0 255
-0.021162 -0.439393 -0.264697 127 0 255
0.222611 -0.490943 0.375721 127 0 255
-0.107742 -0.469005 0.353115 127 0 255
-0.0474727 -0.484532 0.258433 127 0 255
0.123745 -0.475133 0.482707 127 0 255
0.419443 -0.285269 0.491058 127 0 255
0.441875 -0.218425 0.0353666 127 0 255
0.3239 -0.485521 -0.102013 127 0 255
0.412079 -0.260697 0.350638 127 0 255
-0.163071 -0.483278 0.131341 127 0 255
0.435813 -0.113021 0.0716997 127 0 255
-0.0221978 -0.48316 0.0611378 127 0 255
0.164798 -0.473896 -0.193414 127 0 255
0.339459 -0.394059 0.395793 127 0 255
0.41402 -0.0771986 -0.0857919 127 0 255
-0.142713 -0.483752 -0.0886829 127 0 255
0.151904 -0.48235 0.138904 127 0 255
-0.269302 -0.451643 0.471085 127 0 255
-0.194461 -0.413947 -0.249465 127 0 255
-0.0514986 -0.376 -0.319269 127 0 255
0.449211 -0.364 0.0523777 127 0 255
0.434821 -0.13316 0.150862 127 0 255
-0.417067 -0.234256 0.45429 127 0 255
0.424684 -0.475634 0.407203 127 0 255
0.265474 -0.473494 -0.160443 127 0 255
0.249515 -0.484016 0.297629 127 0 255
-0.308732 -0.481598 -0.237986 127 0 255
0.438351 -0.214753 0.256895 127 0 255
0.0565744 -0.510987 0.172947 127 0 255
0.0904116 -0.502567 0.0246371 127 0 255
0.439195 -0.0581956 0.310084 127 0 255
-0.428082 -0.403174 0.293824 127 0 255
0.410781 -0.146596 -0.117423 127 0 255
-0.0234438 -0.486087 0.395168 127 0 255
-0.310929 -0.4934 0.0407856 127 0 255
-0.218962 -0.484232 -0.125706 127 0 255
0.415776 -0.0855775 0.418452 127 0 255
0.140996 -0.493176 0.357629 127 0 255
0.453267 -0.38481 0.135947 127 0 255
-0.309665 -0.395624 0.24218 127 0 255
0.236474 -0.482615 0.473497 127 0 255
0.437652 -0.329419 -0.107458 127 0 255
0.0659932 -0.479702 0.297694 127 0 255
0.0362076 -0.483254 -0.0637869 127 0 255
0.416274 -0.177889 0.454787 127 0 255
0.276522 -0.474504 0.116557 127 0 255
-0.184629 -0.332803 -0.271121 127 0 255
-0.288048 -0.486876 0.423009 127 0 255
0.448087 -0.286007 -0.00483202 127 0 255
0.345501 -0.385528 -0.183623 127 0 255
-0.0924959 -0.486687 0.43244 127 0 255
-0.25089 -0.482244 -0.0533946 127 0 255
-0.0628269 -0.274807 -0.26253 127 0 255
0.13978 -0.483204 -0.273236 127 0 255
0.185507 -0.475091 -0.082283 127 0 255
0.313748 -0.493091 0.188785 127 0 255
0.439555 -0.296115 0.14447 127 0 255
-0.135251 -0.404642 -0.317674 127 0 255
-0.202891 -0.46484 0.081097 127 0 255
0.392818 -0.41911 -0.0993247 127 0 255
0.200749 -0.441439 -0.277963 127 0 255
0.0417243 -0.482229 0.234144 127 0 255
-0.123847 -0.488519 0.00210212 127 0 255
0.0940797 -0.461986 -0.373714 127 0 255
0.303168 -0.437134 -0.255815 127 0 255
-0.00682398 -0.440787 -0.37973 127 0 255
-0.345644 -0.482188 -0.0508063 127 0 255
-0.130073 -0.484353 0.243306 127 0 255
0.426299 -0.368944 0.510149 127 0 255
0.417612 -0.177596 0.375757 127 0 255
0.0313651 -0.350865 -0.318376 127 0 255
-0.301491 -0.506355 -0.152453 127 0 255
0.268326 -0.482945 -0.0766983 127 0 255
-0.0447724 -0.483231 -0.214109 127 0 255
-0.348488 -0.483215 0.327972 127 0 255
0.212261 -0.51036 0.163075 127 0 255
-0.0535371 -0.509136 0.208664 127 0 255
0.315715 -0.458031 0.459103 127 0 255
-0.379809 -0.447912 0.232569 127 0 255
-0.208007 -0.490164 0.354926 127 0 255
-0.0234214 -0.358777 -0.184059 127 0 255
0.226493 -0.326764 -0.213151 127 0 255
0.0349895 -0.487875 -0.161397 127 0 255
-0.129411 -0.483231 0.0870667 127 0 255
0.353436 -0.486902 0.0546583 127 0 255
0.411871 -0.48459 -0.11126 127 0 255
0.462808 -0.418605 0.17725 127 0 255
0.14236 -0.401187 -0.362828 127 0 255
0.328942 -0.480979 0.390633 127 0 255
0.407648 -0.0639018 -0.0356402 127 0 255
-0.411343 -0.289042 0.404996 127 0 255
0.378247 -0.332672 0.449641 127 0 255
0.0801033 -0.446236 -0.209273 127 0 255
-0.374923 -0.433062 0.415379 127 0 255
0.417047 0.0322301 0.342483 111 25 254
-0.42552 -0.472733 0.277283 127 0 255
-0.388332 -0.2575 0.25906 127 0 255
-0.175015 -0.488248 -0.236925 127 0 255
0.0365746 -0.322691 -0.201924 127 0 255
0.00666701 -0.50213 0.0233183 127 0 255
0.434842 -0.0177526 0.110097 127 0 255
0.434188 -0.132782 0.200311 127 0 255
-0.433916 -0.135381 0.439935 127 0 255
-0.225829 -0.482461 0.236317 127 0 255
0.226595 -0.474218 0.243235 127 0 255
-0.143657 -0.430338 -0.266802 127 0 255
0.388989 -0.444839 0.119751 127 0 255
0.395449 -0.306243 0.374051 127 0 255
0.44037 -0.475724 0.00455689 127 0 255
0.394461 -0.455343 0.297515 127 0 255
0.416869 -0.253311 0.0848495 127 0 255
-0.315679 -0.50085 0.254834 127 0 255
0.146992 -0.329218 -0.206277 127 0 255
-0.377824 -0.325729 0.200245 127 0 255
0.427116 -0.256994 0.440788 127 0 255
0.42216 -0.434775 0.444912 127 0 255
0.276801 -0.481625 0.026561 127 0 255
0.287468 -0.450361 0.31365 127 0 255
-0.353638 -0.485274 0.173233 127 0 255
-0.0961064 -0.343755 -0.31106 127 0 255
-0.422117 -0.235323 0.355212 127 0 255
-0.232676 -0.482459 0.135484 127 0 255
-0.261054 -0.481841 -0.255626 127 0 255
