ply
format ascii 1.0
comment Created by Open3D
element vertex 1168
property double x
property double y
property double z
property uchar red
property uchar green
property uchar blue
end_header
0.00556553 -0.0327199 -0.195988 116 139 255
-0.141372 0.0469408 -0.08305 136 119 255
-0.00412111 0.075173 -0.184211 143 112 255
0.190802 0.072882 -0.181839 143 112 255
-0.0790682 -0.234287 -0.218403 64 191 255
-0.137827 -0.349801 0.0249628 35 220 255
-0.212707 -0.32607 0.162867 40 214 255
-0.193209 -0.425508 0.10159 15 240 255
0.0376687 -0.16045 -0.216941 83 172 255
-0.180303 -0.143278 -0.179506 88 167 255
-0.190955 -0.0582269 -0.0629689 109 146 255
-0.212373 -0.0204555 0.0967929 119 136 255
0.025888 -0.482447 -0.171771 1 254 255
-0.212026 -0.252703 0.0378806 60 195 255
-0.171612 -0.459294 0.209818 7 248 255
-0.213271 -0.0440323 0.177899 113 142 255
-0.21555 -0.318184 -0.112269 43 211 255
-0.215748 -0.224717 0.144285 67 188 255
0.178197 -0.482726 -0.0681915 1 254 255
-0.0666067 -0.395487 -0.216274 23 232 255
-0.0864151 0.0727499 -0.162717 143 112 255
-0.124634 -0.461418 -0.12273 6 249 255
-0.199207 -0.317726 0.00427625 43 211 255
-0.212992 -0.252926 0.261808 59 195 255
-0.150327 -0.0498055 0.0874659 111 144 255
0.162173 -0.362309 0.362468 31 224 255
-0.165389 0.0445589 -0.213262 136 119 255
-0.177726 -0.330517 0.250652 40 215 255
-0.12479 -0.479603 0.0823568 1 254 255
0.0809014 -0.440569 -0.218737 11 244 255
0.0427192 0.074429 0.0111274 143 112 255
0.152418 -0.11128 -0.192643 96 159 255
0.289746 -0.177317 -0.209332 79 176 255
-0.0798285 -0.330984 -0.217449 40 215 255
-0.21983 -0.106331 0.237491 97 158 255
0.191423 -0.482929 -0.186106 1 254 255
-0.19034 0.0101797 0.00530644 127 128 255
0.334605 0.00186676 -0.199075 125 130 255
-0.215157 -0.0915784 0.0979024 101 154 255
0.371829 -0.386498 -0.200119 25 230 255
-0.197004 -0.143278 -0.0466547 88 167 255
-0.037634 -0.46304 -0.219629 6 249 255
-0.0852288 -0.474372 0.0179162 3 252 255
-0.121183 -0.135067 -0.221099 89 165 255
-0.214998 -0.0196579 0.245173 119 136 255
0.0577968 -0.483452 -0.105291 0 255 255
0.103294 -0.0470438 -0.216344 112 143 255
-0.211685 -0.363032 0.0418971 31 224 255
-0.0119939 -0.112342 -0.21326 95 160 255
0.210947 -0.306733 -0.211856 46 209 255
-0.217949 -0.099269 0.00779164 99 156 255
-0.182528 -0.368412 -0.21099 30 225 255
0.0337016 -0.217596 -0.197557 69 186 255
0.11982 0.0742416 -0.0611453 143 112 255
0.162173 -0.0372906 0.0499563 115 140 255
-0.142831 0.0737265 0.0510674 143 112 255
0.134122 -0.383809 -0.215939 26 229 255
0.0878587 0.0743383 -0.132184 143 112 255
-0.149647 -0.342671 0.126535 36 218 255
0.371717 -0.286418 -0.208317 51 204 255
-0.213884 -0.18545 -0.110812 77 178 255
0.00935662 -0.287595 -0.215906 51 204 255
-0.182716 0.0670993 -0.0141562 141 113 255
0.0212128 0.073496 0.0629319 143 112 255
-0.18727 -0.482146 0.0942357 1 254 255
-0.193481 -0.167931 0.0370572 81 174 255
-0.0222267 -0.480081 -0.122613 1 254 255
0.115224 -0.482827 -0.146542 1 254 255
-0.214771 -0.293367 0.119257 48 206 255
0.233563 0.0735891 -0.0760913 143 112 255
-0.084201 -0.0749262 -0.193303 105 150 255
-0.190438 -0.482176 -0.194924 1 254 255
-0.167989 -0.248078 -0.0040845 60 194 255
-0.179655 -0.240786 -0.209332 63 192 255
0.391257 -0.0895896 -0.206286 101 154 255
-0.0222274 0.0727821 -0.110042 143 112 255
0.17087 -0.0153793 -0.193053 120 135 255
0.254816 0.0725165 -0.179985 143 112 255
-0.0519482 0.0746039 0.0450139 143 112 255
0.181473 0.0737749 0.000642735 143 112 255
-0.198886 -0.426354 -0.0947842 15 240 255
0.137173 0.0752069 0.0999579 144 111 255
-0.216668 0.0344011 -0.133892 133 121 255
0.00225595 -0.385074 0.301444 26 229 255
-0.020221 0.0326354 -0.207759 133 121 255
-0.0189629 -0.210525 -0.204321 70 185 255
-0.217408 -0.303551 -0.207591 47 208 255
-0.150327 -0.274815 0.249972 54 201 255
0.0481806 -0.379154 -0.214558 27 228 255
-0.108682 -0.435174 -0.194645 13 242 255
0.276941 0.0736232 -0.035307 143 112 255
0.248888 -0.107044 -0.205543 97 158 255
0.0968512 -0.196645 -0.215101 73 181 255
-0.217394 -0.384838 0.133219 26 229 255
-0.211855 -0.482653 -0.054278 1 254 255
0.402169 0.0711361 -0.1772 142 113 255
0.218651 -0.403785 -0.215496 21 234 255
0.168615 0.0729718 -0.145085 143 112 255
-0.0186786 -0.4069 -0.217415 20 235 255
-0.08731 -0.360113 0.322064 32 223 255
0.336892 -0.24089 -0.193241 63 192 255
-0.219082 -0.235231 0.201723 64 191 255
0.0341297 0.0744679 -0.052558 143 112 255
-0.137827 -0.162302 0.0249638 83 172 255
0.320533 0.0738929 -0.133003 143 112 255
0.182934 -0.249303 -0.196722 60 195 255
-0.213848 -0.0988118 -0.196308 99 156 255
0.00475633 -0.367862 0.368066 30 225 255
-0.201887 -0.337884 0.291138 38 217 255
-0.195085 -0.309162 -0.0779043 44 210 255
-0.0646702 -0.0150891 -0.192715 120 135 255
-0.203043 -0.449241 0.0148552 9 246 255
0.0343216 -0.0922198 -0.198074 101 154 255
-0.214027 -0.141454 0.121521 88 167 255
-0.214082 -0.174029 -0.211231 80 175 255
0.101785 -0.338774 -0.198626 38 217 255
-0.194383 -0.234299 0.0778068 64 191 255
0.247298 -0.172306 -0.194375 80 175 255
-0.219459 -0.331897 0.214827 39 216 255
-0.108744 -0.482414 -0.0886939 1 254 255
-0.207498 0.0564176 0.0761813 139 116 255
-0.115728 -0.259252 -0.219339 58 197 255
-0.029932 -0.482748 -0.0667625 1 254 255
0.383761 -0.339282 -0.207135 36 218 255
-0.198548 -0.413534 -0.171498 18 237 255
-0.213333 -0.222034 -0.0893283 67 188 255
-0.135332 -0.342372 -0.211271 36 218 255
0.147735 -0.182404 -0.19481 78 177 255
0.391005 -0.0362147 -0.187521 115 140 255
0.374673 0.075218 -0.0375494 144 111 255
-0.193522 -0.316067 -0.165603 43 211 255
-0.192225 0.0170022 0.189581 129 126 255
-0.155858 -0.482038 0.0314208 1 254 255
0.329484 -0.167106 -0.192199 81 174 255
-0.102547 -0.167387 -0.218932 81 174 255
-0.21205 -0.265544 -0.0386144 56 199 255
-0.154698 0.0386039 -0.170332 134 121 255
0.299182 -0.0656484 -0.199856 107 147 255
0.0699778 -0.478948 -0.182535 2 253 255
-0.208177 -0.472627 0.175377 3 252 255
-0.213764 -0.195665 0.268437 73 181 255
0.290169 -0.281073 -0.201986 52 203 255
-0.183158 -0.335898 0.0640309 38 217 255
-0.211353 -0.0267478 -0.0215387 117 138 255
0.0871062 0.021905 -0.199367 130 125 255
0.252416 -0.482861 -0.121438 1 254 255
0.14187 0.0740893 0.0270803 143 112 255
0.137173 -0.487289 -0.225045 0 255 255
-0.188381 -0.194921 0.169343 73 181 255
0.365865 0.0358826 -0.1862 133 121 255
0.358292 -0.450003 -0.200618 9 246 255
0.0621728 0.0751938 0.124966 143 112 255
-0.217767 -0.410103 0.19502 19 236 255
-0.222892 -0.454909 -0.196754 8 247 255
0.187165 -0.36248 -0.216099 31 224 255
-0.197567 -0.282971 0.191578 52 203 255
-0.0628272 0.0751892 0.124969 143 112 255
0.0909677 -0.253289 -0.200793 59 195 255
-0.197804 -0.216671 -0.15797 69 186 255
-0.121341 -0.393504 0.178044 24 231 255
-0.00520799 -0.475691 -0.00824909 2 253 255
-0.105532 0.0740567 -0.101254 143 112 255
-0.151244 -0.00734582 -0.212199 121 133 255
-0.144366 -0.455078 -0.215514 8 247 255
-0.147039 -0.0788635 -0.191632 104 151 255
-0.211678 -0.00248354 0.0670984 124 131 255
0.261894 -0.357194 -0.203776 32 222 255
-0.0669753 -0.410775 0.263571 19 236 255
-0.12867 0.0740726 0.0890491 143 112 255
-0.19458 -0.375809 -0.0439257 28 227 255
-0.0214376 0.0733469 -0.0214153 143 112 255
-0.104951 -0.482703 -0.148226 1 254 255
0.210045 -0.0829388 -0.202689 103 152 255
-0.0477817 0.0754312 -0.191412 144 111 255
-0.0336878 -0.0863973 -0.194671 102 153 255
0.143436 -0.43329 -0.21771 13 242 255
-0.189268 -0.0344903 0.161152 115 140 255
-0.190089 -0.0953303 -0.0398234 100 155 255
0.290316 -0.483209 -0.193794 1 254 255
-0.202651 0.0636146 -0.119129 141 113 255
0.248926 0.0744692 -0.129489 143 112 255
-0.197065 -0.403806 0.273725 21 234 255
-0.211586 0.0472501 0.135231 136 119 255
-0.225316 -0.474061 -0.132552 3 252 255
-0.148739 -0.390656 0.331378 24 231 255
0.172927 0.0739505 -0.0323075 143 112 255
-0.207273 -0.0525005 -0.169851 111 144 255
-0.180773 0.0371696 -0.0550218 134 121 255
0.0481367 -0.335041 -0.199374 38 217 255
0.424673 -0.162284 -0.212548 83 172 255
0.151231 0.0449651 -0.184959 136 119 255
0.184745 -0.48333 -0.0999381 1 254 255
0.207745 -0.196169 -0.193737 73 181 255
-0.0481821 -0.344321 -0.215687 36 219 255
0.00680076 -0.000976476 -0.213165 124 131 255
0.277458 -0.0304633 -0.188785 116 139 255
-0.0110633 -0.469031 -0.182683 4 251 255
-0.0373411 -0.260554 -0.207661 58 197 255
-0.195383 -0.172073 -0.0698083 80 175 255
0.249673 0.0752201 -0.225051 144 111 255
0.412173 0.0752186 -0.11255 144 111 255
0.333358 -0.106783 -0.199993 97 158 255
-0.179768 0.0642042 0.0310136 141 113 255
-0.146186 -0.175072 -0.1943 79 176 255
-0.214217 -0.0586983 0.0723681 109 146 255
-0.214686 -0.204623 0.0404372 72 183 255
0.0472695 0.074628 -0.192831 143 112 255
-0.222872 -0.440735 -0.0259778 11 244 255
-0.137827 -0.0748026 0.0374641 105 150 255
-0.162827 -0.0747848 -0.100048 105 150 255
-0.000327197 0.0751899 0.137469 143 112 255
-0.141101 -0.34602 0.161947 36 219 255
-0.110817 -0.405657 -0.215539 20 235 255
-0.200404 -0.161066 0.241139 83 172 255
0.165489 -0.312454 -0.194114 44 211 255
-0.0829038 -0.476777 -0.0329439 2 253 255
-0.208373 0.0550448 -0.194177 138 117 255
0.0876464 -0.484287 -0.090507 0 255 255
0.034117 0.0727646 -0.0959949 143 112 255
0.249673 0.075218 0.0499507 144 111 255
0.144928 0.0730192 -0.105916 143 112 255
-0.216278 -0.3636 -0.135836 31 224 255
-0.192417 -0.26314 0.275081 56 198 255
-0.137827 -0.137307 0.0749668 89 166 255
0.141031 -0.0437776 -0.191687 113 142 255
0.335274 -0.362596 -0.198549 31 224 255
-0.13953 0.0737609 -0.0599338 143 112 255
-0.198556 -0.165395 -0.134323 81 173 255
-0.216302 -0.255885 0.10559 59 195 255
-0.137827 -0.287299 -0.0375385 51 204 255
-0.20244 -0.417348 0.038481 17 238 255
0.275532 -0.4066 -0.204029 20 235 255
-0.223535 -0.00279187 -0.115462 124 131 255
-0.150327 -0.199809 0.112469 73 182 255
-0.161516 -0.278181 0.0579252 52 202 255
0.221156 -0.0227219 -0.201545 118 137 255
-0.198105 -0.0245733 0.256654 118 137 255
-0.165557 -0.279641 -0.216797 52 202 255
0.105858 0.0730243 -0.0386668 143 112 255
0.0565736 -0.133221 -0.214148 89 165 255
0.0693394 0.0731002 0.0304561 143 112 255
0.291867 0.0364491 -0.186113 134 121 255
0.308308 0.0739772 -0.0457424 143 112 255
0.316328 -0.212585 -0.204435 70 185 255
-0.216397 -0.0812175 -0.0775473 103 152 255
-0.205267 -0.312542 -0.0319671 44 211 255
0.12113 -0.15662 -0.215852 84 171 255
0.0475881 -0.414165 -0.202089 18 237 255
0.0489315 -0.290922 -0.213709 50 205 255
-0.104762 -0.404195 0.212423 21 234 255
0.307524 -0.482539 -0.128466 1 254 255
-0.113666 0.0538159 -0.211331 138 117 255
-0.0560667 0.0731497 -0.0913625 143 112 255
0.174673 0.0752154 0.0749523 144 111 255
-0.181239 -0.363159 0.091064 31 224 255
-0.189479 -0.101028 0.174864 97 157 255
0.137173 -0.362318 0.424974 31 224 255
0.236198 -0.451665 -0.207393 9 246 255
-0.19103 -0.118025 0.0246117 94 161 255
-0.140646 -0.344624 0.30051 36 219 255
0.0165959 -0.467559 -0.220071 5 250 255
-0.197222 -0.408361 -0.215217 20 235 255
-0.112334 0.0730281 -0.136954 143 112 255
0.323241 -0.431307 -0.201093 14 241 255
0.361205 -0.180209 -0.193212 78 177 255
-0.217148 -0.293464 -0.157481 48 206 255
-0.182675 -0.0637669 -0.214679 108 147 255
-0.205213 -0.20866 -0.0403046 71 184 255
-0.069192 -0.438837 -0.196185 12 243 255
-0.197048 -0.482536 -0.0942618 1 254 255
-0.193017 0.00483402 -0.154154 125 130 255
0.0643113 -0.191814 -0.19624 75 179 255
-0.220882 0.0342743 0.00176133 133 121 255
-0.218586 -0.169375 0.201104 81 174 255
-0.169805 -0.461924 0.173762 6 249 255
0.155088 -0.483551 -0.186926 0 255 255
-0.214017 -0.318945 0.074149 43 211 255
0.412173 -0.312275 -0.225054 44 211 255
0.115215 -0.283647 -0.207791 52 203 255
-0.0717394 -0.129341 -0.200044 91 163 255
-0.0961844 -0.367061 0.345026 30 225 255
-0.192353 -0.116171 0.277945 95 160 255
-0.209061 0.0446225 0.187969 136 119 255
-0.0746877 0.0181753 -0.219562 129 126 255
0.229444 0.0735995 -0.0187217 143 112 255
0.145041 -0.483411 -0.113173 0 255 255
-0.191829 -0.104328 -0.135807 97 157 255
-0.11725 -0.482746 0.032265 1 254 255
-0.217997 -0.413082 0.148349 18 237 255
0.0631565 -0.0296013 -0.195143 117 138 255
0.173262 -0.101803 -0.203722 97 157 255
-0.137827 -0.374795 -0.0375409 28 227 255
-0.026715 -0.0587999 -0.212923 109 146 255
0.400256 0.0261332 -0.183438 131 124 255
0.347904 -0.0432529 -0.188297 113 142 255
0.305758 -0.319045 -0.198788 43 211 255
-0.160981 -0.211305 -0.216171 70 185 255
-0.215248 -0.370099 0.276661 30 225 255
0.112173 -0.0373005 0.124963 115 140 255
-0.00672699 0.074388 -0.125941 143 112 255
-0.195859 -0.433882 0.250104 13 242 255
0.0924146 0.072708 -0.172046 143 112 255
-0.165431 -0.213513 0.0178879 70 185 255
-0.0817761 -0.372107 0.234515 29 226 255
-0.19282 -0.359181 -0.0741148 32 223 255
0.0428941 -0.482537 -0.137351 1 254 255
-0.150354 -0.324339 0.085979 40 214 255
-0.197939 -0.278758 -0.100112 52 202 255
0.273095 -0.127916 -0.192057 92 163 255
0.0852251 -0.0951805 -0.196341 100 155 255
-0.0166887 -0.372672 0.341887 29 226 255
-0.140224 -0.101339 -0.222496 97 157 255
-0.190256 -0.072346 0.10967 105 149 255
0.247111 -0.309429 -0.19654 44 210 255
-0.195905 -0.191248 0.0861318 75 179 255
-0.213919 -0.025402 0.0309785 118 137 255
0.0222504 -0.238134 -0.213568 63 192 255
0.366186 -0.417757 -0.208516 17 238 255
-0.189801 -0.455672 -0.144892 8 247 255
-0.150327 -0.224813 0.224971 67 188 255
0.0520473 0.0729472 -0.0293074 143 112 255
0.100311 -0.412036 -0.209743 19 236 255
1.05817e-05 -0.394895 -0.211991 23 232 255
-0.0269311 -0.399393 0.278609 22 233 255
-0.178445 0.0763481 0.113434 144 111 255
-0.212347 -0.0521521 0.196857 111 144 255
-0.0933474 0.0739162 0.0356567 143 112 255
-0.221357 -0.222011 0.232865 67 188 255
0.099673 -0.037296 0.0499598 115 140 255
-0.15483 -0.456763 0.0719924 7 248 255
-0.00941268 -0.17388 -0.213306 80 175 255
-0.139044 -0.363576 -0.216387 31 224 255
-0.191943 -0.00663979 0.141933 123 131 255
-0.198358 -0.371158 -0.000236112 29 226 255
-0.180597 -0.314426 0.291628 44 211 255
-0.106328 -0.207204 -0.210602 71 184 255
0.383466 -0.116164 -0.193192 95 160 255
0.311644 0.0722551 -0.181829 143 112 255
0.199472 -0.414439 -0.215908 18 237 255
-0.212138 -0.138796 -0.210443 89 166 255
-0.225546 -0.398499 -0.182818 22 233 255
0.0804891 -0.483629 -0.0436671 0 255 255
0.000969416 0.0735823 0.0429226 143 112 255
0.217607 0.02674 -0.188758 131 124 255
0.424673 -0.037288 -0.225045 115 140 255
0.0246726 -0.374825 0.437479 28 227 255
-0.0744209 -0.482691 -0.149491 1 254 255
-0.110594 -0.301501 -0.216388 47 208 255
-0.094883 -0.045584 -0.215908 113 142 255
0.0823779 0.0728786 -0.0882127 143 112 255
0.138415 -0.362372 -0.216487 31 224 255
-0.215559 -0.0291621 -0.0859378 117 138 255
-0.214374 -0.380199 0.218991 27 228 255
-0.133713 -0.483575 -0.0107424 0 255 255
0.189285 -0.172882 -0.193558 80 175 255
-0.19486 -0.265993 0.153124 56 199 255
-0.150118 0.0726027 -0.0258 143 112 255
-0.192132 -0.143661 0.14053 87 168 255
0.377865 -0.220259 -0.200055 68 187 255
0.139501 -0.253604 -0.199313 59 195 255
-0.220683 -0.43749 0.0829158 12 243 255
-0.100327 0.075191 0.174968 143 112 255
0.262959 -0.260893 -0.195106 56 198 255
0.285741 0.0738068 -0.107649 143 112 255
0.350687 -0.296783 -0.197116 48 207 255
-0.150057 0.0731996 -0.100401 143 112 255
-0.218262 -0.482664 -0.000701169 1 254 255
-0.184494 -0.357633 0.141185 32 222 255
-0.1575 -0.468293 -0.215206 4 251 255
0.338905 -0.482245 -0.184305 1 254 255
-0.213934 -0.158264 -0.0152138 84 171 255
-0.213322 -0.418666 -0.067358 17 238 255
0.230972 -0.483052 -0.123061 1 254 255
-0.0204334 -0.483239 -0.0105323 1 254 255
-0.199819 -0.277812 0.0148043 52 202 255
0.149673 -0.0622929 0.0624578 108 147 255
0.144561 -0.483101 -0.0593433 1 254 255
0.208405 -0.335686 -0.213796 38 217 255
-0.218663 -0.0285176 -0.201277 117 138 255
-0.219527 -0.111621 0.239687 96 159 255
0.0369319 0.0196453 -0.195016 129 126 255
0.0148902 -0.356978 0.379338 32 222 255
-0.00317412 -0.340995 -0.214271 36 218 255
-0.225327 0.0126962 0.287465 127 128 255
-0.219932 -0.316101 0.219814 43 211 255
-0.137827 -0.199798 -0.0375387 73 182 255
-0.0807788 -0.377333 0.297457 28 227 255
0.136676 0.015626 -0.193548 128 127 255
-0.218952 -0.458232 0.136592 7 248 255
-0.135922 -0.349675 0.211667 35 220 255
-0.0953105 -0.483144 -0.0743134 1 254 255
-0.211238 -0.200542 -0.210536 73 182 255
0.087227 -0.471247 -0.196794 4 251 255
-0.196077 -0.220962 -0.108584 68 187 255
-0.0324545 0.0732193 -0.060579 143 112 255
-0.147073 -0.00201592 -0.184732 124 131 255
0.196698 -0.479291 -0.169565 2 253 255
0.0548605 0.0744659 -0.145543 143 112 255
-0.0554947 -0.276318 -0.215134 54 201 255
-0.193084 -0.341539 -0.129477 36 218 255
0.20723 -0.122247 -0.193619 93 162 255
-0.0225881 -0.482832 -0.074568 1 254 255
0.238233 0.0741761 -0.0844059 143 112 255
0.386751 -0.360306 -0.206836 32 223 255
-0.0636118 -0.463168 -0.221875 6 249 255
-0.218063 -0.481623 0.0684297 1 254 255
0.132614 0.0744124 -0.188777 143 112 255
0.200348 -0.286299 -0.210493 51 204 255
-0.155796 -0.477857 -0.167867 2 253 255
-0.137827 -0.274811 0.124969 54 201 255
0.0239351 -0.072594 -0.19705 105 149 255
0.00971906 -0.295361 -0.19638 48 206 255
-0.200795 -0.31416 -0.218006 44 211 255
0.312543 -0.0149851 -0.196912 120 135 255
-0.0447122 -0.214586 -0.207281 69 186 255
0.146495 0.0740671 0.02409 143 112 255
-0.140126 0.0737071 0.0208027 143 112 255
-0.156745 -0.401365 -0.217517 21 234 255
0.19375 -0.0388149 -0.202378 113 141 255
-0.210685 0.0343057 -0.206119 133 121 255
-0.190691 -0.0140245 0.101114 121 134 255
-0.214538 -0.0980823 0.0708574 99 156 255
0.111789 -0.120353 -0.193094 93 162 255
-0.215184 0.0386554 -0.0379942 134 121 255
0.205036 0.0722604 -0.181476 143 112 255
-0.0207494 -0.128004 -0.213204 91 163 255
0.258267 -0.0743242 -0.195385 105 150 255
-0.210968 -0.237683 -0.031701 63 192 255
-0.0446814 0.0726394 -0.147407 143 112 255
0.400976 0.0715138 -0.177521 143 112 255
0.320227 -0.130874 -0.202796 91 163 255
-0.137827 -0.237307 0.0624668 63 192 255
-0.217261 -0.227506 0.170849 65 189 255
-0.211237 -0.136123 -0.149339 89 166 255
-0.0807999 0.00655893 -0.191052 126 129 255
-0.0946718 -0.377579 -0.201055 28 227 255
-0.213682 -0.317141 0.116636 43 211 255
-0.192793 0.0206571 0.218474 130 125 255
-0.163137 -0.451156 0.203949 9 246 255
-0.137827 -0.437291 -0.0375437 12 243 255
0.0739019 -0.336033 -0.199571 38 217 255
-0.193162 -0.0625024 -0.141591 108 147 255
0.261966 -0.207833 -0.194585 71 184 255
-0.220988 -0.383819 -0.118307 26 229 255
-0.0074039 0.070451 -0.195539 142 113 255
0.199673 -0.362308 0.387467 31 224 255
-0.150327 -0.0497966 -3.98457e-05 111 144 255
-0.155604 -0.478941 0.106812 2 253 255
-0.171267 -0.48136 -0.0887473 1 254 255
-0.220152 -0.241824 -0.173204 62 193 255
-0.108721 0.0508276 -0.0804654 137 118 255
-0.213765 -0.0858093 -0.211842 102 153 255
-0.214111 -0.284725 0.0656944 51 204 255
-0.207422 0.056293 0.0705119 139 116 255
-0.137827 -0.399797 0.0374608 22 233 255
0.224101 0.0735593 0.0125904 143 112 255
0.092313 -0.482753 -0.146718 1 254 255
-0.00511163 -0.480211 -0.158557 1 254 255
0.161116 -0.409933 -0.215973 19 236 255
-0.157074 -0.379503 0.329626 27 228 255
0.3445 0.0742937 -0.157265 143 112 255
0.388352 -0.0512003 -0.188565 111 144 255
-0.196307 -0.133057 -0.0736975 89 165 255
-0.0613044 0.0746046 0.0449395 143 112 255
-0.208469 -0.224028 0.270529 67 188 255
0.0736152 -0.246391 -0.195992 60 194 255
-0.115408 0.072904 -0.170915 143 112 255
0.0269773 0.0744647 0.0145408 143 112 255
-0.187701 -0.0971074 0.00536201 99 156 255
-0.151917 -0.147662 -0.192803 86 169 255
0.0612018 -0.440498 -0.218398 11 244 255
-0.199323 -0.0372816 -0.0499265 115 140 255
0.243205 -0.37987 -0.200552 27 228 255
0.387173 0.0752188 -0.0750498 144 111 255
-0.198396 -0.221688 0.117246 67 188 255
0.319142 -0.259226 -0.195132 58 197 255
-0.0762224 -0.0792176 -0.217372 104 151 255
0.15554 0.074328 -0.135411 143 112 255
-0.0595716 -0.377107 0.365132 28 227 255
-0.216488 -0.146436 0.171119 87 168 255
-0.181655 -0.33978 0.198611 36 218 255
0.110626 -0.0169999 -0.192438 120 135 255
-0.217742 -0.0733162 0.245341 105 150 255
0.273954 0.0147908 -0.18773 128 127 255
-0.150327 -0.224812 0.17497 67 188 255
-0.0299665 -0.0248811 -0.212593 118 137 255
0.210254 -0.467424 -0.20608 5 250 255
-0.146872 0.0741149 0.101672 143 112 255
0.190187 -0.482953 -0.0816028 1 254 255
-0.204923 -0.342665 -0.0184228 36 218 255
0.159253 -0.212009 -0.206047 70 185 255
-0.189667 -0.127242 0.095842 92 163 255
0.0633976 -0.484036 -0.0766565 0 255 255
-0.185905 0.047047 0.157339 136 119 255
-0.164472 -0.31218 -0.195766 44 211 255
-0.0510228 -0.376067 -0.215503 28 227 255
-0.19126 -0.0105119 0.00365056 121 133 255
-0.213019 -0.0450517 0.142975 113 142 255
-0.109863 -0.252785 -0.218614 60 195 255
0.281252 -0.482384 -0.195988 1 254 255
-0.206193 -0.404265 0.00890419 21 234 255
0.141763 -0.325195 -0.215746 40 214 255
0.00375764 -0.476585 0.00379615 2 253 255
0.310554 -0.372253 -0.200128 29 226 255
0.324673 0.0627185 -0.22505 140 114 255
-0.214358 -0.482279 -0.170736 1 254 255
-0.190677 -0.391437 0.113014 24 231 255
-0.202831 0.0612174 -0.109707 140 114 255
0.0872252 0.0730525 0.0308565 143 112 255
-0.0458906 0.0744369 -0.00821941 143 112 255
-0.196054 -0.48287 -0.0307593 1 254 255
-0.0676403 -0.152117 -0.201461 85 170 255
-0.0964355 -0.37244 0.193228 29 226 255
0.357895 0.0108235 -0.192112 127 128 255
0.265764 0.0734729 -0.17328 143 112 255
0.284015 -0.483139 -0.119802 1 254 255
0.303207 0.0739529 -0.050841 143 112 255
0.377162 -0.283691 -0.208277 52 203 255
-0.125222 -0.482707 -0.109934 1 254 255
-0.007622 -0.378813 0.30218 27 228 255
0.0247847 -0.181898 -0.213879 78 177 255
-0.174347 -0.483194 0.0501514 1 254 255
-0.221626 -0.451108 -0.0922854 9 246 255
-0.184752 -0.36001 0.0474469 32 223 255
-0.213691 -0.296701 0.258968 48 207 255
-0.209727 -0.43745 -0.210745 12 243 255
-0.218358 -0.00993851 -0.169522 121 133 255
0.103302 -0.184134 -0.194677 77 178 255
-0.213682 -0.22044 0.0301898 68 187 255
-0.0901371 -0.48321 0.00929695 1 254 255
0.020641 -0.0279582 -0.19597 117 138 255
-0.0323437 -0.482528 -0.117797 1 254 255
0.0969598 -0.378171 -0.215329 27 228 255
-0.193111 -0.201533 0.198776 73 182 255
0.141883 -0.482904 -0.156954 1 254 255
0.21612 -0.230533 -0.200215 65 190 255
-0.0562976 0.0701064 -0.197082 142 113 255
0.283345 -0.158975 -0.194406 84 171 255
-0.117827 -0.457229 -0.179078 7 248 255
-0.195727 -0.280586 -0.157285 52 203 255
-0.2133 -0.338849 -0.0673276 38 217 255
-0.150327 -0.0623095 0.149969 108 147 255
-0.198294 -0.1948 -0.14822 73 181 255
0.0200558 -0.371473 -0.204138 29 226 255
0.115142 0.0730038 -0.0766678 143 112 255
0.33392 -0.0783704 -0.189612 104 151 255
-0.202544 -0.145866 0.0433584 87 168 255
-0.0534751 -0.48214 -0.197331 1 254 255
-0.203505 -0.393423 0.182705 24 231 255
0.300754 -0.441976 -0.205913 11 244 255
0.117695 -0.0629616 -0.193452 108 147 255
0.17372 -0.368705 -0.199279 30 225 255
-0.182693 -0.297733 -0.024933 48 207 255
-0.00684519 -0.262551 -0.213342 56 198 255
-0.191013 -0.348578 -0.170495 35 220 255
-0.159571 -0.313785 0.0545676 44 211 255
-0.166213 -0.198374 -0.0116632 73 182 255
-0.217852 -0.306523 0.188295 46 209 255
0.25191 0.0736979 -0.0244989 143 112 255
-0.225327 -0.0623077 0.299967 108 147 255
0.0737203 0.0722269 -0.191649 143 112 255
-0.195224 -0.264152 -0.0842151 56 198 255
0.0302176 0.0744473 -0.0621496 143 112 255
-0.225327 -0.14981 0.299969 86 169 255
-0.0951835 -0.332537 -0.199783 39 216 255
-0.202949 -0.24692 -0.209566 60 194 255
-0.150327 -0.0997925 -0.0500425 99 156 255
-0.175327 0.0751967 0.212465 143 112 255
0.175768 0.0739086 -0.0244974 143 112 255
-0.212317 -0.431477 0.226372 14 241 255
0.143926 -0.133531 -0.190315 89 165 255
0.0422623 -0.120805 -0.213424 93 162 255
0.336072 -0.482463 -0.155245 1 254 255
0.149673 -0.0747947 0.0999589 105 150 255
0.234497 -0.168861 -0.201517 81 174 255
-0.0496044 -0.389624 0.251168 25 230 255
-0.162827 -0.0372849 -0.0875475 115 140 255
0.3678 -0.173229 -0.193091 80 175 255
-0.0320239 -0.313906 -0.216117 44 211 255
-0.203903 -0.128913 0.22436 91 163 255
0.305954 0.0738398 -0.128195 143 112 255
-0.177409 0.0497108 0.01644 137 118 255
0.0871727 -0.374819 0.412475 28 227 255
-0.0623544 -0.483933 -0.0479169 0 255 255
-0.21184 -0.0252363 0.195318 118 137 255
-0.140209 0.0548507 -0.200727 138 117 255
-0.137827 -0.349798 -0.0125388 35 220 255
-0.114737 -0.0305982 -0.206737 116 139 255
0.092285 0.0728304 -0.120686 143 112 255
0.224189 0.0104321 -0.200895 127 128 255
0.165022 -0.279991 -0.199991 52 202 255
-0.150327 -0.12481 0.137469 92 163 255
0.312173 0.0752172 0.0249511 144 111 255
-0.190722 -0.381344 0.282019 27 228 255
-0.130087 -0.355317 0.170134 32 222 255
0.0251073 0.0724646 -0.168772 143 112 255
-0.222875 0.0156626 -0.109265 128 127 255
-0.227934 -0.439826 0.00274813 12 243 255
0.387173 0.0627181 -0.225049 140 114 255
-0.211512 0.00249035 0.0605353 125 130 255
-0.188766 -0.283489 0.11102 52 203 255
-0.209453 -0.0911645 0.136836 101 154 255
0.399673 -0.424774 -0.225054 16 239 255
0.00609671 -0.378092 0.352762 27 228 255
-0.114699 -0.35969 0.331989 32 223 255
-0.0186106 -0.43831 -0.207575 12 243 255
0.100226 -0.306933 -0.195748 46 209 255
0.144169 -0.454644 -0.210304 8 247 255
-0.212949 -0.153844 -0.094294 85 170 255
0.176229 -0.079512 -0.20371 104 151 255
-0.074266 0.0733284 -0.0860034 143 112 255
-0.150327 -0.287318 0.299974 51 204 255
-0.210545 -0.111159 -0.0243291 96 159 255
0.250914 -0.32234 -0.213376 42 213 255
-0.150996 -0.105667 -0.219214 97 158 255
-0.196619 -0.447398 0.146753 10 245 255
-0.169102 0.0652731 -0.076567 141 113 255
-0.0565218 -0.0385929 -0.192775 113 141 255
-0.205101 0.0542292 -0.154717 138 117 255
0.244298 -0.412909 -0.207197 19 236 255
0.0627413 0.0161407 -0.192934 128 127 255
-0.212523 -0.0600412 0.0193674 109 146 255
-0.214879 -0.205852 0.0822393 72 183 255
-0.185884 -0.362476 -0.210654 31 224 255
0.236106 0.0733657 -0.151719 143 112 255
0.0502096 -0.482579 -0.167844 1 254 255
-0.22293 -0.444913 -0.130283 10 245 255
-0.105706 -0.163485 -0.219353 81 173 255
-0.152029 -0.267707 -0.219563 56 199 255
-0.137827 -0.0623058 0.0749662 108 147 255
-0.166832 -0.247724 0.00182236 60 194 255
0.306173 -0.22505 -0.19586 67 188 255
-0.153676 -0.344384 0.099351 36 219 255
0.00184001 0.0727285 -0.109741 143 112 255
0.236956 -0.0565598 -0.192826 110 145 255
0.124673 0.0627054 0.0999589 140 114 255
-0.210443 0.0491003 0.125857 137 118 255
-0.17664 -0.211578 -0.187876 70 185 255
-0.215751 -0.0322456 0.25234 116 139 255
0.162173 -0.374809 0.374968 28 227 255
0.0750073 0.0744088 -0.0406512 143 112 255
-0.22189 -0.436007 0.0593501 13 242 255
0.167475 -0.0133011 -0.193191 121 134 255
0.351934 -0.335964 -0.199198 38 217 255
-0.048643 0.0267446 -0.19265 131 124 255
0.217514 -0.483135 -0.102724 1 254 255
-0.150327 -0.274814 0.224971 54 201 255
-0.137827 -0.199807 0.074967 73 182 255
-0.0628272 0.0751889 0.16247 143 112 255
-0.0720288 -0.479769 -0.127955 1 254 255
0.00651074 -0.104712 -0.198398 97 158 255
-0.129487 -0.466872 0.0439209 5 250 255
-0.196531 -0.0390354 -0.114759 113 141 255
0.174673 0.0752214 -0.225052 144 111 255
-0.22037 -0.162824 0.241619 83 172 255
-0.215551 -0.318306 -0.112233 43 211 255
-0.211434 -0.198226 -0.0734894 73 181 255
0.0116344 0.0735282 0.0510717 143 112 255
-0.110011 -0.482553 -0.045552 1 254 255
0.0679326 -0.167664 -0.214311 81 174 255
-0.211688 -0.432393 -0.04211 14 241 255
-0.107683 0.0742745 0.0546384 143 112 255
0.142912 -0.483244 -0.064392 1 254 255
0.412173 -0.224781 -0.22505 67 188 255
-0.0820806 -0.232442 -0.218277 65 190 255
0.380922 -0.0775753 -0.204572 104 151 255
-0.210274 -0.360791 0.151397 32 223 255
-0.0871643 -0.107981 -0.217958 97 158 255
0.0213901 -0.233379 -0.195514 65 190 255
0.338725 -0.401195 -0.200129 22 233 255
-0.127762 -0.384304 -0.19822 26 229 255
-0.049995 -0.372075 0.306059 29 226 255
-0.212936 -0.265871 0.177279 56 199 255
-0.210247 -0.131726 -0.21193 91 163 255
0.236738 -0.126778 -0.194348 92 163 255
-0.187726 -0.450666 -0.215781 9 246 255
-0.189932 -0.0588201 0.196955 109 146 255
-0.110787 -0.363664 0.224539 31 224 255
-0.207639 -0.175057 0.136811 79 176 255
0.0651487 -0.310376 -0.217548 44 210 255
-0.137827 -0.137298 -0.025039 89 166 255
-0.188378 -0.455941 0.228609 8 247 255
-0.216417 -0.482436 -0.0816643 1 254 255
-0.211344 -0.0447756 -0.214134 113 142 255
0.084903 -0.483535 -0.106443 0 255 255
-0.209442 -0.370333 0.241799 29 226 255
-0.194214 -0.104433 -0.100835 97 157 255
-0.200998 -0.323013 0.0160107 42 213 255
0.0121728 0.0751903 0.137469 143 112 255
-0.0825679 0.073014 -0.125028 143 112 255
0.0216951 -0.422864 -0.20807 16 239 255
-0.21359 -0.239595 -0.129131 63 192 255
0.190182 0.0730553 -0.160477 143 112 255
0.107207 -0.245896 -0.207992 60 194 255
0.281603 0.0739925 -0.0816799 143 112 255
-0.195748 -0.297163 0.284436 48 207 255
0.0755246 -0.0669516 -0.19552 107 147 255
0.437173 0.0377146 -0.212547 134 121 255
-0.213201 -0.159851 -0.0298249 83 172 255
0.202247 -0.334726 -0.194044 39 216 255
0.128267 0.0730601 0.00404695 143 112 255
-0.110042 -0.44227 -0.213038 11 244 255
-0.206126 0.0516789 -0.0155052 137 118 255
0.376556 -0.0136717 -0.186366 121 134 255
0.0876495 -0.483554 -0.0443847 0 255 255
0.370035 -0.125347 -0.192048 92 163 255
-0.209729 -0.379356 0.0601208 27 228 255
-0.213007 -0.396877 -0.0849128 23 232 255
0.279866 -0.0356255 -0.188831 115 140 255
0.367577 0.0701787 -0.176634 142 113 255
-0.191164 -0.482357 0.0884727 1 254 255
-0.219994 -0.279461 -0.181057 52 202 255
-0.139215 -0.345197 0.301836 36 219 255
0.248485 -0.247944 -0.210021 60 194 255
-0.210985 0.00719086 0.137222 126 129 255
-0.200467 0.0394615 0.214131 134 121 255
-0.176892 -0.0112145 -0.18209 121 134 255
0.260666 -0.445279 -0.210185 10 245 255
0.0557247 -0.366873 -0.214162 30 225 255
-0.216331 -0.482323 0.0287744 1 254 255
-0.0492241 0.0733626 -0.0542384 143 112 255
-0.181235 -0.475262 -0.135055 3 252 255
-0.173427 0.0731454 0.0835697 143 112 255
0.362173 -0.487274 -0.225054 0 255 255
0.137173 -0.0497982 0.137461 111 144 255
0.013011 -0.482397 -0.18371 1 254 255
0.345603 -0.265941 -0.206888 56 199 255
-0.221493 -0.206431 0.230401 71 184 255
-0.198637 -0.0120218 -0.0499042 121 134 255
-0.202263 -0.0834477 0.275986 103 152 255
0.15272 -0.483177 -0.132782 1 254 255
-0.0556888 -0.416518 -0.211411 18 237 255
-0.209944 0.049081 -0.200507 137 118 255
0.138331 0.0728881 -0.151396 143 112 255
-0.0883269 -0.29318 -0.217934 48 206 255
-0.210593 -0.14999 -0.158779 86 169 255
-0.0378273 -0.362323 0.412477 31 224 255
-0.217928 -0.108796 0.0155699 96 159 255
-0.195307 -0.474365 0.16295 3 252 255
0.305775 -0.0838283 -0.200517 103 152 255
-0.0413573 -0.174378 -0.213612 80 175 255
0.317014 -0.184786 -0.192011 77 178 255
-0.0345303 0.0737541 0.014612 143 112 255
-0.227515 -0.417369 -0.188734 17 238 255
-0.212256 -0.246498 0.0368176 60 194 255
0.105623 0.0158806 -0.192115 128 127 255
-0.128957 0.0164194 -0.209847 128 127 255
0.0462909 0.0742763 -0.104076 143 112 255
0.104573 -0.426481 -0.208805 15 240 255
-0.221968 -0.410457 0.0988359 19 236 255
-0.0103802 0.0441941 -0.194453 136 119 255
-0.194743 -0.0513245 0.0681284 111 144 255
0.308015 -0.309325 -0.204915 44 210 255
-0.0879213 -0.376158 0.354499 28 227 255
0.177147 -0.455289 -0.208036 8 247 255
0.24393 0.074003 -0.0611478 143 112 255
0.273587 -0.482633 -0.121851 1 254 255
-0.146767 -0.0481117 -0.214222 112 143 255
-0.160419 -0.178947 -0.214648 78 177 255
0.323171 0.0372182 -0.186125 134 121 255
-0.110077 -0.482165 -0.154269 1 254 255
-0.212544 -0.242316 -0.0609611 62 193 255
0.0925757 -0.133863 -0.195769 89 165 255
-0.213311 -0.323998 0.14339 40 214 255
-0.212807 -0.12787 0.193751 92 163 255
-0.194687 -0.422017 0.26047 16 239 255
0.0534888 -0.0211647 -0.210692 119 136 255
-0.220223 -0.288069 0.232849 51 204 255
-0.107759 0.0707682 -0.19661 142 113 255
0.163247 -0.20732 -0.205791 71 184 255
-0.0246843 -0.225569 -0.213894 67 188 255
-0.133669 0.073384 -0.0588916 143 112 255
0.174673 -0.049792 0.0624572 112 143 255
-0.213041 -0.338427 0.0784257 38 217 255
-0.141339 -0.326239 -0.210539 40 214 255
-0.187385 -0.187673 0.0344707 76 179 255
0.294274 -0.391716 -0.200426 24 231 255
0.009156 -0.326332 -0.200663 40 214 255
0.19175 -0.127225 -0.203859 92 163 255
-0.214353 0.0379769 -0.0696382 134 121 255
0.119007 -0.354929 -0.200756 32 222 255
-0.215049 -0.241523 0.094935 62 193 255
0.379286 -0.324597 -0.207426 40 214 255
-0.196588 -0.215031 0.267577 69 186 255
-0.129512 -0.482643 -0.0151257 1 254 255
-0.137827 -0.287302 0.012464 51 204 255
0.252481 0.0737036 -0.00753441 143 112 255
0.0406943 0.0730587 0.000844788 143 112 255
-0.173933 -0.105066 -0.186063 97 158 255
0.190057 0.0180945 -0.198707 129 126 255
-0.215497 -0.369639 -0.150467 30 225 255
-0.137827 -0.412301 0.112463 19 236 255
0.0594822 -0.218327 -0.214129 68 187 255
-0.189402 -0.112991 0.0912317 95 160 255
-0.080458 -0.402301 0.23662 21 234 255
-0.213833 -0.18323 -0.209207 77 178 255
-0.150327 -0.199812 0.14997 73 182 255
-0.21345 -0.0345506 0.111947 115 140 255
0.374673 -0.487274 -0.137554 0 255 255
-0.0641717 -0.0843059 -0.194506 103 152 255
-0.190705 -0.0652801 -0.0288004 108 147 255
-0.195093 -0.314989 -0.0734023 44 211 255
-0.147516 0.0716683 0.0394706 143 112 255
0.0871728 0.0751971 0.112464 143 112 255
-0.225327 -0.362274 -0.225054 32 223 255
0.187353 -0.384242 -0.202311 26 229 255
-0.122813 -0.21648 -0.20833 69 186 255
-0.0505022 -0.354718 -0.213694 32 222 255
-0.21542 -0.0657441 0.171887 107 147 255
-0.215849 -0.35902 0.198184 32 223 255
0.116015 0.0724083 -0.188263 143 112 255
-0.000416858 -0.0365046 -0.195817 115 140 255
-0.155162 -0.439956 -0.191504 12 243 255
0.0762313 -0.469333 -0.199084 4 251 255
-0.210519 0.0463569 0.0578324 136 119 255
0.162173 -0.362313 0.412471 31 224 255
0.367777 -0.38482 -0.20398 26 229 255
-0.0412587 -0.483683 -0.0651347 0 255 255
0.112173 -0.0247974 0.0999607 118 137 255
0.113319 -0.0349186 -0.213957 115 140 255
0.326411 -0.0267873 -0.187706 117 138 255
0.212776 -0.184218 -0.206544 77 178 255
-0.153128 -0.338703 0.119205 38 217 255
0.110607 0.0730422 -0.0472823 143 112 255
-0.0392822 0.0727214 -0.133422 143 112 255
-0.211128 -0.233893 -0.00926826 64 191 255
0.36317 -0.227775 -0.198332 65 189 255
-0.0017799 -0.485807 -0.00403236 0 255 255
-0.120788 0.0731681 -0.119125 143 112 255
0.25285 0.0185119 -0.199129 129 126 255
-0.031023 -0.476133 -0.171736 2 253 255
0.258059 -0.101577 -0.205907 97 157 255
0.406761 0.0659358 -0.176028 141 113 255
-0.150327 -0.249817 0.299974 60 195 255
0.0488249 -0.482786 -0.134961 1 254 255
-0.0628272 0.0751906 0.0999686 143 112 255
0.187203 -0.478096 -0.167502 2 253 255
-0.214069 -0.055352 -0.0801134 110 145 255
-0.179155 -0.455187 0.106061 8 247 255
-0.211239 -0.374802 -0.045838 28 227 255
0.331137 -0.457669 -0.200457 7 248 255
-0.188657 -0.477754 -0.000437862 2 253 255
-0.20712 -0.140741 0.27169 88 167 255
-0.217311 -0.314199 -0.149241 44 211 255
-0.209973 0.0490545 0.163784 137 118 255
0.266986 -0.327722 -0.198781 40 215 255
0.0288769 0.0748403 -0.18994 143 112 255
0.153654 -0.0784363 -0.198307 104 151 255
-0.137827 -0.374801 0.0624631 28 227 255
-0.112565 -0.135654 -0.196483 89 165 255
-0.178708 0.0663216 -0.0328406 141 113 255
0.263661 0.0736393 -0.119063 143 112 255
-0.0309234 -0.37455 0.364885 28 227 255
-0.0638879 -0.371725 0.277484 29 226 255
0.315217 -0.148105 -0.192486 86 169 255
-0.204555 -0.06617 -0.172101 107 147 255
-0.114178 -0.482481 -0.100652 1 254 255
-0.150327 -0.274813 0.187471 54 201 255
-0.214722 -0.18209 0.0850802 78 177 255
0.424673 -0.124786 -0.212547 92 163 255
-0.219304 -0.24085 0.204141 63 192 255
-0.195691 0.00126659 -0.138586 125 130 255
0.194111 0.0734091 -0.0190258 143 112 255
-0.199725 -0.304526 -0.218308 46 209 255
0.31428 -0.482487 -0.14848 1 254 255
-0.181827 -0.324563 0.260798 40 214 255
-0.0914249 -0.384977 0.192239 26 229 255
-0.213807 -0.0265012 0.0349107 117 138 255
0.131785 -0.157062 -0.215205 84 171 255
-0.173823 0.0559029 -0.200502 139 116 255
-0.0663803 0.0405376 -0.20989 135 120 255
-0.137827 0.0751948 0.174966 143 112 255
0.150551 -0.313223 -0.193619 44 211 255
-0.00696422 -0.120324 -0.213282 93 162 255
-0.178776 -0.482512 -0.0800444 1 254 255
-0.202755 -0.418755 0.187927 17 238 255
0.153933 0.0729903 -0.124405 143 112 255
-0.0434211 -0.29684 -0.207526 48 207 255
-0.0971628 -0.390194 -0.219073 24 231 255
0.0934989 0.0742927 0.018175 143 112 255
-0.196874 -0.02044 0.226528 119 136 255
0.322622 0.0738714 -0.140219 143 112 255
-0.22524 -0.474863 -0.141198 3 252 255
0.0815635 0.0743819 -0.14026 143 112 255
0.200897 -0.039154 -0.192147 113 141 255
-0.0571453 -0.47002 -0.219892 4 251 255
-0.14205 -0.481139 0.0793675 1 254 255
-0.150327 -0.224797 -0.0500396 67 188 255
-0.213914 -0.280723 0.0743421 52 203 255
-0.202196 -0.415787 0.0381734 18 237 255
-0.102823 -0.0709312 -0.221791 105 149 255
-0.198362 -0.166043 -0.127787 81 173 255
-0.0113759 -0.387963 -0.216049 25 230 255
-0.193237 -0.118555 0.133609 94 161 255
0.236108 -0.480843 -0.125829 1 254 255
-0.17201 0.0680763 -0.11376 142 113 255
0.1479 -0.412865 -0.205988 19 236 255
-0.202388 -0.0912879 0.227549 101 154 255
-0.0162132 -0.00194228 -0.213205 124 131 255
0.079146 -0.287235 -0.196304 51 204 255
-0.0644735 0.0745936 0.0447013 143 112 255
0.267565 -0.258134 -0.195867 58 197 255
0.0131295 -0.181561 -0.213728 78 177 255
0.228914 0.0729533 -0.181646 143 112 255
0.301302 0.073944 -0.0516428 143 112 255
-0.213303 -0.184808 0.171769 77 178 255
0.412173 -0.287277 -0.225052 51 204 255
-0.193002 -0.00114271 0.0979327 124 131 255
-0.150327 -0.387292 -0.0500428 25 230 255
0.181531 -0.259974 -0.2026 58 197 255
-0.19962 -0.430232 -0.101494 14 241 255
-0.212398 -0.0985279 -0.21301 99 156 255
0.278813 -0.186835 -0.20878 76 179 255
0.061644 -0.393352 -0.216211 24 231 255
-0.219838 0.0353029 0.000875299 133 121 255
0.285802 -0.482383 -0.195674 1 254 255
-0.142767 -0.372584 0.333753 29 226 255
-0.167124 -0.397632 -0.216397 22 233 255
-0.221397 -0.465152 -0.0399657 5 250 255
0.149101 0.0209954 -0.193528 130 125 255
0.122432 -0.210449 -0.206887 70 185 255
-0.0147905 0.0728676 -0.0923508 143 112 255
-0.196317 -0.174408 -0.050977 80 175 255
-0.137827 -0.174803 0.0374646 79 176 255
-0.0768664 -0.201498 -0.208362 73 182 255
0.393583 0.0102348 -0.187427 127 128 255
0.00016403 -0.379085 0.31585 27 228 255
-0.196325 -0.24425 -0.138668 62 193 255
-0.225327 0.0376993 0.262463 134 121 255
-0.192012 -0.108592 0.048707 96 159 255
0.232258 -0.386551 -0.215038 25 230 255
-0.192392 -0.100601 -0.130275 97 157 255
-0.154688 -0.342117 0.1615 36 218 255
-0.215062 -0.239652 0.130676 63 192 255
-0.197674 -0.29593 0.0103214 48 207 255
-0.115724 -0.468609 0.0124795 4 251 255
-0.21524 -0.376206 0.267569 28 227 255
-0.218013 -0.403386 0.130532 21 234 255
-0.10216 0.074663 -0.160909 143 112 255
0.140362 0.0741405 0.0256467 143 112 255
-0.137827 -0.312298 -0.0375391 44 211 255
0.282373 0.0721227 -0.176254 143 112 255
-0.142163 -0.249982 -0.219555 60 195 255
0.313352 -0.344161 -0.203705 36 219 255
-0.210171 0.0189595 -0.205216 129 126 255
0.424673 -0.174783 -0.212549 80 175 255
-0.202921 -0.415179 -0.166659 18 237 255
0.133288 -0.479252 -0.17657 2 253 255
0.00126471 -0.281146 -0.198282 52 203 255
-0.0325166 0.0735173 -0.014972 143 112 255
0.0371727 -0.374823 0.424977 28 227 255
0.0211448 -0.442248 -0.204861 11 244 255
0.0619378 -0.0915553 -0.197752 101 154 255
0.146071 -0.483255 -0.0718258 1 254 255
0.38095 -0.0609072 -0.189136 109 146 255
-0.211386 -0.0165331 -0.0221251 120 135 255
-0.213174 -0.011854 0.165734 121 134 255
-0.037827 0.0752133 -0.225046 144 111 255
-0.213251 -0.275292 0.263018 54 201 255
-0.229075 -0.418059 -0.00239981 17 238 255
-0.078294 -0.442001 -0.192493 11 244 255
-0.149884 -0.479863 -0.143501 1 254 255
-0.150327 -0.0497925 -0.0375425 112 143 255
-0.04307 -0.482899 -0.113257 1 254 255
-0.204037 -0.354982 -0.00535238 32 222 255
0.29588 0.00686854 -0.187419 126 129 255
-0.16699 -0.282795 0.0667292 52 203 255
0.357701 -0.427467 -0.199406 15 240 255
0.174673 -0.0372917 0.099957 115 140 255
0.245159 -0.453755 -0.207417 8 247 255
-0.00600773 -0.0690409 -0.211045 107 147 255
0.0414488 -0.159092 -0.194458 84 171 255
-0.206636 0.0540493 0.101234 138 117 255
-0.213959 -0.360506 -0.0837761 32 223 255
-0.213434 -0.464165 0.175168 5 250 255
-0.212296 -0.178154 0.013345 79 176 255
-0.211271 -0.0874088 -0.0566329 102 153 255
0.162173 0.075212 0.0874545 144 111 255
-0.221122 -0.463344 0.0878578 6 249 255
0.0532669 0.0744485 -0.0338733 143 112 255
0.0267671 0.0286457 -0.204701 131 123 255
-0.194625 -0.281667 -0.0691685 52 203 255
-0.199663 0.060815 -0.143093 140 114 255
0.371891 -0.194713 -0.197637 73 181 255
-0.00850454 0.0724987 -0.158681 143 112 255
0.358659 -0.119363 -0.191671 94 161 255
-0.150327 -0.0497994 0.024962 111 144 255
-0.211081 -0.360325 0.0996237 32 223 255
0.295572 -0.28112 -0.208019 52 203 255
-0.096947 -0.358168 0.313099 32 222 255
0.217348 -0.206768 -0.194309 71 184 255
0.0401284 -0.242096 -0.194231 62 193 255
-0.137827 -0.262311 0.13747 56 198 255
-0.211302 -0.466838 -0.200331 5 250 255
0.152156 -0.115572 -0.192176 95 160 255
0.180992 0.0729276 -0.180827 143 112 255
-0.107265 0.0738976 0.034961 143 112 255
-0.00586189 0.0736193 0.0341776 143 112 255
-0.0958837 0.0733314 -0.0798686 143 112 255
0.203776 -0.308335 -0.195347 44 210 255
-0.212827 0.0752021 0.224961 143 112 255
-0.190673 -0.456841 0.227615 7 248 255
-0.16281 -0.22316 -0.0049487 67 188 255
-0.187839 -0.188225 -0.177224 76 179 255
-0.0445893 -0.124199 -0.213026 92 163 255
-0.142441 -0.0281474 -0.198154 117 138 255
-0.198094 -0.280866 0.180479 52 203 255
0.0399028 -0.328352 -0.198093 40 215 255
-0.211204 -0.173223 0.26194 80 175 255
-0.216439 -0.327475 0.245318 40 215 255
0.236974 -0.0809897 -0.192132 104 151 255
-0.137827 -0.424793 -4.19357e-05 16 239 255
-0.0684038 -0.00389895 -0.192334 123 131 255
0.0770215 -0.483859 -0.115217 0 255 255
-0.19572 -0.21936 -0.0904773 68 187 255
0.173051 -0.483063 -0.104646 1 254 255
-0.0524518 -0.252264 -0.21526 60 195 255
0.13239 -0.260455 -0.200474 58 197 255
-0.133644 -0.165354 -0.194586 81 173 255
0.208033 0.0734825 0.00286102 143 112 255
-0.223395 -0.00583134 -0.132716 123 131 255
0.0637946 0.0744173 0.0271099 143 112 255
0.143904 -0.0294402 -0.191236 117 138 255
-0.214496 -0.0936662 0.0703177 100 155 255
-0.106545 -0.31572 -0.21549 43 211 255
0.287173 0.0627186 -0.22505 140 114 255
0.324673 -0.0372901 -0.225044 115 140 255
-0.187812 -0.30153 0.121262 47 208 255
0.105905 0.0729782 -0.0786599 143 112 255
-0.198676 -0.240585 -0.209465 63 192 255
0.295385 -0.120668 -0.208763 93 162 255
-0.155758 -0.341034 0.306442 36 218 255
-0.152352 -0.482048 0.0304989 1 254 255
0.243155 -0.0202289 -0.192854 119 136 255
-0.128872 -0.0875989 -0.223145 102 153 255
0.107194 -0.377635 -0.215126 28 227 255
0.362173 0.0752178 -0.0250492 144 111 255
-0.150924 0.0737135 0.0986236 143 112 255
-0.144541 0.0467994 -0.180032 136 119 255
-0.150327 -0.0498082 0.124968 111 144 255
-0.202474 -0.184459 0.119272 77 178 255
-0.202763 -0.355323 -0.20676 32 222 255
0.355392 0.0718078 -0.174772 143 112 255
-0.0719462 -0.483427 -0.0675725 0 255 255
-0.180818 -0.223507 0.0407554 67 188 255
0.0266653 -0.473571 -0.210825 3 252 255
0.0759901 -0.187477 -0.195534 76 179 255
0.260595 -0.373136 -0.202738 29 226 255
-0.211102 -0.373811 0.0397076 29 226 255
-0.0253272 0.0751888 0.13747 143 112 255
0.0632238 -0.0337334 -0.195332 116 139 255
-0.150587 -0.32226 0.0834418 42 213 255
0.251213 0.0736316 -0.0985106 143 112 255
-0.201646 -0.0915851 0.277919 101 154 255
-0.187592 -0.221682 0.173675 67 188 255
-0.193989 -0.119232 -0.100299 94 161 255
0.112173 -0.0622967 0.0749602 108 147 255
0.209182 -0.458893 -0.20817 7 248 255
-0.180656 0.049076 0.027098 137 118 255
-0.176521 0.0419658 -0.0742413 135 120 255
0.387173 -0.474774 -0.225054 3 252 255
-0.211186 -0.0594128 -0.214366 109 146 255
-0.193111 -0.132963 -0.0125972 89 165 255
0.373804 -0.250923 -0.200476 60 195 255
-0.206609 -0.170301 -0.216042 81 174 255
0.048104 0.0727498 -0.098226 143 112 255
0.080622 -0.432757 -0.218959 13 242 255
-0.218352 -0.391177 0.205483 24 231 255
0.0719645 0.0492403 -0.187871 137 118 255
-0.219537 -0.400369 -0.133238 22 233 255
0.178921 -0.149565 -0.193382 86 169 255
0.00234495 -0.376807 0.354537 28 227 255
-0.0709848 0.0726078 -0.168607 143 112 255
0.108934 -0.104483 -0.210456 97 157 255
0.342952 0.0183607 -0.191618 129 126 255
0.381291 -0.35145 -0.199456 34 221 255
-0.214276 -0.4826 0.0388784 1 254 255
-0.00194928 -0.479472 -0.157989 2 253 255
-0.215931 -0.0349173 0.248098 115 140 255
-0.0803565 -0.374083 0.224511 28 227 255
-0.192395 -0.0554848 0.0297504 110 145 255
-0.150439 -0.476231 -0.177159 2 253 255
-0.0401257 -0.379007 -0.20623 27 228 255
-0.204875 -0.310514 -0.0306137 44 210 255
0.130722 -0.318393 -0.214892 43 211 255
-0.189294 -0.0811265 0.187947 103 152 255
-0.193123 -0.166408 0.172562 81 173 255
-0.0461714 -0.371685 0.322335 29 226 255
-0.216977 -0.320341 -0.140099 42 213 255
0.214303 -0.358367 -0.216476 32 222 255
-0.209992 -0.336525 0.179922 38 217 255
-0.0613431 -0.0520213 -0.193623 111 144 255
-0.0586337 -0.16201 -0.21379 83 172 255
-0.213534 -0.224102 0.265363 67 188 255
0.307915 -0.22065 -0.195726 68 187 255
-0.171666 -0.319834 -0.217969 42 213 255
-0.225201 -0.473404 -0.104616 3 252 255
-0.194013 0.00515961 0.212724 126 129 255
-0.184489 -0.379066 0.121647 27 228 255
0.30613 -0.425257 -0.202757 15 240 255
-0.0361132 0.0732948 -0.0484126 143 112 255
-0.215687 -0.0415103 -0.093318 113 141 255
0.437173 0.0127127 -0.212546 128 127 255
0.0183875 -0.375459 -0.215016 28 227 255
-0.12223 -0.24912 -0.201976 60 195 255
-0.220499 -0.440618 0.136543 11 244 255
0.374673 0.0752187 -0.0750498 144 111 255
0.106926 -0.480851 -0.163526 1 254 255
-0.191397 -0.402761 0.272624 21 234 255
-0.147477 -0.41201 -0.215444 19 236 255
-0.0271785 -0.47125 -0.209692 4 251 255
-0.214242 -0.413435 -0.0611216 18 237 255
-0.165926 -0.452859 0.0807258 8 247 255
-0.213199 -0.155157 -0.0630214 85 170 255
-0.008233 -0.191573 -0.203592 75 179 255
-0.217565 -0.0202642 -0.183288 119 136 255
-0.103281 -0.483598 -0.0409033 0 255 255
-0.129678 -0.356415 0.198414 32 222 255
0.252161 -0.137931 -0.196692 89 166 255
0.0871727 -0.362321 0.424976 31 224 255
-0.128677 0.049097 -0.0775277 137 118 255
-0.19667 0.0095393 0.039461 127 128 255
-0.137827 -0.362299 0.0124617 31 224 255
0.154445 -0.400696 -0.216975 22 233 255
0.321423 -0.0634907 -0.189147 108 147 255
-0.195647 -0.481751 -0.0540846 1 254 255
-0.208903 -0.0754804 0.141073 105 150 255
-0.183577 -0.136093 -0.17918 89 166 255
0.389795 -0.0247862 -0.186956 118 137 255
0.2438 -0.482912 -0.110122 1 254 255
0.0457608 -0.298836 -0.213816 48 207 255
0.286545 0.0738603 -0.0420238 143 112 255
0.017595 -0.101558 -0.214045 97 157 255
0.0895031 -0.225838 -0.198911 65 189 255
-0.19699 -0.163457 0.0909234 81 173 255
0.199738 -0.0716847 -0.202884 105 149 255
0.183652 -0.483343 -0.181308 1 254 255
0.437173 0.0752175 -0.200049 144 111 255
0.223326 -0.255223 -0.201244 59 195 255
0.0546064 0.072602 -0.14727 143 112 255
-0.0481843 -0.325503 -0.215816 40 214 255
-0.124367 0.00873302 -0.209599 126 129 255
-0.0595764 -0.479802 -0.155582 1 254 255
0.106956 0.0289734 -0.197027 131 123 255
0.133865 0.0729305 -0.127316 143 112 255
-0.220691 -0.185506 0.218349 77 178 255
-0.0630432 -0.406253 0.259556 20 235 255
0.325195 -0.297313 -0.197337 48 207 255
0.145916 -0.176475 -0.194909 79 176 255
-0.227439 -0.474526 -0.15849 3 252 255
0.20742 0.0199186 -0.189292 129 126 255
0.322477 -0.482485 -0.150993 1 254 255
-0.162827 -0.0497806 -0.13755 112 143 255
-0.210517 0.0120867 0.0986905 127 128 255
0.298027 0.0737839 -0.130959 143 112 255
0.0258417 0.0744459 0.00953587 143 112 255
-0.150327 -0.112302 0.0374635 95 160 255
0.17706 0.0738441 -0.00874934 143 112 255
-0.216955 0.034811 -0.10211 133 121 255
-0.196679 -0.224593 -0.136402 67 188 255
0.124701 -0.454233 -0.20624 8 247 255
-0.19952 -0.419998 -0.215241 17 238 255
0.00373674 0.0743209 -0.0915128 143 112 255
0.0246482 0.00890592 -0.196407 127 128 255
0.379586 -0.307794 -0.201352 44 210 255
-0.00618549 -0.235897 -0.200741 64 191 255
-0.162827 0.0752256 -0.225054 144 111 255
-0.0812705 -0.373995 0.355232 29 226 255
