ply
format ascii 1.0
comment Created by Open3D
element vertex 1209
property double x
property double y
property double z
property uchar red
property uchar green
property uchar blue
end_header
0.0451925 -0.0935953 -0.223947 127 0 255
0.0202019 -0.0137696 0.032418 127 0 255
0.139783 -0.247753 0.105543 127 0 255
0.0964197 -0.0700102 0.123405 127 0 255
0.0699049 -0.242427 0.104166 127 0 255
0.0358335 0.0741512 -0.26183 91 56 253
0.000963846 -0.361828 0.0907461 127 0 255
0.0733506 0.0837487 0.104068 85 65 252
0.170109 -0.299706 0.101155 127 0 255
0.0772916 -0.323778 0.0710855 127 0 255
0.323783 -0.350174 0.114374 127 0 255
0.0142295 0.0668551 -0.343337 93 53 253
0.149052 -0.106068 0.122719 127 0 255
0.284964 0.0719354 0.0359547 91 56 253
0.283614 -0.0500493 0.126164 127 0 255
0.174673 -0.387283 0.0499512 127 0 255
0.0420654 -0.363307 -0.116057 127 0 255
0.179069 0.0767564 0.0688448 89 59 253
0.0359886 -0.133913 -0.144913 127 0 255
-0.011895 -0.370606 0.185573 127 0 255
0.0379787 -0.311549 -0.266118 127 0 255
0.0124155 -0.204248 -0.130651 127 0 255
0.141398 -0.360351 0.129702 127 0 255
0.271093 -0.37161 0.110319 127 0 255
0.0857095 -0.383313 0.0937322 127 0 255
0.281082 -0.1228 0.136961 127 0 255
0.3032 -0.299831 0.127381 127 0 255
0.0429432 -0.2026 0.0667753 127 0 255
0.0886295 0.07302 -0.106034 91 56 253
0.240269 -0.0256596 0.125879 127 0 255
0.0855256 -0.022251 0.107988 127 0 255
0.0396091 0.00562989 -0.173583 125 3 254
0.0247896 -0.247857 -0.0557476 127 0 255
0.256057 0.0734058 0.0863209 91 56 253
0.0520121 -0.326451 -0.0570739 127 0 255
0.0313233 -0.0694268 -0.307648 127 0 255
0.24993 -0.221578 0.101625 127 0 255
0.112907 0.0780156 0.0686138 89 59 253
0.0156265 -0.0843924 -0.040195 127 0 255
0.00665733 -0.333916 -0.318831 127 0 255
0.124673 -0.0622783 0.0124482 127 0 255
0.0255438 0.0498193 0.0993995 103 37 254
0.0289509 0.00996494 -0.298686 123 6 254
0.0384515 -0.253575 -0.309255 127 0 255
0.0402764 -0.155063 0.00429499 127 0 255
0.0334419 -0.390598 -0.0172651 127 0 255
0.109003 0.0729593 -0.305578 91 56 253
0.17482 0.0734418 -0.127337 91 56 253
0.211599 -0.270336 0.10651 127 0 255
0.003674 -0.301779 -0.0517782 127 0 255
0.0275912 0.0651343 -0.0729016 95 49 253
0.124673 -0.262284 0.012452 127 0 255
0.0498576 -0.32887 0.0279561 127 0 255
0.340302 0.0212137 0.134243 117 15 254
0.313053 -0.224528 0.133641 127 0 255
0.0692938 -0.0103133 -0.144712 127 0 255
0.0343828 -0.382717 0.04554 127 0 255
0.0103476 -0.219315 -0.254683 127 0 255
0.186364 -0.15392 0.127298 127 0 255
0.149673 -0.112286 0.0624533 127 0 255
0.17274 -0.383647 0.106363 127 0 255
0.0428497 -0.0945324 0.075856 127 0 255
0.0121731 -0.387274 -0.200054 127 0 255
0.0174108 -0.037052 -0.187457 127 0 255
0.0369192 0.0715302 0.0442123 91 56 253
0.259948 -0.105395 0.100729 127 0 255
0.133251 0.0731807 -0.0920458 91 56 253
0.0556883 -0.252264 -0.0814454 127 0 255
0.0472256 -0.173101 -0.107108 127 0 255
0.0154938 -0.169439 0.0624574 127 0 255
0.332937 -0.181793 0.108534 127 0 255
0.09393 -0.14326 0.107858 127 0 255
0.0387265 -0.130847 -0.256503 127 0 255
0.0401165 -0.143544 -0.0411371 127 0 255
0.191003 0.0720521 -0.0837269 91 56 253
0.174826 0.0743069 -0.0119143 89 59 253
0.237732 -0.377417 0.127571 127 0 255
0.0373108 0.0185346 -0.238416 119 12 254
0.200893 -0.107582 0.131102 127 0 255
0.0401276 -0.355436 -0.179274 127 0 255
0.0402784 -0.193649 -0.00920729 127 0 255
0.0389436 -0.0397149 0.0190537 127 0 255
0.150743 0.0741044 -0.223442 91 56 253
0.205441 -0.321097 0.12825 127 0 255
0.0101893 -0.15444 -0.292207 127 0 255
0.0231084 -0.0903442 -0.376186 127 0 255
0.0207289 -0.156089 -0.180002 127 0 255
0.0613917 0.00223646 0.130176 127 0 255
0.137073 -0.00950382 0.132772 127 0 255
0.239847 0.0295363 0.130007 113 21 254
0.027299 -0.00388869 0.0820192 127 0 255
0.233856 0.0738061 -0.0227457 91 56 253
-0.00411691 -0.317333 -0.0133698 127 0 255
0.037689 -0.282864 0.0352816 127 0 255
0.277442 -0.182692 0.134027 127 0 255
0.0865628 -0.360251 0.033367 127 0 255
0.258715 -0.32805 0.109627 127 0 255
0.0235784 -0.249425 0.100878 127 0 255
0.087173 -0.212286 0.0124532 127 0 255
0.099017 -0.18693 0.100596 127 0 255
0.00127439 -0.353154 0.129855 127 0 255
0.0234238 -0.306533 -0.137941 127 0 255
0.0248463 0.0688493 -0.0105938 93 53 253
0.258127 -0.0604229 0.101497 127 0 255
0.0699488 0.0726686 -0.340474 91 56 253
0.0269359 -0.0629604 0.104345 127 0 255
0.0251458 -0.307238 -0.22509 127 0 255
0.0198409 -0.310056 0.0801477 127 0 255
0.142245 -0.194861 0.128724 127 0 255
0.180584 0.035475 0.12986 109 28 254
0.302394 0.0715645 0.00518738 91 56 253
0.319633 0.0654085 0.114189 95 49 253
0.0693204 -0.408214 0.0827779 127 0 255
0.118563 0.0733406 -0.0288049 91 56 253
0.0232056 0.0360216 -0.368603 109 28 254
0.0121728 0.0626924 0.137467 95 49 253
0.0742516 -0.0890159 -0.086155 127 0 255
0.0896413 0.0730347 -0.192885 91 56 253
0.0786717 0.0724589 0.0384985 91 56 253
0.0522672 -0.113877 -0.200575 127 0 255
0.000447143 0.0676616 -0.236182 93 53 253
0.0445143 -0.257007 -0.205077 127 0 255
0.321797 -0.0449226 0.139145 127 0 255
0.0147044 -0.111858 -0.113885 127 0 255
0.018033 -0.0796417 -0.268291 127 0 255
0.0701678 -0.296477 -0.0200209 127 0 255
0.0381885 0.00501569 -0.10322 125 3 254
0.206072 -0.0646528 0.100576 127 0 255
0.134693 -0.316576 0.111264 127 0 255
-0.00500444 -0.0525073 -0.371271 127 0 255
0.0246731 -0.337274 -0.362554 127 0 255
0.209409 0.0147223 0.100635 121 9 254
0.00197855 -0.00146368 -0.154609 127 0 255
0.26745 -0.256695 0.103288 127 0 255
0.0357847 0.0547584 -0.292693 99 43 254
0.0610478 -0.083246 0.122221 127 0 255
0.00953803 -0.126422 -0.343662 127 0 255
0.112173 -0.149784 0.0124522 127 0 255
0.109072 0.0203546 0.135326 117 15 254
0.0617843 -0.0581306 -0.176317 127 0 255
0.0136474 -0.0629029 0.0274608 127 0 255
0.0318152 -0.0151867 -0.27319 127 0 255
0.021872 -0.183978 -0.363481 127 0 255
0.149673 -0.324783 0.0124511 127 0 255
0.05763 0.0683587 -0.116602 93 53 253
0.0121731 -0.399777 -0.125053 127 0 255
0.0172626 -0.192079 -0.0723283 127 0 255
0.0451176 -0.212686 -0.267754 127 0 255
0.223617 0.0726142 -0.110436 91 56 253
0.00857139 0.0206319 0.0584284 117 15 254
0.197719 -0.228543 0.10425 127 0 255
0.0603565 -0.291153 0.103906 127 0 255
0.196245 -0.358476 0.0789357 127 0 255
0.00930457 -0.262178 0.0522252 127 0 255
0.0430549 -0.341291 -0.016645 127 0 255
0.0115016 -0.306051 -0.0855484 127 0 255
0.0631051 -0.150212 0.126321 127 0 255
0.0208508 -0.0228317 -0.0502871 127 0 255
0.112405 -0.10668 0.126594 127 0 255
0.359941 -0.00861231 0.112751 127 0 255
0.280377 -0.0858496 0.136873 127 0 255
0.0373782 0.0361948 -0.209894 109 28 254
0.0161898 -0.411272 0.0948403 127 0 255
0.0356299 -0.111811 -0.297076 127 0 255
0.0567815 -0.0392717 0.0949027 127 0 255
0.149673 -0.199783 0.0124515 127 0 255
0.123501 0.073163 -0.130307 91 56 253
0.0224326 -0.22225 0.0301432 127 0 255
0.0446981 -0.274306 -0.291804 127 0 255
0.143486 0.0730241 0.0260791 91 56 253
0.0141905 -0.155989 -0.107806 127 0 255
0.17259 0.0743962 -0.185188 89 59 253
0.228181 0.0747146 0.0636448 89 59 253
0.124673 -0.387283 0.0124512 127 0 255
0.0100578 -0.230786 -0.291282 127 0 255
0.0454041 -0.269836 -0.120593 127 0 255
0.122773 -0.242068 0.12821 127 0 255
0.0306173 -0.412564 0.0329555 127 0 255
0.038172 -0.103682 0.0433473 127 0 255
0.0327789 -0.393127 -0.0462374 127 0 255
0.0129265 -0.354093 0.0191242 127 0 255
0.193906 -0.385681 0.129048 127 0 255
0.112768 -0.340064 0.0823802 127 0 255
0.13809 0.0721301 0.0981227 91 56 253
0.0412866 -0.268574 -0.033402 127 0 255
0.32524 -0.093894 0.108651 127 0 255
0.0253773 0.0265312 0.0199316 115 18 254
0.149673 -0.274785 0.0624526 127 0 255
0.0190836 -0.0665976 -0.222865 127 0 255
0.0419437 -0.192092 -0.181465 127 0 255
0.333863 -0.294876 0.133123 127 0 255
0.106047 -0.0699751 0.0930443 127 0 255
0.0358223 0.0333387 -0.0512034 111 25 254
0.245548 0.0731071 0.0193603 91 56 253
0.0153328 -0.34004 -0.178435 127 0 255
0.0220578 -0.221567 -0.352346 127 0 255
0.313479 -0.0104015 0.139941 127 0 255
0.0295418 -0.0383065 -0.319801 127 0 255
0.0119661 -0.0709172 -0.0877229 127 0 255
0.185134 -0.0930783 0.0964273 127 0 255
0.000574448 0.0580331 -0.279017 99 43 254
0.0301566 -0.177029 -0.323149 127 0 255
0.074673 -0.074782 0.0124506 127 0 255
0.149673 -0.199786 0.0624534 127 0 255
0.200179 -0.168746 0.101931 127 0 255
0.0758666 0.0728808 -0.267976 91 56 253
0.0474617 -0.12401 0.0975223 127 0 255
0.104786 -0.274396 0.105181 127 0 255
0.0578033 -0.333203 0.125946 127 0 255
0.0277396 0.0138922 0.120896 121 9 254
0.325552 0.0697392 0.0501835 93 53 253
0.0380945 -0.367696 0.0674725 127 0 255
0.113667 -0.153859 0.133956 127 0 255
0.193607 0.0733557 0.0178289 91 56 253
0.0188651 -0.0994201 0.0011951 127 0 255
0.271518 0.0297606 0.130009 113 21 254
0.0997234 0.0728558 -0.336143 91 56 253
0.309656 -0.369296 0.124761 127 0 255
0.144012 0.0733269 -0.0553809 91 56 253
0.0172327 -0.104494 -0.183265 127 0 255
0.22612 0.0719997 -0.0568209 91 56 253
0.0213481 -0.26082 -0.236541 127 0 255
0.153505 -0.368285 0.069635 127 0 255
0.0193159 -0.184356 0.0882952 127 0 255
0.0748399 0.0729977 -0.154349 91 56 253
0.00973734 -0.309561 -0.296757 127 0 255
0.0202954 -0.240323 -0.156598 127 0 255
0.200027 0.0735328 -0.163797 91 56 253
0.0288003 0.0686917 -0.366054 93 53 253
0.0235709 -0.35916 -0.105858 127 0 255
0.162774 0.036806 0.10073 109 28 254
0.085177 -0.382921 0.0545705 127 0 255
0.265809 -0.222843 0.128311 127 0 255
0.0054399 -0.357179 -0.0231219 127 0 255
0.00743874 0.0724082 -0.192361 91 56 253
0.0556558 -0.387224 0.125133 127 0 255
0.0417115 -0.0919423 -0.0540414 127 0 255
0.0368064 -0.00962471 -0.0179806 127 0 255
0.251336 -0.151296 0.127335 127 0 255
0.235063 -0.275495 0.12747 127 0 255
0.318691 -0.135978 0.139297 127 0 255
0.123197 -0.0545618 0.123447 127 0 255
0.0244444 -0.000674875 -0.357658 127 0 255
-0.00692704 -0.105071 -0.366389 127 0 255
0.0925189 0.0731453 -0.0534796 91 56 253
0.00580002 -0.367037 0.165006 127 0 255
0.0337609 -0.0397835 0.0542226 127 0 255
0.0439837 -0.302742 -0.159476 127 0 255
0.0405159 0.047307 0.0657144 103 37 254
0.0611485 -0.374478 -0.000766824 127 0 255
0.114325 -0.398527 0.0939572 127 0 255
0.00484105 0.0206281 -0.315062 117 15 254
0.04746 0.0742226 -0.224972 89 59 253
0.127915 0.0731339 -0.263273 91 56 253
0.0168137 -0.159936 -0.0572271 127 0 255
0.0164654 -0.0670295 -0.154648 127 0 255
0.33619 -0.255851 0.134214 127 0 255
0.177505 -0.265237 0.1298 127 0 255
0.0996731 -0.299774 -0.312554 127 0 255
0.136349 0.0732207 -0.178466 91 56 253
0.0154097 -0.31686 0.0439693 127 0 255
0.0341513 0.0333821 -0.17326 111 25 254
0.0432037 -0.146551 -0.226963 127 0 255
0.0260396 0.0717375 -0.0967613 91 56 253
0.0975786 0.0603478 0.0977701 97 46 253
0.0456187 -0.428947 0.113008 127 0 255
0.341376 0.0668872 0.0961953 93 53 253
0.00959559 -0.138387 0.0290469 127 0 255
0.0121731 -0.374774 -0.262554 127 0 255
0.0206388 -0.193279 -0.222881 127 0 255
0.0479992 -0.218146 0.120581 127 0 255
0.0918249 0.0769178 0.000689434 89 59 253
0.258654 0.0368836 0.0942699 109 28 254
0.169004 -0.356859 0.129584 127 0 255
0.0160325 -0.269214 -0.0886908 127 0 255
0.171442 -0.201055 0.128945 127 0 255
0.00712598 -0.0444305 -0.256643 127 0 255
0.0148205 -0.105765 -0.256679 127 0 255
0.28188 -0.327794 0.110723 127 0 255
0.0126713 -0.223739 -0.114397 127 0 255
0.342058 -0.211468 0.134811 127 0 255
0.0489682 -0.0623752 -0.209035 127 0 255
0.238807 -0.0707792 0.125841 127 0 255
0.0377729 -0.343526 -0.222693 127 0 255
0.0176707 -0.232126 0.00354804 127 0 255
0.0183292 -0.105869 0.0793217 127 0 255
0.0450328 -0.324329 -0.108409 127 0 255
0.0171668 0.00568474 -0.20935 125 3 254
0.0309461 -0.284368 0.117457 127 0 255
0.233466 -0.189243 0.101189 127 0 255
0.00874244 -0.283705 -0.354696 127 0 255
0.11214 -0.401328 0.135289 127 0 255
0.172682 0.076793 0.0893202 89 59 253
0.288597 0.0716209 0.091976 91 56 253
0.037329 -0.299395 0.0133366 127 0 255
0.215711 -0.115047 0.100992 127 0 255
-0.0097888 -0.223723 -0.357832 127 0 255
0.0346608 -0.160233 0.114465 127 0 255
0.337157 -0.0661202 0.134937 127 0 255
0.0391734 -0.12512 -0.0937739 127 0 255
0.0792186 -0.260935 0.126369 127 0 255
0.0102798 -0.192556 -0.291547 127 0 255
0.194178 -0.0299254 0.123799 127 0 255
0.0386341 -0.0475092 -0.105809 127 0 255
0.277265 -0.19818 0.101472 127 0 255
0.074673 -0.0497848 0.0499525 127 0 255
0.0544125 -0.0478691 0.126602 127 0 255
0.149673 -0.274783 0.0124513 127 0 255
0.0576297 0.0841945 0.103929 85 65 252
0.177602 0.0740769 -0.0470579 91 56 253
0.035952 0.0841646 -0.0061883 85 65 252
0.00579287 -0.343842 -0.0749348 127 0 255
0.333049 -0.323974 0.130298 127 0 255
0.053205 0.0747031 -0.312342 89 59 253
0.046318 -0.185604 -0.072352 127 0 255
0.136753 -0.103329 0.10697 127 0 255
0.0892812 -0.326327 0.104438 127 0 255
0.288765 -0.0155579 0.109038 127 0 255
0.104504 -0.0303265 0.126656 127 0 255
0.0171504 -0.1878 -0.0239811 127 0 255
0.0917019 0.0748762 -0.226707 89 59 253
0.0360484 -0.104965 -0.150086 127 0 255
0.340721 -0.113234 0.13388 127 0 255
0.0102808 -0.372623 0.044984 127 0 255
0.0236725 -0.0599635 -0.371063 127 0 255
0.141016 0.0727031 0.0563056 91 56 253
0.0281268 0.0744529 -0.132821 89 59 253
0.0189281 -0.0573433 -0.0361805 127 0 255
0.165588 -0.149328 0.125802 127 0 255
0.216237 -0.35004 0.0867782 127 0 255
0.0393162 -0.157457 -0.164575 127 0 255
0.0373834 -0.2311 0.080443 127 0 255
0.149673 -0.149785 0.0374528 127 0 255
0.0121731 -0.412279 -0.0875516 127 0 255
0.148884 0.0725092 -0.125166 91 56 253
0.150979 -0.0493994 0.105933 127 0 255
0.039764 -0.00265385 -0.067522 127 0 255
0.121868 -0.309985 0.127576 127 0 255
0.0445138 -0.346569 -0.0648814 127 0 255
0.0166984 0.00215029 0.00209378 127 0 255
0.362173 -0.0372814 -0.17505 127 0 255
0.0758682 -0.339704 0.0581383 127 0 255
0.274673 0.0752256 -0.0750543 89 59 253
0.0388102 0.0216262 -0.121915 117 15 254
0.00589598 -0.0154416 -0.327548 127 0 255
0.204147 0.0690725 0.116807 93 53 253
0.183445 -0.300984 0.129596 127 0 255
0.0145098 -0.0752183 -0.312077 127 0 255
0.0238148 -0.229711 -0.212855 127 0 255
0.135634 -0.224551 0.103692 127 0 255
0.292121 -0.261244 0.129765 127 0 255
0.03709 -0.0083518 -0.234653 127 0 255
0.149673 -0.0747793 0.0124489 127 0 255
0.0388545 -0.187437 0.0363381 127 0 255
0.0500034 0.064729 -0.17951 95 49 253
0.0390098 -0.0198714 -0.160807 127 0 255
0.30378 0.026357 0.139451 115 18 254
0.0341425 -0.40195 0.00358697 127 0 255
0.152362 -0.401508 0.115561 127 0 255
0.0658952 0.073619 0.0641063 91 56 253
0.144532 0.00164234 0.104591 127 0 255
0.0122232 -0.0827835 0.0626025 127 0 255
0.0402417 -0.233494 -0.31486 127 0 255
0.0202759 -0.125107 -0.210447 127 0 255
0.0426579 -0.136182 -0.00659264 127 0 255
0.248144 0.073874 0.109412 91 56 253
0.242736 -0.00232554 0.127125 127 0 255
0.0205991 -0.36095 0.134536 127 0 255
0.0227825 -0.276665 -0.274307 127 0 255
0.0140329 -0.161599 -0.134426 127 0 255
0.0230324 -0.277739 -0.0241871 127 0 255
0.0466282 -0.23175 -0.169356 127 0 255
0.0131883 -0.122466 -0.063445 127 0 255
0.286628 -0.119989 0.100955 127 0 255
0.00752952 -0.163677 -0.330086 127 0 255
0.27201 0.0728461 0.0550344 91 56 253
0.0453439 -0.207257 -0.247919 127 0 255
0.0671424 0.0716757 -0.087773 91 56 253
0.123447 0.0449658 0.103549 105 34 254
0.0531099 -0.300139 0.0588616 127 0 255
0.295233 -0.158592 0.133651 127 0 255
0.0820673 -0.302661 -0.00405683 127 0 255
0.0532834 -0.106894 0.122471 127 0 255
0.221416 -0.300899 0.108719 127 0 255
0.087173 -0.162285 0.0124529 127 0 255
0.0228997 -0.277482 -0.213483 127 0 255
0.00698888 0.0622638 -0.337299 97 46 253
-0.00214388 0.0460153 -0.251113 105 34 254
-0.0093757 -0.0163559 -0.375898 127 0 255
0.0202379 0.0655193 0.0494312 95 49 253
0.149673 -0.0622831 0.0624514 127 0 255
0.196178 -0.227422 0.128776 127 0 255
0.0229349 -0.115766 -0.368709 127 0 255
0.0887092 -0.220062 0.103382 127 0 255
0.337502 0.0504586 0.118944 103 37 254
-0.00119732 -0.318025 -0.349809 127 0 255
0.0411326 -0.13673 -0.298805 127 0 255
0.0398202 -0.362626 -0.149384 127 0 255
0.266836 0.0721536 -0.0225543 91 56 253
0.111373 -0.177025 0.132569 127 0 255
0.108146 0.0775334 0.0391999 89 59 253
0.2477 -0.0375275 0.101806 127 0 255
0.0531188 -0.419435 0.0764106 127 0 255
0.2789 -0.375657 0.125344 127 0 255
0.220128 -0.348736 0.128298 127 0 255
0.0566195 0.0453424 0.120385 105 34 254
0.165475 0.0733936 -0.0847172 91 56 253
0.277638 -0.292631 0.11525 127 0 255
0.014663 -0.3377 -0.269718 127 0 255
0.206985 0.0737293 -0.0149085 91 56 253
0.314239 0.0707187 0.0351934 91 56 253
0.0621645 0.0776331 0.0150036 89 59 253
0.0567801 -0.015636 0.0965181 127 0 255
0.0389153 -0.231466 -0.0309372 127 0 255
0.133967 -0.275582 0.12841 127 0 255
0.127563 0.0760058 -0.00352304 89 59 253
0.0894624 -0.0795856 0.0947477 127 0 255
0.0294299 -0.322918 -0.0453719 127 0 255
0.337452 -0.171585 0.13445 127 0 255
0.016607 -0.0308501 -0.0858743 127 0 255
0.119728 -0.371807 0.0784047 127 0 255
0.0397091 -0.322385 -0.203175 127 0 255
0.0666149 0.0731446 -0.0327476 91 56 253
0.00996428 -0.434752 0.0626928 127 0 255
0.0126079 -0.260615 0.0691397 127 0 255
0.0298366 0.0228553 -0.27086 117 15 254
0.0386094 -0.0694553 -0.239888 127 0 255
0.0881638 0.0728679 -0.297144 91 56 253
0.108494 0.0730593 -0.0951903 91 56 253
0.196201 -0.0799027 0.123526 127 0 255
0.0942994 -0.374725 0.129879 127 0 255
-0.00864115 0.0480804 -0.369871 103 37 254
0.0484022 -0.25771 -0.105807 127 0 255
0.166925 -0.329527 0.10233 127 0 255
0.176703 0.0763406 0.0397859 89 59 253
0.0189559 -0.142152 0.0814524 127 0 255
0.0138147 -0.292013 0.0120424 127 0 255
0.0371603 0.00695296 0.0572329 125 3 254
0.0252839 -0.279873 -0.156306 127 0 255
0.106389 0.0731104 -0.153278 91 56 253
0.0167172 -0.174927 -0.256955 127 0 255
0.298562 -0.215894 0.133236 127 0 255
0.155447 0.0683432 0.119574 93 53 253
0.0170038 -0.393446 0.0964933 127 0 255
0.0252456 0.0435711 -0.0833552 105 34 254
0.112173 -0.0997811 0.01245 127 0 255
0.0222699 -0.330702 0.0901422 127 0 255
0.126049 0.0731464 -0.208507 91 56 253
0.222068 0.0722188 -0.0824497 91 56 253
0.0118714 -0.0468398 0.0499368 127 0 255
0.087173 -0.412283 0.024951 127 0 255
0.21977 0.0214315 0.127642 117 15 254
0.0375869 -0.298385 -0.246102 127 0 255
0.036974 -0.0756095 -0.0059128 127 0 255
0.0407014 -0.0608075 -0.149913 127 0 255
0.0393744 -0.235828 0.014352 127 0 255
0.185767 0.0742782 -0.126896 89 59 253
0.271174 -0.0784405 0.106751 127 0 255
0.0776145 -0.172935 0.129111 127 0 255
0.234807 -0.174951 0.132716 127 0 255
0.0256734 0.0236153 -0.0343606 115 18 254
0.0226831 -0.199206 -0.183694 127 0 255
0.124673 -0.299774 -0.287554 127 0 255
0.0976219 0.0109323 0.106928 123 6 254
0.062173 -0.124787 0.049954 127 0 255
0.0501389 -0.139797 -0.200831 127 0 255
0.00440077 -0.338356 0.0030808 127 0 255
0.177673 -0.00713277 0.102798 127 0 255
0.149673 -0.312284 0.0499522 127 0 255
0.00903706 -0.165902 0.0311616 127 0 255
0.227235 -0.239656 0.127523 127 0 255
0.0301717 -0.00703884 0.121004 127 0 255
0.0108529 -0.114396 -0.316494 127 0 255
0.251988 -0.118534 0.128001 127 0 255
0.0378183 -0.304276 0.123705 127 0 255
0.00564896 -0.287102 -0.0489558 127 0 255
0.0225735 0.0738125 -0.248438 91 56 253
0.105177 0.0685393 0.119706 93 53 253
0.124673 -0.224784 0.0124521 127 0 255
0.310118 -0.0891228 0.141468 127 0 255
0.040331 -0.0667996 -0.0599892 127 0 255
0.192137 -0.186894 0.13034 127 0 255
0.0384355 -0.119196 -0.122403 127 0 255
0.165237 -0.111437 0.126055 127 0 255
0.0328033 -0.207118 -0.327569 127 0 255
0.042297 -0.197001 -0.109566 127 0 255
0.0170742 -0.0423827 -0.212449 127 0 255
0.0249679 -0.382862 -0.0546328 127 0 255
0.285647 0.0530383 0.131416 101 40 254
0.227667 0.0738816 0.0302725 91 56 253
0.0152852 -0.294785 -0.106474 127 0 255
0.288644 -0.032327 0.128686 127 0 255
0.0411263 -0.223669 -0.0670505 127 0 255
0.228747 0.0726028 0.0816755 91 56 253
0.0714409 -0.407246 0.136377 127 0 255
0.209196 -0.384052 0.125787 127 0 255
0.000283802 0.00953148 -0.160668 123 6 254
0.135456 -0.16582 0.106013 127 0 255
0.172312 -0.252715 0.105224 127 0 255
0.158385 0.0736009 -0.0156463 91 56 253
0.000829772 -0.243259 -0.346669 127 0 255
0.0816315 -0.298467 0.12381 127 0 255
0.135333 -0.361819 0.129685 127 0 255
0.0431947 -0.0278336 -0.127999 127 0 255
0.0403995 -0.129081 -0.0361728 127 0 255
0.321408 -0.180768 0.108869 127 0 255
0.347894 -0.0400584 0.110599 127 0 255
0.0309873 -0.0209773 -0.286742 127 0 255
0.043494 -0.273522 0.0793633 127 0 255
0.0387124 -0.352247 0.0150584 127 0 255
0.124673 -0.349783 0.0124515 127 0 255
0.112173 -0.0497803 0.0374496 127 0 255
0.0384406 -0.240666 -0.247816 127 0 255
0.0121731 -0.362274 -0.312554 127 0 255
0.152561 -0.0200667 0.130198 127 0 255
0.148191 0.0723952 -0.159287 91 56 253
0.0426495 -0.366768 -0.0934188 127 0 255
0.0485041 -0.237495 0.124855 127 0 255
0.027132 -0.0728079 0.106173 127 0 255
0.10319 -0.134551 0.107787 127 0 255
0.0199128 -0.000352448 -0.102007 127 0 255
0.045164 -0.192301 -0.287153 127 0 255
0.325013 -0.296135 0.119101 127 0 255
0.0825946 -0.344711 0.127601 127 0 255
0.0316217 0.0740816 -0.042827 91 56 253
0.0184585 -0.295672 -0.326251 127 0 255
0.0132252 -0.151874 -0.280393 127 0 255
0.00894643 -0.0613032 -0.340412 127 0 255
0.207516 -0.037721 0.102334 127 0 255
0.037469 -0.347769 0.067579 127 0 255
0.200651 -0.152681 0.101839 127 0 255
0.0516351 0.0745932 -0.339675 89 59 253
0.0444186 -0.188788 -0.221623 127 0 255
0.0957527 -0.399825 0.0783272 127 0 255
0.299673 -0.349785 0.0874524 127 0 255
0.263827 0.0737399 0.0104467 91 56 253
0.240557 -0.265614 0.10483 127 0 255
0.0240751 0.0451674 -0.137748 105 34 254
0.255531 -0.335266 0.125334 127 0 255
0.0164708 -0.0949787 0.0199435 127 0 255
-0.0068163 0.0148987 -0.369437 121 9 254
-0.000158414 0.0687947 -0.220545 93 53 253
0.0404174 -0.201951 0.00542672 127 0 255
-0.00222555 -0.363705 0.120679 127 0 255
0.0155708 -0.33856 -0.152723 127 0 255
0.0327664 -0.0733951 -0.288461 127 0 255
0.0160002 -0.0706593 -0.176515 127 0 255
0.0245726 0.0698086 0.020499 93 53 253
0.0367574 0.0381194 0.0824596 109 28 254
0.163006 -0.0724316 0.105594 127 0 255
0.217032 -0.369937 0.0909224 127 0 255
0.120598 0.0745953 -0.252023 89 59 253
0.113667 0.0742891 -0.0555626 89 59 253
0.00857435 -0.367739 0.183069 127 0 255
0.341209 -0.00271098 0.134671 127 0 255
0.0758063 -0.367776 0.0221941 127 0 255
0.0793675 0.0734422 -0.192068 91 56 253
0.0318693 -0.322118 -0.293689 127 0 255
0.0701975 0.0744302 -0.124649 89 59 253
0.149673 -0.249785 0.0624529 127 0 255
0.0223865 -0.162601 -0.360763 127 0 255
0.0220384 -0.219022 0.0558576 127 0 255
0.012173 -0.437281 0.0249502 127 0 255
0.015005 -0.0866001 -0.106763 127 0 255
0.190041 0.0764239 0.0764617 89 59 253
0.0377393 -0.195035 -0.0467976 127 0 255
0.00282508 0.0564095 -0.304028 99 43 254
0.204355 0.0743972 -0.154698 89 59 253
0.0384112 -0.110658 -0.26558 127 0 255
0.149806 -0.294956 0.109228 127 0 255
0.0139386 -0.163094 -0.083545 127 0 255
0.307924 0.0707629 0.0815859 91 56 253
0.0495646 -0.301927 -0.0416242 127 0 255
0.253253 -0.00366876 0.0999652 127 0 255
0.290063 -0.229268 0.112526 127 0 255
0.0150835 -0.106145 -0.0391249 127 0 255
0.0451387 -0.313708 -0.0976143 127 0 255
0.0180283 -0.0538103 0.00374862 127 0 255
0.0192259 -0.231257 0.09876 127 0 255
0.0377975 -0.268653 -0.177096 127 0 255
0.0393827 -0.0281397 -0.244299 127 0 255
0.114871 -0.0492529 0.0940728 127 0 255
0.040884 -0.153955 0.0843781 127 0 255
0.0250759 0.0223365 -0.327868 117 15 254
0.0386506 -0.405188 0.118431 127 0 255
0.0438922 -0.221655 -0.147931 127 0 255
0.0379243 -0.357963 -0.186607 127 0 255
0.0385308 0.0566951 -0.269314 99 43 254
0.150218 0.0739564 -0.219833 91 56 253
0.185052 -0.348057 0.131238 127 0 255
0.0208551 0.0457752 -0.189493 105 34 254
0.342441 -0.132093 0.132708 127 0 255
0.038075 -0.134008 0.0289986 127 0 255
0.0259604 -0.394793 0.0661959 127 0 255
0.0259242 0.0382807 -0.00113948 109 28 254
0.235524 0.0378986 0.0965143 109 28 254
0.0593126 -0.0991083 0.0959903 127 0 255
0.109839 -0.222721 0.127515 127 0 255
0.0209668 -0.15309 -0.204388 127 0 255
0.0390447 -0.0259264 -0.0400587 127 0 255
0.258564 0.0735452 -0.0476986 91 56 253
0.0460777 0.0688325 0.113405 93 53 253
0.276225 -0.171888 0.110879 127 0 255
0.325259 -0.334722 0.116801 127 0 255
0.0746731 -0.287274 -0.275054 127 0 255
0.0195246 -0.091182 -0.212727 127 0 255
0.155764 -0.364148 0.0729396 127 0 255
0.127036 0.0150288 0.133433 121 9 254
0.0964705 0.0720642 0.0806329 91 56 253
0.0481114 -0.378911 -0.0336287 127 0 255
0.222361 0.0736501 -0.109383 91 56 253
0.0739726 0.0729302 -0.231745 91 56 253
0.163256 -0.137488 0.104187 127 0 255
0.105851 0.0729366 -0.316869 91 56 253
0.0433844 -0.00643298 0.035692 127 0 255
0.038898 -0.17045 -0.143039 127 0 255
0.0669254 -0.0376675 0.126633 127 0 255
0.074673 -0.237286 0.0124532 127 0 255
0.0520111 -0.193094 0.119418 127 0 255
0.17008 0.0321915 0.100745 111 25 254
0.237304 -0.0888946 0.125935 127 0 255
0.0547481 -0.352641 0.0942893 127 0 255
0.325028 -0.0602897 0.108619 127 0 255
0.209321 0.0736712 -0.0445316 91 56 253
0.0981358 -0.0914094 0.126077 127 0 255
0.0175739 -0.0125611 -0.195094 127 0 255
0.0244539 -0.35516 -0.223672 127 0 255
0.0426067 -0.158881 -0.248236 127 0 255
0.239032 -0.199117 0.132648 127 0 255
0.0127914 -0.05641 -0.062827 127 0 255
0.0991325 -0.405924 0.112473 127 0 255
0.0618991 0.013822 0.129624 121 9 254
0.024673 -0.424781 -0.0125498 127 0 255
0.00832797 -0.0495255 -0.270042 127 0 255
0.00683751 0.0430282 0.0580503 105 34 254
0.253967 -0.374282 0.127726 127 0 255
0.149673 -0.162284 0.0124518 127 0 255
0.111606 -0.337444 0.0888858 127 0 255
0.157406 -0.196244 0.105401 127 0 255
0.0210421 -0.123582 -0.164705 127 0 255
0.0442133 -0.135224 0.121272 127 0 255
0.0186341 -0.347013 -0.123925 127 0 255
0.0643924 -0.393117 0.0346726 127 0 255
0.0342552 -0.0996159 -0.308918 127 0 255
0.149673 -0.387283 0.0249512 127 0 255
0.0110143 -0.224102 -0.287208 127 0 255
0.0242277 -0.0194646 -0.366669 127 0 255
0.112173 -0.299784 0.012452 127 0 255
0.0677315 0.0720768 -0.0550182 91 56 253
0.0135736 -0.218679 -0.100761 127 0 255
0.137132 -0.392264 0.132611 127 0 255
0.335003 -0.234514 0.134363 127 0 255
0.0399185 -0.0866286 -0.125625 127 0 255
0.0390745 -0.144844 -0.0841462 127 0 255
0.0164864 0.0201189 -0.233026 117 15 254
0.0237307 -0.298679 -0.176012 127 0 255
0.0111202 -0.113147 0.0573355 127 0 255
0.200774 0.0456458 0.120226 105 34 254
0.0148318 -0.0238455 -0.125522 127 0 255
0.0191068 -0.166849 -0.0177535 127 0 255
0.042014 -0.314111 -0.013855 127 0 255
0.254226 -0.294209 0.125773 127 0 255
0.00885363 -0.266546 -0.352474 127 0 255
0.0584563 -0.27605 0.125041 127 0 255
0.0234288 -0.0729357 -0.373415 127 0 255
0.062173 -0.237289 0.0624549 127 0 255
0.0621731 0.0752256 -0.375054 89 59 253
0.20813 -0.143464 0.124327 127 0 255
0.250397 0.0495843 0.130571 103 37 254
0.0440417 -0.273447 -0.0650934 127 0 255
0.25843 -0.0379099 0.128355 127 0 255
0.0121728 0.0376929 0.137467 109 28 254
0.334565 -0.108448 0.108833 127 0 255
0.0314337 0.0735679 -0.309119 91 56 253
0.134944 -0.323377 0.128287 127 0 255
0.0269176 -0.0299814 0.0869123 127 0 255
0.00925777 -0.341084 0.0426475 127 0 255
0.143311 0.074042 -0.0946255 91 56 253
0.0148235 -0.353267 -0.0360616 127 0 255
0.0166852 -0.0208566 -0.00301722 127 0 255
0.175831 -0.236589 0.129492 127 0 255
0.0960697 -0.0239511 0.103349 127 0 255
0.313096 0.0452276 0.119469 105 34 254
0.090749 0.0746383 -0.268575 89 59 253
0.00580374 -0.137519 -0.351379 127 0 255
0.124673 -0.274774 -0.300054 127 0 255
0.127794 0.0769402 0.0246901 89 59 253
0.173785 0.0734027 -0.18086 91 56 253
0.0456659 -0.211552 -0.191941 127 0 255
0.0589236 -0.294087 0.0796997 127 0 255
0.183678 0.0734117 0.0125027 91 56 253
0.0260576 -0.254325 -0.0120216 127 0 255
0.258614 -0.2237 0.101688 127 0 255
0.039614 0.000863552 -0.161623 127 0 255
0.337173 -0.0122794 -0.150051 127 0 255
0.008816 -0.365731 0.0847327 127 0 255
0.0307756 0.0744855 -0.0925252 89 59 253
0.0243748 -0.254087 -0.143911 127 0 255
0.230009 0.0732575 -0.00444692 91 56 253
0.165307 -0.381518 0.0976701 127 0 255
0.292001 -0.0026079 0.110042 127 0 255
0.0388276 -0.274473 -0.242143 127 0 255
0.0218263 -0.192467 -0.361123 127 0 255
0.0227255 0.0463173 -0.370797 105 34 254
0.0293986 -0.026994 -0.31375 127 0 255
0.324673 0.0752207 -5.11092e-05 89 59 253
0.130726 -0.155475 0.131038 127 0 255
0.0336007 -0.059396 0.0427372 127 0 255
0.0421043 -0.201016 0.0583972 127 0 255
0.226581 -0.167307 0.101111 127 0 255
0.0239699 0.0156111 0.08488 121 9 254
0.0493572 0.0645282 -0.157415 95 49 253
0.208687 -0.277728 0.129262 127 0 255
0.192057 0.00272344 0.124629 127 0 255
0.341751 0.0667952 0.0971924 93 53 253
0.12821 -0.10997 0.107282 127 0 255
0.161253 -0.0595158 0.127005 127 0 255
0.186346 0.0734978 -0.0913367 91 56 253
0.288632 0.071867 0.0406211 91 56 253
0.0519024 -0.357408 0.126126 127 0 255
0.0331568 -0.426877 0.112802 127 0 255
0.0220083 -0.271368 -0.314118 127 0 255
0.294485 -0.335523 0.128298 127 0 255
0.0231488 -0.272472 0.100146 127 0 255
0.0989613 -0.205737 0.102408 127 0 255
0.106716 0.0730869 -0.125855 91 56 253
0.0410247 -0.0835884 -0.0782869 127 0 255
0.0164994 -0.333923 -0.243221 127 0 255
-0.000229714 0.0360819 -0.271491 109 28 254
0.0824103 -0.290195 0.00197424 127 0 255
0.111456 0.0728232 -0.188779 91 56 253
0.0159006 -0.105456 -0.232791 127 0 255
0.30395 -0.260939 0.130178 127 0 255
0.13722 0.0708217 0.116675 91 56 253
0.338605 -0.189306 0.134506 127 0 255
0.102361 0.0733083 -0.0237994 91 56 253
0.0371048 0.032493 0.0333952 111 25 254
0.0211965 -0.229168 -0.235511 127 0 255
0.0470727 0.0742446 -0.219363 89 59 253
0.0256331 -0.243996 -0.0525021 127 0 255
0.00890932 -0.327139 -0.328811 127 0 255
0.0402836 -0.169154 0.013414 127 0 255
0.0410218 -0.0175289 -0.0727353 127 0 255
0.128976 -0.251596 0.128522 127 0 255
0.0373049 -0.17614 -0.306994 127 0 255
0.0903427 0.0735945 0.0431184 91 56 253
0.158313 0.0734804 -0.0392891 91 56 253
0.149673 -0.124787 0.0624537 127 0 255
0.229925 -0.116802 0.104518 127 0 255
0.252893 -0.34475 0.100532 127 0 255
0.0304123 -0.264484 0.0358474 127 0 255
0.224179 -0.02468 0.123768 127 0 255
0.0313056 -0.414231 0.0386955 127 0 255
0.145711 0.0773671 0.0556074 89 59 253
0.275674 0.0693558 0.11201 93 53 253
0.149673 -0.187285 0.0499529 127 0 255
0.0335314 -0.381074 -0.0878933 127 0 255
0.0493655 0.0716497 0.0733859 91 56 253
0.00160523 -0.365666 0.158937 127 0 255
0.191963 -0.348116 0.09325 127 0 255
0.0151099 -0.340813 -0.196715 127 0 255
0.297976 -0.137215 0.134108 127 0 255
0.0448765 -0.254251 -0.198023 127 0 255
0.0134571 -0.115538 -0.288148 127 0 255
0.0376732 0.0245266 -0.0942811 115 18 254
0.0258904 0.042866 -0.0399411 107 31 254
0.317493 -0.0135158 0.139386 127 0 255
0.0174032 -0.0377166 -0.182777 127 0 255
0.0208905 -0.175691 -0.156246 127 0 255
0.0665321 -0.417515 0.0955951 127 0 255
0.074673 -0.112284 0.0124517 127 0 255
0.167216 -0.316354 0.129936 127 0 255
0.0926648 0.0332799 0.106551 111 25 254
0.0423191 -0.0864532 0.066389 127 0 255
0.187099 -0.0694169 0.0971219 127 0 255
0.0834849 -0.24976 0.126588 127 0 255
0.00827241 0.00469813 -0.304039 125 3 254
0.0852715 -0.369399 0.0972303 127 0 255
0.173322 -0.38878 0.13126 127 0 255
0.0558935 -0.383783 -0.00414344 127 0 255
0.0230944 -0.299533 -0.275008 127 0 255
0.041725 -0.333828 -0.129013 127 0 255
0.0114817 -0.089695 -0.332561 127 0 255
0.0235828 -0.185747 0.0931628 127 0 255
0.0396147 -0.09221 -0.0324626 127 0 255
0.262916 0.0735179 0.0709039 91 56 253
0.0616176 0.0743869 -0.27705 89 59 253
0.180813 0.0707186 0.114099 91 56 253
0.0391106 -0.0966201 -0.180642 127 0 255
0.0153017 -0.433948 0.0785397 127 0 255
0.0086906 -0.299723 -0.0694929 127 0 255
0.294117 -0.372093 0.115359 127 0 255
0.28754 -0.0604242 0.129473 127 0 255
0.0386806 0.0260781 -0.189296 115 18 254
0.209767 0.0752776 0.0532828 89 59 253
0.0455419 -0.185108 -0.0909478 127 0 255
0.0744688 -0.0666929 0.122589 127 0 255
0.131095 -0.00950691 0.105787 127 0 255
0.19263 -0.247707 0.105683 127 0 255
0.255639 -0.257877 0.126656 127 0 255
0.149673 -0.224783 0.0124515 127 0 255
0.149673 -0.349784 0.0374517 127 0 255
0.0436011 -0.231505 -0.107308 127 0 255
0.017804 -0.00430832 -0.263959 127 0 255
0.0120838 -0.0951703 -0.0629738 127 0 255
0.0400721 -0.154855 -0.0480201 127 0 255
0.0967241 -0.116995 0.127018 127 0 255
0.00840798 -0.151885 -0.313747 127 0 255
0.112485 -0.297256 0.127346 127 0 255
0.00861217 -0.23368 -0.334468 127 0 255
0.33829 -0.0521093 0.134885 127 0 255
0.267341 -0.161331 0.128889 127 0 255
0.0480266 -0.325237 0.12597 127 0 255
0.0581653 0.00695957 0.0970992 125 3 254
0.322201 0.069969 0.0672172 93 53 253
0.210432 -0.198858 0.105871 127 0 255
0.0972285 -0.37983 0.0626039 127 0 255
0.1264 -0.194942 0.127928 127 0 255
0.0278458 -0.300541 0.062779 127 0 255
0.332436 -0.284758 0.133414 127 0 255
0.0196665 -0.13407 -0.00517832 127 0 255
0.0580378 0.0772321 0.000640128 89 59 253
0.0380052 -0.0451163 -0.0277038 127 0 255
0.089153 0.073021 -0.0873979 91 56 253
0.0121728 0.0751964 0.112465 89 59 253
0.0197394 -0.012927 0.0293845 127 0 255
0.232932 0.0736934 -0.0756667 91 56 253
0.0143219 -0.271351 -0.0995887 127 0 255
0.03606 -0.249797 -0.277322 127 0 255
0.0121731 -0.387275 -0.150054 127 0 255
0.147305 0.0724674 -0.142824 91 56 253
0.0371598 -0.134354 -0.125451 127 0 255
0.0996731 -0.324774 -0.275054 127 0 255
0.0930345 -0.408882 0.134945 127 0 255
0.0438012 -0.117933 -0.227207 127 0 255
0.0833905 0.0704249 0.116683 91 56 253
0.0713286 0.0751188 -0.313908 89 59 253
0.19656 -0.115353 0.102204 127 0 255
0.233153 -0.33223 0.127269 127 0 255
0.338668 0.0156156 0.134749 121 9 254
0.0404662 -0.0567072 -0.117543 127 0 255
0.039835 -0.32129 -0.22164 127 0 255
0.00392894 0.000129757 -0.345252 127 0 255
0.0230308 -0.0995387 -0.374483 127 0 255
0.0410842 -0.171963 -0.188494 127 0 255
0.275329 0.0131487 0.13016 121 9 254
0.147552 -0.344607 0.0841804 127 0 255
0.0393378 0.0197888 -0.140053 117 15 254
0.0270194 -0.380299 0.0138344 127 0 255
0.0795807 -0.162058 0.109243 127 0 255
0.0345166 -0.0339269 0.114049 127 0 255
0.0996731 -0.262274 -0.275054 127 0 255
0.016922 -0.15114 -0.252097 127 0 255
0.0198916 -0.315025 0.00466636 127 0 255
0.19772 -0.305421 0.109976 127 0 255
0.0283441 0.0687941 -0.364744 93 53 253
0.0246731 -0.349774 -0.350054 127 0 255
0.0352361 -0.109783 0.115381 127 0 255
0.31878 -0.0992202 0.140275 127 0 255
0.207595 0.0727387 -0.134854 91 56 253
0.0351947 -0.0556658 -0.249496 127 0 255
0.147424 0.0348136 0.127113 111 25 254
0.0440408 -0.347749 -0.0485575 127 0 255
0.130443 0.0738629 -0.0661449 91 56 253
-0.00337026 -0.306851 -0.347902 127 0 255
0.228243 -0.378932 0.125622 127 0 255
0.0365351 0.0150767 -0.0443539 121 9 254
0.0971226 -0.0049122 0.130132 127 0 255
0.141131 0.0741894 -0.230799 91 56 253
0.0676343 -0.320149 0.0861401 127 0 255
0.00243567 -0.36626 0.191949 127 0 255
0.280222 -0.29491 0.126866 127 0 255
0.13306 -0.0555591 0.12504 127 0 255
0.274179 -0.0379303 0.100874 127 0 255
0.0134395 -0.175441 -0.123675 127 0 255
0.0696381 -0.20665 0.123666 127 0 255
0.0529536 -0.279279 -0.0417187 127 0 255
0.283895 -0.190705 0.133979 127 0 255
0.149673 -0.049781 0.04995 127 0 255
0.0160326 -0.07818 -0.148011 127 0 255
0.00222158 -0.173114 -0.352817 127 0 255
0.0218611 -0.203157 -0.0259191 127 0 255
0.038048 -0.0307323 -0.19677 127 0 255
0.099673 -0.187286 0.012453 127 0 255
0.00943251 -0.0365125 -0.321749 127 0 255
0.119329 0.0738447 0.0809379 91 56 253
0.143246 -0.213938 0.103279 127 0 255
0.0387194 0.0179934 -0.226011 119 12 254
0.273083 0.0729623 -0.00337669 91 56 253
0.0382423 -0.289188 -0.197918 127 0 255
0.0133876 -0.340578 -0.288137 127 0 255
0.00477988 0.0618696 -0.322631 97 46 253
0.189615 0.0735706 -0.0544335 91 56 253
0.167509 -0.022975 0.104017 127 0 255
0.11813 -0.348099 0.115531 127 0 255
0.0388 -0.169763 0.0430964 127 0 255
0.248451 -0.131534 0.126821 127 0 255
0.341315 -0.155951 0.133982 127 0 255
0.023041 -0.311925 -0.116833 127 0 255
0.0996731 -0.0622798 0.0124492 127 0 255
0.0678231 0.0710754 -0.144087 91 56 253
0.0263835 0.0648845 -0.19649 95 49 253
0.0418685 -0.204895 -0.136198 127 0 255
0.171451 -0.17952 0.103898 127 0 255
0.0378593 -0.283427 0.00715584 127 0 255
0.0206002 -0.185826 -0.215709 127 0 255
0.244275 0.0729194 0.0410955 91 56 253
0.0793461 -0.0634239 0.0946409 127 0 255
0.0213215 -0.0320157 -0.149265 127 0 255
0.0449996 -0.216511 -0.28791 127 0 255
0.0362048 0.00143368 -0.0118888 127 0 255
0.0406922 -0.334681 -0.179521 127 0 255
0.0237761 0.0682187 -0.00349671 93 53 253
0.0105302 -0.0514412 0.0503013 127 0 255
0.0374045 -0.122713 -0.311815 127 0 255
0.112173 -0.124783 0.0124511 127 0 255
0.232077 0.0681691 0.116842 93 53 253
0.101069 0.0769732 0.00990571 89 59 253
0.0231023 -0.211708 0.0153098 127 0 255
0.0274683 0.0180074 0.119977 119 12 254
0.202348 -0.0876299 0.124554 127 0 255
0.337173 0.0752093 0.137456 89 59 253
0.0278767 -0.338591 0.1152 127 0 255
0.00586289 -0.360661 0.0577097 127 0 255
0.0314103 -0.261222 0.115742 127 0 255
0.0480914 0.07483 -0.0943634 89 59 253
0.0117037 -0.181069 -0.284477 127 0 255
0.044659 -0.315396 -0.0746126 127 0 255
0.152024 -0.280002 0.120319 127 0 255
0.0158358 -0.137886 -0.0562898 127 0 255
0.0199471 -0.108346 0.0180988 127 0 255
0.137289 -0.382545 0.0843348 127 0 255
0.0310086 -0.157801 0.10844 127 0 255
0.198162 -0.373788 0.0933844 127 0 255
0.0349336 -0.329928 0.0413732 127 0 255
0.149673 -0.0872802 0.0124495 127 0 255
-0.00206807 -0.214375 -0.353595 127 0 255
0.136143 -0.0830072 0.106946 127 0 255
0.15783 0.073139 -0.192165 91 56 253
0.0245681 -0.055347 -0.356069 127 0 255
0.0159276 -0.230482 0.0856078 127 0 255
0.299737 0.0703815 0.108064 91 56 253
0.103421 0.0740013 -0.239549 91 56 253
0.0760932 -0.39675 0.0614184 127 0 255
0.149819 0.0735652 -0.0065364 91 56 253
0.252301 -0.0672205 0.126903 127 0 255
0.256911 -0.231062 0.127254 127 0 255
0.023665 -0.222989 -0.182121 127 0 255
0.0320188 -0.0554156 -0.29156 127 0 255
0.023145 -0.122381 -0.360992 127 0 255
0.037519 -0.0506813 -0.0833778 127 0 255
0.0259506 -0.019279 0.0622346 127 0 255
0.0182129 -0.14501 -0.149634 127 0 255
0.0166728 -0.24272 -0.257194 127 0 255
0.24164 0.0724514 -0.0300213 91 56 253
0.0381821 -0.136661 0.0680453 127 0 255
0.024194 0.0588905 -0.135025 97 46 253
0.0445982 -0.370463 0.0902055 127 0 255
0.0414897 -0.346783 -0.00521209 127 0 255
0.191635 -0.0411561 0.123626 127 0 255
0.33859 -0.219116 0.134662 127 0 255
0.169434 0.0730493 0.0391271 91 56 253
0.286344 -0.105313 0.130284 127 0 255
0.0436956 -0.259401 -0.124596 127 0 255
0.0339356 0.0742133 -0.255775 91 56 253
0.0616598 -0.133024 0.126254 127 0 255
0.177975 -0.151668 0.12734 127 0 255
0.0245875 0.0246881 -0.297738 115 18 254
0.127225 -0.403983 0.13034 127 0 255
0.302188 0.0196425 0.140164 117 15 254
0.0996731 -0.337284 0.0124519 127 0 255
0.149673 -0.274784 0.037452 127 0 255
0.0121731 -0.387274 -0.187554 127 0 255
0.0349877 -0.0675687 0.114997 127 0 255
0.0270181 -0.246643 -0.0740397 127 0 255
0.019773 -0.12098 -0.104078 127 0 255
0.101947 0.07291 -0.323698 91 56 253
0.165882 0.0723018 -0.112735 91 56 253
0.209647 0.0726181 0.0870574 91 56 253
0.0185125 -0.0805082 -0.237429 127 0 255
-0.0055866 0.0481417 -0.362096 103 37 254
0.0316399 -0.243832 -0.321044 127 0 255
0.0286018 0.0658746 -0.0634213 95 49 253
0.0154997 -0.355111 -0.0554538 127 0 255
0.253254 0.0305718 0.0961049 113 21 254
0.214051 -0.278295 0.107059 127 0 255
0.078147 -0.308376 0.124389 127 0 255
0.108732 0.073085 -0.152079 91 56 253
0.308802 0.071158 0.0347701 91 56 253
0.0355647 -0.324394 -0.255142 127 0 255
0.0356243 -0.0738622 0.0116786 127 0 255
0.0391492 -0.273536 0.0568076 127 0 255
0.137725 0.0300537 0.103439 113 21 254
0.316524 -0.342353 0.130785 127 0 255
0.0323109 -0.21853 0.114484 127 0 255
0.0195993 -0.00126262 -0.105853 127 0 255
0.0197551 0.0119681 0.0255421 121 9 254
0.0683873 0.0727724 -0.202054 91 56 253
0.0743357 0.0721697 0.0579508 91 56 253
0.162774 -0.202313 0.129125 127 0 255
0.0134948 -0.280132 -0.0380425 127 0 255
0.0271417 0.000812882 -0.334711 127 0 255
0.0251375 -0.307188 -0.158023 127 0 255
0.0934096 -0.233563 0.104916 127 0 255
0.0287285 -0.373487 -0.107255 127 0 255
0.00977075 -0.435539 0.0658017 127 0 255
0.221102 0.074096 0.0162824 91 56 253
0.139128 -0.141419 0.10595 127 0 255
0.0179339 -0.170478 -0.0488115 127 0 255
0.0233896 0.0596428 0.0783346 97 46 253
0.0365476 0.0584642 -0.324582 99 43 254
0.0167503 -0.0589478 -0.201472 127 0 255
0.0400486 -0.275293 -0.29197 127 0 255
0.0744455 0.076417 -0.0225096 89 59 253
0.0454402 -0.191145 -0.228574 127 0 255
0.0401373 -0.11434 -0.0658824 127 0 255
-0.00151207 0.0570784 -0.24056 99 43 254
0.214574 0.000984044 0.125131 127 0 255
0.213955 -0.21936 0.125925 127 0 255
0.0208137 -0.13772 -0.187837 127 0 255
0.0610108 0.0440549 0.12289 105 34 254
0.260003 -0.260577 0.103692 127 0 255
0.0391351 -0.161065 -0.288892 127 0 255
0.00478273 -0.367743 0.143322 127 0 255
0.0388155 -0.0269508 -0.228388 127 0 255
0.308673 -0.187017 0.133399 127 0 255
0.0919814 -0.0269651 0.128012 127 0 255
0.099673 -0.237285 0.0124527 127 0 255
0.0851594 -0.111009 0.10849 127 0 255
0.0579105 -0.386737 0.124349 127 0 255
0.192967 0.0731163 -0.0268737 91 56 253
0.234757 -0.306059 0.127356 127 0 255
0.149673 -0.312283 0.0124512 127 0 255
0.0245344 -0.243481 -0.209376 127 0 255
0.153156 0.0739142 0.0770086 91 56 253
0.0363512 -0.0343915 0.00285604 127 0 255
0.0211212 0.0349184 -0.164658 111 25 254
0.303991 -0.300352 0.12761 127 0 255
0.118715 -0.342044 0.0783623 127 0 255
0.030779 -0.228404 0.0481778 127 0 255
0.0224698 -0.00273231 -0.0609917 127 0 255
0.00430831 -0.343637 -0.0138671 127 0 255
0.0388938 -0.207047 -0.0584523 127 0 255
0.276429 -0.149416 0.109257 127 0 255
0.0386994 -0.0893387 -0.262612 127 0 255
0.00278854 -0.0917161 -0.360209 127 0 255
0.0132178 0.00688772 -0.36968 125 3 254
0.0391385 -0.098267 -0.155517 127 0 255
0.020725 -0.235698 -0.123191 127 0 255
0.183431 -0.390938 0.126443 127 0 255
0.0229007 -0.287448 -0.244952 127 0 255
0.0121731 -0.374774 -0.237554 127 0 255
0.00898623 -0.307491 -0.316088 127 0 255
0.149673 -0.137283 0.0124516 127 0 255
0.064903 -0.260082 0.104713 127 0 255
0.176038 0.00618705 0.102023 125 3 254
0.168343 0.0743027 -0.152689 89 59 253
0.0386033 -0.10639 0.0480108 127 0 255
0.0996731 -0.287274 -0.312554 127 0 255
0.165452 0.073417 -0.0691771 91 56 253
0.111269 -0.271794 0.127604 127 0 255
0.286572 -0.376118 0.121433 127 0 255
0.0253289 0.043933 -0.101989 105 34 254
0.0270451 -0.303405 0.102596 127 0 255
0.0327077 -0.399333 0.00151976 127 0 255
0.00591291 -0.364694 0.09945 127 0 255
0.213599 -0.0757584 0.102425 127 0 255
0.105427 0.0736697 -0.0666419 91 56 253
0.0400999 -0.186507 -0.0171029 127 0 255
0.321726 -0.0623667 0.139564 127 0 255
0.177085 -0.117912 0.103762 127 0 255
0.106523 0.0729775 -0.270934 91 56 253
0.0301318 0.023402 -0.264865 117 15 254
0.0219095 -0.211586 -0.35402 127 0 255
0.0193997 -0.132588 -0.256321 127 0 255
0.224673 -0.374784 0.0624518 127 0 255
0.0280779 -0.10322 0.0955647 127 0 255
0.251174 -0.0997755 0.106304 127 0 255
0.19794 -0.347629 0.128102 127 0 255
0.124434 0.073998 -0.111182 91 56 253
0.175482 -0.271746 0.108396 127 0 255
0.312042 -0.240561 0.132316 127 0 255
0.033838 -0.362364 -0.143086 127 0 255
0.121052 -0.149643 0.133032 127 0 255
0.172055 0.0684953 0.118754 93 53 253
0.0203947 -0.0977025 -0.0145198 127 0 255
0.275413 0.0731675 0.0774953 91 56 253
0.0389837 0.0708224 0.0476088 91 56 253
0.0216431 -0.263814 -0.342461 127 0 255
0.0386476 -0.285348 -0.097842 127 0 255
0.0738001 -0.373023 0.0238978 127 0 255
0.121983 0.0733618 -0.0273586 91 56 253
0.119767 0.0731238 -0.190361 91 56 253
0.280577 0.020369 0.11066 117 15 254
0.149673 -0.299785 0.0624525 127 0 255
0.0434073 -0.0246929 -0.127764 127 0 255
0.215819 0.0743034 -0.123057 89 59 253
0.0449822 -0.181737 0.120416 127 0 255
0.0397935 -0.0649652 -0.0408022 127 0 255
0.0121728 0.000193901 0.137466 127 0 255
0.0222869 -0.206772 -0.160637 127 0 255
0.0121731 -0.412279 -0.0750511 127 0 255
0.074673 -0.049783 0.0374513 127 0 255
0.0400288 -0.0908427 -0.0989663 127 0 255
0.12685 -0.0314135 0.106348 127 0 255
0.000644225 0.0447993 -0.284511 105 34 254
0.0278558 -0.245056 -0.0234413 127 0 255
0.00285321 -0.0455111 -0.363406 127 0 255
0.0159334 -0.294069 0.0333939 127 0 255
0.0228469 -0.376426 -0.0346879 127 0 255
0.216519 -0.159523 0.126675 127 0 255
0.0171124 -0.412613 0.095976 127 0 255
0.349673 0.0752167 0.0374515 89 59 253
0.0378622 -0.149205 -0.102397 127 0 255
0.074673 -0.149785 0.0124528 127 0 255
0.0800598 -0.414664 0.11263 127 0 255
0.241124 0.0721226 -0.0549574 91 56 253
0.0572653 0.0747004 -0.33986 89 59 253
0.260951 -0.0148518 0.129258 127 0 255
0.0343533 0.0397629 0.00593507 107 31 254
0.153302 0.00757896 0.131211 125 3 254
0.0202927 -0.350803 -0.0956624 127 0 255
0.0198292 -0.149928 -0.21614 127 0 255
0.210905 -0.248828 0.128709 127 0 255
0.113733 -0.191811 0.130697 127 0 255
0.0160906 -0.0709877 -0.299355 127 0 255
0.234201 0.0450235 0.127482 105 34 254
0.0837543 -0.333472 0.0905244 127 0 255
0.275752 0.0725889 0.0222664 91 56 253
0.0186103 0.00719589 -0.141174 125 3 254
0.136655 -0.357 0.126393 127 0 255
0.33405 -0.0248464 0.135073 127 0 255
0.0612072 0.0726449 -0.241328 91 56 253
0.152183 -0.235508 0.122391 127 0 255
0.0382804 -0.0886119 -0.197003 127 0 255
0.022492 -0.280581 -0.137694 127 0 255
0.221105 -0.346484 0.0933964 127 0 255
0.0124019 -0.338713 0.0674133 127 0 255
0.341477 -0.135965 0.133301 127 0 255
0.149673 -0.0997853 0.0624528 127 0 255
0.0749743 0.0798928 0.104273 87 62 253
0.0384133 -0.148233 0.0361226 127 0 255
0.288603 -0.33546 0.109814 127 0 255
0.00858252 -0.140804 -0.325511 127 0 255
0.0336536 -0.0444705 0.0703113 127 0 255
0.0330255 0.0746647 -0.0356742 89 59 253
0.124673 -0.312274 -0.300054 127 0 255
0.338354 0.0624868 0.116971 97 46 253
0.149673 -0.162287 0.062454 127 0 255
0.225738 -0.0300937 0.104084 127 0 255
0.0201499 -0.206992 -0.237655 127 0 255
0.137173 -0.387283 0.012451 127 0 255
0.0222481 0.0398315 -0.215197 107 31 254
0.216571 -0.192341 0.101801 127 0 255
0.0396066 -0.0516217 -0.170799 127 0 255
0.111891 -0.300948 0.111335 127 0 255
0.160428 -0.0851879 0.122597 127 0 255
0.08742 0.0730228 -0.115338 91 56 253
0.0435211 -0.325243 -0.0258906 127 0 255
0.0180576 -0.206594 0.0793639 127 0 255
0.0247464 0.000485985 0.0981574 127 0 255
0.0264037 -0.390197 0.0345226 127 0 255
0.0323215 -0.00646719 -0.259944 127 0 255
0.149673 -0.249783 0.0124514 127 0 255
0.0793199 0.0734473 0.0118794 91 56 253
0.0460493 -0.241831 -0.144761 127 0 255
0.016232 -0.342557 -0.169044 127 0 255
0.0192844 -0.192297 -0.0974 127 0 255
0.261463 -0.219945 0.101683 127 0 255
0.183757 0.0734726 0.00699631 91 56 253
0.117889 0.0717543 0.111316 91 56 253
0.0726889 0.0730804 -0.0630666 91 56 253
0.243489 -0.376858 0.125661 127 0 255
0.0449118 0.0748903 -0.144192 89 59 253
0.198663 0.0354833 0.120948 109 28 254
0.0207839 -0.197907 -0.32213 127 0 255
0.031705 -0.317339 -0.287416 127 0 255
0.234644 0.073638 0.0670855 91 56 253
0.0373637 0.0237404 -0.0752631 115 18 254
0.0390668 -0.207844 0.0267768 127 0 255
0.0925993 -0.152463 0.108138 127 0 255
0.0976446 -0.0737405 0.0939654 127 0 255
0.0228177 -0.152488 -0.00142235 127 0 255
0.332003 -0.28426 0.133351 127 0 255
0.0154628 -0.0511321 -0.0673095 127 0 255
0.0875718 0.0102107 0.107337 123 6 254
0.0232524 -0.27451 -0.206973 127 0 255
0.0718089 0.0747753 -0.296657 89 59 253
0.201851 0.0729473 -0.155132 91 56 253
0.193804 0.0720377 -0.0904431 91 56 253
0.0161651 -0.00157966 -0.00537955 127 0 255
0.149673 -0.187284 0.0124516 127 0 255
0.0277114 -0.352675 -0.23606 127 0 255
0.0176469 -0.017992 -0.208224 127 0 255
0.349673 -0.0122796 -0.162551 127 0 255
0.0122204 -0.306249 -0.0198682 127 0 255
0.301291 -0.0336922 0.132313 127 0 255
0.0370992 -0.390249 0.0731428 127 0 255
0.0377102 -0.170509 0.0694976 127 0 255
0.044107 -0.213435 -0.271764 127 0 255
0.0996731 -0.287274 -0.262554 127 0 255
0.276662 0.0562921 0.128753 99 43 254
0.162173 0.0752256 -0.250054 89 59 253
0.0503226 -0.0605597 0.123485 127 0 255
0.0394986 -0.136352 -0.287367 127 0 255
0.123428 0.0736205 0.0217336 91 56 253
0.0370343 -0.355181 0.0273647 127 0 255
0.254185 -0.0503381 0.10181 127 0 255
0.195787 0.0730198 0.0521949 91 56 253
