ply
format ascii 1.0
comment Created by Open3D
element vertex 1220
property double x
property double y
property double z
property uchar red
property uchar green
property uchar blue
end_header
0.055961 -0.135893 -0.395427 127 0 255
0.100186 -0.357212 0.151527 127 0 255
0.134534 -0.160162 -0.00936347 127 0 255
0.138044 -0.14243 -0.350014 127 0 255
-0.0313423 -0.483856 0.0616368 127 0 255
0.139101 -0.408939 0.113482 127 0 255
-0.240313 -0.485389 0.211062 127 0 255
-0.037778 -0.479727 -0.155381 127 0 255
-0.0491362 -0.481867 -0.0542872 127 0 255
0.134788 -0.22979 -0.125183 127 0 255
-0.375327 -0.362287 0.0374542 127 0 255
0.148927 -0.450651 0.197394 127 0 255
-0.475327 -0.337274 -0.0250543 127 0 255
0.130781 -0.298109 -0.224557 127 0 255
-0.239314 -0.484298 0.00326735 127 0 255
0.0871731 -0.124778 0.0874479 127 0 255
-0.124583 -0.307146 0.249538 127 0 255
0.130398 -0.401877 -0.413103 127 0 255
0.131919 -0.472608 0.274633 127 0 255
0.037173 -0.424795 -0.175041 127 0 255
-0.000326971 -0.149785 -0.350047 127 0 255
-0.352903 -0.356386 -0.0247226 127 0 255
0.135193 -0.268128 -0.331193 127 0 255
0.121501 -0.48224 -0.378468 127 0 255
0.150308 -0.374882 -0.33794 127 0 255
0.119345 -0.479819 -0.151849 127 0 255
0.037173 -0.424794 -0.0875414 127 0 255
0.159208 -0.332237 0.0664965 127 0 255
0.0996731 -0.0872744 0.0124457 127 0 255
0.136502 -0.179849 0.170221 127 0 255
0.156267 -0.461626 0.123824 127 0 255
-0.141353 -0.48399 0.285137 127 0 255
0.120385 -0.480285 -0.0240167 127 0 255
0.128092 -0.23586 -0.0220093 127 0 255
-0.0432626 -0.368627 -0.40511 127 0 255
0.137659 -0.189405 -0.315005 127 0 255
-0.427045 -0.360824 -0.087088 127 0 255
-0.262224 -0.483025 -0.0646936 127 0 255
0.151026 -0.179632 -0.14488 127 0 255
-0.229445 -0.482961 -0.171584 127 0 255
0.0943147 -0.480433 0.0530324 127 0 255
0.137883 -0.256784 0.126643 127 0 255
0.125564 -0.263506 0.235611 127 0 255
-0.141807 -0.404983 0.316541 127 0 255
0.134858 -0.271138 -0.182647 127 0 255
-0.1761 -0.28932 0.273633 127 0 255
-0.00517575 -0.240777 -0.392886 127 0 255
0.136102 -0.183865 -0.0580168 127 0 255
-0.0454633 -0.482011 0.23812 127 0 255
-0.125327 -0.249819 0.199975 127 0 255
0.049673 -0.32479 -0.162544 127 0 255
0.0502026 -0.47327 -0.366026 127 0 255
0.036585 -0.325781 -0.40324 127 0 255
-0.122763 -0.378629 0.258478 127 0 255
-0.293255 -0.479031 -0.00808473 127 0 255
0.136831 -0.426995 -0.100784 127 0 255
0.074673 -0.324787 -0.287546 127 0 255
-0.145162 -0.167103 0.289144 127 0 255
0.0466414 -0.46704 0.178286 127 0 255
-0.101587 -0.480497 -0.151806 127 0 255
-0.155581 -0.46215 -0.310636 127 0 255
0.13481 -0.418982 -0.216381 127 0 255
-0.0691058 -0.483189 0.125074 127 0 255
0.152505 -0.113271 -0.196461 127 0 255
0.140974 -0.454184 -0.315818 127 0 255
0.0963154 -0.324483 -0.408381 127 0 255
0.0520586 -0.472737 -0.100264 127 0 255
0.133042 -0.178261 0.0504186 127 0 255
-0.0649392 -0.32782 -0.383996 127 0 255
-0.435289 -0.366085 -0.00188738 127 0 255
0.0311057 -0.172092 -0.39582 127 0 255
-0.126007 -0.140446 0.235704 127 0 255
-0.0951763 -0.40646 -0.37761 127 0 255
0.037173 -0.424792 0.074957 127 0 255
0.131659 -0.379257 -0.28352 127 0 255
-0.323554 -0.38331 -0.15444 127 0 255
0.153561 -0.192605 -0.260954 127 0 255
0.162987 -0.189405 0.123616 127 0 255
0.0621731 -0.0872746 -0.362554 127 0 255
0.15318 -0.206418 -0.364108 127 0 255
0.0162118 -0.482736 -0.255387 127 0 255
0.153291 -0.100797 -0.0290047 127 0 255
-0.0731777 -0.481812 -0.0905333 127 0 255
0.131131 -0.319506 -0.0163877 127 0 255
0.0689146 -0.376303 -0.410355 127 0 255
0.00506005 -0.478076 0.270079 127 0 255
0.0828662 -0.333082 0.171831 127 0 255
0.0951112 -0.47418 -0.221301 127 0 255
-0.0155405 -0.394665 -0.382682 127 0 255
0.138481 -0.439172 0.0374966 127 0 255
0.154249 -0.368626 0.189344 127 0 255
-0.300327 -0.337288 -0.0375452 127 0 255
-0.207592 -0.483477 -0.116792 127 0 255
0.159243 -0.123831 0.0440723 127 0 255
-0.262827 -0.349815 0.274972 127 0 255
0.150546 -0.312473 -0.0965725 127 0 255
0.148437 -0.10938 -0.0909287 127 0 255
0.154746 -0.24093 0.00973422 127 0 255
0.0151706 -0.482005 0.13271 127 0 255
0.0117112 -0.457837 -0.415207 127 0 255
0.15705 -0.458732 -0.0223113 127 0 255
0.104838 -0.481435 -0.105884 127 0 255
0.139233 -0.298302 0.12502 127 0 255
-0.0987854 -0.480639 0.300572 127 0 255
0.142954 -0.0961414 0.161302 127 0 255
0.154617 -0.119282 -0.290937 127 0 255
-0.129332 -0.347322 0.306281 127 0 255
0.105314 -0.46597 0.0916078 127 0 255
-0.196033 -0.470584 0.311157 127 0 255
0.0546961 -0.223666 -0.41181 127 0 255
0.147349 -0.263885 -0.389857 127 0 255
-0.0598602 -0.447469 -0.383924 127 0 255
0.0216266 -0.474286 -0.154196 127 0 255
0.074673 -0.324789 -0.212545 127 0 255
-0.112827 -0.399792 -0.287542 127 0 255
0.135901 -0.372295 -0.136866 127 0 255
-0.424021 -0.386874 -0.0613214 127 0 255
0.15397 -0.238083 -0.238427 127 0 255
0.131617 -0.376975 -0.0278711 127 0 255
0.126778 -0.115808 0.234793 127 0 255
-0.103516 -0.189806 0.264839 127 0 255
0.154191 -0.354721 0.123437 127 0 255
0.127312 -0.381805 -0.364366 127 0 255
0.101896 -0.178796 -0.403794 127 0 255
-0.180602 -0.243187 0.264497 127 0 255
-0.0128269 -0.0997824 -0.350049 127 0 255
-0.000327021 -0.32479 -0.337544 127 0 255
0.155921 -0.237985 0.214375 127 0 255
0.0692569 -0.375568 0.164624 127 0 255
0.10724 -0.482084 0.24256 127 0 255
0.00311924 -0.482138 0.0565599 127 0 255
0.151058 -0.297454 -0.274583 127 0 255
0.143423 -0.46449 -0.275489 127 0 255
0.154148 -0.161769 0.220069 127 0 255
0.029316 -0.480628 -0.0420387 127 0 255
0.13261 -0.291861 0.0627566 127 0 255
0.152601 -0.205456 -0.176913 127 0 255
-0.189429 -0.427517 0.296753 127 0 255
-0.0503271 -0.362298 -0.287539 127 0 255
0.152941 -0.320248 -0.175493 127 0 255
-0.0878273 -0.424819 0.199975 127 0 255
0.153631 -0.431486 -0.149495 127 0 255
0.107215 -0.467603 -0.416026 127 0 255
-0.062827 -0.17479 -0.300044 127 0 255
0.143765 -0.475673 0.172447 127 0 255
-0.112068 -0.330732 -0.38602 127 0 255
0.0594875 -0.29369 0.18733 127 0 255
-0.287827 -0.487304 0.249965 127 0 255
0.156358 -0.450523 -0.0627347 127 0 255
0.144745 -0.332196 0.223217 127 0 255
0.0702809 -0.455695 0.282008 127 0 255
0.155787 -0.26298 -0.136117 127 0 255
0.0996731 -0.087276 0.112447 127 0 255
-0.000327067 -0.424796 -0.312541 127 0 255
0.146502 -0.164056 -0.393331 127 0 255
-0.0226175 -0.335409 -0.407937 127 0 255
0.0959366 -0.482095 -0.350807 127 0 255
-0.0278025 -0.47999 -0.118582 127 0 255
-0.119277 -0.275905 0.24412 127 0 255
0.0502214 -0.433651 -0.410594 127 0 255
0.154393 -0.203307 0.0196578 127 0 255
0.151641 -0.136585 -0.159607 127 0 255
0.132285 -0.42157 0.224012 127 0 255
0.134999 -0.104082 -0.383223 127 0 255
-0.0375295 -0.484882 0.0994471 127 0 255
-0.112402 -0.48169 0.254515 127 0 255
0.09936 -0.473314 0.0218791 127 0 255
0.0925979 -0.482045 0.136238 127 0 255
-0.291197 -0.476945 -0.0729761 127 0 255
0.112478 -0.371954 -0.416625 127 0 255
-0.00451597 -0.482324 -0.391065 127 0 255
0.0489312 -0.280709 -0.402521 127 0 255
0.155855 -0.402932 0.0754598 127 0 255
0.145861 -0.139203 -0.23977 127 0 255
-0.292452 -0.477611 0.0178768 127 0 255
-0.0378272 -0.324812 0.19997 127 0 255
-0.130425 -0.483062 -0.148304 127 0 255
-0.236668 -0.482828 -0.133909 127 0 255
0.0976167 -0.480945 -0.193565 127 0 255
-0.287827 -0.33728 -0.12505 127 0 255
0.143669 -0.240004 -0.0742901 127 0 255
-0.100327 -0.112319 0.199975 127 0 255
0.1513 -0.362987 -0.0973335 127 0 255
-0.356282 -0.390087 -0.135764 127 0 255
0.155374 -0.396459 0.157556 127 0 255
0.163529 -0.161476 0.151192 127 0 255
0.131567 -0.347988 0.0203592 127 0 255
0.160965 -0.108613 0.0844809 127 0 255
-0.136238 -0.437706 0.312978 127 0 255
0.13109 -0.198392 0.231005 127 0 255
0.109766 -0.262929 -0.406385 127 0 255
0.151994 -0.336746 -0.315871 127 0 255
0.154879 -0.361921 -0.216177 127 0 255
-0.155806 -0.226216 0.287321 127 0 255
0.15435 -0.28816 0.18168 127 0 255
-0.373673 -0.356993 -0.027186 127 0 255
0.037173 -0.349792 -0.0750429 127 0 255
-0.144949 -0.473403 -0.296394 127 0 255
0.16217 -0.209849 0.107189 127 0 255
0.141606 -0.456086 0.258557 127 0 255
-0.0465939 -0.480739 -0.0512832 127 0 255
-0.238373 -0.485437 0.200168 127 0 255
0.000992201 -0.471196 0.175666 127 0 255
0.0871731 -0.17478 0.0499492 127 0 255
0.0700533 -0.483709 0.0809975 127 0 255
0.138575 -0.159544 -0.317482 127 0 255
-0.0753273 -0.237322 0.199977 127 0 255
-0.242972 -0.483199 0.0136079 127 0 255
0.15532 -0.30027 -0.042709 127 0 255
-0.100327 -0.34982 0.199975 127 0 255
0.139137 -0.469977 -0.353579 127 0 255
0.102725 -0.475579 -0.0536848 127 0 255
-0.300327 -0.487296 0.14996 127 0 255
-0.133761 -0.33104 0.267416 127 0 255
0.144414 -0.320539 -0.388815 127 0 255
0.154965 -0.395466 -0.00946396 127 0 255
-0.025327 -0.187289 -0.325045 127 0 255
0.151846 -0.398253 -0.326961 127 0 255
0.162754 -0.253742 0.0734854 127 0 255
0.0256817 -0.482074 0.0109233 127 0 255
0.135609 -0.254185 -0.316913 127 0 255
0.0242568 -0.369725 -0.38101 127 0 255
0.154944 -0.160176 -0.0682293 127 0 255
-0.362827 -0.337274 -0.162554 127 0 255
-0.00835935 -0.241344 -0.396902 127 0 255
0.151051 -0.100888 -0.116556 127 0 255
0.161515 -0.156166 0.0240032 127 0 255
-0.0878273 -0.174821 0.199976 127 0 255
-0.125327 -0.337289 -0.275044 127 0 255
0.087173 -0.0872894 0.187455 127 0 255
0.140344 -0.408081 -0.23933 127 0 255
-0.200327 -0.374781 -0.22505 127 0 255
-0.44642 -0.361684 -0.0147198 127 0 255
0.142984 -0.219113 0.178002 127 0 255
0.151703 -0.31206 -0.241648 127 0 255
-0.103125 -0.442517 -0.390666 127 0 255
0.156244 -0.459989 0.123493 127 0 255
0.117564 -0.476451 -0.308269 127 0 255
-0.075327 -0.149788 -0.350045 127 0 255
0.037173 -0.412293 -0.0250422 127 0 255
0.12172 -0.151292 0.117307 127 0 255
-0.0706154 -0.483082 -0.146302 127 0 255
-0.154728 -0.180636 0.275595 127 0 255
0.0639463 -0.479021 -0.137962 127 0 255
0.0767561 -0.173486 -0.401837 127 0 255
-0.262827 -0.412312 0.27497 127 0 255
-0.073024 -0.482706 0.265697 127 0 255
0.129082 -0.332547 -0.159772 127 0 255
-0.012827 -0.337294 -0.287542 127 0 255
0.146615 -0.463961 -0.148709 127 0 255
0.152907 -0.257471 -0.185019 127 0 255
0.0443289 -0.481493 -0.0646876 127 0 255
0.11927 -0.221729 0.0463875 127 0 255
0.037173 -0.387294 -0.150042 127 0 255
0.149956 -0.109115 -0.313956 127 0 255
-0.275327 -0.349794 -4.12621e-05 127 0 255
-0.183085 -0.315286 0.283591 127 0 255
0.133293 -0.423134 -0.38584 127 0 255
0.046517 -0.45674 0.300449 127 0 255
0.00434301 -0.136655 -0.392504 127 0 255
0.062173 -0.42479 -0.312544 127 0 255
0.154788 -0.301803 0.0323596 127 0 255
0.153637 -0.208581 -0.289669 127 0 255
-0.0665537 -0.396642 -0.376279 127 0 255
0.0927224 -0.341411 -0.385939 127 0 255
-0.197675 -0.480574 -0.164304 127 0 255
0.122802 -0.253228 0.235424 127 0 255
0.157174 -0.460371 0.00509807 127 0 255
0.137892 -0.323513 0.140766 127 0 255
-0.157756 -0.391044 0.308765 127 0 255
0.130524 -0.35033 -0.272656 127 0 255
0.156142 -0.11312 0.00743942 127 0 255
0.0224511 -0.414295 -0.41069 127 0 255
0.037173 -0.399791 0.0874565 127 0 255
-0.184068 -0.485787 0.277616 127 0 255
0.156942 -0.207018 -0.0902206 127 0 255
0.0390154 -0.485051 0.102191 127 0 255
-0.4377 -0.360589 -0.0710311 127 0 255
0.074673 -0.399791 -0.237543 127 0 255
0.136336 -0.369272 0.221501 127 0 255
0.15317 -0.256176 -0.355412 127 0 255
0.0213386 -0.482678 -0.279495 127 0 255
0.138777 -0.430866 0.0636115 127 0 255
-0.0503272 -0.424812 0.19997 127 0 255
-0.116928 -0.161043 0.2326 127 0 255
-0.0290622 -0.447512 -0.407546 127 0 255
0.00462715 -0.28472 -0.408252 127 0 255
0.153314 -0.419643 -0.0769259 127 0 255
0.150512 -0.154848 -0.12489 127 0 255
0.105663 -0.128608 -0.400787 127 0 255
0.155756 -0.211126 -0.0250638 127 0 255
0.120808 -0.453138 0.207801 127 0 255
0.15282 -0.334775 -0.0671528 127 0 255
-0.21861 -0.483629 -0.100985 127 0 255
-0.000327201 -0.199811 0.199969 127 0 255
-0.0757017 -0.483294 -0.0703855 127 0 255
0.156256 -0.356719 0.0900992 127 0 255
0.130587 -0.130476 0.16954 127 0 255
-0.0949252 -0.466313 0.311062 127 0 255
-0.150327 -0.237316 0.212473 127 0 255
-0.280174 -0.482985 -0.0407685 127 0 255
0.123702 -0.228577 -0.402997 127 0 255
0.152887 -0.408376 -0.167971 127 0 255
0.0621731 -0.16228 -0.350051 127 0 255
0.143974 -0.10854 -0.262604 127 0 255
0.140611 -0.26736 -0.252011 127 0 255
0.0735863 -0.404862 -0.382849 127 0 255
0.0804329 -0.374231 0.152609 127 0 255
0.137336 -0.245278 0.129858 127 0 255
-0.375327 -0.337274 -0.112554 127 0 255
0.135512 -0.280273 -0.0920334 127 0 255
0.147911 -0.429903 0.156457 127 0 255
0.149091 -0.471675 -0.0828295 127 0 255
0.152442 -0.184808 -0.187763 127 0 255
0.133042 -0.301077 -0.344157 127 0 255
-0.384849 -0.372565 -0.00497696 127 0 255
0.135731 -0.112897 0.0755642 127 0 255
-0.162154 -0.462653 0.313302 127 0 255
-0.0240719 -0.481916 0.0630903 127 0 255
0.126349 -0.0951229 0.204709 127 0 255
0.0468667 -0.237378 -0.410487 127 0 255
0.11313 -0.47706 -0.267174 127 0 255
0.0945921 -0.481712 -0.390836 127 0 255
0.160518 -0.171688 0.0731324 127 0 255
0.137418 -0.480363 0.0944654 127 0 255
0.152357 -0.116449 -0.372255 127 0 255
-0.028126 -0.320327 -0.401654 127 0 255
0.0522729 -0.48265 0.0316441 127 0 255
-0.275327 -0.412274 -0.262554 127 0 255
0.138854 -0.42535 -0.280255 127 0 255
0.152698 -0.165995 -0.255661 127 0 255
-0.0253271 -0.424799 -0.287538 127 0 255
0.153156 -0.197619 -0.360978 127 0 255
0.0478373 -0.316335 -0.403285 127 0 255
0.156559 -0.112982 -0.0702812 127 0 255
-0.17984 -0.278703 0.274294 127 0 255
0.162173 -0.299777 -0.425053 127 0 255
-0.0258077 -0.482941 -0.0498991 127 0 255
-0.132854 -0.34634 0.307041 127 0 255
0.155575 -0.290536 -0.144833 127 0 255
0.154319 -0.359055 -0.00335341 127 0 255
0.111351 -0.481322 -0.165591 127 0 255
0.140742 -0.296724 0.224131 127 0 255
-0.00327747 -0.481466 0.164803 127 0 255
0.161607 -0.270974 0.100453 127 0 255
0.148785 -0.117241 -0.189833 127 0 255
0.0203812 -0.436229 -0.379593 127 0 255
-0.262827 -0.362291 -0.0500438 127 0 255
0.133907 -0.419716 0.0146324 127 0 255
-0.00993695 -0.380726 -0.40614 127 0 255
0.153003 -0.398403 -0.10914 127 0 255
0.0371731 -0.0872762 -0.362553 127 0 255
-0.237827 -0.374817 0.299973 127 0 255
0.074673 -0.324788 -0.0875451 127 0 255
0.0942604 -0.482064 0.261993 127 0 255
-0.350327 -0.337289 0.024955 127 0 255
0.150804 -0.198811 -0.136659 127 0 255
0.154145 -0.256184 -0.0154796 127 0 255
0.137809 -0.373459 -0.399765 127 0 255
-0.045143 -0.471901 -0.120227 127 0 255
-0.437827 -0.337274 -0.112554 127 0 255
0.105735 -0.294985 -0.405023 127 0 255
0.049673 -0.424795 -0.200041 127 0 255
0.0960026 -0.480559 -0.0909851 127 0 255
0.130461 -0.408385 0.254562 127 0 255
0.112173 -0.0747744 -0.375054 127 0 255
0.137011 -0.329961 0.0812425 127 0 255
0.154313 -0.449789 -0.183973 127 0 255
0.156653 -0.140985 0.207845 127 0 255
0.0706564 -0.435209 -0.413077 127 0 255
0.154142 -0.34333 0.159616 127 0 255
-0.037827 -0.324793 -0.325042 127 0 255
-0.0764826 -0.483739 0.247127 127 0 255
0.130649 -0.479945 0.0440757 127 0 255
0.0871731 -0.112276 0.0249465 127 0 255
-0.250327 -0.312314 0.274972 127 0 255
-0.150327 -0.337316 0.212473 127 0 255
-0.0793244 -0.400744 -0.397949 127 0 255
0.132861 -0.371632 -0.186435 127 0 255
0.145234 -0.467687 0.20031 127 0 255
-0.427279 -0.386062 -0.0556781 127 0 255
-0.289379 -0.478811 0.0197876 127 0 255
0.037173 -0.424793 0.137458 127 0 255
0.15367 -0.289839 -0.2065 127 0 255
0.141192 -0.26836 0.172738 127 0 255
0.13007 -0.270203 0.0285377 127 0 255
0.128329 -0.478467 -0.395922 127 0 255
0.0984373 -0.478066 -0.220285 127 0 255
0.137146 -0.417796 -0.341492 127 0 255
-0.123494 -0.18687 0.240532 127 0 255
0.037173 -0.362292 -0.037543 127 0 255
0.037173 -0.36229 -0.312544 127 0 255
-0.235378 -0.482654 -0.158021 127 0 255
0.0277197 -0.207751 -0.39394 127 0 255
0.120696 -0.480397 -0.0119545 127 0 255
0.0321394 -0.482623 -0.256657 127 0 255
0.152145 -0.333851 -0.124491 127 0 255
0.128542 -0.342173 -0.304718 127 0 255
0.140158 -0.403085 0.112633 127 0 255
-0.140548 -0.249496 0.261835 127 0 255
-0.0753273 -0.287321 0.199976 127 0 255
0.151327 -0.409619 0.197507 127 0 255
-0.0514652 -0.483878 0.0990009 127 0 255
0.0493402 -0.480535 -0.0302945 127 0 255
0.109656 -0.199475 -0.385253 127 0 255
0.149549 -0.221179 -0.211958 127 0 255
0.154615 -0.379074 -0.0447487 127 0 255
-0.109978 -0.458656 -0.388901 127 0 255
0.0661012 -0.371744 -0.409591 127 0 255
0.162772 -0.191309 0.140837 127 0 255
0.12582 -0.225901 0.233006 127 0 255
-0.152061 -0.401846 0.289039 127 0 255
0.129212 -0.458457 0.282943 127 0 255
-0.121907 -0.306887 0.247809 127 0 255
-0.194972 -0.484124 0.301495 127 0 255
0.0750604 -0.475745 -0.346623 127 0 255
0.037173 -0.337291 -0.150043 127 0 255
-0.150327 -0.424815 0.212472 127 0 255
0.137396 -0.206697 -0.331433 127 0 255
0.0250956 -0.48174 0.0647458 127 0 255
0.138333 -0.132576 0.000622322 127 0 255
0.024673 -0.337291 0.0374564 127 0 255
0.146123 -0.351523 -0.371565 127 0 255
0.12475 -0.319366 0.0312894 127 0 255
0.139415 -0.386865 -0.271533 127 0 255
0.0469577 -0.464377 0.279657 127 0 255
0.137771 -0.279776 -0.27891 127 0 255
0.037173 -0.412294 -0.0875416 127 0 255
-0.406008 -0.355751 -0.0171022 127 0 255
0.127149 -0.192779 0.0304414 127 0 255
0.0250704 -0.16075 -0.39355 127 0 255
0.021015 -0.482982 0.129553 127 0 255
0.139942 -0.168242 -0.287132 127 0 255
-0.137827 -0.399784 -0.312548 127 0 255
-0.120435 -0.464535 0.256553 127 0 255
0.109251 -0.482669 0.11285 127 0 255
0.00921476 -0.483578 -0.00811459 127 0 255
0.0569929 -0.364853 0.161607 127 0 255
0.135136 -0.422156 -0.210362 127 0 255
0.134339 -0.107978 0.102639 127 0 255
0.153874 -0.110264 -0.227783 127 0 255
-0.186091 -0.242534 0.272183 127 0 255
-0.212827 -0.412319 0.324975 127 0 255
0.116321 -0.480628 -0.116707 127 0 255
0.130572 -0.300429 -0.0231982 127 0 255
-0.287827 -0.337284 -0.0875478 127 0 255
-0.087827 -0.337296 -0.275039 127 0 255
0.158158 -0.180161 -0.0644162 127 0 255
0.131174 -0.114073 0.232104 127 0 255
0.0229775 -0.468971 -0.377916 127 0 255
0.156767 -0.394834 0.0593334 127 0 255
0.155387 -0.102529 -0.117669 127 0 255
-0.0490685 -0.445226 -0.39647 127 0 255
0.14097 -0.320725 0.225427 127 0 255
-0.216353 -0.483115 -0.100114 127 0 255
0.13795 -0.14077 -0.354357 127 0 255
-0.129533 -0.144319 0.239343 127 0 255
-0.0540217 -0.347648 -0.382597 127 0 255
0.143069 -0.096488 0.167415 127 0 255
0.145737 -0.460937 -0.249488 127 0 255
0.152591 -0.271148 -0.0899374 127 0 255
0.161685 -0.310659 0.111888 127 0 255
-0.275977 -0.48302 -0.0400964 127 0 255
0.074673 -0.36229 -0.250044 127 0 255
-0.0878273 -0.38732 0.199975 127 0 255
0.0830738 -0.277409 -0.406176 127 0 255
0.136161 -0.425124 -0.0596267 127 0 255
0.15314 -0.28577 -0.338641 127 0 255
0.0141402 -0.35037 -0.406795 127 0 255
-0.0744726 -0.474061 0.303147 127 0 255
-0.150327 -0.299822 0.324977 127 0 255
0.142871 -0.200759 0.181511 127 0 255
0.153894 -0.347815 -0.249335 127 0 255
-0.0378273 -0.212319 0.199975 127 0 255
-0.412827 -0.349781 0.03745 127 0 255
0.152264 -0.247656 -0.15718 127 0 255
-0.157263 -0.194574 0.279467 127 0 255
-0.200327 -0.387274 -0.312554 127 0 255
0.132984 -0.168398 0.0820704 127 0 255
-0.00515861 -0.254112 -0.40544 127 0 255
0.0831098 -0.472208 0.00269742 127 0 255
-0.1312 -0.351736 0.268624 127 0 255
0.145435 -0.153099 -0.149944 127 0 255
0.037173 -0.424795 -0.137541 127 0 255
0.152228 -0.459265 0.0776164 127 0 255
0.0294881 -0.470717 0.176627 127 0 255
0.134778 -0.250528 0.0882336 127 0 255
0.156388 -0.113044 -0.0297631 127 0 255
-0.300327 -0.487297 0.174961 127 0 255
0.153713 -0.202024 -0.00329874 127 0 255
0.137655 -0.221528 -0.281939 127 0 255
-0.00504284 -0.444481 -0.416266 127 0 255
0.137734 -0.118006 -0.318173 127 0 255
0.106228 -0.410553 -0.416116 127 0 255
0.135364 -0.164793 0.22553 127 0 255
-0.203377 -0.45457 0.289937 127 0 255
-0.042062 -0.482865 -0.140719 127 0 255
0.132474 -0.41185 -0.0126102 127 0 255
0.133035 -0.310357 -0.197953 127 0 255
0.159138 -0.121373 0.0428873 127 0 255
0.037173 -0.324787 -0.325046 127 0 255
-0.441539 -0.357713 -0.0106773 127 0 255
0.0531667 -0.144886 -0.395957 127 0 255
0.154492 -0.374096 0.165829 127 0 255
0.135729 -0.471888 -0.338593 127 0 255
0.037173 -0.374793 -0.187542 127 0 255
-0.0878271 -0.412296 -0.28754 127 0 255
-0.136617 -0.39869 0.314423 127 0 255
0.0126492 -0.404073 -0.377001 127 0 255
0.152839 -0.332129 -0.0414947 127 0 255
0.125478 -0.481434 0.141969 127 0 255
0.0934842 -0.209234 -0.404471 127 0 255
0.132033 -0.388415 0.22403 127 0 255
-0.0263162 -0.480747 -0.0431456 127 0 255
0.152272 -0.244757 -0.0576296 127 0 255
0.1526 -0.399664 -0.150535 127 0 255
-0.0878269 -0.17479 -0.325044 127 0 255
-0.0628273 -0.112321 0.199976 127 0 255
-0.312827 -0.374791 0.0124568 127 0 255
0.130574 -0.369219 -0.343846 127 0 255
0.0634022 -0.484082 0.0985532 127 0 255
-0.0941828 -0.343801 -0.372943 127 0 255
-0.262439 -0.48311 0.0104807 127 0 255
0.0458631 -0.480407 -0.0627382 127 0 255
0.0246729 -0.374792 0.124957 127 0 255
0.157001 -0.456375 -0.0150847 127 0 255
-0.369423 -0.356678 -0.0257439 127 0 255
0.118106 -0.228458 0.0440912 127 0 255
0.140914 -0.456928 0.2647 127 0 255
0.135703 -0.440666 -0.108939 127 0 255
0.129745 -0.477634 -0.200036 127 0 255
0.146463 -0.1568 -0.222855 127 0 255
0.074639 -0.333969 0.160324 127 0 255
0.037173 -0.412292 0.0249571 127 0 255
0.153262 -0.2747 0.198812 127 0 255
-0.0147108 -0.482088 0.0727336 127 0 255
0.122885 -0.307163 -0.409688 127 0 255
0.151632 -0.152992 -0.37945 127 0 255
-0.275327 -0.48731 0.287469 127 0 255
0.132264 -0.448478 -0.399731 127 0 255
0.0335461 -0.308645 -0.396924 127 0 255
0.131747 -0.350281 0.0254752 127 0 255
0.137749 -0.382515 0.119984 127 0 255
0.154117 -0.261823 -0.232511 127 0 255
0.151541 -0.344906 -0.15462 127 0 255
-0.0929257 -0.406707 -0.377816 127 0 255
-0.212827 -0.424774 -0.287554 127 0 255
-0.152067 -0.306625 0.28506 127 0 255
0.06846 -0.365503 -0.385067 127 0 255
0.161922 -0.205815 0.101183 127 0 255
-0.350327 -0.337275 -0.112554 127 0 255
0.153948 -0.382388 -0.206941 127 0 255
0.153262 -0.218551 -0.0999358 127 0 255
0.162365 -0.27548 0.0691473 127 0 255
-0.0726837 -0.480609 -0.0755591 127 0 255
0.152043 -0.387036 -0.301065 127 0 255
-0.429086 -0.357309 -0.0724387 127 0 255
-0.037827 -0.174789 -0.300045 127 0 255
0.0352714 -0.476657 -0.277027 127 0 255
0.144657 -0.47325 0.183971 127 0 255
-0.158794 -0.471374 0.309549 127 0 255
-0.205564 -0.482831 -0.158634 127 0 255
-0.087827 -0.474785 -0.425047 127 0 255
0.0975879 -0.478234 -0.153124 127 0 255
0.153578 -0.144589 -0.102285 127 0 255
-0.282766 -0.482837 -0.0756629 127 0 255
0.160371 -0.131153 0.16649 127 0 255
0.13533 -0.413913 0.0401408 127 0 255
0.0121731 -0.0997802 -0.35005 127 0 255
-0.026659 -0.368508 -0.406751 127 0 255
-0.148771 -0.164162 0.2693 127 0 255
0.0514173 -0.214608 -0.411412 127 0 255
0.157131 -0.227481 0.179613 127 0 255
0.153812 -0.339085 0.188521 127 0 255
0.141339 -0.11012 -0.278377 127 0 255
-0.125327 -0.274819 0.199975 127 0 255
0.151219 -0.383941 -0.091595 127 0 255
0.13675 -0.233479 -0.352055 127 0 255
-0.212827 -0.374781 -0.21255 127 0 255
0.140584 -0.479371 -0.0386942 127 0 255
-0.0725996 -0.483989 0.251978 127 0 255
0.0745561 -0.480974 0.0609773 127 0 255
0.161748 -0.161569 0.025452 127 0 255
-0.117408 -0.214085 0.263532 127 0 255
0.0948486 -0.448363 -0.41637 127 0 255
0.14611 -0.110325 -0.0625928 127 0 255
-0.0128271 -0.387296 -0.28754 127 0 255
0.139238 -0.418525 0.150207 127 0 255
0.156213 -0.298415 -0.124241 127 0 255
0.14117 -0.191056 -0.16808 127 0 255
0.162173 -0.249776 -0.425053 127 0 255
0.112259 -0.466615 0.223082 127 0 255
0.130224 -0.328535 -0.356191 127 0 255
0.150564 -0.304082 -0.284488 127 0 255
-0.050327 -0.124785 -0.350047 127 0 255
0.126761 -0.131629 0.126743 127 0 255
0.128484 -0.232424 -0.00122531 127 0 255
0.11797 -0.12351 -0.399481 127 0 255
0.159266 -0.3195 0.0745337 127 0 255
0.12148 -0.47689 -0.265031 127 0 255
0.131711 -0.210368 0.231862 127 0 255
0.135009 -0.415421 -0.36126 127 0 255
-0.0628273 -0.312317 0.199974 127 0 255
0.0387336 -0.469097 0.0221607 127 0 255
0.102083 -0.454322 0.285946 127 0 255
0.012173 -0.174785 -0.350048 127 0 255
0.0857225 -0.371408 0.164354 127 0 255
0.131453 -0.361252 -0.026001 127 0 255
0.062173 -0.32479 -0.125044 127 0 255
0.024673 -0.33729 0.0874561 127 0 255
0.0683754 -0.457802 -0.373534 127 0 255
0.148503 -0.425076 -0.249915 127 0 255
0.0845944 -0.477346 -0.0830051 127 0 255
0.125337 -0.177643 -0.402145 127 0 255
0.153243 -0.178443 -0.2458 127 0 255
-0.300327 -0.337278 -0.137552 127 0 255
0.149054 -0.298288 0.00512257 127 0 255
0.037173 -0.337291 -0.0250438 127 0 255
0.133834 -0.288346 -0.177464 127 0 255
0.150898 -0.118814 -0.155801 127 0 255
0.15901 -0.279579 0.123238 127 0 255
0.128854 -0.480125 0.0307415 127 0 255
-0.275327 -0.337292 -0.0250428 127 0 255
-0.0492498 -0.448108 -0.384031 127 0 255
-0.0991005 -0.469753 0.3093 127 0 255
0.133416 -0.111577 0.230351 127 0 255
0.151872 -0.166986 -0.306511 127 0 255
-0.100327 -0.224821 0.199976 127 0 255
0.139737 -0.431817 0.0999888 127 0 255
-0.204527 -0.481111 -0.118324 127 0 255
0.130853 -0.322839 -0.0758145 127 0 255
-0.137344 -0.273193 0.259656 127 0 255
-0.262827 -0.362314 0.274972 127 0 255
0.135349 -0.251123 -0.132298 127 0 255
0.0724209 -0.265247 -0.404739 127 0 255
0.152551 -0.340582 -0.21136 127 0 255
0.149124 -0.285026 -0.376339 127 0 255
-0.106866 -0.453011 -0.38962 127 0 255
0.0996731 -0.0872744 0.0249457 127 0 255
-0.0563946 -0.480088 -0.109954 127 0 255
-0.170135 -0.48561 0.281703 127 0 255
-0.0153394 -0.331792 -0.408346 127 0 255
0.0130201 -0.482567 0.142658 127 0 255
0.0921195 -0.337078 -0.408182 127 0 255
0.154138 -0.444114 -0.175979 127 0 255
-0.150327 -0.374815 0.212472 127 0 255
-0.169885 -0.401487 0.304848 127 0 255
-0.225327 -0.237312 0.27497 127 0 255
0.139227 -0.320142 0.148873 127 0 255
0.163634 -0.179093 0.139444 127 0 255
0.149694 -0.227914 -0.210325 127 0 255
-0.0503272 -0.412312 0.19997 127 0 255
0.154599 -0.388105 0.0167618 127 0 255
0.00884446 -0.481649 0.00118456 127 0 255
-0.250327 -0.462315 0.312472 127 0 255
0.0198915 -0.251234 -0.408953 127 0 255
0.135985 -0.19137 -0.0547168 127 0 255
0.0312521 -0.136751 -0.392371 127 0 255
0.149297 -0.417544 0.199402 127 0 255
-0.124732 -0.144684 0.235316 127 0 255
0.142342 -0.451967 -0.291535 127 0 255
0.154779 -0.23683 0.141304 127 0 255
0.066203 -0.474485 -0.122366 127 0 255
0.037173 -0.337291 -0.187543 127 0 255
0.155538 -0.358405 0.0973069 127 0 255
0.136194 -0.232492 -0.311821 127 0 255
-0.178991 -0.300555 0.278004 127 0 255
-0.376352 -0.370683 -0.00560618 127 0 255
0.0236292 -0.482691 -0.260929 127 0 255
-0.115427 -0.484813 0.267611 127 0 255
0.087173 -0.17478 0.0374494 127 0 255
0.155945 -0.111825 0.0341101 127 0 255
0.0945244 -0.481908 0.26401 127 0 255
0.133851 -0.321772 -0.25504 127 0 255
0.1411 -0.0957437 0.176769 127 0 255
0.135112 -0.403038 -0.401068 127 0 255
0.0781467 -0.166909 -0.400601 127 0 255
0.102751 -0.477891 -0.221203 127 0 255
0.0871731 -0.112278 0.0999483 127 0 255
0.112292 -0.240773 -0.405199 127 0 255
0.144568 -0.118835 -0.238176 127 0 255
0.154576 -0.209234 0.0387497 127 0 255
0.074673 -0.42479 -0.300044 127 0 255
-0.00568715 -0.478333 -0.399548 127 0 255
0.139103 -0.328393 0.223277 127 0 255
0.152333 -0.275581 -0.0622098 127 0 255
0.125161 -0.299223 0.0449157 127 0 255
-0.0378273 -0.249817 0.199974 127 0 255
0.151893 -0.168244 -0.346355 127 0 255
-0.0182899 -0.483063 0.0744415 127 0 255
0.036857 -0.355082 -0.405552 127 0 255
0.154024 -0.433869 -0.0731794 127 0 255
0.130801 -0.259378 0.233229 127 0 255
-0.0842127 -0.359392 -0.378725 127 0 255
-0.125327 -0.324788 -0.287544 127 0 255
0.0526982 -0.418907 -0.38061 127 0 255
0.136599 -0.393672 -0.132774 127 0 255
-0.0753273 -0.162322 0.199977 127 0 255
0.0451881 -0.485164 0.108357 127 0 255
0.0746731 -0.0872744 -0.362554 127 0 255
-0.0628271 -0.374799 -0.287538 127 0 255
0.0972333 -0.473925 -0.010065 127 0 255
0.037173 -0.387293 -0.0500424 127 0 255
0.1524 -0.334368 -0.30636 127 0 255
0.149162 -0.256486 -0.266376 127 0 255
-0.075327 -0.187291 -0.350043 127 0 255
0.146712 -0.142588 -0.194446 127 0 255
0.146668 -0.174741 0.22641 127 0 255
-0.173608 -0.232137 0.282227 127 0 255
0.121259 -0.475337 -0.32124 127 0 255
0.151014 -0.102663 -0.121165 127 0 255
0.0503069 -0.468619 0.293391 127 0 255
0.126814 -0.166114 0.126834 127 0 255
-0.285656 -0.483008 0.00990983 127 0 255
0.128565 -0.481358 0.140708 127 0 255
0.138247 -0.359378 -0.40223 127 0 255
0.151428 -0.208551 -0.143717 127 0 255
-0.0303643 -0.481984 -0.0507608 127 0 255
-0.0753273 -0.362318 0.199974 127 0 255
0.001875 -0.475867 0.175454 127 0 255
-0.125327 -0.43729 -0.287544 127 0 255
0.129368 -0.336413 -0.155315 127 0 255
0.139072 -0.108069 -0.36663 127 0 255
-0.012827 -0.324793 -0.300042 127 0 255
-0.312827 -0.337292 0.0124571 127 0 255
-0.124924 -0.302352 0.249489 127 0 255
0.15395 -0.156741 -0.0555522 127 0 255
0.037173 -0.437296 -0.20004 127 0 255
0.116527 -0.480436 -0.121723 127 0 255
-0.462827 -0.337274 0.0124457 127 0 255
-0.273298 -0.482152 -0.0738918 127 0 255
0.161954 -0.237386 0.0786889 127 0 255
0.0121728 -0.199808 0.199967 127 0 255
0.0992879 -0.480676 0.0656693 127 0 255
-0.300327 -0.337286 -0.0625468 127 0 255
0.037173 -0.412291 0.0749567 127 0 255
0.133603 -0.392404 -0.213694 127 0 255
0.062173 -0.324789 -0.0625448 127 0 255
-0.00303439 -0.269905 -0.39885 127 0 255
0.0206398 -0.416582 -0.41057 127 0 255
0.141194 -0.417062 0.239854 127 0 255
0.109035 -0.119486 0.226312 127 0 255
-0.212827 -0.374774 -0.300054 127 0 255
-0.139067 -0.412065 0.31672 127 0 255
0.153128 -0.352777 -0.0573063 127 0 255
-0.0253271 -0.437299 -0.287538 127 0 255
0.137847 -0.441215 -0.352426 127 0 255
0.151753 -0.438534 0.0332761 127 0 255
0.139153 -0.39712 -0.279911 127 0 255
0.154082 -0.301837 0.16986 127 0 255
-0.100327 -0.424818 0.199974 127 0 255
-0.436148 -0.3568 -0.0423258 127 0 255
0.126653 -0.132725 0.0907197 127 0 255
0.130317 -0.293896 -0.024389 127 0 255
-0.00411206 -0.348537 -0.383894 127 0 255
0.0873495 -0.369146 0.149909 127 0 255
0.137892 -0.20736 -0.278099 127 0 255
0.074673 -0.34979 -0.237544 127 0 255
0.13744 -0.118393 -0.29248 127 0 255
0.134593 -0.475848 -0.16518 127 0 255
0.148509 -0.470542 -0.0789019 127 0 255
0.134225 -0.159941 0.0191711 127 0 255
-0.112827 -0.112318 0.199974 127 0 255
0.0413452 -0.296851 -0.397061 127 0 255
-0.125302 -0.186222 0.241907 127 0 255
0.0976577 -0.389422 -0.41453 127 0 255
-0.0261476 -0.407544 -0.390853 127 0 255
0.152806 -0.268407 -0.359842 127 0 255
0.0376796 -0.482592 0.0485713 127 0 255
-0.387827 -0.337274 -0.0750543 127 0 255
0.154477 -0.23614 0.00741624 127 0 255
-0.250327 -0.412313 0.274971 127 0 255
0.037173 -0.399792 -4.2792e-05 127 0 255
0.133826 -0.375972 0.0634224 127 0 255
0.074673 -0.424792 -0.250043 127 0 255
0.037173 -0.387293 -0.112542 127 0 255
-0.0554291 -0.482019 -0.129397 127 0 255
0.087173 -0.0997873 0.174954 127 0 255
0.133921 -0.441909 0.124387 127 0 255
-0.125327 -0.312319 0.199975 127 0 255
0.0837662 -0.474456 -0.348521 127 0 255
-0.0985178 -0.334814 -0.373226 127 0 255
0.13819 -0.466986 0.262609 127 0 255
0.152984 -0.19193 -0.364261 127 0 255
0.0967437 -0.453546 -0.416415 127 0 255
0.151868 -0.411069 -0.0421434 127 0 255
0.15078 -0.107064 -0.0665912 127 0 255
-0.0826427 -0.482272 0.247012 127 0 255
-0.173721 -0.449736 0.313343 127 0 255
0.139214 -0.356279 0.121854 127 0 255
0.154802 -0.197384 0.184409 127 0 255
-0.0833728 -0.412364 -0.396582 127 0 255
0.139924 -0.289799 -0.298411 127 0 255
0.037173 -0.37479 -0.312544 127 0 255
0.158506 -0.121125 0.185662 127 0 255
-0.159982 -0.340788 0.289019 127 0 255
-0.0697647 -0.481836 -0.0715885 127 0 255
0.138926 -0.359387 0.19335 127 0 255
0.137759 -0.255103 0.125551 127 0 255
0.0913547 -0.345364 -0.385797 127 0 255
0.150757 -0.161127 -0.108473 127 0 255
0.0246729 -0.362291 0.0624566 127 0 255
-0.225297 -0.480025 -0.120751 127 0 255
0.125712 -0.232001 0.23361 127 0 255
0.142879 -0.477041 0.0186062 127 0 255
0.132758 -0.357217 -0.248699 127 0 255
-0.371206 -0.356195 -0.0217657 127 0 255
0.151138 -0.380992 -0.32794 127 0 255
0.15378 -0.22851 -0.0661794 127 0 255
0.0368613 -0.481653 -0.00703762 127 0 255
0.0871731 -0.162277 -0.350052 127 0 255
-0.375327 -0.337274 -0.150054 127 0 255
0.15514 -0.319015 -0.147937 127 0 255
0.151027 -0.448851 0.175652 127 0 255
-0.150327 -0.437315 0.212472 127 0 255
-0.312827 -0.487291 0.0999563 127 0 255
0.162173 -0.0747744 0.0499457 127 0 255
0.124032 -0.208241 -0.402353 127 0 255
0.00369772 -0.443002 -0.416071 127 0 255
0.15067 -0.229261 -0.221587 127 0 255
0.0371729 -0.112303 0.199964 127 0 255
0.0337006 -0.203176 -0.397639 127 0 255
-0.0378272 -0.337312 0.19997 127 0 255
-0.225327 -0.312316 0.299973 127 0 255
-0.194318 -0.486132 0.290558 127 0 255
0.154374 -0.330023 0.0200433 127 0 255
-0.275327 -0.337284 -0.100048 127 0 255
-0.025327 -0.187289 -0.312545 127 0 255
0.153044 -0.399648 -0.113682 127 0 255
0.0980399 -0.478701 -0.174706 127 0 255
0.162173 -0.312277 -0.425053 127 0 255
0.12943 -0.142374 -0.401089 127 0 255
-0.024139 -0.481988 0.0674994 127 0 255
0.153653 -0.27587 0.195216 127 0 255
0.151704 -0.155998 -0.179281 127 0 255
0.118978 -0.225606 0.0440102 127 0 255
0.15613 -0.144557 0.111445 127 0 255
0.105342 -0.481673 0.120074 127 0 255
0.15154 -0.296266 -0.227556 127 0 255
0.0835712 -0.474889 -0.0851148 127 0 255
-0.0628271 -0.324795 -0.325041 127 0 255
-0.387827 -0.349785 0.0374528 127 0 255
0.15288 -0.110649 -0.250434 127 0 255
0.062173 -0.387292 -0.200043 127 0 255
-0.180968 -0.270254 0.273078 127 0 255
0.148292 -0.43006 0.0823461 127 0 255
0.125449 -0.476861 -0.244214 127 0 255
-0.138298 -0.379666 0.285007 127 0 255
0.135371 -0.302834 -0.0844633 127 0 255
0.156912 -0.455162 -0.0444778 127 0 255
0.137493 -0.310923 0.0761762 127 0 255
0.153634 -0.168037 -0.0336993 127 0 255
0.155201 -0.391979 0.156921 127 0 255
0.108932 -0.286238 -0.404864 127 0 255
-0.175327 -0.137314 0.287472 127 0 255
0.137124 -0.430685 -0.15961 127 0 255
0.156027 -0.113421 0.0169106 127 0 255
0.0269788 -0.482652 -0.269545 127 0 255
0.0318832 -0.482663 0.123271 127 0 255
0.155719 -0.267882 -0.132646 127 0 255
0.0835142 -0.47819 0.280781 127 0 255
0.0496729 -0.412295 0.199959 127 0 255
0.0121729 -0.424794 -0.312541 127 0 255
0.152728 -0.174944 -0.287982 127 0 255
-0.431777 -0.367114 -0.00319318 127 0 255
-0.150327 -0.224816 0.212473 127 0 255
0.0606619 -0.157772 -0.398274 127 0 255
0.131745 -0.382993 -0.0232999 127 0 255
0.128831 -0.331605 -0.364327 127 0 255
0.149553 -0.221988 -0.175786 127 0 255
-0.0877657 -0.477872 0.299939 127 0 255
0.14098 -0.398374 0.236772 127 0 255
0.138607 -0.226815 0.10136 127 0 255
0.0233065 -0.418878 -0.377103 127 0 255
-0.325327 -0.337274 -0.150054 127 0 255
0.148771 -0.361418 -0.107045 127 0 255
-0.133403 -0.147613 0.244825 127 0 255
0.14054 -0.167957 0.22723 127 0 255
0.151353 -0.121132 -0.366961 127 0 255
0.098641 -0.477098 -0.402992 127 0 255
-0.0294 -0.360402 -0.406715 127 0 255
0.125952 -0.480433 0.0704219 127 0 255
0.0523748 -0.331587 -0.404133 127 0 255
-0.119134 -0.294085 0.245482 127 0 255
-0.0628273 -0.187322 0.199977 127 0 255
0.100866 -0.403479 -0.386385 127 0 255
-0.1646 -0.21628 0.27269 127 0 255
0.132537 -0.397876 0.0416391 127 0 255
0.0840957 -0.24445 -0.404894 127 0 255
0.151983 -0.406022 -0.19074 127 0 255
0.13979 -0.294379 0.120256 127 0 255
-0.000326942 -0.0997816 -0.35005 127 0 255
0.154226 -0.280275 -0.0398291 127 0 255
0.062173 -0.324789 -0.187545 127 0 255
0.024673 -0.324788 -0.337546 127 0 255
0.138163 -0.261773 -0.31813 127 0 255
0.152222 -0.103469 -0.121736 127 0 255
-0.276887 -0.481297 -0.0717328 127 0 255
0.0688049 -0.480789 0.0314562 127 0 255
-0.0039861 -0.248033 -0.397379 127 0 255
0.161586 -0.164098 0.02904 127 0 255
0.15077 -0.186661 -0.119815 127 0 255
0.118121 -0.483176 0.256683 127 0 255
0.0797327 -0.338934 0.158669 127 0 255
-0.147185 -0.45823 0.288178 127 0 255
0.0246729 -0.437296 -0.10004 127 0 255
0.136598 -0.43228 -0.278585 127 0 255
0.128982 -0.12598 0.154438 127 0 255
0.153447 -0.109683 -0.0366347 127 0 255
-0.050651 -0.473765 -0.0754542 127 0 255
-0.0628271 -0.4373 -0.287538 127 0 255
-0.0706505 -0.370339 -0.379889 127 0 255
0.151747 -0.37192 -0.23792 127 0 255
0.12076 -0.479595 -0.0852293 127 0 255
0.147913 -0.17562 -0.20839 127 0 255
0.140168 -0.278684 0.0104609 127 0 255
0.0496731 -0.0872751 -0.387554 127 0 255
0.137489 -0.413795 -0.34111 127 0 255
0.150264 -0.118209 -0.316956 127 0 255
-0.0600865 -0.425765 -0.397384 127 0 255
0.154692 -0.140073 0.0725795 127 0 255
0.151424 -0.351787 -0.175435 127 0 255
-0.462827 -0.337274 -0.0875543 127 0 255
0.0450327 -0.451983 -0.402602 127 0 255
0.144291 -0.340126 0.219718 127 0 255
0.0687033 -0.474691 -0.121689 127 0 255
0.152724 -0.238104 0.217777 127 0 255
0.150437 -0.472391 0.121068 127 0 255
0.130424 -0.0954766 0.201313 127 0 255
-0.0628273 -0.262321 0.199976 127 0 255
0.151253 -0.229169 -0.0987348 127 0 255
-0.135315 -0.327678 0.269142 127 0 255
0.15196 -0.298276 -0.355584 127 0 255
0.0996731 -0.0872744 0.0874457 127 0 255
0.137036 -0.479653 -0.0240446 127 0 255
0.136176 -0.415853 0.17453 127 0 255
0.134898 -0.284763 -0.183885 127 0 255
0.152874 -0.194412 -0.0141673 127 0 255
0.163447 -0.18301 0.137369 127 0 255
0.131549 -0.342401 0.00639734 127 0 255
-0.211349 -0.480758 -0.129034 127 0 255
-0.137827 -0.399785 -0.300047 127 0 255
0.137584 -0.211006 -0.345102 127 0 255
0.141928 -0.246015 0.15319 127 0 255
0.135392 -0.439785 -0.217936 127 0 255
0.152467 -0.328081 -0.268877 127 0 255
-0.0172726 -0.320947 -0.402208 127 0 255
0.037173 -0.424792 0.112457 127 0 255
-0.287827 -0.487303 0.237464 127 0 255
0.135145 -0.469941 -0.354947 127 0 255
-0.412827 -0.337274 -0.125054 127 0 255
0.0254571 -0.153121 -0.393042 127 0 255
0.0170008 -0.481665 0.0118866 127 0 255
0.133102 -0.347572 -0.33308 127 0 255
0.1564 -0.451396 0.0111366 127 0 255
0.152191 -0.399783 0.115741 127 0 255
-0.125327 -0.349818 0.199974 127 0 255
0.153088 -0.175254 -0.252706 127 0 255
0.153139 -0.353592 -0.0561404 127 0 255
-0.237827 -0.374815 0.274972 127 0 255
-0.0128272 -0.112314 0.199972 127 0 255
-0.140799 -0.401598 0.287633 127 0 255
0.127439 -0.432091 0.238164 127 0 255
-0.405048 -0.369867 -0.00253538 127 0 255
0.161152 -0.288386 0.0786045 127 0 255
0.0481858 -0.21738 -0.410653 127 0 255
0.155604 -0.332595 0.155234 127 0 255
0.148732 -0.127174 -0.192701 127 0 255
-0.112827 -0.337292 -0.275042 127 0 255
0.142197 -0.271497 -0.395745 127 0 255
0.0163348 -0.483745 0.143341 127 0 255
0.124673 -0.0747744 -0.350054 127 0 255
0.037173 -0.362292 -0.0750427 127 0 255
-0.300327 -0.487295 0.137459 127 0 255
0.0786914 -0.474256 -0.352759 127 0 255
-0.157885 -0.277204 0.285176 127 0 255
0.139174 -0.355143 -0.40073 127 0 255
-0.152909 -0.18202 0.273849 127 0 255
-0.190482 -0.46296 0.312733 127 0 255
0.139092 -0.440832 -0.135702 127 0 255
0.0806373 -0.389391 -0.411999 127 0 255
-0.0461001 -0.482081 -0.116846 127 0 255
0.131952 -0.273603 0.227058 127 0 255
0.149833 -0.461386 0.186745 127 0 255
-0.200327 -0.387281 -0.22505 127 0 255
0.128488 -0.2261 0.00195505 127 0 255
0.133172 -0.169679 0.0943222 127 0 255
0.149594 -0.243893 -0.251073 127 0 255
0.074673 -0.349789 -0.262545 127 0 255
0.0606647 -0.482418 0.103727 127 0 255
0.130595 -0.310159 -0.141589 127 0 255
-0.287827 -0.337293 -4.20159e-05 127 0 255
0.137854 -0.464083 -0.296068 127 0 255
0.0612935 -0.275908 -0.398262 127 0 255
-0.037827 -0.124785 -0.350047 127 0 255
-0.362827 -0.337277 -0.0875529 127 0 255
-0.0811657 -0.483762 0.256355 127 0 255
-0.187827 -0.362319 0.324974 127 0 255
0.142643 -0.193787 0.181765 127 0 255
0.0345004 -0.357338 -0.405425 127 0 255
0.138628 -0.41 -0.0734223 127 0 255
0.0291438 -0.47744 -0.260869 127 0 255
-0.000327202 -0.187311 0.199969 127 0 255
-0.43806 -0.356751 -0.0381685 127 0 255
0.151619 -0.371595 -0.295256 127 0 255
0.105543 -0.476478 -0.224843 127 0 255
0.109713 -0.173752 -0.402868 127 0 255
0.157737 -0.181125 -0.0848611 127 0 255
0.153108 -0.342827 0.0432344 127 0 255
-0.0223606 -0.461067 -0.407795 127 0 255
-0.012827 -0.349794 -0.287541 127 0 255
0.0614623 -0.361427 0.156931 127 0 255
0.137428 -0.173026 -0.331364 127 0 255
-0.12081 -0.148289 0.232882 127 0 255
0.110372 -0.458748 -0.416649 127 0 255
0.149188 -0.124509 -0.146703 127 0 255
-0.200327 -0.374774 -0.312554 127 0 255
0.122404 -0.132007 0.227849 127 0 255
-0.142765 -0.234809 0.263918 127 0 255
0.134321 -0.262346 0.0819466 127 0 255
0.0746731 -0.124777 -0.350052 127 0 255
0.140839 -0.258626 -0.0863488 127 0 255
0.062173 -0.32479 -0.137544 127 0 255
0.087173 -0.17478 0.0249493 127 0 255
-0.00602787 -0.368151 -0.383384 127 0 255
0.152025 -0.10985 -0.269299 127 0 255
0.12275 -0.231407 -0.403023 127 0 255
0.140039 -0.458962 0.267062 127 0 255
-0.275327 -0.462308 0.274968 127 0 255
0.037173 -0.424793 -0.025042 127 0 255
0.149157 -0.250425 -0.184693 127 0 255
0.153414 -0.315144 -0.0267807 127 0 255
0.0214193 -0.300349 -0.401711 127 0 255
0.156303 -0.114684 0.0606878 127 0 255
0.138585 -0.281747 -0.257672 127 0 255
0.129665 -0.477951 -0.186904 127 0 255
0.0246729 -0.349791 0.0374566 127 0 255
0.12015 -0.455051 0.0946115 127 0 255
-0.025327 -0.174788 -0.337545 127 0 255
0.15459 -0.408139 0.0202904 127 0 255
0.120484 -0.408841 -0.415845 127 0 255
0.131238 -0.204309 0.0570043 127 0 255
0.137671 -0.473964 -0.108044 127 0 255
-0.212827 -0.437274 -0.312554 127 0 255
0.140909 -0.0968135 0.167055 127 0 255
0.147852 -0.326846 -0.100558 127 0 255
-0.0378272 -0.312313 0.199971 127 0 255
0.156095 -0.217901 -0.0369307 127 0 255
0.15779 -0.33159 0.0872253 127 0 255
0.141473 -0.37948 -0.150631 127 0 255
0.0117577 -0.440602 -0.379446 127 0 255
-0.171124 -0.40952 0.307833 127 0 255
0.142072 -0.384158 0.22688 127 0 255
0.136531 -0.207092 0.231664 127 0 255
0.12727 -0.381871 -0.364657 127 0 255
0.0363873 -0.479755 -0.0128594 127 0 255
0.037173 -0.387294 -0.137542 127 0 255
-0.0753271 -0.374798 -0.287539 127 0 255
0.155543 -0.12817 -0.0288742 127 0 255
0.140724 -0.305018 -0.31225 127 0 255
0.0215854 -0.232643 -0.393086 127 0 255
-0.262827 -0.349787 -0.0875462 127 0 255
-0.0927374 -0.332458 -0.379953 127 0 255
0.054703 -0.482727 0.0734124 127 0 255
-0.100327 -0.412319 0.199975 127 0 255
0.106328 -0.32102 -0.408043 127 0 255
0.154074 -0.308037 0.190561 127 0 255
0.126954 -0.480073 0.0446784 127 0 255
0.0551893 -0.423086 -0.409846 127 0 255
0.152123 -0.213763 -0.15618 127 0 255
-0.362827 -0.337287 0.024954 127 0 255
-0.211745 -0.483041 -0.121285 127 0 255
-0.0253272 -0.424807 0.199967 127 0 255
0.135942 -0.249199 -0.356345 127 0 255
0.155473 -0.113595 -0.0896355 127 0 255
0.16126 -0.227404 0.0967011 127 0 255
-0.100327 -0.212321 0.199976 127 0 255
0.130887 -0.267305 0.0415697 127 0 255
0.0991889 -0.479735 0.250738 127 0 255
0.077729 -0.170412 -0.400813 127 0 255
0.154007 -0.440176 -0.181779 127 0 255
0.135864 -0.391484 0.0830259 127 0 255
-0.0361635 -0.428816 -0.399236 127 0 255
0.137795 -0.199506 -0.298519 127 0 255
0.136568 -0.358939 0.156618 127 0 255
-0.037827 -0.324792 -0.337543 127 0 255
0.0871731 -0.137278 0.0874482 127 0 255
0.140037 -0.41612 -0.240462 127 0 255
-0.000327055 -0.399794 -0.312541 127 0 255
0.153964 -0.443343 -0.0275231 127 0 255
-0.0420426 -0.479877 -0.130327 127 0 255
0.0706187 -0.356084 -0.385441 127 0 255
0.0746729 -0.424793 -0.212542 127 0 255
-0.402117 -0.35795 -0.0294435 127 0 255
0.0853806 -0.479099 -0.127414 127 0 255
0.159667 -0.125987 0.155486 127 0 255
0.162173 -0.0747744 0.0124457 127 0 255
-0.133867 -0.420758 0.311984 127 0 255
0.138824 -0.108251 -0.368606 127 0 255
0.0187978 -0.478459 0.16441 127 0 255
-0.119937 -0.206427 0.267042 127 0 255
0.155292 -0.256768 0.190315 127 0 255
0.074673 -0.412292 0.199957 127 0 255
0.15422 -0.163233 0.214992 127 0 255
-0.122392 -0.291997 0.247232 127 0 255
0.133311 -0.265164 -0.0209627 127 0 255
0.154662 -0.372562 -0.0215832 127 0 255
-0.0503273 -0.112321 0.199976 127 0 255
-0.111502 -0.469546 0.256829 127 0 255
-0.250327 -0.412315 0.299972 127 0 255
0.149483 -0.159049 -0.131885 127 0 255
0.119961 -0.467952 -0.288788 127 0 255
0.124483 -0.481468 0.138457 127 0 255
0.111864 -0.470037 -0.00929621 127 0 255
-0.262827 -0.349792 -0.037543 127 0 255
0.08273 -0.450477 -0.375949 127 0 255
0.137771 -0.416727 -0.101638 127 0 255
0.142336 -0.147332 -0.269392 127 0 255
-0.250327 -0.337315 0.274972 127 0 255
-0.300327 -0.487298 0.199961 127 0 255
-0.0628309 -0.372646 -0.38196 127 0 255
0.131392 -0.17663 0.134179 127 0 255
0.146682 -0.330231 -0.216043 127 0 255
0.074673 -0.324789 -0.100045 127 0 255
-0.325327 -0.337279 -0.100051 127 0 255
0.138823 -0.317599 0.121951 127 0 255
0.153812 -0.392571 0.187752 127 0 255
0.153076 -0.283725 -0.169548 127 0 255
0.037173 -0.33729 -0.012544 127 0 255
0.037173 -0.424792 0.062457 127 0 255
-0.178379 -0.240316 0.280745 127 0 255
0.148609 -0.188788 -0.233164 127 0 255
0.134985 -0.157967 0.0237234 127 0 255
0.037173 -0.387294 -0.187542 127 0 255
-0.193728 -0.445553 0.301662 127 0 255
0.130483 -0.438982 -0.346507 127 0 255
0.152927 -0.192258 -0.356529 127 0 255
0.140523 -0.321881 0.221863 127 0 255
0.150031 -0.425062 0.0658402 127 0 255
0.120396 -0.135261 -0.399744 127 0 255
-0.137827 -0.399783 -0.325049 127 0 255
0.037173 -0.424793 0.149958 127 0 255
0.036078 -0.164603 -0.395715 127 0 255
-0.0253273 -0.224816 0.199973 127 0 255
0.131316 -0.339784 -0.0581132 127 0 255
0.12615 -0.30139 -0.407672 127 0 255
0.0664517 -0.480762 0.0344273 127 0 255
0.150124 -0.155918 -0.0767701 127 0 255
0.151581 -0.369109 -0.24505 127 0 255
0.0883353 -0.225389 -0.404591 127 0 255
0.150084 -0.470443 0.100855 127 0 255
-0.050327 -0.17479 -0.300044 127 0 255
-0.146137 -0.162489 0.266644 127 0 255
0.074673 -0.424791 -0.287544 127 0 255
-0.150327 -0.387315 0.212472 127 0 255
0.024673 -0.33729 0.0749562 127 0 255
0.127319 -0.247546 0.234549 127 0 255
0.0126467 -0.26672 -0.408295 127 0 255
0.074673 -0.324789 -0.200045 127 0 255
0.142753 -0.241014 -0.280021 127 0 255
0.0098973 -0.375074 -0.405622 127 0 255
0.141708 -0.463266 -0.230561 127 0 255
0.154964 -0.225059 0.16371 127 0 255
0.150434 -0.125727 -0.317925 127 0 255
-0.312827 -0.337288 -0.0250452 127 0 255
0.15234 -0.382283 -0.12838 127 0 255
0.153143 -0.26058 -0.0516245 127 0 255
0.152134 -0.136265 -0.185825 127 0 255
0.108177 -0.480752 -0.165218 127 0 255
0.0996731 -0.0997744 -5.43091e-05 127 0 255
-0.0434804 -0.33772 -0.394183 127 0 255
0.154581 -0.310542 0.0294422 127 0 255
-0.162827 -0.312321 0.324976 127 0 255
-0.250327 -0.474815 0.312472 127 0 255
-0.0680606 -0.41124 -0.398046 127 0 255
0.118679 -0.480093 -0.384756 127 0 255
0.130112 -0.439632 0.222688 127 0 255
-0.0628272 -0.362316 0.199973 127 0 255
0.0840079 -0.347914 0.166265 127 0 255
0.154397 -0.198927 0.0515466 127 0 255
0.131787 -0.378753 0.0220418 127 0 255
0.141639 -0.21607 -0.109822 127 0 255
0.156408 -0.455563 -0.0546837 127 0 255
0.147978 -0.438621 0.150765 127 0 255
0.0396822 -0.485067 0.104152 127 0 255
-0.138649 -0.386287 0.285944 127 0 255
-0.075327 -0.162289 -0.350044 127 0 255
-0.150327 -0.299816 0.212473 127 0 255
-0.187088 -0.484105 0.302965 127 0 255
0.155989 -0.296179 -0.131018 127 0 255
0.139652 -0.394606 -0.0615015 127 0 255
0.137097 -0.18967 -0.0196799 127 0 255
0.139315 -0.118747 0.0501184 127 0 255
0.134637 -0.279357 -0.343018 127 0 255
0.153266 -0.262339 -0.210911 127 0 255
0.136938 -0.146243 0.195716 127 0 255
0.12185 -0.396618 -0.416004 127 0 255
0.151525 -0.361912 -0.188328 127 0 255
-0.150327 -0.112314 0.224971 127 0 255
-0.216285 -0.482958 -0.133298 127 0 255
0.133697 -0.322686 -0.273268 127 0 255
0.037173 -0.424795 -0.125041 127 0 255
0.155242 -0.374721 0.0887745 127 0 255
0.012173 -0.32479 -0.312544 127 0 255
-0.237827 -0.412274 -0.275054 127 0 255
0.142099 -0.110813 0.118688 127 0 255
0.141293 -0.397236 -0.302561 127 0 255
-0.0753271 -0.424798 -0.287539 127 0 255
-0.125327 -0.174818 0.199974 127 0 255
-0.383313 -0.365956 -0.00510939 127 0 255
0.0679838 -0.262014 -0.398596 127 0 255
0.0621729 -0.112297 0.199961 127 0 255
0.144872 -0.467196 -0.105275 127 0 255
0.149344 -0.212411 -0.193099 127 0 255
0.0121731 -0.0872789 -0.362551 127 0 255
0.144126 -0.23898 -0.383161 127 0 255
-0.140054 -0.317549 0.274201 127 0 255
0.162858 -0.192674 0.128441 127 0 255
-0.137827 -0.437315 0.199972 127 0 255
0.037173 -0.424792 -0.312543 127 0 255
