ply
format ascii 1.0
comment Created by Open3D
element vertex 1612
property double x
property double y
property double z
end_header
-0.0112914 -0.286201 -0.389522
0.122746 -0.330409 0.146086
0.306781 0.130073 0.0696249
0.0431489 -0.0835502 -0.328315
0.0210787 -0.0426224 0.0667466
0.162524 -0.308091 -0.169841
0.0145814 -0.314673 -0.282141
0.122759 0.0010875 -0.228341
0.266546 -0.187941 0.131343
0.148607 -0.252792 0.157963
-0.0130075 -0.339787 -0.0349955
0.208036 -0.311204 0.0172162
0.131912 0.0160539 -0.0456893
0.0594484 -0.173685 -0.309465
-0.123081 -0.347602 0.0270735
0.157542 0.0765049 0.0696323
0.189838 -0.202059 -0.206294
0.0699634 0.095682 -0.32663
-0.227978 -0.239242 -0.378488
0.139505 -0.132479 -0.344978
-0.264162 -0.230197 -0.374456
-0.018957 -0.330868 -0.149753
0.244985 -0.286288 -0.069931
0.267393 -0.00854453 0.0804531
-0.0304057 -0.320304 0.087466
-0.154765 -0.0194001 -0.43029
0.0628766 -0.182098 0.0627552
0.0598361 0.00803279 0.037193
-0.2705 -0.340339 -0.24616
0.235442 -0.123675 0.0714691
0.026906 -0.220581 -0.00344952
-0.398354 -0.251322 -0.334472
0.128792 -0.304789 -0.378811
-0.0898297 -0.234979 -0.393437
0.131449 0.0813111 -0.0790257
-0.00350915 -0.107219 0.121565
0.0200802 -0.0233518 -0.241256
0.12401 -0.305964 -0.264108
0.0556311 -0.10972 -0.37282
0.00406368 -0.0309132 -0.389361
0.17933 -0.30054 0.0689633
0.210937 -0.312859 0.0863569
-0.302102 -0.323968 -0.3338
-0.398185 -0.31379 -0.30005
-0.183082 -0.345662 0.106659
0.263614 0.00515954 0.121909
0.0784579 -0.0801725 0.0794428
0.0764307 -0.331306 -0.0371768
0.267294 0.0851911 0.0747145
0.196056 -0.178671 0.0640101
0.146278 0.0216592 0.0742796
-0.0119493 -0.288481 -0.174035
0.266401 0.00903653 0.0277097
0.076928 0.0657905 -0.388276
0.116756 -0.324306 0.0238659
0.0555906 0.0148402 -0.284383
0.13792 -0.284226 0.126683
0.216291 -0.245934 0.142529
-0.0990243 0.0223034 -0.378937
-0.314195 -0.229532 -0.322134
0.0726674 -0.218238 0.0963619
-0.0905855 -0.0323243 -0.383408
0.259184 0.134601 0.0835112
-0.0873798 -0.095484 -0.429638
-0.121396 -0.35395 -0.0494436
0.151805 -0.0638148 -0.232544
0.0447256 -0.133356 0.116534
0.160099 -0.114393 -0.0171614
0.131936 -0.170306 0.103815
-0.0557214 -0.312847 -0.31415
0.0520007 -0.06335 0.118789
-0.00397731 0.0609351 -0.426766
0.178376 -0.00256014 0.013312
-0.338469 -0.336832 -0.217278
0.0918608 0.00274043 -0.390267
0.175288 -0.174552 -0.0706429
-0.230552 -0.350911 0.0842736
0.2182 -0.234497 0.0660755
0.191421 -0.312622 -0.0336741
-0.089504 -0.0443567 -0.146455
0.208803 -0.112849 0.131021
0.0354018 -0.270131 0.148837
0.256071 -0.270862 0.147201
0.00307829 -0.0309916 -0.309027
0.143422 0.0938993 0.0880658
0.029764 -0.325908 -0.168513
-0.0434793 -0.0646138 -0.372792
-0.0510129 0.013126 -0.456219
0.0651507 -0.229152 -0.388983
-0.171653 -0.0904281 -0.409459
0.175027 -0.000477418 0.125404
0.235914 -0.256646 -0.0244521
-0.0602793 -0.342757 0.0544372
-0.0986709 -0.329571 -0.259048
-0.0223511 -0.172251 0.117936
-0.175763 -0.29882 -0.385321
0.23541 -0.00693817 -0.0122919
0.20064 -0.22763 0.166493
0.252523 0.112284 0.0286474
-0.0502306 -0.117538 -0.358674
0.186319 -0.0880607 0.0744984
0.206537 -0.249116 -0.0938533
0.17198 -0.17151 0.164606
-0.241606 -0.346021 -0.204908
-0.262134 -0.198649 -0.380841
0.263935 -0.0742007 0.115388
0.0689387 0.0342228 0.102086
-0.0706056 -0.0494059 0.050149
0.208163 -0.0503713 0.146118
0.180637 -0.180675 -0.0128776
-0.0464738 -0.238391 -0.361019
-0.090778 -0.19579 -0.15958
0.072556 -0.307299 -0.298868
-0.0160599 -0.337757 0.00281438
0.213773 -0.302904 -0.153855
-0.100172 -0.262407 -0.432362
0.0660816 -0.0396961 -0.278478
-0.210967 -0.32629 -0.319596
0.148824 0.0456843 0.0211722
0.0840304 -0.236744 -0.281203
0.15357 -0.153831 -0.310588
-0.134094 -0.231852 -0.316405
0.102117 -0.124421 0.0927715
0.256814 0.069602 0.120212
0.0189897 -0.0602437 -0.139627
-0.0712919 -0.23458 0.0672526
0.233636 -0.218452 0.0208629
0.0157399 0.00101228 0.071312
-0.0860674 -0.344164 -0.12152
0.200462 -0.259285 -0.230912
-0.0960793 -0.348938 0.0188531
0.0527884 -0.203518 0.125719
0.0118117 -0.153141 -0.349671
0.146656 -0.326485 0.120979
-0.143034 -0.201355 -0.393058
0.298598 0.0299512 0.0828286
0.253347 -0.256146 0.10273
0.0728207 -0.133943 0.03436
0.265946 -0.158492 0.111552
-0.0364696 -0.215559 -0.418146
-0.146746 -0.34534 0.0499828
0.163347 -0.371263 0.090801
0.242276 0.0619818 -0.00191063
0.046023 -0.0610057 -0.387308
0.0922035 -0.325368 -0.0817148
-0.0223958 -0.154898 -0.264153
0.139159 -0.324267 0.0594988
0.183707 -0.270207 -0.0221366
0.259772 -0.210304 0.172497
0.0334591 0.0333372 -0.424218
0.133894 -0.0366268 0.13729
-0.0850932 -0.134304 -0.00236033
0.0487011 -0.176448 -0.062741
-0.343564 -0.264204 -0.358684
0.215403 0.087819 0.0804348
-0.0161784 -0.332833 0.135942
-0.437649 -0.302695 -0.197824
-0.094569 -0.333567 -0.202281
-0.0512907 -0.342627 -0.0630339
0.0348378 -0.337043 0.00358978
-0.0914687 -0.295089 0.0191078
0.0825295 -0.159464 -0.26648
-0.057225 -0.298259 -0.409332
-0.29428 -0.366699 -0.174088
0.0989352 0.0430397 -0.21213
0.0470859 -0.176064 0.02659
-0.252379 -0.260401 -0.397185
0.20855 -0.149202 0.137826
-0.0850177 -0.0130725 -0.00360213
0.218694 -0.148692 -0.00383746
0.0387985 0.082369 -0.421041
-0.174346 -0.351585 -0.0952677
0.0176689 -0.246006 -0.362074
-0.027062 -0.012309 -0.421795
0.0683116 -0.258276 0.121001
0.163971 -0.193731 0.105509
-0.121149 0.011634 -0.446576
0.0226753 -0.0744982 -0.31637
0.125917 -0.0506133 -0.365465
0.303263 0.0692902 0.078881
-0.0816947 -0.346518 0.0935636
0.211524 -0.109355 0.216797
0.279617 -0.149745 0.146568
0.115991 0.019378 -0.340938
-0.106156 -0.346601 -0.00266224
-0.0954448 -0.171912 -0.377285
-0.0048991 0.00151204 -0.31269
-0.0226599 0.0513901 -0.460116
0.105857 -0.225711 -0.402381
-0.0101746 -0.0836201 -0.426648
0.166281 -0.22697 -0.318112
-0.133792 -0.0436222 -0.436391
-0.196403 -0.359843 -0.0452619
0.232004 -0.0411709 0.000892863
0.140086 -0.313822 -0.140693
0.0186902 -0.183851 -0.409751
-0.0861676 -0.110015 -0.107023
-0.316157 -0.249472 -0.287413
0.141241 -0.0798881 0.0811299
-0.0852264 -0.305293 -0.134444
0.0359588 -0.302811 -0.354314
-0.0880833 -0.101215 -0.347002
0.119857 0.0398414 -0.0550376
0.160646 0.0916406 0.0260732
0.153017 -0.126464 0.153374
-0.409066 -0.289048 -0.343455
0.0221574 -0.0757784 0.0766926
0.0220776 -0.33788 0.0586019
0.25793 -0.204408 0.110184
0.268892 -0.0835795 0.0825761
0.182958 -0.326236 0.16544
0.0794153 0.0589576 -0.29841
-0.086228 -0.20789 -0.24257
0.297909 0.145646 0.044679
-0.211315 -0.192294 -0.383097
-0.163102 -0.261265 -0.278682
0.0664907 -0.120494 -0.415619
-0.0891247 0.0543132 -0.467442
-0.0855857 0.00712849 -0.240588
0.195126 0.111385 0.0895575
0.250184 -0.306271 0.136981
0.0297972 0.00154021 -0.448788
-0.0916029 -0.128814 -0.424655
-0.154764 -0.34252 -0.20831
-0.205862 -0.188368 -0.398173
0.201863 -0.218651 -0.173957
0.129236 -0.184995 0.156029
0.258248 0.0501585 0.0663798
0.194839 0.0856043 0.0368563
0.0464624 -0.318633 -0.222665
0.134715 -0.319527 -0.00408859
0.191209 -0.276961 0.142628
0.110595 0.00200453 0.107119
0.135766 -0.0126732 -0.304437
0.0101755 0.0336513 -0.38528
0.101842 -0.33019 0.115317
0.0923992 0.0057319 -0.22466
-0.145361 -0.346488 0.116147
0.205853 -0.211557 0.129691
0.0241902 -0.232326 0.115616
0.0703878 -0.121579 -0.289638
0.241667 -0.292328 0.0210563
0.245006 -0.0237548 0.140217
0.119991 -0.244419 0.152383
0.0136363 -0.150309 0.133916
0.138319 -0.303383 -0.335667
-0.0349957 -0.19895 -0.185723
0.236108 -0.144126 0.0512358
0.0464069 -0.136894 -0.074962
-0.215015 -0.230424 -0.392268
-0.412263 -0.278883 -0.301297
0.199442 -0.00763015 0.0994952
0.210201 -0.285139 0.0821118
0.229283 -0.188484 -0.0040712
0.194918 -0.283543 -0.274723
-0.0710487 -0.166645 0.061742
0.108466 0.0536985 -0.349954
0.214624 -0.206603 0.0819788
0.175528 -0.219527 -0.0717898
-0.0113012 -0.32501 -0.207322
-0.209476 -0.339926 -0.183482
-0.145785 -0.328458 -0.281085
0.126203 -0.295537 -0.192947
0.12755 0.051612 0.102074
-0.247706 -0.285075 -0.36446
0.0148584 -0.338715 -0.0439777
0.0986186 -0.0851653 0.0649075
0.266161 -0.0367767 0.0989353
-0.134591 -0.317154 -0.377762
0.0452201 -0.316756 0.0997987
0.282583 0.0772725 0.0335924
-0.0885423 -0.236437 0.0210147
0.204599 -0.309583 -0.0548014
-0.381083 -0.292686 -0.214683
0.0635424 -0.283052 -0.405047
-0.0894178 -0.0690411 -0.4325
0.104705 -0.0443069 -0.232463
0.180156 -0.0797453 0.14467
0.0161396 -0.0818373 -0.269942
-0.357054 -0.303171 -0.345365
-0.0934524 -0.205632 -0.428064
-0.36922 -0.327391 -0.256421
-0.0759284 -0.339488 -0.156992
-0.159613 -0.209524 -0.340282
0.0898852 -0.155383 0.0782757
0.0925366 -0.319381 -0.143166
0.0059003 -0.130564 -0.417501
0.172825 -0.313651 0.0281465
0.115478 -0.225178 0.0998648
0.131308 -0.262164 -0.390754
-0.0887251 -0.223743 -0.0968056
-0.0611731 -0.345154 -0.0308914
-0.208329 -0.356055 -0.121448
-0.0478337 -0.201014 -0.351659
-0.0315905 0.0186307 -0.345066
-0.0861031 -0.047891 -0.053693
0.20171 -0.300956 -0.215963
-0.183115 -0.267151 -0.401513
0.226274 -0.184894 0.16366
-0.268595 -0.222316 -0.305006
0.171561 -0.293156 -0.128681
0.0234353 -0.191096 -0.355433
0.146422 -0.0215035 0.0713611
0.0886142 0.0990628 -0.322293
0.0676855 -0.028029 0.0627887
0.218707 -0.238744 -0.128692
-0.00416939 -0.0329397 -0.26766
0.0421903 -0.0331429 -0.431805
0.0735204 0.0210508 -0.406491
0.265128 -0.0346638 0.0461354
-0.082697 -0.109733 0.0558417
0.200513 0.0566195 0.120959
-0.0992248 -0.211858 -0.27834
0.147383 0.0572547 -0.0199442
-0.130578 -0.351483 -0.12924
0.037173 -0.02503 -0.328087
-0.159209 -0.349567 0.0186502
0.21496 -0.283451 0.173264
-0.0219104 -0.337207 0.0435502
-0.161555 -0.161718 -0.412245
0.00641066 -0.0492901 0.105632
0.179676 -0.137984 -0.0179993
0.176893 -0.264803 0.0753184
-0.276721 -0.357051 -0.138638
0.226108 -0.0123452 -0.0424552
0.236629 -0.0934711 0.0682579
-0.122895 0.00978217 -0.388945
-0.0441884 -0.277546 -0.222136
0.299341 0.10281 0.0884794
-0.0343811 -0.314327 -0.27943
0.0508338 -0.329441 0.0335359
0.140673 -0.175546 -0.344042
0.162184 0.00182979 -0.10793
0.230787 -0.095079 0.15379
-0.0947303 -0.0404421 -0.207166
-0.102398 -0.0595295 -0.376078
0.232772 -0.237081 -0.0587104
0.274702 0.0272738 0.0417065
0.128601 -0.307131 -0.239957
-0.294428 -0.315564 -0.360238
-0.0911093 -0.149188 -0.180303
-0.0602344 -0.258393 -0.428405
0.28184 -0.121336 0.133893
-0.0320102 -0.153721 -0.368587
-0.0481639 -0.037508 -0.444236
0.166162 -0.216921 0.15128
0.205128 -0.320131 0.133321
-0.00114989 -0.313787 0.143263
0.116381 -0.322785 -0.0739176
-0.0841723 -0.0997142 -0.0330448
-0.178582 -0.0224155 -0.403441
0.206875 -0.248293 0.0364837
0.0560331 -0.116303 0.10535
0.262151 0.100762 -0.0168584
-0.00550414 -0.0830967 -0.359167
0.0450035 -0.312204 -0.280655
-0.0962274 -0.312369 -0.078069
-0.0264615 0.0302547 -0.422969
-0.0119607 -0.28901 -0.345483
0.19338 -0.20011 -0.285858
0.0389704 -0.00303773 0.112213
0.157544 0.0209718 0.0349687
-0.150454 -0.3564 -0.0609021
0.126593 -0.0370666 -0.348828
0.250841 0.0248798 0.130287
0.120237 -0.28723 0.125435
-0.197333 -0.320621 -0.356259
0.0540932 -0.333964 0.131802
0.265463 -0.221254 0.148655
0.0967972 -0.0397225 0.126246
0.100327 -0.168231 0.117212
-0.00406592 -0.110603 0.122763
0.244225 -0.295838 0.0608001
0.249864 -0.193115 0.065418
0.264167 0.123857 0.0951487
0.18447 0.0658124 0.0747257
0.227376 -0.0842626 0.0254197
-0.00916365 -0.215501 0.113915
0.254282 0.0143655 0.0893754
-0.353857 -0.238419 -0.331754
0.184239 -0.204015 0.0387757
0.0622835 -0.178816 -0.393929
0.0604388 0.072514 -0.425673
0.24383 -0.311484 0.17874
-0.241478 -0.184503 -0.36758
-0.0638619 -0.00537671 -0.425398
-0.126123 -0.0963276 -0.42266
-0.0890973 -0.0953682 -0.16757
-0.19673 -0.335714 -0.26471
-0.0883578 -0.342532 0.0512239
-0.0859445 -0.320842 -0.32398
0.17369 -0.253523 0.120649
0.105722 0.0393771 -0.233697
0.0226138 -0.260392 -0.389764
0.235494 -0.242109 0.00270189
0.071444 -0.194157 -0.300961
0.176002 -0.264269 -0.314388
-0.164199 -0.029198 -0.42325
0.26168 -0.165662 0.169431
-0.070359 -0.0171313 0.0436458
0.0918318 -0.313126 -0.222797
0.00231529 -0.00127319 -0.374012
0.155089 -0.314752 -0.048124
-0.0923598 -0.127315 -0.346827
-0.134266 -0.228533 -0.419707
-0.0954605 -0.347208 -0.0725385
0.191887 0.0227568 -0.0140851
0.236959 -0.28418 -0.107246
0.0565334 -0.0801199 -0.393158
0.143341 0.0757414 -0.0927631
0.0545361 -0.32473 -0.130042
0.167237 -0.316718 0.0682765
-0.0900028 -0.268877 -0.0587276
0.102234 -0.119719 0.0645334
0.259133 -0.263153 0.17349
0.154545 -0.315909 0.161451
-0.270366 -0.343238 -0.205747
-0.224323 -0.349773 0.0879174
0.0911604 -0.054074 0.058245
0.0748857 -0.286704 0.146115
-0.0566151 -0.16138 -0.423378
0.00261526 -0.341481 0.0915261
-0.0424769 -0.312491 -0.239057
-0.0842175 -0.0663375 0.00735743
-0.0866569 -0.288783 -0.181642
0.241134 -0.280028 -0.0272296
0.140278 0.0718271 0.00706637
0.00525113 -0.142641 -0.321276
0.146525 0.0257587 0.0955308
0.0555128 0.0887008 -0.378192
-0.0252912 -0.331869 -0.149181
0.164056 -0.103464 -0.0147089
0.0530981 -0.331585 -0.0475416
-0.0758997 0.0223346 -0.459204
-0.304264 -0.226376 -0.358073
-0.268165 -0.282991 -0.208438
0.285499 0.0517959 0.105962
0.0364572 -0.179576 0.145738
-0.177535 -0.356355 0.0481396
0.180215 -0.220788 0.0907101
0.0691639 -0.00356882 0.0387911
0.0722355 -0.298832 -0.364266
0.0272989 -0.0417607 -0.354338
-0.124079 -0.17964 -0.339002
0.036846 -0.000685453 -0.302703
0.0981227 -0.305515 -0.289103
-0.0871484 -0.165428 -0.250138
0.186546 -0.268133 -0.00466131
-0.0562331 -0.340712 0.127271
0.22058 -0.155271 0.0281208
-0.262054 -0.327897 -0.320474
-0.00474212 -0.272726 0.100229
0.29474 0.129553 0.0362119
0.19205 -0.195974 -0.204671
0.242717 -0.0180759 0.0269326
0.133608 -0.0588062 0.091965
-0.124396 -0.349466 -0.0264681
0.0357524 0.0530541 -0.448956
0.1541 -0.22093 -0.359829
-0.0530196 -0.0841319 -0.394111
0.0579449 -0.234905 -0.413295
-0.0937946 -0.31608 -0.0195091
-0.0876594 -0.0670414 -0.111317
-0.0883026 -0.169314 -0.0895543
0.103452 -0.217345 0.154966
-0.1555 -0.322715 -0.319587
-0.0303958 -0.196886 -0.413762
0.2589 -0.124448 0.160509
0.0759832 0.0386926 0.103261
0.0293597 -0.215054 -0.0137773
0.191701 -0.00816838 0.0473178
0.256179 -0.235934 0.112815
-0.399477 -0.294384 -0.27797
-0.173705 -0.0974457 -0.407108
0.195727 -0.159278 0.0545657
-0.044049 -0.313704 -0.372786
0.228368 0.0132163 -0.044863
0.00519392 -0.0224001 0.0782069
0.278906 -0.101181 0.107597
0.241588 0.123115 0.0677497
0.0783092 -0.0486534 -0.397488
-0.259369 -0.341293 -0.244851
-0.154655 -0.34928 -0.162598
0.214438 -0.185316 0.108723
-0.265151 -0.353558 -0.109988
-0.104543 -0.309315 -0.277104
0.197231 -0.217703 -0.00872071
0.0366621 -0.16284 -0.0767607
0.043601 -0.182986 0.0284508
-0.00456375 -0.106242 -0.421772
0.183276 -0.309305 -0.112925
0.19089 -0.220311 0.0584044
0.230807 0.05513 0.128391
0.000781633 -0.319427 -0.253441
-0.384543 -0.261989 -0.352405
-0.11274 0.0533777 -0.461718
-0.0676728 -0.345936 -0.0119748
0.222234 -0.285324 -0.171845
0.12308 -0.305112 -0.367108
0.072483 0.0606975 -0.333989
0.106542 -0.323652 0.0942549
-0.106708 -0.347198 0.108633
0.00288602 9.72897e-05 -0.447406
-0.128792 -0.137008 -0.420175
-0.0906487 -7.04192e-05 -0.168457
0.0221766 -0.0889082 0.128339
0.24486 -0.302356 0.102919
0.248687 -0.0394091 0.112778
0.222736 -0.183916 -0.036106
0.141157 -0.028948 0.106652
0.178871 -0.139713 0.161331
0.186886 -0.220998 -0.247679
-0.00268262 -0.0474883 -0.43708
0.0977118 0.0231378 -0.379913
0.129954 -0.31859 -0.105188
-0.102645 -0.316706 -0.380752
-0.114968 -0.225076 -0.324912
0.124614 -0.146445 0.0994078
0.0375299 -0.119961 -0.338875
0.17522 -0.317202 0.104158
-0.327666 -0.333375 -0.240152
-0.046682 -0.203858 -0.199509
0.0956759 -0.0317861 -0.237679
0.193438 -0.20515 -0.082907
-0.0885684 -0.203454 0.00340842
0.157549 0.0380181 -0.0348202
0.0253527 -0.221444 -0.368095
0.126028 -0.254726 0.0973722
0.0483619 -0.146648 0.116833
-0.180848 -0.345467 0.10751
0.210048 -0.257102 0.169637
0.186777 -0.18594 0.161804
0.256071 -0.157499 0.0875929
0.0917958 0.0439521 -0.271313
-0.236359 -0.349515 -0.156509
-0.157792 -0.265502 -0.4078
-0.0209022 0.063591 -0.44039
-0.0655803 -0.0330191 -0.413965
0.0257305 -0.0597737 -0.282954
0.175944 -0.070947 0.122479
0.174882 -0.32352 0.0716376
0.17156 0.0369261 0.121824
-0.136546 -0.176997 -0.417061
0.0298181 -0.332881 -0.0126719
-0.453273 -0.337461 -0.193958
0.0874099 -0.12727 -0.380138
-0.0852144 -0.345792 -0.040115
-0.00238785 -0.0678148 0.0854753
0.0478012 -0.275846 0.111222
0.141016 0.0457056 0.0539314
0.105872 -0.319219 0.156677
0.246199 0.0266625 0.00491066
0.0676048 -0.329166 -0.0806869
-0.0928331 -0.321766 -0.204348
-0.100914 0.0108213 -0.287535
0.196535 -0.313873 0.0298293
0.186715 -0.186082 0.0770187
0.204375 -0.256408 0.102374
0.300822 0.0975787 0.0644187
0.218679 0.0176108 0.116663
0.018569 -0.156615 -0.405937
-0.406566 -0.303932 -0.335313
-0.0183478 -0.23775 -0.41673
-0.00514285 -0.183629 0.121899
0.0095193 -0.325354 -0.172356
0.228098 -0.0734661 0.151467
0.0580043 -0.0695979 0.0858788
0.303095 0.0293816 0.0944698
0.17369 -0.163075 -0.0270531
0.211992 -0.288252 -0.0722616
0.087128 0.00276411 0.118777
-0.193251 -0.202473 -0.341428
-0.244278 -0.317943 -0.366974
-0.0335307 -0.322419 0.0867538
0.19356 -0.109211 0.053529
-0.133946 -0.335093 -0.221646
-0.0853159 -0.278957 -0.408032
0.124286 0.0799715 0.0888209
0.0834193 -0.200773 0.1108
0.213763 -0.058384 0.00514267
0.238112 0.102258 0.106573
-0.0537488 -0.108907 -0.424482
0.144606 -0.30336 -0.253167
0.0752054 -0.226332 -0.307969
0.108273 -0.280787 -0.400147
-0.28493 -0.24404 -0.281583
-0.307519 -0.344973 -0.193301
0.106126 -0.266113 0.14669
0.273703 0.102684 0.0118428
-0.201242 -0.212371 -0.400523
-0.0960088 0.021148 -0.425428
0.0631596 -0.307958 -0.321632
-0.167267 -0.352298 -0.035772
0.259434 -0.0304551 0.0635906
-0.0870539 -0.158157 -0.0304291
-0.150518 -0.23725 -0.290824
0.0944454 -0.314945 -0.182013
-0.0799701 -0.34376 0.0266861
0.0374805 -0.0627252 -0.357298
-0.165475 -0.0443488 -0.419117
0.235866 -0.113855 0.075303
0.0492857 0.00336595 -0.415147
-0.0684996 -0.181316 -0.341887
-0.0489601 -0.31788 -0.328517
0.0682108 -0.101667 -0.289611
-0.0114126 -0.337047 0.0255989
0.18513 0.100622 0.0742654
0.065593 -0.326726 0.0781956
0.216147 -0.132446 -0.00117374
-0.351019 -0.290111 -0.354193
0.224235 -0.224501 -0.0875375
0.0178786 -0.0284948 -0.248248
-0.149612 -0.350168 -0.108525
0.216192 -0.303184 -0.00612334
0.0622203 0.0503502 -0.411001
0.0210372 -0.292227 -0.369847
0.202571 -0.167003 0.132429
0.134995 -0.321451 0.0291523
0.154786 -0.304052 -0.317484
0.212241 -0.229505 -0.178218
0.274455 -0.158627 0.132177
-0.246316 -0.259253 -0.374419
-0.386081 -0.249407 -0.317509
-0.00845956 -0.139931 0.125026
0.0479975 -0.181246 -0.0548676
-0.107301 -0.109975 -0.375442
0.0230614 0.00624756 0.0701706
0.0905522 -0.215563 -0.388562
-0.0865132 -0.0148677 -0.0909959
-0.0811442 -0.218987 -0.387092
-0.282303 -0.218035 -0.373268
0.0977072 0.085959 -0.333109
0.226437 -0.0318577 0.14663
0.25822 -0.235563 0.172054
0.260549 0.127983 0.0314596
0.0135467 0.0194257 -0.347504
-0.00135615 -0.131165 -0.382929
0.229645 -0.138777 0.161452
-0.0987317 0.0215478 -0.381199
0.142338 0.0656409 -0.0498212
-0.0893885 -0.225521 -0.0530162
0.215261 -0.314788 0.175894
0.104966 -0.284143 -0.231238
-0.0971563 -0.0911824 -0.228082
0.019716 -0.337248 -0.0585933
0.242127 -0.254815 0.0616216
-0.392839 -0.316742 -0.283369
0.254378 0.0421968 0.0457455
0.108386 0.000219539 -0.364183
0.184939 -0.270601 -0.0372599
-0.0768991 -0.330778 -0.218341
0.0202578 -0.0217233 -0.385158
0.191766 -0.30461 -0.170286
0.0759544 -0.120657 0.105434
-0.019942 -0.185112 -0.381677
-0.0825187 -0.0202198 -0.447794
0.124613 -0.0507814 -0.366795
-0.00557111 0.0225083 -0.451171
-0.0115831 -0.239468 0.107617
-0.225361 -0.180708 -0.395124
0.162569 -0.0313524 0.131986
-0.0782187 -0.343169 -0.127876
0.261322 -0.0769867 0.0898537
0.252173 -0.207985 0.135021
-0.0663076 -0.0582785 -0.403008
-0.221107 -0.352605 -0.104461
-0.0804866 -0.200795 -0.247707
0.288591 0.144032 0.0640897
-0.0907895 -0.271843 -0.00100657
0.0962584 0.0157234 -0.219161
0.254344 -0.301243 0.148938
0.222494 -0.196575 0.0297141
-0.149219 -0.355737 0.0525554
-0.267943 -0.219043 -0.32092
-0.0176934 -0.235785 -0.366524
0.127207 -0.18813 0.155887
0.111491 0.0361198 -0.342604
-0.000303157 -0.0680185 -0.431478
0.0611029 -0.155442 -0.304495
0.150199 -0.0881235 0.0791693
0.0810596 -0.144793 0.0649011
-0.0936184 -0.3493 0.0647957
0.161524 -0.32547 0.127281
0.177531 0.0807845 0.0506264
-0.184186 -0.342616 -0.215635
0.0352953 0.0757956 -0.391023
0.158143 -0.1995 0.110454
0.0355232 -0.350094 0.0924067
0.0249569 -0.322819 -0.204761
0.0473326 -0.19257 0.12502
0.12974 0.0793887 -0.0945046
0.177567 -0.272004 0.163865
0.198682 -0.314799 0.0664098
0.154943 -0.182081 -0.331861
-0.198792 -0.328137 -0.297991
0.0387204 -0.266134 -0.405995
0.201474 -0.247565 -0.224541
0.159875 0.0135411 -0.0244042
0.0110468 -0.311354 -0.334901
0.0510316 -0.330604 0.0180328
0.0554439 -0.104449 -0.37412
0.233966 -0.221069 -0.0200025
0.137293 0.0216957 0.0684837
0.220933 -0.279104 0.1236
0.248426 -0.0682185 0.0538286
0.252106 -0.0102136 0.107862
0.200065 -0.233271 0.0629141
-0.145625 -0.356021 -0.000861749
-0.0699276 0.0502337 -0.465514
0.189243 -0.285875 -0.303746
-0.149796 -0.349665 0.0983252
0.253348 -0.198104 0.0787438
-0.293519 -0.341176 -0.223225
-0.0869283 -0.346245 -0.0735963
-0.0967812 -0.15022 -0.37378
0.287587 0.082594 0.0969687
0.185572 -0.298871 -0.222051
-0.129441 -0.320835 -0.33421
-0.197076 -0.121942 -0.388472
0.193173 0.000374198 0.0898515
0.0552717 -0.292514 0.14614
-0.0266791 -0.34099 -0.0208719
-0.0815064 -0.190937 -0.425235
0.100938 -0.227839 0.126089
-0.0853254 -0.0996229 -0.0776131
0.19753 0.0960857 0.0484102
0.051755 -0.0406931 -0.426468
0.0403587 -0.0238153 -0.31454
0.0469183 -0.204786 -0.41439
0.00827584 -0.297334 0.0948407
0.0549336 -0.314172 -0.251696
0.243526 -0.288233 -0.0614108
0.183848 -0.0917793 0.137174
0.178232 -0.180588 -0.0560932
0.260097 0.00269809 0.0509
-0.190926 -0.353714 -0.139134
-0.0356599 -0.105882 -0.365639
0.0200594 -0.0841792 -0.277898
0.0514567 -0.150004 -0.0585719
0.218142 -0.204302 0.165796
-0.243893 -0.336626 -0.264914
-0.224331 -0.267089 -0.396788
0.26965 -0.136874 0.106487
0.153637 -0.309321 -0.168587
0.176599 -0.102317 -0.00960707
-0.118812 -0.340663 -0.169832
0.0276539 -0.0340498 0.0666985
0.023282 0.018746 -0.387141
-0.0720722 -0.155809 0.0157596
0.0987579 0.0550027 0.0953361
0.108761 -0.102406 0.0625697
-0.107705 -0.0630723 -0.386218
0.14143 0.0670295 0.00379419
-0.163279 -0.153811 -0.403096
0.0646103 -0.323281 -0.16645
-0.0903757 -0.184462 -0.161412
0.139458 -0.312486 -0.0826496
0.0525934 -0.186512 0.0391105
0.0591956 -0.329215 -0.0232324
0.175075 -0.225993 -0.312683
0.215111 -0.272293 0.0137765
0.273959 0.0656778 0.0219927
-0.0869591 -0.341352 0.0605939
-0.20537 -0.0691859 -0.383382
-0.121276 -0.241027 -0.42559
0.226851 -0.250994 -0.107702
-0.097125 -0.0474548 -0.234018
0.235619 0.0210019 -0.0226851
0.22519 0.0572128 0.100512
0.0783052 -0.0138498 0.0435441
0.164928 -0.367878 0.133525
0.12428 -0.330203 0.144296
-0.149028 -0.25684 -0.278029
-0.278106 -0.346388 -0.1578
-0.0319593 -0.342382 0.102719
0.145445 -0.145166 -0.341664
0.0822808 -0.204618 -0.283066
0.0381646 -0.067803 0.123793
-0.31942 -0.247539 -0.293495
-0.419109 -0.290349 -0.317219
0.266085 0.092994 0.0541171
-0.222824 -0.34824 0.0866941
0.245613 -0.0811416 0.138311
-0.085167 -0.306005 -0.291982
-0.0947695 -0.135957 -0.211587
-0.177711 -0.358276 -0.0730424
0.179807 0.0105029 0.122685
0.0800205 0.0830594 -0.383244
0.257242 -0.264418 0.149244
-0.00117278 -0.042231 -0.397623
-0.0723039 -0.0107345 -0.0163797
0.262269 -0.18478 0.167248
-0.0925287 0.0141428 -0.331262
-0.0700248 -0.107983 0.0120924
0.0533492 -0.239532 0.122115
-0.0256686 0.00723203 -0.343795
-0.350952 -0.329218 -0.25487
0.0210965 -0.144133 0.136555
0.236977 -0.0316574 0.0103315
0.195519 -0.245571 0.132025
0.265055 -0.0486504 0.0940807
0.0632108 -0.086039 0.0883301
-0.0889933 -0.271125 0.0581445
-0.0920781 -0.0324285 -0.179336
-0.138863 -0.0212449 -0.437531
0.130401 -0.158329 0.102392
-0.171549 -0.218063 -0.410381
-0.295852 -0.323073 -0.340723
0.0540622 -0.328837 0.0442946
-0.0305541 -0.338121 0.0522266
0.0674485 -0.150792 0.0330583
-0.0382458 -0.148242 -0.421771
0.10721 -0.314329 -0.116166
-0.0878574 -0.0873699 -0.357787
0.161366 0.0833504 0.0953677
0.106265 -0.244756 -0.400434
0.172266 -0.313047 -0.0552531
0.235511 -0.150265 0.0632411
0.193544 -0.179686 0.002356
0.152703 -0.162778 0.155838
-0.0203565 0.0268818 -0.41247
0.138166 -0.245291 0.0952868
0.213069 -0.118015 0.138183
0.062128 -0.159472 -0.400901
-0.0506287 -0.246011 -0.427855
0.155534 0.0394552 0.036141
0.219637 -0.268861 -0.154167
0.289203 0.0332228 0.109605
0.225292 -0.316579 0.131018
-0.149459 -0.0962038 -0.420295
0.064904 -0.17343 0.120299
-0.184635 -0.357239 0.0368539
0.0313276 -0.163818 -0.344378
-0.0503946 -0.201803 -0.351271
-0.0411936 -0.0180096 -0.449099
0.0160799 -0.0496863 -0.323608
0.241732 -0.285926 0.0214136
-0.185963 -0.321346 -0.353829
-0.0501194 -0.33625 -0.13384
0.25505 -0.240972 0.102632
0.0935152 -0.298644 0.121267
0.0719199 0.0960188 -0.329273
0.069601 -0.00581539 0.120479
-0.424189 -0.30015 -0.213032
0.140292 -0.323794 0.0535916
-0.0878574 -0.132338 -0.121717
0.259824 -0.111712 0.125692
0.0616543 -0.303986 -0.372484
-0.149729 -0.187849 -0.338163
-0.332912 -0.242501 -0.340976
0.00657277 -0.0122595 -0.278966
0.0805052 -0.32976 -0.0679486
0.0493581 -0.0945094 -0.317779
0.207022 -0.222555 -0.0423971
0.142507 -0.235225 0.158207
-0.0656244 -0.345134 -0.0453667
0.236874 0.122103 0.0954794
-0.00145233 -0.0905259 0.110798
0.0308272 -0.0826301 -0.414272
0.252506 -0.275324 0.179075
-0.0396152 -0.200251 -0.191423
0.218546 -0.205074 0.105969
0.225667 -0.0826346 0.0218947
0.139673 -0.0477909 0.124701
-0.0717152 -0.189949 0.0636969
-0.0839774 -0.100832 -0.429207
-0.0728654 -0.346258 0.11436
-0.105922 -0.346458 0.00329492
0.0935663 0.0531727 -0.370464
-0.0773746 -0.315576 0.0251612
-0.12355 0.0434014 -0.45833
-0.0722778 -0.308507 -0.358411
0.225721 -0.00850676 -0.0448994
-0.000928268 -0.261974 -0.37225
0.155394 -0.224926 -0.357496
0.080665 -0.179441 0.0872523
-0.000415839 -0.302535 0.12578
0.00944253 0.0500195 -0.454231
0.225639 -0.309355 0.0743938
0.188331 -0.306997 -0.108733
-0.0489934 -0.326813 -0.247069
-0.123026 -0.224499 -0.284122
0.144638 -0.00724502 0.07022
-0.0744342 -0.0523123 -0.440768
-0.196594 -0.347454 -0.173957
-0.0828098 0.00429042 -0.211238
-0.118997 0.0163775 -0.385489
-0.0165572 -0.167138 0.120473
0.0764179 -0.306494 -0.277148
-0.134364 -0.325846 -0.241854
0.12096 -0.292524 -0.394268
0.202327 -0.0330244 0.11824
-0.0827221 -0.0858476 0.0535303
0.188743 -0.325533 0.164755
0.180322 -0.00265922 0.00217901
0.240301 0.0463723 0.130932
0.163182 -0.274248 0.125888
-0.103987 -0.344164 -0.0992317
0.182593 -0.27784 0.0659319
0.0200832 -0.314731 -0.256299
0.0517494 -0.00182992 0.0567321
-0.338441 -0.333701 -0.222403
0.256782 0.106127 -0.0026921
0.030621 -0.198062 -0.387745
0.208183 -0.261159 0.0577639
-0.0756216 -0.324402 0.0898704
-0.115216 -0.163567 -0.422154
0.267514 -0.127433 0.16088
0.0644881 -0.326005 -0.114003
-0.0883103 -0.0352368 -0.117514
-0.135953 -0.313494 -0.382775
-0.142204 -0.346887 0.115954
-0.247125 -0.285704 -0.364286
0.204157 -0.278295 -0.239062
-0.0669624 0.00387509 -0.453871
-0.0899993 -0.284905 -0.226294
0.127524 -0.305281 -0.269369
-0.134676 -0.351731 -0.116183
0.00539323 -0.0163064 -0.358659
-0.0350975 -0.339886 0.0125579
0.113094 0.0258648 0.101808
0.0044719 -0.0237772 -0.441706
-0.0888914 -0.21142 -0.113526
-0.353336 -0.287458 -0.21582
0.221783 -0.232218 0.163443
0.129263 -0.327511 0.107503
0.211225 -0.309941 -0.0397899
0.185977 -0.187003 0.0804515
0.193225 0.0687598 0.112843
0.288598 0.069768 0.0495883
0.00723837 -0.0455828 0.103484
-0.0493796 0.0547359 -0.435768
0.192431 -0.0455192 0.0502597
-0.25432 -0.344574 -0.213538
-0.0829097 -0.13408 0.0577934
0.228605 -0.177122 -0.00622893
-0.189264 -0.255989 -0.407485
-0.354152 -0.285252 -0.354936
-0.0418046 -0.142986 -0.3758
-0.0669802 -0.28581 -0.411043
0.149591 -0.305352 -0.341804
-0.132724 -0.350873 -0.042242
0.0260211 0.0218625 -0.440413
0.201934 -0.204733 -0.195833
0.0445302 -0.338107 0.120253
0.193565 -0.260234 0.00938018
-0.00222495 -0.0893693 -0.35609
0.121116 -0.0410515 -0.370541
0.0868454 -0.131793 0.102037
0.25497 0.0214176 0.0828001
-0.242663 -0.329715 -0.31896
0.147019 0.0550907 -0.0211083
0.169269 -0.18382 -0.073796
0.170706 -0.197707 0.163412
-0.0144274 -0.308675 -0.326157
-0.282824 -0.286055 -0.195236
0.0360593 -0.00020425 -0.303746
0.215307 -0.0719776 0.214787
0.16819 -0.166322 -0.308984
0.207558 -0.16872 0.122317
-0.0864703 -0.204804 -0.265142
0.156818 -0.140169 0.156706
0.0395337 -0.222556 -0.337866
0.094922 0.0173859 -0.220944
-0.085773 -0.0570323 -0.0226927
0.255794 -0.195226 0.0976409
-0.0888943 -0.192017 -0.057751
-0.410549 -0.267555 -0.315733
-0.187208 -0.33862 -0.249486
-0.0845828 -0.0414622 0.0466278
0.0163031 -0.206751 0.121315
-0.234758 -0.281956 -0.372918
0.0907054 0.00912572 -0.39172
0.304233 0.137981 0.0632868
-0.132926 -0.0405632 -0.437039
0.0863582 -0.0608746 0.0667108
-0.211075 -0.158683 -0.386292
0.229458 0.0293132 -0.00428865
-0.00922362 -0.166792 -0.410576
0.118063 -0.198984 0.122672
-0.0336432 -0.335535 0.132762
-0.0267414 -0.0803813 -0.42718
0.0980122 -0.31419 -0.158842
0.0987908 -0.266175 0.12284
0.176614 0.0814748 0.0488924
0.192082 0.0525535 0.0432911
0.0168094 -0.337154 0.055051
-0.280767 -0.231285 -0.36905
0.238019 -0.206071 0.0469357
0.276353 -0.152796 0.158565
0.171996 -0.268921 -0.334125
0.242178 -0.290312 -0.0140344
-0.1111 0.00402513 -0.444063
-0.0138102 -0.300222 -0.172169
0.163655 -0.107197 -0.0160269
0.249019 0.0921072 0.0871192
0.242086 -0.109454 0.055379
-0.00501499 -0.113104 0.122389
0.058331 -0.275828 -0.407983
0.244508 -0.309401 0.180287
0.00283673 -0.337821 -0.0243557
0.013241 -0.135883 -0.325019
0.236016 -0.280666 -0.103357
0.0826515 -0.290522 -0.309405
0.150127 -0.0880968 0.0792075
-0.0788441 -0.22682 -0.428621
0.247386 -0.0141028 0.134867
-0.218141 -0.208203 -0.394052
0.0694337 0.0334423 0.10208
-0.0841864 -0.307032 -0.119881
0.227754 -0.170009 0.162309
0.100704 -0.332686 0.143519
-0.0716121 -0.223401 0.0662211
0.166284 -0.315321 0.0308226
-0.00683032 -0.260457 0.102553
0.0402159 -0.130469 -0.391193
0.155072 -0.294839 0.158967
-0.0840471 -0.331655 -0.211854
0.227655 -0.155759 0.024565
0.217374 -0.0955756 0.155417
-0.392269 -0.317124 -0.281308
-0.0600029 -0.124369 -0.422858
0.211222 -0.233649 -0.152179
0.0924214 -0.313371 -0.219982
-0.0862088 -0.134674 -0.0619496
-0.186198 -0.345239 0.104902
0.00760352 -0.319464 -0.185471
0.255692 0.12061 0.0412184
0.0719994 0.0724587 -0.317218
0.235389 -0.243982 0.00751466
0.0604124 0.0464072 -0.41306
-0.136538 -0.323454 -0.30811
0.0291904 0.00833307 0.071211
0.211873 -0.245143 0.0925965
0.298902 0.0864083 0.092457
0.0663255 -0.166059 -0.293587
-0.0499285 -0.224734 -0.362586
0.164406 0.0160084 0.0961545
0.202839 -0.193051 0.0568606
0.0541825 -0.0467689 -0.423007
0.133366 0.0599107 0.0997408
0.269483 0.0521167 0.0179828
0.277427 -0.102183 0.105628
-0.109306 -0.34855 -0.0714613
-0.196742 -0.358265 -0.0881635
-0.107175 -0.345845 0.0307932
0.180919 -0.309402 0.105131
-0.00602513 0.00573571 -0.392418
-0.0971205 -0.349172 0.00345639
0.201836 -0.300906 -0.20783
0.0703605 -0.326335 0.0815795
0.197637 -0.215684 0.127532
-0.089641 -0.0850149 -0.168811
0.17847 -0.175623 -0.0175618
-0.0940953 -0.301813 -0.0656997
0.17075 -0.294117 -0.125777
0.255434 -0.257581 0.118425
-0.0776486 -0.0244234 -0.413167
0.226296 -0.222943 -0.0759211
-0.00689234 -0.0568502 -0.386132
-0.37886 -0.245246 -0.322236
0.270629 -0.170006 0.129985
0.0350978 0.0797585 -0.421008
0.140597 0.0635391 -0.0773602
-0.0707836 -0.00714408 0.0265285
-0.133649 -0.344654 -0.17769
0.243514 -0.288712 0.0648004
0.123464 -0.119822 0.0809613
0.0251052 -0.0872805 -0.290292
-0.123398 -0.120887 -0.414655
0.184691 -0.209941 -0.28681
-0.168395 -0.358012 -0.0358493
0.252911 -0.21699 0.172152
0.0498264 -0.290289 0.108112
0.0638139 -0.0409402 0.0724098
-0.0997461 -0.169745 -0.362707
0.104933 -0.217201 0.15491
0.212107 -0.279029 0.146702
0.106767 0.0579329 -0.335673
-0.266472 -0.256645 -0.374807
0.00681861 -0.338361 0.0130249
0.247265 0.133179 0.0722676
0.258021 -0.0647576 0.0732931
-0.085874 -0.0157659 -0.0614345
0.232642 -0.268747 -0.0568241
0.00228943 -0.339396 0.111073
-0.0990395 0.0076076 -0.256866
-0.0943266 -0.0658595 -0.369087
0.152559 -0.194943 -0.350892
-0.19689 -0.301395 -0.376022
0.234189 -0.00429617 0.00540584
0.191555 -0.28424 -0.29074
-0.121084 -0.204959 -0.408379
0.126573 -0.052459 0.0847196
-0.0892125 -0.257761 -0.0616634
-0.08428 -0.279045 -0.169284
0.0704991 -0.233169 -0.299363
0.250727 0.0197784 0.130005
-0.300187 -0.316788 -0.35322
-0.296966 -0.363811 -0.218943
-0.0348599 0.0234719 -0.456934
-0.0544091 -0.334904 -0.147949
0.189171 -0.311891 -0.0257375
0.260363 0.0101677 0.0478566
0.196676 0.0612791 0.0855161
-0.0786671 -0.346259 0.0957447
0.021243 -0.244357 -0.396241
-0.0892447 -0.152171 -0.150033
-0.405607 -0.2897 -0.344887
0.064575 -0.334065 -0.0600552
0.145788 -0.305264 -0.237003
-0.038286 -0.313615 -0.366223
0.0487014 -0.145704 0.116675
-0.173885 -0.196985 -0.340089
-0.106608 -0.25746 -0.431068
0.0587184 -0.127808 -0.289292
0.0340903 -0.310269 -0.320933
-0.149254 -0.357664 0.0144889
0.0336428 -0.0934374 0.112881
0.19725 -0.212728 -0.00512751
-0.0891807 -0.110435 -0.348342
0.131853 0.0370727 0.0716121
-0.0896515 -0.237175 -0.0081282
-0.116338 -0.349608 -0.131001
0.207886 -0.133473 0.160774
0.201711 -0.305433 -0.157016
0.208994 -0.311759 0.0334673
0.00352515 -0.172163 -0.364936
-0.0772744 0.00113285 -0.152501
0.213276 -0.0786678 0.00946042
0.0837263 -0.104483 0.0880142
-0.0848973 -0.347497 -0.0280893
0.0810532 -0.1933 0.0942997
-0.170393 -0.246626 -0.390695
0.248269 0.0864617 0.115406
0.162332 0.011675 -0.0220796
-0.267955 -0.357439 -0.129948
0.25547 -0.155474 0.0850634
-0.24464 -0.343836 -0.234169
0.194273 -0.223945 -0.225866
-0.0269173 -0.220391 -0.416396
-0.271637 -0.227103 -0.301057
-0.0111866 0.00600678 -0.322063
-4.99934e-06 -0.00937435 -0.444837
-0.0775198 -0.0780093 -0.429729
-0.0993106 0.0119239 -0.386533
0.154603 -0.217376 0.11644
-0.0537073 -0.303916 -0.324054
0.0498935 -0.322721 -0.181426
-0.0787527 -0.155903 -0.422184
0.106251 0.00290219 -0.366098
0.204199 -0.320396 0.134344
-0.217376 -0.349447 -0.166297
-0.0309961 -0.325528 -0.231481
0.0638666 -0.108277 -0.408064
0.147244 -0.314792 -0.100959
0.0424299 -0.149852 -0.0764224
0.26538 -0.237492 0.157621
0.0600775 -0.292096 -0.354186
-0.0273781 -0.342112 0.0766398
0.135358 -0.242772 -0.372898
-0.0726987 0.0501846 -0.434139
-0.000803672 -0.0610802 0.0835377
0.00693509 -0.107623 -0.373588
-0.0178242 -0.16132 0.120133
0.297159 0.0737454 0.0661073
0.198072 0.106961 0.0922242
0.00736253 0.0315531 -0.38114
0.052748 -0.222487 -0.413772
-0.14983 -0.329581 -0.277083
0.156397 0.048413 0.0318676
0.202884 -0.274885 0.171167
-0.0948298 -0.168778 -0.207222
-0.0864386 -0.0783154 -0.0946065
-0.304872 -0.34284 -0.201062
-0.122049 -0.237117 -0.280686
-0.214159 -0.352345 0.0899356
0.247593 -0.235298 0.0812002
0.0235309 -0.0605496 -0.325649
-0.16316 -0.159005 -0.403666
-0.143865 -0.354605 0.0512506
0.250176 -0.0475999 0.13237
0.0574311 -0.00357354 0.119731
0.257879 -0.12822 0.121112
0.233401 -0.0413804 0.00644332
0.133298 -0.324073 0.0410171
-0.0852833 -0.205825 -0.244783
0.194911 -0.145678 -0.0056341
-0.000439994 -0.0220346 -0.289345
0.102835 -0.234086 0.10441
0.296348 0.123917 0.0411712
-0.118434 -0.316728 -0.38015
0.162487 -7.48485e-05 0.122836
0.137709 -0.304203 -0.365231
-0.059594 -0.134769 -0.359469
0.0291808 -0.317085 -0.255614
-0.0625287 -0.343383 0.00647313
0.0407323 -0.229806 0.122426
-0.371968 -0.265786 -0.35504
0.235689 -0.238967 -0.0213467
0.282083 0.0377489 0.0527137
0.0557237 0.0141428 -0.414556
0.183207 -0.167045 0.164065
-0.0312253 -0.0491008 -0.438656
-0.0964254 -0.333153 -0.217191
0.00986978 -0.0168286 0.0851713
0.134705 -0.320893 0.155983
0.253855 0.0421134 0.105002
0.0485603 -0.331899 0.00467654
-0.0034984 -0.110648 -0.420437
0.184659 -0.270207 -0.020304
0.17705 -0.202643 -0.0541128
-0.451799 -0.315464 -0.196629
0.247116 -0.0731815 0.0518531
-0.0835893 -0.0884654 -0.00427759
-0.23238 -0.332048 -0.294977
0.252782 -0.206159 0.13726
0.0315965 -0.336522 -0.0545484
0.125523 -0.317941 -0.0742954
0.018806 -0.0164667 -0.391414
0.259307 0.0808971 0.00370756
0.25694 -0.299682 0.158537
0.14166 -0.279574 0.126218
0.188691 -0.224202 0.159935
0.0610886 -0.325087 -0.126676
-0.166044 -0.342629 -0.218094
-0.121898 0.0404703 -0.458968
0.11703 -0.162333 0.11328
0.197126 -0.0908514 0.132554
-0.106923 -0.345928 0.108042
0.212086 -0.23772 -0.121464
-0.309002 -0.422228 0.110343
0.0564569 -0.0698839 -0.406954
0.0555145 0.0875234 -0.394478
-0.299283 -0.228362 -0.339161
-0.351704 -0.322573 -0.242924
0.153808 0.0162216 0.0540078
0.198518 -0.23045 0.0711238
0.0606018 -0.160971 -0.395421
0.224387 -0.186217 -0.0303173
0.160224 -0.309479 -0.159533
-0.0852344 -0.168789 0.0607581
0.00598459 -0.213213 -0.361904
-0.0856887 -0.0479207 -0.381967
-0.0909705 -0.306052 0.0521869
0.0253386 -0.121044 0.119196
0.210729 -0.291585 0.0952591
-0.149584 -0.352322 -0.0667152
0.0878873 -0.147885 0.0717605
0.147256 0.0529583 -0.0201777
-0.136688 -0.197837 -0.348121
-0.0634927 -0.179635 -0.402776
-0.0407676 -0.341858 -0.0322723
0.258276 -0.0167096 0.0545755
-0.00975208 0.0580372 -0.426979
0.267881 0.12768 0.0901697
0.0823076 0.0976319 -0.330784
0.0395071 -0.163388 0.143953
-0.0984888 -0.237756 -0.394661
-0.088307 -0.179439 -0.103452
0.0154957 -0.278018 -0.379524
0.221025 -0.18784 0.0763025
0.141069 -0.0384409 0.114754
0.251811 -0.01795 0.109173
-0.0997992 -0.079543 -0.243843
-0.240385 -0.231331 -0.367953
0.209289 -0.270443 -0.198286
-0.0969719 -0.324175 -0.296047
-0.163166 -0.349086 -0.143704
0.264378 0.0878592 0.0346711
-0.00396775 -0.302586 0.0934306
0.110935 -0.287984 -0.398527
0.209563 -0.171522 0.117566
0.209569 -0.220396 0.0277819
-0.0418635 -0.302232 -0.39109
0.0361916 -0.0715455 0.124686
-0.0862515 -0.345179 -0.0543894
0.112232 -0.298997 -0.202959
0.255015 -0.105637 0.141506
-0.216293 -0.192136 -0.397827
0.166089 -0.359562 0.0750948
0.161596 -0.318725 0.104474
-0.308744 -0.369608 -0.175675
-0.0550344 -0.339623 0.060508
-0.0893555 -0.325279 -0.159903
-0.220233 -0.352154 -0.114918
0.19336 -0.257806 0.118229
-0.148174 -0.0239544 -0.43286
0.221092 -0.29549 -0.0994386
0.00754837 -0.0309389 -0.315852
-0.088303 -0.192159 0.00280623
0.211562 -0.31816 0.17258
0.0871093 0.0588218 -0.374217
-0.0761239 -0.28045 -0.0116561
0.076493 -0.251198 0.121901
-0.400594 -0.307085 -0.330329
0.1252 -0.21819 -0.377063
0.198371 0.00861725 0.112422
-0.0263888 -0.0820739 -0.366376
0.210343 -0.0670179 0.148983
-0.0925381 -0.114939 -0.197206
0.121862 -0.199718 0.156559
0.100215 -0.320858 0.15505
-0.149382 -0.343511 0.11662
0.136064 0.068904 -0.08972
0.199 0.0954409 0.0624169
-0.30941 -0.243294 -0.296601
0.0939057 -0.0865029 0.0725868
-0.0682435 0.0489405 -0.465113
0.0254428 -0.332621 0.0594453
0.149028 -0.163909 -0.344415
-0.113483 -0.136177 -0.42364
0.0520919 -0.156649 -0.0573787
-0.190718 -0.0345214 -0.387809
0.00465436 -0.214671 0.11598
0.162447 -0.137821 0.157277
0.0471938 -0.303397 -0.286285
0.233805 -0.00238734 -0.0202878
0.0780565 -0.0236239 0.0555541
0.171961 -0.206835 0.0965266
0.122935 0.0490813 0.102086
0.241836 -0.288782 -0.0348497
-0.024417 -0.336407 0.131935
-0.141506 -0.348981 -0.00668592
0.216522 -0.179818 0.0358629
-0.0985849 -0.0247736 -0.252445
0.0345588 0.0514628 -0.446242
0.268385 -0.124692 0.0993472
0.235654 0.0499296 0.130292
-0.229443 -0.269683 -0.394394
-0.0480324 -0.00517336 -0.452433
-0.188286 -0.322935 -0.332204
-0.0712937 -0.245845 0.0685596
0.0652984 -0.174334 -0.299312
0.206865 -0.271406 0.0329291
-0.0449709 -0.259708 -0.409769
0.0163081 -0.323475 -0.210707
-0.284465 -0.341241 -0.219314
0.143499 -0.243137 0.145665
-0.0727597 -0.345322 -0.0590526
0.262723 0.134991 0.0483232
0.238253 -0.179383 0.164033
0.0630388 -0.103669 -0.281928
0.0934578 0.0203245 -0.364938
0.257206 0.0432139 0.0658391
0.0272667 0.00601491 -0.44743
-0.154854 -0.183968 -0.403654
0.0479889 -0.290484 -0.393176
0.18042 -0.305298 -0.0657002
0.259604 -0.273725 0.1731
-0.0370241 -0.323893 -0.259699
0.0321617 -0.0335591 -0.433692
0.188982 -0.280606 -0.285032
0.109488 -0.313721 -0.103456
0.00273456 -0.194421 -0.403168
0.15733 0.070199 0.0157159
0.18246 -0.314599 0.0740629
-0.0865916 -0.0482422 -0.0688276
0.165407 -0.325542 0.146061
0.24738 0.0383304 0.00354552
-0.399889 -0.312408 -0.281623
-0.0865498 -0.17626 -0.247914
-0.360733 -0.240362 -0.323493
-0.264304 -0.218498 -0.356293
0.149486 0.0350407 -0.0403487
0.194807 0.0731134 0.11078
-0.098215 -0.318985 -0.347575
-0.045207 -0.176285 -0.359976
0.0324059 -0.0388803 -0.346857
0.0352161 -0.33137 0.127255
0.0514398 -0.0681882 0.0895471
0.0588343 -0.17447 0.121265
0.243437 -0.300413 0.0909644
-0.356678 -0.296697 -0.348114
-0.092704 -0.0552956 -0.434038
0.211578 -0.23417 -0.183199
0.265168 0.112953 0.00332478
-0.174086 -0.34458 -0.182255
-0.16207 -0.345914 0.0484859
0.256076 -0.198281 0.10091
0.00992541 -0.141528 -0.328691
-0.00463359 -0.00100847 -0.359849
-0.00590017 -0.129484 0.125452
0.278447 -0.145094 0.154248
-0.25378 -0.32825 -0.330111
0.100344 -0.325049 0.109451
-0.0913623 -0.0429249 -0.177159
-0.0700324 -0.0603457 0.0516199
-0.0936403 -0.344833 -0.142228
0.151994 0.0588042 0.0754036
0.0565714 -0.239412 -0.413194
0.0383667 -0.0838746 -0.335097
0.188928 -0.231996 0.0594755
0.0694639 -0.316179 -0.217686
-0.0820713 -0.331159 -0.220056
0.156257 -0.00766467 0.0718761
0.0628224 -0.224178 -0.304179
-0.0904481 -0.208559 -0.142805
0.141154 -0.304077 -0.254619
-0.142016 -0.23965 -0.418822
-0.103352 -0.114127 -0.37464
0.103347 0.0176063 0.104028
-0.364574 -0.379448 -0.180361
0.251088 -0.0343543 0.0319804
-0.00230541 -0.179267 0.122614
-0.00875054 -0.149835 -0.412345
0.0703434 -0.154043 0.0514247
-0.0871379 -0.108312 -0.137563
0.0576095 -0.120599 0.106157
0.225503 -0.226424 -0.0840372
-0.0906151 -0.200582 -0.427198
0.0286994 -0.336832 -0.0235423
0.142414 -0.303155 -0.334149
0.296687 0.123912 0.0802163
-0.159993 -0.355916 -0.0906347
0.0484877 -0.329644 0.0394758
-0.0745929 -0.206134 -0.26004
-0.181769 -0.351892 0.0890954
0.00923432 -0.0148024 -0.270583
0.0166704 -0.311436 -0.329071
-0.042715 -0.341264 0.0342092
0.269501 -0.0843327 0.0839484
-0.0112087 -0.0780783 -0.428215
-0.19942 -0.337658 -0.246579
0.235427 -0.150873 0.0565268
-0.223801 -0.160812 -0.374223
0.237433 -0.258163 0.0154009
0.046779 -0.011061 0.0688765
-0.0845624 -0.0996677 -0.0478972
-0.0593904 -0.0693803 -0.375497
0.163199 -0.236132 -0.33577
0.121147 -0.200728 0.106026
-0.08102 -0.346568 0.0346064
-0.125874 -0.226449 -0.300409
0.250196 -0.28864 0.131007
0.208408 -0.249308 0.165343
0.00181445 -0.0696319 0.110911
-0.089557 -0.27915 -0.412031
-0.0869862 -0.0255887 -0.446253
0.228831 -0.145307 0.16149
0.0890027 0.0757188 -0.359188
0.203453 -0.312015 0.0253203
-0.186041 -0.221538 -0.398567
-0.410484 -0.268074 -0.335559
0.141205 0.0835881 0.0872219
0.233384 -0.0802493 0.0461496
-0.0585758 0.0105295 -0.431437
0.22181 -0.23248 0.1117
0.301225 0.095349 0.0661073
0.0957325 -0.292287 -0.245202
-0.00968453 -0.0292695 -0.40848
0.0696487 -0.325364 -0.105132
-0.0167849 -0.338549 -0.00143568
0.246356 -0.0186224 0.137282
-0.113603 -0.352714 -0.0197129
0.000374436 -0.274263 0.100061
0.217584 -0.269279 -0.163571
0.199738 -0.193071 0.132011
-0.087381 -0.158295 -0.0456654
0.10778 -0.11175 0.0671894
0.22924 -0.188246 -0.00396522
0.0611125 -0.20417 0.125904
0.193734 -0.212049 -0.0744061
-0.118044 -0.181856 -0.346961
-0.0174558 -0.236744 -0.376001
0.164072 0.00888078 -0.0205046
-0.382855 -0.304896 -0.199046
0.0599371 -0.192834 -0.396659
0.116189 -0.281731 0.124873
0.218222 0.0342937 0.108874
0.0207907 -0.156044 -0.363582
-0.0725497 -0.0417337 0.00572898
0.0468273 -0.34276 0.0936736
0.260791 -0.212104 0.169824
-0.129013 -0.329473 -0.272833
0.261549 0.0798184 0.111256
0.257721 0.0072042 0.0175947
0.0853305 -0.319059 -0.162404
0.268172 0.00025624 0.0974031
0.208641 -0.121287 0.21734
0.119717 -0.147024 0.102512
-0.0518113 -0.103137 -0.425276
0.240101 -0.280248 -0.0758986
-0.242186 -0.285807 -0.36602
0.0299935 0.0739001 -0.402799
0.118838 -0.254433 -0.396192
0.242662 -0.247219 0.0750919
-0.070876 -0.131599 0.0137234
0.166254 -0.208988 0.162278
0.169347 -0.303073 -0.10265
-0.240942 -0.349669 -0.14304
0.0173484 -0.0594408 -0.309356
-0.0884808 -0.235547 -0.0802955
0.107134 0.0534 -0.338647
0.0605764 -0.102464 -0.406547
-0.161132 -0.319713 -0.358004
0.140323 0.0489543 0.0511421
0.140584 -0.0218547 0.109385
0.15251 -0.318793 0.0623615
0.213371 -0.113586 0.137623
0.197279 -0.22793 -0.220121
-0.0316979 0.0595947 -0.450015
-0.416812 -0.292213 -0.303125
0.242476 -0.294955 0.0422984
0.202443 -0.0455478 0.126345
0.219945 -0.317536 0.138877
0.228951 -0.0576248 0.0056559
0.0658588 -0.33052 -0.058575
-0.00808785 0.0253646 -0.376885
0.0522331 -0.137165 -0.31602
-0.0408237 -0.194882 -0.416569
-0.110547 -0.352724 -0.0694936
-0.108645 -0.0682676 -0.387799
0.252079 -0.172644 0.140014
0.061305 -0.283774 0.136904
0.0381576 -0.315655 -0.178021
0.235083 -0.220901 0.0384429
-0.0766458 -0.346258 0.0948841
0.18035 -0.284094 -0.326034
0.110927 -0.242427 0.150154
-0.155944 -0.262934 -0.400968
-0.144605 -0.339111 -0.204239
-0.0753236 -0.30899 -0.302571
0.257373 -0.255511 0.145516
0.0187654 -0.0551438 -0.432573
-0.0792415 -0.344369 0.0138994
0.000429317 -0.292029 -0.364419
0.155673 -0.243729 0.108198
0.198006 -0.309437 -0.0205343
-0.277663 -0.223472 -0.308008
-0.0688056 -0.0944088 0.0559335
-0.0930962 -0.30396 -0.0363734
0.199223 -0.305436 -0.142877
0.235691 -0.234967 -0.017148
0.215016 0.10463 0.0986738
0.187063 -0.279646 0.165695
0.128886 -0.327984 0.116829
0.00195104 -0.31226 -0.242263
-0.106463 0.0513924 -0.464726
-0.282635 -0.325053 -0.336543
0.0818731 -0.176239 0.086163
0.00223253 -0.121944 -0.419051
0.0367763 -0.0883547 -0.282409
0.0223579 -0.235662 -0.357849
0.162141 -0.201472 -0.326624
-0.00918668 -0.341466 0.0536379
-0.190334 -0.328813 -0.292414
-0.00643982 0.019705 -0.450858
-0.0278401 -0.289404 -0.189667
0.185171 -0.190151 0.0868494
-0.0990532 -0.145391 -0.240543
-0.162544 -0.358192 0.0248547
0.0625795 -0.141379 -0.40256
-0.153479 -0.0360436 -0.427235
0.255202 0.0507417 0.0457559
0.0557193 0.0137618 0.105564
0.20564 -0.28208 -0.230977
0.175253 -0.167736 0.164581
-0.0632968 -0.138153 -0.372134
-0.211417 -0.352693 0.0862508
0.271205 -0.135113 0.109361
0.0691709 0.0941238 -0.340653
-0.108165 -0.310292 -0.222615
-0.076092 -0.0437799 -0.129391
-0.0884174 -0.225449 0.020188
0.196238 -0.26142 0.0999619
-0.0971588 0.00382105 -0.22716
-0.221716 -0.192435 -0.396585
-0.347266 -0.326791 -0.236786
-0.345868 -0.243467 -0.341387
0.236669 0.0223683 -0.0191402
0.250992 -0.180588 0.0690591
0.0267574 -0.155978 0.139789
-0.030682 -0.0399127 -0.442407
-0.16668 -0.357007 -0.0541813
0.261922 -0.193226 0.121764
0.2174 -0.257867 -0.0834299
0.261778 0.106339 -0.00658944
0.191633 -0.174721 -0.028295
0.0495789 -0.30764 -0.329918
0.138772 0.0677006 -0.0770895
-0.00561862 -0.113937 0.121662
0.2474 -0.295527 0.182545
0.0767032 -0.142587 0.108049
-0.0262432 -0.336729 0.131537
-0.0972754 -0.311277 -0.0924823
0.266479 0.094435 0.0675244
0.163213 0.0357532 0.093302
0.0617699 -0.00558271 0.0521331
0.242719 0.131044 0.0719605
-0.229269 -0.249927 -0.377318
-0.232495 -0.2533 -0.392438
0.0775367 -0.0804273 0.0798115
-0.107529 -0.104338 -0.41687
-0.0900057 -0.282931 0.0462024
0.265653 -0.131021 0.161891
-0.160206 -0.353885 -0.120878
0.0168069 0.00408955 -0.39766
-0.0910411 -0.219458 -0.389686
-0.0582311 0.0275528 -0.460054
0.0427502 -0.301033 0.107199
0.258543 -0.0139694 0.0538228
0.00310585 -0.115812 -0.3547
0.143673 -0.287229 -0.369277
0.103525 0.00696523 -0.365716
0.0463507 -0.165662 -0.0673953
0.217818 -0.189513 0.16586
0.0463627 -0.332489 -0.00393659
-0.0858375 -0.0158665 -0.0469324
-0.0565776 -0.30314 -0.398166
0.0569005 -0.267636 -0.386729
0.0904031 0.0422684 0.100497
