ply
format ascii 1.0
comment Created by Open3D
element vertex 1218
property double x
property double y
property double z
property uchar red
property uchar green
property uchar blue
end_header
-0.0668741 -0.362427 -0.0175714 127 0 255
0.368382 -0.238553 0.0855177 127 0 255
-0.0786893 -0.482884 0.00637254 127 0 255
-0.382297 -0.48253 0.101598 127 0 255
-0.29565 -0.381306 0.131347 127 0 255
-0.250327 -0.349799 0.287462 127 0 255
0.261724 -0.33762 -0.011291 127 0 255
-0.145425 -0.482413 0.369459 127 0 255
0.358397 -0.43511 0.281966 127 0 255
-0.235756 -0.344358 0.0697557 127 0 255
0.371999 -0.2745 0.143755 127 0 255
0.338192 -0.222008 0.288896 127 0 255
-0.200327 -0.337298 0.199961 127 0 255
0.302426 -0.284451 0.311781 127 0 255
-0.264437 -0.48236 0.339344 127 0 255
0.283384 -0.449024 0.334001 127 0 255
-0.00939561 -0.411063 -0.0219922 127 0 255
0.33351 -0.236316 -0.012149 127 0 255
-0.0662155 -0.481933 0.382495 127 0 255
-0.353782 -0.231731 -0.00479062 127 0 255
0.0207693 -0.267773 -0.0147669 127 0 255
0.226534 -0.476312 -0.0144985 127 0 255
-0.227444 -0.484434 0.198401 127 0 255
-0.0258424 -0.473983 0.0657246 127 0 255
-0.339499 -0.409133 -0.00530793 127 0 255
-0.166059 -0.356838 -0.0120245 127 0 255
-0.0874809 -0.420853 -0.0176245 127 0 255
-0.300436 -0.437343 0.134794 127 0 255
-0.253887 -0.422272 0.28093 127 0 255
0.196896 -0.483886 0.35308 127 0 255
0.040618 -0.422805 0.00295989 127 0 255
0.0851867 -0.196489 -8.88715e-06 127 0 255
-0.107292 -0.481342 0.310612 127 0 255
-0.400417 -0.351964 0.166117 127 0 255
0.197371 -0.273295 0.00143094 127 0 255
0.0911019 -0.49012 0.13114 127 0 255
-0.0134468 -0.486813 0.242493 127 0 255
-0.244709 -0.349139 0.157195 127 0 255
0.0211307 -0.481582 -0.0104234 127 0 255
-0.183583 -0.434254 -0.0170074 127 0 255
0.330685 -0.27027 0.209439 127 0 255
-0.426285 -0.426852 0.0451557 127 0 255
0.37172 -0.41312 0.0742037 127 0 255
0.256933 -0.398093 -0.0131009 127 0 255
0.0884141 -0.472275 0.300271 127 0 255
0.292519 -0.335865 0.284274 127 0 255
-0.28089 -0.384496 0.0206273 127 0 255
0.365512 -0.351993 0.0511199 127 0 255
0.0583429 -0.482336 0.0552087 127 0 255
-0.169379 -0.262427 -0.0097539 127 0 255
0.161626 -0.338431 -0.0093346 127 0 255
0.23889 -0.493194 0.237026 127 0 255
0.259385 -0.482148 0.112629 127 0 255
0.348173 -0.436494 0.128557 127 0 255
0.320109 -0.27762 0.0593263 127 0 255
-0.100758 -0.473095 0.22923 127 0 255
-0.277513 -0.206462 2.47872e-05 127 0 255
0.333853 -0.482753 0.327957 127 0 255
-0.0625152 -0.202005 -0.0147641 127 0 255
0.148313 -0.484738 0.307913 127 0 255
0.221477 -0.355482 0.0109723 127 0 255
-0.140447 -0.337691 0.0454407 127 0 255
0.0100316 -0.356763 -0.0151363 127 0 255
-0.421313 -0.447922 0.135372 127 0 255
0.274539 -0.196098 0.0170886 127 0 255
-0.173307 -0.434269 0.0346714 127 0 255
-0.212214 -0.276324 0.0266836 127 0 255
0.316397 -0.360368 0.0166637 127 0 255
-0.408936 -0.396462 0.202883 127 0 255
0.00883497 -0.47222 0.147167 127 0 255
0.141061 -0.409269 -0.0184051 127 0 255
-0.394926 -0.331556 0.249005 127 0 255
0.206757 -0.213006 0.0071485 127 0 255
0.0363776 -0.23433 0.0139416 127 0 255
0.263236 -0.444793 0.0243211 127 0 255
-0.353838 -0.35734 0.0520991 127 0 255
0.372348 -0.434431 0.00920353 127 0 255
-0.307384 -0.440378 0.0374354 127 0 255
0.324417 -0.221376 0.0493009 127 0 255
-0.164034 -0.397791 0.122541 127 0 255
0.378193 -0.380602 0.12022 127 0 255
-0.372056 -0.456068 0.187058 127 0 255
0.351869 -0.202365 0.242566 127 0 255
-0.369091 -0.302365 -0.00681317 127 0 255
-0.309064 -0.352614 0.274109 127 0 255
-0.350781 -0.442515 0.108295 127 0 255
-0.153089 -0.484736 0.269883 127 0 255
0.300793 -0.278075 -0.0139571 127 0 255
0.151587 -0.494188 0.0198321 127 0 255
0.283602 -0.447243 0.224516 127 0 255
0.104842 -0.490236 0.21874 127 0 255
-0.111658 -0.480703 -0.0146647 127 0 255
-0.387212 -0.482347 -0.00400196 127 0 255
-0.196542 -0.389487 0.184098 127 0 255
0.309189 -0.37146 0.331186 127 0 255
-0.100576 -0.328798 -0.016918 127 0 255
0.367426 -0.28701 0.0611657 127 0 255
0.315509 -0.361094 -0.0355996 127 0 255
0.379798 -0.439717 0.167511 127 0 255
-0.0201354 -0.475568 0.313304 127 0 255
0.329855 -0.358741 0.220669 127 0 255
0.330735 -0.335136 0.114678 127 0 255
-0.309512 -0.382643 0.216044 127 0 255
-0.0586815 -0.40492 0.00710998 127 0 255
-0.0620304 -0.473363 0.167514 127 0 255
-0.448695 -0.399043 0.171503 127 0 255
-0.255284 -0.308786 -0.00748829 127 0 255
-0.2771 -0.419738 -0.00773918 127 0 255
-0.272227 -0.338988 0.113249 127 0 255
-0.0235778 -0.301818 -0.0262677 127 0 255
-0.294241 -0.439962 0.302916 127 0 255
0.297617 -0.489176 0.187657 127 0 255
-0.191151 -0.338318 0.0257494 127 0 255
-0.310802 -0.314984 0.18631 127 0 255
-0.22266 -0.214708 0.00103755 127 0 255
-0.293365 -0.334378 0.0392644 127 0 255
0.0813348 -0.250245 -0.0217483 127 0 255
-0.299755 -0.484072 0.142312 127 0 255
0.329175 -0.258121 0.166429 127 0 255
0.27054 -0.482385 0.0593324 127 0 255
-0.408496 -0.369466 0.0362057 127 0 255
-0.435949 -0.474589 0.069572 127 0 255
-0.158316 -0.46689 0.16208 127 0 255
-0.0282646 -0.45247 0.0126625 127 0 255
0.0984963 -0.443982 0.151483 127 0 255
0.0198045 -0.482175 0.370749 127 0 255
-0.237912 -0.356935 0.241127 127 0 255
0.113627 -0.486335 0.080053 127 0 255
-0.0970989 -0.234348 0.0117119 127 0 255
0.199673 -0.374799 0.237462 127 0 255
0.295995 -0.455618 0.135586 127 0 255
-0.224824 -0.484947 0.277824 127 0 255
-0.205316 -0.400212 0.0329464 127 0 255
-0.279665 -0.485445 0.197249 127 0 255
-0.0671406 -0.443181 0.0860939 127 0 255
-0.373374 -0.35674 0.11696 127 0 255
0.1106 -0.467021 -0.0157067 127 0 255
0.333742 -0.280182 0.268654 127 0 255
-0.203183 -0.482414 0.343964 127 0 255
0.180937 -0.487816 0.215226 127 0 255
0.0499272 -0.479274 0.21454 127 0 255
-0.207347 -0.471594 -0.0161739 127 0 255
0.0444067 -0.374873 0.00495911 127 0 255
-0.13487 -0.37677 0.0798825 127 0 255
-0.306583 -0.277954 -0.00625164 127 0 255
0.261988 -0.481844 0.345926 127 0 255
0.351984 -0.48254 0.00157961 127 0 255
-0.17671 -0.483916 0.0735331 127 0 255
0.291247 -0.424912 0.0506681 127 0 255
0.344574 -0.484547 0.248606 127 0 255
-0.206348 -0.424739 0.124966 127 0 255
0.366109 -0.29611 0.186376 127 0 255
-0.066131 -0.298946 0.0135404 127 0 255
-0.432852 -0.330454 0.196381 127 0 255
-0.336344 -0.392281 0.171111 127 0 255
0.372165 -0.315504 0.0154436 127 0 255
0.312777 -0.410617 0.217908 127 0 255
0.187173 -0.387305 0.337466 127 0 255
-0.454873 -0.402167 0.125459 127 0 255
0.0454937 -0.482332 0.13044 127 0 255
-0.323986 -0.20993 0.00250771 127 0 255
-0.386275 -0.481958 0.041033 127 0 255
0.186784 -0.460399 0.111228 127 0 255
-0.149882 -0.409022 -0.0121838 127 0 255
-0.104758 -0.48238 0.367956 127 0 255
0.32805 -0.377519 0.144087 127 0 255
-0.362497 -0.432971 0.262632 127 0 255
-0.140672 -0.471684 0.206373 127 0 255
0.0702792 -0.319305 -0.0141411 127 0 255
-0.140289 -0.327792 -0.0187134 127 0 255
-0.394137 -0.376169 0.246691 127 0 255
0.336748 -0.36141 0.264989 127 0 255
0.281516 -0.408566 0.327888 127 0 255
0.359458 -0.388609 -0.00202867 127 0 255
0.372128 -0.440696 0.22026 127 0 255
0.134579 -0.372875 -0.0017765 127 0 255
0.212227 -0.409154 0.0155569 127 0 255
-0.0288469 -0.482384 0.361906 127 0 255
-0.00814182 -0.230967 0.0150372 127 0 255
0.0355949 -0.471334 0.288085 127 0 255
-0.288246 -0.38286 0.0883274 127 0 255
0.36907 -0.471654 0.0507025 127 0 255
0.367228 -0.21755 0.128251 127 0 255
-0.192168 -0.48495 0.226844 127 0 255
0.255551 -0.295218 0.00112974 127 0 255
-0.32917 -0.482076 0.256523 127 0 255
0.141639 -0.285119 0.00143373 127 0 255
-0.0873142 -0.489162 0.0962746 127 0 255
-0.267543 -0.443148 0.261729 127 0 255
-0.305136 -0.363721 -0.00827054 127 0 255
-0.337406 -0.483267 0.0845439 127 0 255
-0.177452 -0.348666 0.106852 127 0 255
-0.25265 -0.484675 0.0873575 127 0 255
0.227965 -0.483811 0.293863 127 0 255
0.375042 -0.285504 0.115776 127 0 255
0.314773 -0.420159 0.106981 127 0 255
0.228215 -0.483751 0.141649 127 0 255
0.181674 -0.477933 0.0658623 127 0 255
0.0808849 -0.412856 -0.0217327 127 0 255
-0.0655139 -0.458483 -0.0229692 127 0 255
-0.395506 -0.337259 0.0148632 127 0 255
0.222571 -0.191987 -0.0127355 127 0 255
0.301166 -0.485126 0.290834 127 0 255
-0.382256 -0.428682 -0.000165642 127 0 255
0.233047 -0.495849 0.0183662 127 0 255
0.139178 -0.482422 0.132578 127 0 255
-0.287985 -0.389554 0.284384 127 0 255
-0.434188 -0.478489 0.0109589 127 0 255
-0.228469 -0.484379 0.0266943 127 0 255
-0.151002 -0.481072 -0.0141823 127 0 255
0.133276 -0.189532 -0.00786904 127 0 255
-0.414384 -0.353585 0.125773 127 0 255
0.315282 -0.332624 0.322687 127 0 255
0.367612 -0.342065 0.19477 127 0 255
-0.310671 -0.35339 0.150775 127 0 255
-0.330228 -0.45269 0.168392 127 0 255
-0.229839 -0.246545 -0.00593168 127 0 255
-0.234702 -0.372903 0.0234932 127 0 255
-0.146016 -0.438768 0.0880893 127 0 255
0.314173 -0.43111 0.0189138 127 0 255
0.257715 -0.420158 0.290195 127 0 255
0.0950381 -0.491776 0.250354 127 0 255
-0.287812 -0.482655 0.313152 127 0 255
-0.141555 -0.217867 -0.0113866 127 0 255
-0.3064 -0.327115 0.236956 127 0 255
-0.27347 -0.442127 0.112148 127 0 255
-0.347989 -0.395433 0.0813902 127 0 255
0.0887418 -0.491864 0.161534 127 0 255
0.351213 -0.43227 0.312719 127 0 255
-0.237881 -0.308186 0.0516534 127 0 255
0.19906 -0.331447 -0.0123177 127 0 255
0.295108 -0.362214 0.0577964 127 0 255
0.374673 -0.187303 0.0374644 127 0 255
0.0265271 -0.319954 0.00769221 127 0 255
-0.0552037 -0.359438 0.0111305 127 0 255
-0.0821162 -0.484914 0.260155 127 0 255
0.0958522 -0.482403 0.043794 127 0 255
-0.115902 -0.483798 0.143677 127 0 255
0.329554 -0.318069 0.162061 127 0 255
-0.220285 -0.447513 0.280812 127 0 255
0.0102856 -0.482273 0.0365774 127 0 255
-0.329007 -0.478965 -0.011572 127 0 255
0.31905 -0.445341 0.183388 127 0 255
-0.376658 -0.482023 0.136091 127 0 255
0.32856 -0.48342 0.0896944 127 0 255
-0.218305 -0.350559 0.148836 127 0 255
0.290525 -0.483371 -0.00687471 127 0 255
-0.0510596 -0.250855 0.0120574 127 0 255
-0.419674 -0.310026 0.222756 127 0 255
0.0938218 -0.483515 0.330231 127 0 255
0.313496 -0.30588 0.0011321 127 0 255
0.028817 -0.206229 0.0045581 127 0 255
-0.158215 -0.294064 0.0257184 127 0 255
-0.169191 -0.48226 0.372942 127 0 255
0.158935 -0.447342 0.00265334 127 0 255
-0.285951 -0.404533 0.206004 127 0 255
0.176996 -0.247349 0.00662373 127 0 255
0.378684 -0.343914 0.11666 127 0 255
-0.180171 -0.386951 0.0638704 127 0 255
-0.000220083 -0.442391 -0.0265011 127 0 255
-0.247921 -0.48237 0.226994 127 0 255
-0.0283626 -0.484517 0.0898895 127 0 255
-0.377602 -0.270844 0.0132544 127 0 255
0.304668 -0.450677 0.350807 127 0 255
0.336403 -0.247633 0.299034 127 0 255
0.258873 -0.487329 0.183863 127 0 255
0.379568 -0.358432 0.0262509 127 0 255
-0.10908 -0.399621 0.0201279 127 0 255
-0.2985 -0.328311 0.0726183 127 0 255
-0.20827 -0.325494 -0.0103114 127 0 255
0.331399 -0.270086 0.101155 127 0 255
-0.102153 -0.279915 -0.0123677 127 0 255
0.288829 -0.377805 0.259975 127 0 255
-0.337648 -0.392182 0.0242239 127 0 255
-0.0153749 -0.485072 0.267727 127 0 255
0.0837949 -0.484027 -0.010815 127 0 255
-0.445561 -0.341484 0.162688 127 0 255
-0.125357 -0.461967 0.0463196 127 0 255
-0.137827 -0.337302 0.162464 127 0 255
-0.218187 -0.392275 0.229553 127 0 255
0.374673 -0.187306 0.287466 127 0 255
0.115121 -0.334159 -0.0177628 127 0 255
0.170609 -0.487067 0.170983 127 0 255
-0.0549275 -0.484311 0.0204927 127 0 255
0.223305 -0.431006 -0.0116387 127 0 255
-0.360995 -0.355873 0.181756 127 0 255
-0.389448 -0.426944 0.235311 127 0 255
0.342846 -0.485775 0.175616 127 0 255
-0.433134 -0.388836 0.0753642 127 0 255
0.362647 -0.331902 0.251162 127 0 255
-0.259829 -0.482652 -0.0151159 127 0 255
0.336089 -0.194831 0.00303496 127 0 255
-0.150298 -0.482083 0.307313 127 0 255
-0.225777 -0.455714 0.177923 127 0 255
0.373581 -0.380007 0.166482 127 0 255
0.181215 -0.49328 0.251736 127 0 255
0.0818959 -0.46003 0.098587 127 0 255
0.241007 -0.447096 0.260396 127 0 255
-0.265072 -0.343062 0.198376 127 0 255
0.158234 -0.483043 0.360831 127 0 255
0.0605247 -0.28007 0.000699111 127 0 255
0.187173 -0.424799 0.312462 127 0 255
-0.000107697 -0.2467 -0.0189661 127 0 255
-0.223562 -0.330816 0.0931141 127 0 255
-0.350294 -0.393133 0.284572 127 0 255
-0.21255 -0.483638 0.114171 127 0 255
0.363204 -0.449145 0.259419 127 0 255
0.331397 -0.227428 0.213899 127 0 255
-0.0788153 -0.483119 0.33839 127 0 255
-0.0210486 -0.478275 0.202189 127 0 255
-0.0111391 -0.378264 -0.0183528 127 0 255
-0.434602 -0.462756 0.10134 127 0 255
-0.291569 -0.485364 0.0594046 127 0 255
0.366269 -0.401486 0.0442106 127 0 255
0.233885 -0.451455 0.0674992 127 0 255
0.375867 -0.422103 0.114149 127 0 255
0.284978 -0.231733 0.0152191 127 0 255
-0.347722 -0.347057 -0.00851307 127 0 255
-0.446409 -0.360035 0.222054 127 0 255
0.340314 -0.332528 -0.021609 127 0 255
0.0330576 -0.483461 0.331162 127 0 255
-0.240131 -0.407216 0.0542627 127 0 255
0.35938 -0.201782 0.104406 127 0 255
-0.271725 -0.385732 0.155346 127 0 255
0.180707 -0.389133 -0.0151406 127 0 255
-0.235801 -0.482315 0.352823 127 0 255
0.21288 -0.483029 0.351213 127 0 255
0.196244 -0.476896 -0.011986 127 0 255
-0.399963 -0.435049 0.177178 127 0 255
0.0736707 -0.365499 -0.015983 127 0 255
-0.314195 -0.441278 -0.0106729 127 0 255
-0.27873 -0.253117 0.0156366 127 0 255
0.248897 -0.373866 -0.0122137 127 0 255
0.0176476 -0.434873 0.0102086 127 0 255
0.269741 -0.458025 0.141817 127 0 255
0.368513 -0.387891 0.225385 127 0 255
-0.335182 -0.441116 0.073929 127 0 255
0.351471 -0.346532 0.308096 127 0 255
0.0440439 -0.485074 0.254293 127 0 255
-0.206425 -0.445139 0.226585 127 0 255
-0.177818 -0.375557 -0.0131353 127 0 255
0.341464 -0.444681 -0.0119274 127 0 255
-0.342764 -0.351822 0.279741 127 0 255
-0.181796 -0.3618 0.148538 127 0 255
0.375301 -0.4814 0.150553 127 0 255
-0.293311 -0.457138 0.175327 127 0 255
0.329568 -0.231444 0.141208 127 0 255
0.0391961 -0.481095 -0.0100966 127 0 255
0.360507 -0.276249 0.276143 127 0 255
-0.301717 -0.330653 0.121207 127 0 255
-0.150072 -0.481198 0.119664 127 0 255
-0.345921 -0.229647 0.0174734 127 0 255
0.312839 -0.331399 0.253584 127 0 255
-0.0123853 -0.478488 0.126549 127 0 255
-0.280506 -0.389037 -0.0132476 127 0 255
-0.206518 -0.394172 0.103821 127 0 255
0.214684 -0.487408 0.201953 127 0 255
-0.088108 -0.20537 -0.0141749 127 0 255
-0.388086 -0.377607 -0.00496605 127 0 255
0.080001 -0.218681 -0.0165995 127 0 255
-0.211637 -0.442428 -0.0122233 127 0 255
0.352095 -0.472268 0.298643 127 0 255
0.287082 -0.191614 -0.00523714 127 0 255
0.174673 -0.3998 0.249962 127 0 255
-0.281382 -0.326497 -0.00812312 127 0 255
-0.393789 -0.347253 0.0635737 127 0 255
0.343863 -0.342616 0.0654064 127 0 255
0.0532236 -0.473907 0.166382 127 0 255
-0.0696636 -0.482128 0.213046 127 0 255
-0.230847 -0.450462 0.0542071 127 0 255
0.116031 -0.41335 0.00035079 127 0 255
-0.0790549 -0.43726 0.00898329 127 0 255
-0.325006 -0.443262 0.27527 127 0 255
0.30811 -0.487676 0.0472661 127 0 255
-0.400327 -0.299776 0.287447 127 0 255
-0.0966699 -0.331521 0.017364 127 0 255
0.0551175 -0.485797 0.0835711 127 0 255
-0.160717 -0.336998 0.0636304 127 0 255
-0.137827 -0.287308 0.162467 127 0 255
-0.337971 -0.386013 0.137565 127 0 255
0.170089 -0.483803 0.307826 127 0 255
0.230968 -0.239012 0.00666536 127 0 255
0.360216 -0.211104 0.194168 127 0 255
0.347909 -0.248232 0.00187904 127 0 255
-0.19044 -0.264763 -0.0115924 127 0 255
-0.130689 -0.481064 0.248914 127 0 255
-0.102608 -0.383254 -0.016676 127 0 255
-0.254123 -0.486421 0.137087 127 0 255
-0.319721 -0.482139 0.216423 127 0 255
0.154856 -0.316456 0.00165107 127 0 255
-0.185227 -0.462659 0.177915 127 0 255
0.139366 -0.230578 -0.0119915 127 0 255
0.150454 -0.482475 0.055219 127 0 255
-0.0831969 -0.488089 0.153476 127 0 255
-0.130144 -0.419868 0.0549566 127 0 255
0.137863 -0.477861 0.206834 127 0 255
0.237173 -0.387295 0.274959 127 0 255
-0.370523 -0.443716 0.133309 127 0 255
-0.0223633 -0.211002 -0.0144264 127 0 255
0.250155 -0.454251 -0.0105125 127 0 255
-0.338484 -0.357537 0.219524 127 0 255
0.315211 -0.281672 0.0416846 127 0 255
-0.176363 -0.483922 0.0481758 127 0 255
-0.262827 -0.299799 0.287462 127 0 255
-0.429635 -0.432288 0.0528603 127 0 255
0.329213 -0.289993 0.201943 127 0 255
0.372632 -0.46701 0.0970703 127 0 255
0.279408 -0.485118 0.321973 127 0 255
0.291823 -0.423991 0.267104 127 0 255
-0.361028 -0.485415 0.0401598 127 0 255
-0.036548 -0.404171 -0.0210343 127 0 255
-0.455756 -0.373742 0.143803 127 0 255
-0.197135 -0.212342 -0.00466668 127 0 255
-0.252101 -0.462533 0.307624 127 0 255
0.287674 -0.408986 -0.0133903 127 0 255
0.0690337 -0.482229 0.364159 127 0 255
0.287687 -0.483431 0.238841 127 0 255
0.0947493 -0.488619 0.28936 127 0 255
0.300316 -0.309637 0.29291 127 0 255
0.329327 -0.398981 0.0548017 127 0 255
-0.24763 -0.38461 0.258916 127 0 255
-0.0181767 -0.346267 0.0099849 127 0 255
0.326443 -0.48453 0.138265 127 0 255
-0.314241 -0.306926 0.0351599 127 0 255
0.229086 -0.483134 0.0890399 127 0 255
-0.0616001 -0.484462 0.0652087 127 0 255
0.373987 -0.318363 0.0849548 127 0 255
-0.0583162 -0.482355 0.293767 127 0 255
-0.331943 -0.483798 0.133809 127 0 255
0.13759 -0.478996 -0.0138145 127 0 255
0.224673 -0.424801 0.349963 127 0 255
0.346028 -0.398837 0.316675 127 0 255
-0.120297 -0.25394 0.0101084 127 0 255
-0.228366 -0.366242 -0.0113502 127 0 255
-0.300248 -0.405971 0.062364 127 0 255
-0.198986 -0.371838 0.198274 127 0 255
0.247691 -0.30875 -0.0100544 127 0 255
-0.0991773 -0.484407 0.0220363 127 0 255
-0.39176 -0.482294 0.0819399 127 0 255
-0.274823 -0.206427 5.50309e-05 127 0 255
-0.279905 -0.484759 0.0215729 127 0 255
-0.272983 -0.335072 0.158116 127 0 255
-0.432958 -0.401743 0.201291 127 0 255
0.159047 -0.473699 0.259046 127 0 255
0.286977 -0.355687 -0.00383712 127 0 255
0.367121 -0.239143 0.0762899 127 0 255
0.371242 -0.473875 0.011436 127 0 255
-0.125838 -0.485846 0.189479 127 0 255
0.375974 -0.324871 0.150391 127 0 255
0.348051 -0.41834 0.165488 127 0 255
0.114976 -0.482354 0.356433 127 0 255
-0.442822 -0.466924 0.0251337 127 0 255
0.322761 -0.207079 0.0358104 127 0 255
0.184065 -0.207905 0.0052788 127 0 255
-0.365814 -0.435801 -0.0103811 127 0 255
-0.181537 -0.432037 0.114586 127 0 255
0.292982 -0.451506 0.0594479 127 0 255
0.362669 -0.247873 0.237455 127 0 255
-0.232521 -0.419008 0.190926 127 0 255
-0.127975 -0.482523 0.350048 127 0 255
-0.271238 -0.354611 0.0411357 127 0 255
0.22196 -0.485474 0.261615 127 0 255
0.0418286 -0.388112 -0.0181778 127 0 255
-0.150635 -0.445601 0.00677719 127 0 255
-0.160956 -0.300028 -0.00964039 127 0 255
0.360712 -0.390274 0.267756 127 0 255
-0.0486909 -0.482172 0.373686 127 0 255
0.282373 -0.385402 0.295825 127 0 255
0.0798423 -0.490492 0.197139 127 0 255
-0.01777 -0.294924 0.0116985 127 0 255
0.348759 -0.482943 0.224514 127 0 255
-0.190292 -0.484825 0.262817 127 0 255
-0.269139 -0.440624 -0.0135189 127 0 255
-0.330338 -0.268079 -0.00586116 127 0 255
0.124706 -0.48659 0.101821 127 0 255
-0.31494 -0.315236 0.212801 127 0 255
-0.328543 -0.356617 0.0988806 127 0 255
-0.14524 -0.364451 0.021489 127 0 255
-0.0428471 -0.481316 -0.0162858 127 0 255
0.367875 -0.256794 0.162214 127 0 255
-0.239004 -0.299572 -0.00948941 127 0 255
0.00882277 -0.478011 0.234896 127 0 255
-0.427085 -0.353685 0.0893829 127 0 255
-0.154303 -0.359364 0.108047 127 0 255
0.328138 -0.297003 0.101207 127 0 255
-0.289559 -0.410757 0.273381 127 0 255
0.0631176 -0.224956 0.0108731 127 0 255
-0.408959 -0.391538 0.0187684 127 0 255
-0.287066 -0.48043 0.277452 127 0 255
0.19629 -0.289626 0.00173208 127 0 255
-0.193422 -0.294408 0.0408382 127 0 255
0.138867 -0.47298 0.159761 127 0 255
0.344275 -0.280699 -0.0100718 127 0 255
0.313989 -0.400092 0.221508 127 0 255
-0.427735 -0.43541 0.139293 127 0 255
0.0125442 -0.48567 0.180216 127 0 255
0.190368 -0.376116 0.00500521 127 0 255
-0.136207 -0.483564 0.0899404 127 0 255
0.252698 -0.493945 0.0314649 127 0 255
-0.34258 -0.482089 0.187664 127 0 255
0.0987793 -0.288928 -0.0116695 127 0 255
0.0824528 -0.450769 -0.0195867 127 0 255
-0.337181 -0.317301 -0.00757745 127 0 255
-0.114691 -0.485053 0.298964 127 0 255
0.187875 -0.487005 0.126796 127 0 255
0.248564 -0.194216 -0.000437781 127 0 255
-0.299525 -0.481056 0.0891342 127 0 255
-0.373468 -0.344671 0.246931 127 0 255
0.0488379 -0.486219 0.0375397 127 0 255
0.372413 -0.380796 0.0736169 127 0 255
0.0062259 -0.477516 0.298628 127 0 255
-0.233393 -0.485559 0.180779 127 0 255
0.345911 -0.364238 -0.00871321 127 0 255
-0.209611 -0.372035 0.050208 127 0 255
0.308808 -0.456879 0.293893 127 0 255
0.0917148 -0.348949 0.000743503 127 0 255
0.362405 -0.31275 0.223783 127 0 255
0.28526 -0.483852 0.118964 127 0 255
0.282329 -0.255316 -0.00869343 127 0 255
-0.252067 -0.329887 0.08474 127 0 255
-0.19011 -0.482266 0.367412 127 0 255
0.00235022 -0.484837 0.0830917 127 0 255
0.0308504 -0.277847 -0.0157915 127 0 255
0.174872 -0.431903 0.0100545 127 0 255
-0.3908 -0.353032 0.164393 127 0 255
0.219753 -0.48435 0.318273 127 0 255
0.330229 -0.235372 0.261735 127 0 255
-0.372341 -0.483041 -0.00441031 127 0 255
0.304067 -0.34105 0.067053 127 0 255
0.371357 -0.447822 0.0643285 127 0 255
-0.182745 -0.413526 -0.0160864 127 0 255
0.327316 -0.406169 0.119496 127 0 255
-0.0644174 -0.329823 -0.0149976 127 0 255
0.330472 -0.30151 0.147242 127 0 255
0.354922 -0.208462 0.151181 127 0 255
-1.24378e-05 -0.397785 0.00607747 127 0 255
0.26406 -0.463215 0.22097 127 0 255
0.307524 -0.478735 -0.0129693 127 0 255
-0.18093 -0.478475 -0.0134362 127 0 255
0.30698 -0.279724 0.310438 127 0 255
-0.398791 -0.385848 0.228164 127 0 255
-0.326366 -0.351426 0.0356163 127 0 255
-0.450327 -0.337274 0.287446 127 0 255
0.24582 -0.418765 0.0131222 127 0 255
-0.447612 -0.421127 0.0957572 127 0 255
0.34551 -0.32311 0.029676 127 0 255
-0.0401535 -0.487974 0.247435 127 0 255
-0.0571278 -0.223985 0.0118576 127 0 255
-0.229012 -0.484453 0.0649317 127 0 255
-0.0380501 -0.474195 0.168779 127 0 255
0.122493 -0.191981 -0.00252566 127 0 255
-0.26281 -0.348089 0.235272 127 0 255
-0.110607 -0.457019 -0.0203836 127 0 255
-0.191705 -0.484038 0.143215 127 0 255
-0.365416 -0.444274 0.0390857 127 0 255
-0.331574 -0.394805 0.185506 127 0 255
0.272315 -0.4352 0.337998 127 0 255
-0.137827 -0.287304 0.112465 127 0 255
0.317074 -0.338951 -0.0336119 127 0 255
0.372668 -0.444232 0.208699 127 0 255
-0.418117 -0.436624 0.000745942 127 0 255
-0.325054 -0.38373 0.288415 127 0 255
-0.373211 -0.357262 0.100261 127 0 255
0.358753 -0.3219 0.292258 127 0 255
-0.227162 -0.338387 0.123881 127 0 255
0.135839 -0.482905 0.317905 127 0 255
0.0303791 -0.427434 -0.0219181 127 0 255
-0.388743 -0.318971 0.0136494 127 0 255
0.325412 -0.483627 0.329925 127 0 255
-0.342627 -0.388683 -0.0060421 127 0 255
-0.137925 -0.231739 0.00975692 127 0 255
-0.267006 -0.427777 0.0240808 127 0 255
-0.121872 -0.381416 0.0478187 127 0 255
-0.0765654 -0.275319 -0.0133903 127 0 255
-0.234554 -0.433273 0.240633 127 0 255
-0.378396 -0.481913 0.157637 127 0 255
0.366426 -0.283385 0.0599673 127 0 255
-0.088022 -0.450728 0.0870713 127 0 255
-0.256117 -0.482231 0.346665 127 0 255
-0.277797 -0.385922 0.122898 127 0 255
0.310522 -0.395963 0.333632 127 0 255
-0.19213 -0.482548 0.310335 127 0 255
0.343019 -0.208281 0.0744906 127 0 255
-0.15123 -0.418747 0.10446 127 0 255
0.039972 -0.481836 0.116044 127 0 255
0.120117 -0.490104 0.0362148 127 0 255
-0.323488 -0.485729 0.0324306 127 0 255
-0.390323 -0.424126 0.199676 127 0 255
0.251573 -0.439957 0.0632772 127 0 255
0.328694 -0.32585 0.202687 127 0 255
-0.436144 -0.349009 0.229214 127 0 255
-0.268637 -0.482374 0.223671 127 0 255
0.342783 -0.441059 0.252844 127 0 255
0.260276 -0.487198 0.16334 127 0 255
-0.255334 -0.236005 -0.0101582 127 0 255
0.144472 -0.37672 -0.0151836 127 0 255
-0.00542445 -0.481986 0.0221957 127 0 255
0.108911 -0.491777 0.259667 127 0 255
-0.187513 -0.403936 0.146925 127 0 255
-0.246235 -0.386652 0.196872 127 0 255
0.00114758 -0.206365 -0.0125451 127 0 255
-0.0152829 -0.48516 0.340923 127 0 255
0.375417 -0.384041 0.140293 127 0 255
0.19973 -0.48261 0.0632529 127 0 255
0.312328 -0.441626 0.144603 127 0 255
-0.0844348 -0.38445 0.013553 127 0 255
-0.0812544 -0.489342 0.122941 127 0 255
0.0179959 -0.348277 0.00583249 127 0 255
0.164775 -0.48424 -0.00697768 127 0 255
0.0796007 -0.415441 0.00415808 127 0 255
-0.198538 -0.420594 0.0382125 127 0 255
-0.281671 -0.43915 0.0658432 127 0 255
-0.283738 -0.286852 -0.0068371 127 0 255
-0.00548686 -0.257156 0.013435 127 0 255
0.320053 -0.400526 -0.00804725 127 0 255
0.352234 -0.205326 0.247785 127 0 255
-0.271724 -0.432986 0.302363 127 0 255
0.0651443 -0.488287 0.318196 127 0 255
-0.403863 -0.311218 0.233796 127 0 255
-0.110923 -0.294082 0.0141363 127 0 255
-0.429855 -0.479895 0.0598024 127 0 255
0.229333 -0.332578 -0.0119354 127 0 255
-0.328005 -0.437774 0.149326 127 0 255
-0.363692 -0.42458 0.241376 127 0 255
0.328761 -0.386951 0.178058 127 0 255
0.22252 -0.264474 -0.0118783 127 0 255
-0.102332 -0.472947 0.205223 127 0 255
0.372803 -0.244947 0.111463 127 0 255
-0.304616 -0.340081 0.260983 127 0 255
0.269885 -0.472439 0.282307 127 0 255
0.123419 -0.306039 0.00332475 127 0 255
-0.180098 -0.462118 0.200804 127 0 255
0.317705 -0.228918 -0.0102362 127 0 255
-0.173833 -0.210678 0.000965288 127 0 255
0.207343 -0.472723 0.177697 127 0 255
-0.159614 -0.47004 0.267234 127 0 255
-0.354221 -0.440433 0.090492 127 0 255
-0.448726 -0.375173 0.116456 127 0 255
-0.380801 -0.279257 0.0142876 127 0 255
0.362383 -0.406258 0.0231751 127 0 255
-0.0579056 -0.406863 -0.022151 127 0 255
0.211967 -0.463441 0.256846 127 0 255
0.158088 -0.191054 -0.00362265 127 0 255
-0.29149 -0.485583 0.137969 127 0 255
-0.410842 -0.466437 0.122251 127 0 255
-0.141659 -0.48207 0.0452963 127 0 255
-0.261209 -0.316799 0.0300185 127 0 255
0.330094 -0.456376 0.0437758 127 0 255
-0.238943 -0.484919 0.290671 127 0 255
0.0697643 -0.198756 0.000802036 127 0 255
-0.121954 -0.355797 -0.0173589 127 0 255
-0.0176792 -0.319256 -0.0159751 127 0 255
0.134124 -0.440765 -0.0171375 127 0 255
0.301128 -0.397418 0.0495849 127 0 255
-0.224286 -0.466074 0.120467 127 0 255
-0.290998 -0.362337 0.19756 127 0 255
0.333605 -0.293313 0.246839 127 0 255
-0.219278 -0.408123 -0.0148731 127 0 255
0.188346 -0.483898 0.35482 127 0 255
-0.309906 -0.482515 -0.00735269 127 0 255
-0.438486 -0.411239 0.172156 127 0 255
0.363375 -0.365804 0.273809 127 0 255
-0.175581 -0.326179 -0.0104224 127 0 255
-0.111246 -0.209961 0.00105502 127 0 255
-0.232923 -0.48112 -0.0108568 127 0 255
0.0660135 -0.482875 0.238525 127 0 255
0.117477 -0.250513 -0.000902022 127 0 255
-0.2044 -0.251802 0.0113044 127 0 255
-0.0376663 -0.471912 0.123442 127 0 255
0.306617 -0.34594 0.320841 127 0 255
0.345306 -0.483672 0.105174 127 0 255
-0.317449 -0.469447 0.231586 127 0 255
-0.0428557 -0.470753 0.0458845 127 0 255
-0.259595 -0.356095 -0.0093888 127 0 255
-0.125674 -0.410338 -0.0139827 127 0 255
0.301393 -0.483477 0.212564 127 0 255
-0.351224 -0.386498 0.0497901 127 0 255
0.287173 -0.374794 0.224959 127 0 255
0.324271 -0.238233 0.163073 127 0 255
-0.307289 -0.23693 0.00718891 127 0 255
0.249144 -0.424143 0.301824 127 0 255
0.368149 -0.392203 0.204029 127 0 255
-0.182816 -0.33326 0.0631353 127 0 255
-0.400311 -0.340023 0.0448987 127 0 255
-0.06171 -0.485169 0.330754 127 0 255
0.234085 -0.483449 0.128584 127 0 255
-0.0268991 -0.457571 -0.0247682 127 0 255
0.376378 -0.352251 0.0917646 127 0 255
-0.111061 -0.473659 0.264342 127 0 255
-0.487827 -0.337274 0.187446 127 0 255
-0.354934 -0.356398 0.150905 127 0 255
0.143795 -0.470415 0.110141 127 0 255
0.208631 -0.482999 -0.00902141 127 0 255
0.0230299 -0.483819 0.358123 127 0 255
0.334334 -0.484924 0.270042 127 0 255
-0.257391 -0.462198 0.16265 127 0 255
0.372367 -0.464941 0.171709 127 0 255
-0.42597 -0.404694 0.0578177 127 0 255
0.187173 -0.424797 0.23746 127 0 255
0.35222 -0.29002 0.29863 127 0 255
0.337781 -0.443321 0.325169 127 0 255
-0.3109 -0.431922 0.0273064 127 0 255
0.323013 -0.24124 0.0441204 127 0 255
0.175517 -0.260828 -0.00876522 127 0 255
0.330519 -0.335605 0.133379 127 0 255
-0.154323 -0.485359 0.334381 127 0 255
0.107891 -0.478898 0.207311 127 0 255
-0.159633 -0.483783 0.143502 127 0 255
-0.287887 -0.410011 0.196454 127 0 255
-0.219871 -0.484645 0.224997 127 0 255
0.363964 -0.281613 0.204732 127 0 255
0.0338502 -0.472358 -0.0168721 127 0 255
0.252601 -0.478431 0.343423 127 0 255
0.376384 -0.33709 0.021729 127 0 255
-0.312849 -0.34024 0.0777215 127 0 255
0.262869 -0.480082 -0.00800617 127 0 255
-0.0426053 -0.360803 -0.018187 127 0 255
-0.037966 -0.262186 -0.016009 127 0 255
-0.217306 -0.388322 0.161496 127 0 255
0.375854 -0.295959 0.127577 127 0 255
0.298125 -0.312699 -0.00329275 127 0 255
0.0329445 -0.320471 -0.0162361 127 0 255
-0.280378 -0.386199 0.251061 127 0 255
0.0846769 -0.482634 0.0654186 127 0 255
-0.382858 -0.390612 0.259027 127 0 255
-0.344821 -0.388865 0.108007 127 0 255
-0.352496 -0.483101 0.0838865 127 0 255
0.230455 -0.387533 0.00981377 127 0 255
0.376224 -0.424797 0.122661 127 0 255
0.203864 -0.198931 -0.0120047 127 0 255
-0.190684 -0.455353 0.0411999 127 0 255
-0.0770594 -0.482563 -0.0147296 127 0 255
-0.147743 -0.38617 0.10807 127 0 255
-0.22459 -0.360347 0.215985 127 0 255
-0.0970536 -0.482073 0.055016 127 0 255
0.318493 -0.437067 0.18832 127 0 255
-0.404886 -0.350787 0.194391 127 0 255
-0.280758 -0.373545 0.0525931 127 0 255
0.184808 -0.342791 -0.0113186 127 0 255
0.0244955 -0.491168 0.234714 127 0 255
0.372298 -0.441331 0.00934528 127 0 255
-0.358643 -0.238817 0.00942441 127 0 255
-0.185134 -0.369259 0.0128905 127 0 255
0.144235 -0.489363 0.272865 127 0 255
0.325753 -0.3877 0.265296 127 0 255
0.374673 -0.187303 -3.55653e-05 127 0 255
-0.286973 -0.446698 0.102763 127 0 255
0.272159 -0.483365 0.0918759 127 0 255
-0.20243 -0.382136 0.0867908 127 0 255
0.374673 -0.387296 0.33746 127 0 255
-0.14189 -0.480695 -0.0131837 127 0 255
0.0774711 -0.472793 0.145264 127 0 255
-0.138431 -0.33697 0.0427456 127 0 255
0.312262 -0.350367 0.0251084 127 0 255
0.306123 -0.431422 -0.0100492 127 0 255
-0.185564 -0.483011 0.0953875 127 0 255
-0.404522 -0.482268 0.000952149 127 0 255
0.369402 -0.33365 0.182515 127 0 255
-0.157858 -0.486982 0.225646 127 0 255
0.0036546 -0.484941 0.139854 127 0 255
0.0642326 -0.28801 -0.0139377 127 0 255
-0.311157 -0.482203 0.268777 127 0 255
0.258283 -0.240162 -0.00926023 127 0 255
0.355671 -0.207615 0.202867 127 0 255
-0.266087 -0.338424 0.132225 127 0 255
-0.116413 -0.471008 0.142751 127 0 255
-0.154132 -0.269677 -0.00937862 127 0 255
-0.244492 -0.484457 0.0286361 127 0 255
-0.45668 -0.371743 0.174911 127 0 255
0.0192236 -0.484794 0.0616382 127 0 255
0.323002 -0.252358 0.289409 127 0 255
0.241337 -0.451961 0.0278899 127 0 255
-0.318714 -0.32708 -0.00827502 127 0 255
-0.0428056 -0.484608 0.211804 127 0 255
0.106295 -0.448466 0.00297144 127 0 255
-0.218537 -0.404302 0.240564 127 0 255
0.355292 -0.289787 0.000885934 127 0 255
-0.0305534 -0.481743 0.284521 127 0 255
0.192748 -0.485779 0.303047 127 0 255
0.224673 -0.387301 0.337463 127 0 255
0.240297 -0.485109 0.213859 127 0 255
0.309861 -0.48345 0.155799 127 0 255
-0.308439 -0.392905 -0.00792706 127 0 255
-0.232757 -0.268119 -0.00770634 127 0 255
0.164598 -0.483086 0.197196 127 0 255
-0.349477 -0.404187 0.285941 127 0 255
0.0990642 -0.386129 0.00104162 127 0 255
0.344387 -0.397741 0.0861837 127 0 255
0.354394 -0.213739 0.0418824 127 0 255
-0.0817171 -0.482411 0.361228 127 0 255
0.296565 -0.483203 0.339349 127 0 255
0.0321975 -0.205118 -0.00702528 127 0 255
-0.20342 -0.440952 0.151768 127 0 255
0.299393 -0.346674 0.264253 127 0 255
0.292815 -0.436467 0.254924 127 0 255
0.358283 -0.393756 -0.00888337 127 0 255
-0.182053 -0.361552 0.148197 127 0 255
-0.298878 -0.484338 0.178991 127 0 255
0.174673 -0.374801 0.249963 127 0 255
-0.340711 -0.442426 -0.0106145 127 0 255
0.348096 -0.479705 -0.00153485 127 0 255
0.360284 -0.421726 0.265648 127 0 255
-0.356851 -0.345512 0.262572 127 0 255
0.0813909 -0.482494 0.357303 127 0 255
-0.214501 -0.349345 0.0347545 127 0 255
0.158212 -0.482573 0.0378579 127 0 255
0.130037 -0.48672 0.151102 127 0 255
0.0806763 -0.484883 0.0106567 127 0 255
-0.393344 -0.389642 -0.00350754 127 0 255
-0.0269771 -0.417455 0.0052416 127 0 255
0.207071 -0.443536 -0.0114089 127 0 255
-0.222499 -0.444055 0.272163 127 0 255
0.0549576 -0.484662 0.191052 127 0 255
-0.134606 -0.432673 0.0665833 127 0 255
0.364427 -0.355904 0.226186 127 0 255
-0.291937 -0.328736 0.173095 127 0 255
0.374673 -0.199806 0.299966 127 0 255
-0.360486 -0.334396 0.0247663 127 0 255
0.268485 -0.365946 -0.0103792 127 0 255
0.0583653 -0.363155 0.00370966 127 0 255
-0.0452734 -0.215108 0.00767261 127 0 255
0.0586481 -0.47527 0.288833 127 0 255
-0.39356 -0.450076 0.168918 127 0 255
0.333584 -0.276197 0.155502 127 0 255
-0.259778 -0.206055 -1.95624e-05 127 0 255
-0.361303 -0.354677 0.207802 127 0 255
-0.21886 -0.481124 0.327666 127 0 255
-0.399986 -0.482002 0.101326 127 0 255
0.332144 -0.482936 0.0570128 127 0 255
-0.0900388 -0.325914 0.0166597 127 0 255
0.307088 -0.195026 0.021348 127 0 255
0.189803 -0.470388 0.0848806 127 0 255
-0.220189 -0.299639 0.0431736 127 0 255
-0.241403 -0.404862 0.0121813 127 0 255
0.100909 -0.196185 -0.0143132 127 0 255
0.360077 -0.201539 0.0936689 127 0 255
0.137615 -0.352393 -0.00161817 127 0 255
-0.387562 -0.347601 0.141256 127 0 255
-0.443245 -0.419247 0.135505 127 0 255
-0.408997 -0.419153 0.217453 127 0 255
0.290336 -0.384419 0.316714 127 0 255
-0.299792 -0.425681 0.299935 127 0 255
0.276063 -0.42128 0.0275299 127 0 255
-0.0737149 -0.475846 0.279055 127 0 255
-0.252172 -0.484648 0.0996528 127 0 255
0.352916 -0.478534 0.208786 127 0 255
-0.395681 -0.481809 0.0474062 127 0 255
0.221558 -0.310215 0.00395929 127 0 255
-0.348462 -0.483471 0.141998 127 0 255
-0.16053 -0.482383 0.370135 127 0 255
-0.251218 -0.484763 0.246703 127 0 255
0.366915 -0.265061 0.0662046 127 0 255
-0.0756884 -0.431433 0.00780427 127 0 255
-0.313596 -0.295166 0.0281652 127 0 255
0.0306137 -0.441695 0.00877542 127 0 255
0.180986 -0.487061 0.145323 127 0 255
-0.206438 -0.319195 -0.0107288 127 0 255
-0.368309 -0.357363 0.0784567 127 0 255
-0.0795694 -0.475149 0.17225 127 0 255
0.319855 -0.362454 0.0716915 127 0 255
-0.299225 -0.38046 0.0983999 127 0 255
0.343591 -0.453214 0.0972798 127 0 255
0.314841 -0.316225 -0.0273782 127 0 255
0.321347 -0.318203 0.319156 127 0 255
0.328283 -0.383607 0.152763 127 0 255
0.0803807 -0.464515 0.106007 127 0 255
-0.211308 -0.427782 0.194355 127 0 255
-0.280123 -0.359744 0.271537 127 0 255
0.143414 -0.484007 0.355181 127 0 255
0.287256 -0.484601 0.266026 127 0 255
0.361521 -0.241808 0.214259 127 0 255
0.224673 -0.374797 0.23746 127 0 255
-0.0823679 -0.237507 -0.0165527 127 0 255
0.012751 -0.473286 0.267308 127 0 255
0.158243 -0.493415 0.234656 127 0 255
-0.233743 -0.350782 0.164863 127 0 255
-0.18825 -0.481897 0.00798416 127 0 255
0.264135 -0.270618 0.00219799 127 0 255
0.276373 -0.483257 0.0537779 127 0 255
-0.313532 -0.375797 0.220074 127 0 255
0.359595 -0.464458 0.282469 127 0 255
-0.425327 -0.362274 0.287446 127 0 255
-0.203338 -0.341475 0.106198 127 0 255
0.131123 -0.221142 0.00763411 127 0 255
-0.439673 -0.434555 0.0814256 127 0 255
-0.340748 -0.48323 -0.0101502 127 0 255
-0.144464 -0.395158 -0.0116736 127 0 255
0.0525019 -0.245227 -0.0146067 127 0 255
-0.137827 -0.324801 0.124963 127 0 255
-0.350729 -0.422973 0.041483 127 0 255
-0.443058 -0.342044 0.169874 127 0 255
-0.433569 -0.479297 0.0115281 127 0 255
0.0784589 -0.318168 0.000820154 127 0 255
0.166582 -0.305479 -0.010501 127 0 255
-0.113776 -0.484004 0.0873615 127 0 255
0.187173 -0.387302 0.312464 127 0 255
-0.343044 -0.433695 0.265731 127 0 255
-0.124787 -0.39218 0.0538299 127 0 255
0.23704 -0.1966 0.000767521 127 0 255
0.185873 -0.408926 0.0103456 127 0 255
-0.241308 -0.447957 -0.0119237 127 0 255
0.109285 -0.485586 0.304045 127 0 255
-0.0495069 -0.482413 0.0879888 127 0 255
0.224986 -0.449385 0.276046 127 0 255
-0.193578 -0.484223 0.178906 127 0 255
-0.11743 -0.485142 0.31357 127 0 255
-0.122066 -0.302423 -0.00973504 127 0 255
-0.426729 -0.374996 0.0676514 127 0 255
0.327026 -0.287657 0.105264 127 0 255
-0.280674 -0.482333 0.308332 127 0 255
0.371816 -0.425008 0.170835 127 0 255
0.37767 -0.362351 0.0259882 127 0 255
-0.0127378 -0.482676 0.00474431 127 0 255
0.378756 -0.348474 0.121833 127 0 255
-0.207528 -0.223017 -0.010498 127 0 255
0.328621 -0.329605 0.17799 127 0 255
-0.282737 -0.383663 0.151389 127 0 255
-0.343138 -0.467202 0.19428 127 0 255
0.0022044 -0.485568 0.186093 127 0 255
0.0167889 -0.485206 0.325507 127 0 255
-0.25208 -0.343878 0.0688054 127 0 255
0.354694 -0.362599 0.305997 127 0 255
0.0194211 -0.3858 -0.0178362 127 0 255
-0.344385 -0.21844 0.00692137 127 0 255
-0.0852026 -0.350321 -0.0179767 127 0 255
-0.162086 -0.271274 0.0192976 127 0 255
0.371623 -0.427736 0.0785294 127 0 255
0.363597 -0.291251 0.265714 127 0 255
-0.169255 -0.428423 0.0275823 127 0 255
-0.413792 -0.412993 0.02495 127 0 255
0.314626 -0.415285 0.335839 127 0 255
-0.303329 -0.485564 0.0565923 127 0 255
-0.285768 -0.350524 -0.00857415 127 0 255
-0.177709 -0.44798 0.108889 127 0 255
-0.337827 -0.31229 0.287456 127 0 255
0.00376683 -0.276839 -0.0152087 127 0 255
0.372001 -0.481261 0.156075 127 0 255
-0.134835 -0.48476 0.179359 127 0 255
-0.284974 -0.473044 -0.0132113 127 0 255
0.229702 -0.467102 0.11719 127 0 255
-0.43952 -0.359716 0.111567 127 0 255
-0.0671727 -0.475333 0.234738 127 0 255
0.297686 -0.432747 0.226113 127 0 255
0.317667 -0.419929 0.112525 127 0 255
-0.270155 -0.447099 0.262156 127 0 255
0.313819 -0.198805 -0.00946375 127 0 255
0.124064 -0.476074 0.0668755 127 0 255
0.255972 -0.407172 -0.0130231 127 0 255
-0.196321 -0.375583 0.194543 127 0 255
0.358899 -0.211703 0.1613 127 0 255
-0.308844 -0.322436 0.220284 127 0 255
0.118566 -0.478457 -0.0140907 127 0 255
0.249531 -0.484588 0.302788 127 0 255
-0.212778 -0.358398 -0.0118549 127 0 255
0.32855 -0.368912 0.208065 127 0 255
-0.296021 -0.392395 0.0275236 127 0 255
0.201589 -0.476471 0.354142 127 0 255
0.0818468 -0.416951 -0.0217596 127 0 255
-0.34526 -0.292875 0.0123313 127 0 255
0.373246 -0.300967 0.0901681 127 0 255
-0.13864 -0.440035 -0.0159753 127 0 255
0.344559 -0.474429 0.320979 127 0 255
-0.333108 -0.424785 0.0806404 127 0 255
0.208386 -0.481327 0.0383241 127 0 255
0.331039 -0.261332 0.209326 127 0 255
-0.0216811 -0.347264 0.0100825 127 0 255
-0.0441726 -0.483871 0.365361 127 0 255
0.203939 -0.482394 0.215896 127 0 255
0.315826 -0.482298 -0.00728927 127 0 255
0.0238231 -0.485627 0.117154 127 0 255
-0.277319 -0.28348 0.0208097 127 0 255
0.160235 -0.39669 -0.0164987 127 0 255
0.353066 -0.258104 0.0361903 127 0 255
-0.360151 -0.378123 -0.00628559 127 0 255
0.191723 -0.247588 0.00661262 127 0 255
-0.109278 -0.484221 0.00509793 127 0 255
-0.24774 -0.359019 0.253822 127 0 255
-0.0688363 -0.448871 -0.0219176 127 0 255
0.312824 -0.272555 -0.00955812 127 0 255
0.311227 -0.481974 0.106102 127 0 255
0.373818 -0.257051 0.125445 127 0 255
0.136875 -0.267029 -0.00941425 127 0 255
-0.287421 -0.330352 0.0891722 127 0 255
0.374958 -0.442823 0.0279834 127 0 255
-0.318252 -0.48356 0.0975332 127 0 255
-0.251552 -0.484345 0.182647 127 0 255
0.26363 -0.465445 0.195288 127 0 255
0.216822 -0.364294 -0.0115401 127 0 255
-0.171327 -0.485196 0.307659 127 0 255
-0.35019 -0.38044 0.158488 127 0 255
0.253275 -0.494705 0.0158538 127 0 255
-0.449968 -0.372499 0.203523 127 0 255
0.369467 -0.403162 0.237669 127 0 255
0.187173 -0.424806 0.349966 127 0 255
-0.0496695 -0.484902 0.152654 127 0 255
-0.0361052 -0.484 0.0366169 127 0 255
0.372975 -0.472691 0.106638 127 0 255
-0.192014 -0.484085 0.07536 127 0 255
-0.186019 -0.484931 0.240933 127 0 255
-0.157284 -0.323154 0.0367826 127 0 255
-0.115064 -0.48252 0.351934 127 0 255
-0.151515 -0.214995 -0.00545385 127 0 255
-0.265666 -0.45316 0.113301 127 0 255
0.301605 -0.410915 0.0564374 127 0 255
-0.412827 -0.299774 0.287446 127 0 255
0.36169 -0.246083 0.259187 127 0 255
-0.275327 -0.299798 0.287461 127 0 255
0.088852 -0.473937 0.275015 127 0 255
0.00495297 -0.23031 0.0147844 127 0 255
0.0197337 -0.486868 -0.00104977 127 0 255
0.341131 -0.339688 0.105712 127 0 255
0.274685 -0.329026 -0.00435193 127 0 255
-0.25785 -0.482041 0.0548505 127 0 255
-0.179579 -0.374261 0.048121 127 0 255
0.125035 -0.482379 0.188892 127 0 255
-0.0606402 -0.283301 -0.010276 127 0 255
-0.22258 -0.482343 0.352071 127 0 255
-0.25699 -0.386452 -0.0107591 127 0 255
-0.117953 -0.481661 0.229664 127 0 255
0.0568783 -0.485489 0.0697262 127 0 255
-0.318966 -0.439962 0.145178 127 0 255
-0.425231 -0.324283 0.212128 127 0 255
0.377132 -0.39495 0.112125 127 0 255
0.288586 -0.361248 0.280202 127 0 255
-0.313166 -0.349938 0.134371 127 0 255
0.19233 -0.488896 0.269201 127 0 255
0.325997 -0.279078 0.064578 127 0 255
0.324833 -0.380297 0.00733935 127 0 255
-0.157934 -0.370668 0.125125 127 0 255
0.362546 -0.338423 0.25291 127 0 255
0.237173 -0.424792 0.237457 127 0 255
-0.233539 -0.404641 0.0454855 127 0 255
-0.426716 -0.474414 0.0946156 127 0 255
0.367757 -0.277231 0.169236 127 0 255
-0.382373 -0.4437 0.0114848 127 0 255
0.232926 -0.483132 0.0746695 127 0 255
-0.24884 -0.402713 0.26028 127 0 255
0.372097 -0.357785 0.175787 127 0 255
-0.307394 -0.232673 -0.00124523 127 0 255
-0.0824679 -0.2122 0.00589253 127 0 255
-0.308769 -0.426444 -0.00885914 127 0 255
0.153858 -0.442028 -0.014971 127 0 255
0.330595 -0.483444 0.186099 127 0 255
0.361289 -0.304738 0.00590487 127 0 255
-0.0454205 -0.402052 0.00723756 127 0 255
-0.114228 -0.486967 0.116515 127 0 255
0.262102 -0.486877 0.160264 127 0 255
-0.0354981 -0.476831 0.31408 127 0 255
0.33214 -0.25495 0.30155 127 0 255
0.350355 -0.415958 0.31355 127 0 255
0.0367742 -0.486281 0.154807 127 0 255
0.144495 -0.493768 0.0131826 127 0 255
-0.0113831 -0.299484 0.0114792 127 0 255
-0.360921 -0.265568 -0.00577457 127 0 255
-0.240242 -0.486556 0.140097 127 0 255
0.262839 -0.455057 -0.0105011 127 0 255
-0.321901 -0.393624 0.290502 127 0 255
0.095881 -0.273591 -2.68444e-05 127 0 255
-0.157234 -0.355488 -0.0118717 127 0 255
0.252282 -0.484786 0.251369 127 0 255
0.16832 -0.482273 0.103245 127 0 255
-0.0914943 -0.469163 0.0419833 127 0 255
-0.23569 -0.309395 -0.00979052 127 0 255
-0.097711 -0.41052 -0.0176695 127 0 255
0.321039 -0.33126 0.0416615 127 0 255
0.0988188 -0.48642 0.141221 127 0 255
-0.195763 -0.466732 -0.0174611 127 0 255
-0.449623 -0.400771 0.100484 127 0 255
0.0791974 -0.479794 0.219566 127 0 255
0.209919 -0.488354 0.176132 127 0 255
-0.286309 -0.482307 0.227253 127 0 255
-0.00478803 -0.478169 0.219177 127 0 255
0.0977902 -0.351829 -0.014598 127 0 255
-0.398404 -0.339339 0.041623 127 0 255
0.163862 -0.201804 -0.0122985 127 0 255
0.344933 -0.235788 0.0967296 127 0 255
-0.386045 -0.425395 0.243305 127 0 255
-0.342892 -0.486115 0.0553735 127 0 255
-0.0986594 -0.259942 0.0108402 127 0 255
0.0496741 -0.450738 -0.0175649 127 0 255
0.114036 -0.483857 0.352441 127 0 255
-0.0158652 -0.477615 0.0921515 127 0 255
-0.247964 -0.351239 0.212843 127 0 255
0.263826 -0.203931 -0.00687771 127 0 255
0.236999 -0.484666 0.341841 127 0 255
0.0147332 -0.349108 -0.0153052 127 0 255
0.333018 -0.311623 0.237082 127 0 255
-0.377108 -0.481923 0.159696 127 0 255
-0.319135 -0.39936 0.183979 127 0 255
-0.149888 -0.481388 0.0453941 127 0 255
-0.195881 -0.412451 0.117629 127 0 255
0.371632 -0.37269 0.0624578 127 0 255
-0.233171 -0.446328 0.0163585 127 0 255
0.321518 -0.436169 0.150781 127 0 255
0.0462945 -0.482636 0.347687 127 0 255
-0.215661 -0.484942 0.277951 127 0 255
0.27893 -0.437197 0.332566 127 0 255
0.15025 -0.482217 0.307117 127 0 255
-0.238093 -0.224197 -0.0107661 127 0 255
-0.329327 -0.358178 0.0566355 127 0 255
0.0782776 -0.48254 0.0310499 127 0 255
0.240924 -0.270737 -0.0132902 127 0 255
-0.00693039 -0.435194 -0.0230371 127 0 255
-0.0268628 -0.243143 -0.018327 127 0 255
-0.357695 -0.321424 -0.00782245 127 0 255
0.0536946 -0.3896 0.00533037 127 0 255
0.366078 -0.449536 0.232763 127 0 255
-0.384472 -0.356277 0.120863 127 0 255
0.335469 -0.2215 0.254952 127 0 255
-0.1431 -0.416874 0.0911994 127 0 255
-0.381502 -0.363576 0.25729 127 0 255
0.318533 -0.432707 0.0299377 127 0 255
-0.152688 -0.349095 0.073829 127 0 255
0.281794 -0.395881 0.277958 127 0 255
0.0921422 -0.212637 0.0061414 127 0 255
-0.199191 -0.414159 -0.0158539 127 0 255
0.0417744 -0.488223 0.270656 127 0 255
0.370561 -0.401325 0.187211 127 0 255
-0.370056 -0.472662 -0.0129442 127 0 255
0.101656 -0.486224 0.0934805 127 0 255
0.324846 -0.239795 0.152104 127 0 255
0.325483 -0.343665 0.324188 127 0 255
0.128394 -0.413655 -0.000195113 127 0 255
-0.432126 -0.441833 0.0435626 127 0 255
-0.213184 -0.42987 0.247263 127 0 255
-0.316378 -0.444359 0.282583 127 0 255
0.374673 -0.224801 -3.69381e-05 127 0 255
-0.282757 -0.39511 0.217874 127 0 255
-0.417947 -0.439848 0.148514 127 0 255
-0.13132 -0.484925 0.28374 127 0 255
-0.225443 -0.332377 0.0949035 127 0 255
0.308828 -0.483324 0.0253422 127 0 255
-0.208561 -0.484292 0.0313067 127 0 255
-0.456456 -0.386886 0.160197 127 0 255
0.322059 -0.459348 0.254735 127 0 255
0.186681 -0.323258 0.00194254 127 0 255
0.135608 -0.491934 0.222359 127 0 255
-0.254899 -0.481849 -0.0152653 127 0 255
-0.360939 -0.483172 0.112236 127 0 255
-0.100166 -0.375805 0.0154228 127 0 255
-0.154659 -0.469103 0.200874 127 0 255
0.208812 -0.479312 -0.0114163 127 0 255
-0.383264 -0.352001 0.209827 127 0 255
0.365076 -0.473873 0.0327927 127 0 255
0.37596 -0.314641 0.142964 127 0 255
-0.0489007 -0.482362 -0.0154817 127 0 255
0.270227 -0.457575 0.0671812 127 0 255
-0.137827 -0.324804 0.162465 127 0 255
-0.0213893 -0.472196 0.147689 127 0 255
-0.322512 -0.356215 -0.00856306 127 0 255
-0.298553 -0.48555 0.128908 127 0 255
-0.240157 -0.276526 0.0173575 127 0 255
0.262619 -0.462571 0.135634 127 0 255
-0.302944 -0.358013 0.27699 127 0 255
0.305514 -0.483584 0.335204 127 0 255
-0.261239 -0.435113 0.29735 127 0 255
0.0245419 -0.305918 -0.016299 127 0 255
0.136898 -0.309597 -0.0101712 127 0 255
0.352423 -0.205498 0.2195 127 0 255
0.214252 -0.419123 -0.0118354 127 0 255
0.282585 -0.396473 0.0238071 127 0 255
-0.0501667 -0.364018 -0.0183875 127 0 255
-0.016929 -0.483683 0.35141 127 0 255
-0.302816 -0.437097 0.0357946 127 0 255
0.359783 -0.308966 0.0435876 127 0 255
-0.299829 -0.296205 -0.00664873 127 0 255
-0.209586 -0.426416 0.180629 127 0 255
0.375769 -0.444339 0.137043 127 0 255
-0.145388 -0.255191 -0.0100116 127 0 255
-0.352973 -0.386759 0.07373 127 0 255
-0.174771 -0.483617 0.124673 127 0 255
0.335001 -0.19604 0.00342373 127 0 255
-0.260769 -0.345009 0.0365779 127 0 255
-0.241998 -0.340829 0.135295 127 0 255
-0.119855 -0.322013 0.018828 127 0 255
-0.0760541 -0.488131 0.0811885 127 0 255
-0.0811789 -0.47527 0.332322 127 0 255
0.0167835 -0.482274 0.04431 127 0 255
-0.0159576 -0.207994 -0.00965102 127 0 255
-0.281079 -0.336351 0.215152 127 0 255
-0.403044 -0.368699 0.0288575 127 0 255
0.355713 -0.445688 -0.00662531 127 0 255
-0.449011 -0.356075 0.137255 127 0 255
-0.0762988 -0.481516 0.203621 127 0 255
-0.184012 -0.378069 0.161102 127 0 255
-0.30968 -0.484253 0.189827 127 0 255
0.249611 -0.326438 -0.000612946 127 0 255
0.340791 -0.285923 0.305592 127 0 255
0.312033 -0.411635 0.221014 127 0 255
-0.212641 -0.465105 0.0843649 127 0 255
-0.42342 -0.481356 0.0491849 127 0 255
0.336666 -0.406769 0.288766 127 0 255
-0.0392207 -0.48487 0.254981 127 0 255
0.303405 -0.24396 -0.00644868 127 0 255
-0.336065 -0.358482 0.186994 127 0 255
-0.274314 -0.24489 0.0128258 127 0 255
0.355086 -0.20951 0.0511443 127 0 255
-0.301212 -0.485088 0.0246086 127 0 255
-0.370131 -0.409143 -0.00433735 127 0 255
-0.167688 -0.316395 -0.0112843 127 0 255
0.312101 -0.483445 0.229478 127 0 255
0.187173 -0.424797 0.28746 127 0 255
-0.0481506 -0.322147 -0.0118963 127 0 255
-0.207593 -0.418519 0.0463854 127 0 255
-0.108642 -0.447165 0.00836889 127 0 255
-0.368278 -0.451527 0.051225 127 0 255
0.355902 -0.365797 -0.000628475 127 0 255
-0.217236 -0.306256 0.0508649 127 0 255
0.335168 -0.485186 0.291692 127 0 255
0.363331 -0.332409 0.279265 127 0 255
0.0103177 -0.390188 0.00400848 127 0 255
-0.220685 -0.484634 0.223296 127 0 255
0.25445 -0.428683 0.281579 127 0 255
-0.0398152 -0.45153 0.0123751 127 0 255
0.0571296 -0.241769 -0.0146295 127 0 255
-0.169818 -0.431434 -0.017125 127 0 255
0.0335957 -0.478766 0.220241 127 0 255
-0.175973 -0.482295 0.355872 127 0 255
