ply
format ascii 1.0
comment Created by Open3D
element vertex 1194
property double x
property double y
property double z
property uchar red
property uchar green
property uchar blue
end_header
0.130478 -0.483639 0.00532796 127 0 255
-0.155543 -0.483007 0.21172 127 0 255
-0.262347 0.0242058 0.168187 115 18 254
-0.0949367 -0.419798 -0.0584742 127 0 255
-0.271487 -0.0681154 0.0807616 127 0 255
-0.149257 -0.244565 -0.0586083 127 0 255
0.196285 -0.202482 -0.0578779 127 0 255
-0.249475 -0.48269 0.126289 127 0 255
-0.2729 -0.399344 0.0262538 127 0 255
0.206361 -0.358014 -0.048073 127 0 255
0.29105 -0.0786244 -0.0583787 127 0 255
0.0207923 -0.480354 -0.0524263 127 0 255
-0.00896191 -0.485949 0.117474 127 0 255
-0.109823 -0.482668 0.143601 127 0 255
-0.125327 -0.3373 0.212462 127 0 255
-0.199386 -0.37612 0.304599 127 0 255
-0.276059 -0.0430049 -0.0106602 127 0 255
0.185597 -0.483251 0.0351756 127 0 255
0.290856 -0.441786 -0.0579156 127 0 255
-0.19226 -0.354145 -0.0574959 127 0 255
0.179417 -0.048266 -0.068285 127 0 255
-0.27041 -0.227103 0.227481 127 0 255
-0.186488 -0.482378 0.136176 127 0 255
0.108749 -0.204257 -0.0555263 127 0 255
0.338566 -0.292082 -0.0173801 127 0 255
-0.263133 -0.085241 0.250327 127 0 255
-0.183929 0.0145239 -0.0658535 121 9 254
-0.172912 -0.482661 0.0610656 127 0 255
-0.267965 -0.0954314 0.168102 127 0 255
0.166086 -0.123123 -0.0566041 127 0 255
-0.0485146 -0.483347 0.188678 127 0 255
-0.247263 0.0564637 -0.0150749 99 43 254
0.297403 -0.136967 -0.0662019 127 0 255
-0.274608 -0.346536 0.115289 127 0 255
-0.269133 -0.425315 0.278791 127 0 255
-0.240977 -0.343745 0.226583 127 0 255
-0.102713 -0.482555 0.00179636 127 0 255
-0.271935 -0.343032 -0.0391282 127 0 255
-0.173526 -0.383252 0.190498 127 0 255
0.20954 -0.3019 -0.0607939 127 0 255
-0.0415525 -0.401996 0.321134 127 0 255
-0.11498 -0.483309 0.333378 127 0 255
-0.269304 -0.263681 0.0408691 127 0 255
-0.192611 -0.177429 -0.0556731 127 0 255
0.105783 -0.134819 -0.0573913 127 0 255
0.089534 -0.445031 -0.0492447 127 0 255
-0.275327 -0.487274 -0.0750543 127 0 255
0.118031 -0.484669 0.0942287 127 0 255
-0.268645 -0.0212639 -0.0629007 127 0 255
-0.0598778 -0.384881 0.207843 127 0 255
0.177838 -0.449178 -0.0699874 127 0 255
-0.123101 -0.403832 0.345479 127 0 255
-0.224549 -0.482862 0.209135 127 0 255
-0.275327 -0.124787 0.312454 127 0 255
-0.138382 -0.106781 -0.0654833 127 0 255
0.249901 -0.483285 0.00100099 127 0 255
-0.0271289 -0.28892 -0.0642643 127 0 255
0.269604 -0.328655 -0.0486484 127 0 255
-0.27201 -0.199616 0.0683487 127 0 255
-0.0834261 -0.178122 -0.0519405 127 0 255
0.152368 -0.337481 -0.0403869 127 0 255
-0.259374 -0.233974 0.177332 127 0 255
0.0619053 -0.482398 0.00949709 127 0 255
-0.263415 -0.342626 0.29032 127 0 255
0.117528 -0.261356 -0.054945 127 0 255
0.362173 -0.249774 -0.0750543 127 0 255
-0.264242 -0.482593 0.274746 127 0 255
-0.273739 -0.156346 -0.0180474 127 0 255
0.256583 -0.195477 -0.068094 127 0 255
0.307324 -0.398391 -0.0686367 127 0 255
-0.191774 -0.0300377 -0.0657091 127 0 255
0.0457112 0.00121298 -0.0623834 127 0 255
-0.235344 -0.482907 0.0423288 127 0 255
0.350823 -0.430675 0.016605 127 0 255
-0.254364 -0.19731 0.284207 127 0 255
0.208229 -0.394933 0.0251691 127 0 255
-0.0726735 -0.483411 0.240388 127 0 255
-0.273354 -0.42164 -0.0568614 127 0 255
0.149673 -0.487274 0.224946 127 0 255
0.00867568 -0.349626 -0.0521869 127 0 255
-0.265849 -0.287564 -0.0160601 127 0 255
-0.0828661 -0.0148722 -0.0561698 127 0 255
-0.0854978 -0.303322 -0.0606835 127 0 255
0.00287003 -0.484036 0.218193 127 0 255
0.0678093 -0.305292 -0.0704814 127 0 255
-0.0987868 -0.481855 -0.0541227 127 0 255
-0.270854 -0.285038 0.22044 127 0 255
-0.0163487 -0.210022 -0.0712518 127 0 255
-0.0213947 -0.484066 0.336889 127 0 255
0.131632 -0.0901235 -0.0696664 127 0 255
-0.203659 0.0642535 -0.0465276 95 49 253
-0.263929 -0.00779413 0.0755687 127 0 255
-0.260591 0.0609889 0.0378365 97 46 253
-0.201653 -0.426196 -0.0681259 127 0 255
0.0741472 -0.401463 -0.0696398 127 0 255
-0.260792 -0.100827 -0.0605904 127 0 255
0.00438792 -0.116508 -0.0563652 127 0 255
0.0642898 -0.170582 -0.069198 127 0 255
-0.275208 -0.121484 0.0210495 127 0 255
-0.272929 -0.018863 0.161714 127 0 255
0.223162 -0.398498 -0.0491822 127 0 255
0.0645501 -0.0713363 -0.0716947 127 0 255
0.260073 -0.116302 -0.0520147 127 0 255
-0.0172368 -0.0194377 -0.0626324 127 0 255
-0.272872 -0.326733 0.167137 127 0 255
-0.276716 -0.464388 -0.00857289 127 0 255
-0.26721 -0.345576 0.0616334 127 0 255
-0.047652 -0.482801 0.0244358 127 0 255
0.0560266 -0.238928 -0.0708332 127 0 255
-0.197621 -0.483411 0.298499 127 0 255
-0.16667 -0.307866 -0.0571305 127 0 255
0.162173 -0.399774 0.0624457 127 0 255
-0.273805 -0.226849 0.0126477 127 0 255
0.270847 -0.259266 -0.0650177 127 0 255
0.0593581 -0.483388 0.148491 127 0 255
0.312439 -0.402919 0.064674 127 0 255
-0.13281 -0.0605672 -0.055474 127 0 255
-0.248456 -0.123891 0.243638 127 0 255
-0.268106 -0.43882 0.126234 127 0 255
-0.229446 -0.261173 -0.0540963 127 0 255
-0.019772 -0.414416 0.266657 127 0 255
0.135761 -0.472145 -0.0665372 127 0 255
-0.0383587 -0.402002 -0.0544423 127 0 255
-0.241883 -0.37974 0.250152 127 0 255
-0.113024 -0.381942 0.265161 127 0 255
0.226085 -0.0606591 -0.0688748 127 0 255
-0.050691 -0.483814 0.29373 127 0 255
0.337276 -0.109661 -0.0539006 127 0 255
0.234469 -0.460332 -0.0685933 127 0 255
0.15674 -0.227378 -0.0524917 127 0 255
-0.146218 -0.393836 -0.06023 127 0 255
-0.270657 0.0171477 -0.0316293 119 12 254
-0.147573 -0.463666 0.165952 127 0 255
0.326085 -0.301327 -0.0701506 127 0 255
-0.0895183 -0.482337 0.098524 127 0 255
-0.27357 -0.152767 0.0576613 127 0 255
-0.26262 -0.0509701 0.0348058 127 0 255
-0.23743 -0.348236 -0.0590966 127 0 255
-0.270571 -0.169777 0.138641 127 0 255
-0.264377 -0.446326 0.070989 127 0 255
-0.0391137 -0.089804 -0.0639308 127 0 255
-0.000327143 -0.449804 0.374965 127 0 255
0.0297776 -0.406897 -0.0551317 127 0 255
0.337224 -0.37148 -0.0657727 127 0 255
-0.276475 -0.438126 0.220085 127 0 255
0.122281 -0.0235932 -0.0631955 127 0 255
-0.262919 0.0353417 0.112886 109 28 254
0.132795 -0.175047 -0.0551844 127 0 255
-0.270876 -0.103556 0.107487 127 0 255
0.141895 -0.41058 -0.0721678 127 0 255
-0.234867 -0.377666 0.172089 127 0 255
-0.135596 -0.160146 -0.0653598 127 0 255
-0.202236 -0.483231 0.253791 127 0 255
0.011168 -0.483058 0.00574806 127 0 255
0.1028 -0.484923 0.149352 127 0 255
0.153247 -0.470184 -0.0146919 127 0 255
-0.112524 -0.411725 0.187596 127 0 255
-0.0784867 -0.386405 0.295522 127 0 255
0.320699 -0.483341 -0.0383203 127 0 255
0.179029 -0.316941 -0.0686822 127 0 255
-0.212611 -0.482732 -0.0483998 127 0 255
0.340593 -0.325126 0.00620983 127 0 255
-0.233735 -0.162816 -0.0689918 127 0 255
-0.247658 -0.483931 0.169139 127 0 255
-0.106775 -0.482736 0.0525802 127 0 255
-0.0178371 -0.482986 0.0855505 127 0 255
0.257601 -0.381405 -0.0699478 127 0 255
-0.266851 -0.276105 0.0690992 127 0 255
0.199673 -0.487274 0.174946 127 0 255
0.334597 -0.160081 -0.0653236 127 0 255
0.354088 -0.389793 -0.0101974 127 0 255
0.218994 -0.182594 -0.0681219 127 0 255
-0.184363 -0.370884 0.26521 127 0 255
-0.25574 0.00403785 0.21334 125 3 254
-0.253299 -0.156081 0.213024 127 0 255
-0.0481402 -0.205511 -0.0543357 127 0 255
-0.16148 -0.482994 -0.0086979 127 0 255
-0.265542 -0.244519 0.128754 127 0 255
-0.274095 -0.00265903 0.0234194 127 0 255
-0.265892 -0.386953 0.0953707 127 0 255
-0.0100021 -0.263626 -0.054556 127 0 255
-0.202039 -0.384729 -0.0519183 127 0 255
0.0431438 -0.48328 0.0526871 127 0 255
-0.145409 0.0417277 -0.0625829 107 31 254
-0.271402 -0.0299868 0.108075 127 0 255
-0.00889515 -0.484038 0.252464 127 0 255
-0.255325 0.0442128 -0.061428 105 34 254
-0.269203 -0.210146 -0.0536707 127 0 255
-0.061072 -0.455768 -0.0654565 127 0 255
0.0655511 -0.340713 -0.0513704 127 0 255
-0.204727 -0.473468 0.0770349 127 0 255
-0.164361 -0.197071 -0.0536679 127 0 255
-0.146939 -0.474924 -0.0683318 127 0 255
0.276012 -0.400399 0.0543122 127 0 255
0.127712 -0.300199 -0.0726798 127 0 255
-0.134313 -0.323105 -0.0608118 127 0 255
-0.269593 -0.376504 0.284078 127 0 255
-0.269565 -0.378092 -0.0124082 127 0 255
-0.256502 -0.0587411 0.200104 127 0 255
-0.22604 -0.042974 -0.0571674 127 0 255
-0.244021 -0.30805 0.256733 127 0 255
0.181921 -0.109159 -0.0543419 127 0 255
-0.0301745 -0.343577 -0.0576244 127 0 255
-0.123162 -0.483179 0.27297 127 0 255
0.0306901 -0.0500382 -0.0568111 127 0 255
-0.262662 -0.287928 0.164815 127 0 255
-0.252051 -0.290626 -0.0656843 127 0 255
-0.25745 -0.0332959 0.262261 127 0 255
0.0460742 -0.468626 -0.0223302 127 0 255
0.237173 -0.487274 0.137446 127 0 255
-0.262432 -0.196423 0.171703 127 0 255
0.219668 -0.257029 -0.065946 127 0 255
-0.137339 -0.0237938 -0.0571458 127 0 255
-0.225379 -0.454237 0.326593 127 0 255
-0.10025 -0.387192 -0.0592582 127 0 255
-0.253818 -0.104288 0.275548 127 0 255
-0.0518933 -0.401995 0.341518 127 0 255
-0.182056 -0.243493 -0.0613619 127 0 255
-0.269513 -0.480605 0.116288 127 0 255
0.0998354 -0.483338 -0.0013066 127 0 255
-0.037827 -0.412293 0.149958 127 0 255
-0.112529 -0.482172 0.183356 127 0 255
0.344825 -0.26637 -0.0424885 127 0 255
0.148148 -0.485259 0.0894497 127 0 255
-0.000851456 -0.16414 -0.072269 127 0 255
0.0880396 -0.0899297 -0.0547027 127 0 255
0.192335 -0.359173 -0.0716506 127 0 255
-0.239627 -0.45366 0.259056 127 0 255
-0.0669921 0.0143724 -0.0579975 121 9 254
-0.0753271 -0.324801 0.174963 127 0 255
-0.273226 -0.229591 0.0763983 127 0 255
-0.056411 -0.411146 0.207946 127 0 255
-0.155736 -0.48357 0.336733 127 0 255
-0.266352 -0.373464 0.205776 127 0 255
-0.188558 -0.482714 0.196063 127 0 255
-0.261934 -0.178887 0.00528132 127 0 255
0.352921 -0.455718 -0.0141005 127 0 255
-0.248741 -0.27272 0.290173 127 0 255
-0.272075 -0.0832342 0.0538047 127 0 255
0.281856 -0.335205 -0.0668397 127 0 255
-0.119999 -0.235939 -0.0641465 127 0 255
-0.175727 -0.0914562 -0.0650067 127 0 255
-0.191842 -0.482976 0.119621 127 0 255
-0.270005 -0.421068 0.0314299 127 0 255
0.256587 -0.0868811 -0.0681251 127 0 255
-0.221517 -0.483227 -0.00764749 127 0 255
-0.27026 -0.421475 0.17472 127 0 255
-0.269788 -0.309917 0.0333681 127 0 255
-0.0735539 -0.0891694 -0.0628497 127 0 255
-0.0323268 -0.480783 -0.0137217 127 0 255
0.126361 -0.342769 -0.0646202 127 0 255
0.179134 -0.483199 -0.0274425 127 0 255
0.317738 -0.434204 -0.0620649 127 0 255
-0.275643 -0.0701924 -0.0265518 127 0 255
-0.271286 -0.211256 0.220258 127 0 255
-0.232867 -0.433063 -0.0531778 127 0 255
-0.257995 0.0240286 0.151302 115 18 254
0.0250633 -0.484307 0.209639 127 0 255
-0.0503271 -0.362301 0.249963 127 0 255
0.015672 -0.320866 -0.0662942 127 0 255
-0.0679455 -0.482917 0.146512 127 0 255
-0.273175 -0.331442 0.0876098 127 0 255
0.0265297 -0.482499 0.0862903 127 0 255
-0.162668 -0.476216 0.0293252 127 0 255
-0.270883 0.0413457 -0.00293071 107 31 254
0.246348 -0.302233 -0.0668754 127 0 255
-0.215553 -0.391416 0.304871 127 0 255
-0.259744 -0.16152 0.27551 127 0 255
0.328043 -0.212519 -0.0651583 127 0 255
-0.10606 -0.41001 0.351027 127 0 255
-0.25039 -0.380173 0.136703 127 0 255
-0.220741 -0.221301 -0.0561618 127 0 255
0.218658 -0.140072 -0.0543926 127 0 255
-0.201122 -0.317332 -0.0566331 127 0 255
-0.264635 -0.0964529 0.17923 127 0 255
-0.137827 -0.324799 0.187461 127 0 255
-0.261233 -0.369251 -0.0586106 127 0 255
-0.272195 -0.45941 0.289989 127 0 255
-0.171044 -0.144993 -0.0543181 127 0 255
0.037173 -0.487292 0.349957 127 0 255
0.172292 -0.257028 -0.0664699 127 0 255
-0.268168 -0.153708 0.0949561 127 0 255
0.184349 -0.0533931 -0.0528736 127 0 255
0.0276966 -0.00148444 -0.0569265 127 0 255
0.0645592 -0.204808 -0.0666938 127 0 255
0.272958 -0.483497 -0.0246765 127 0 255
0.0268177 -0.121741 -0.0722529 127 0 255
-0.0253271 -0.362298 0.187461 127 0 255
-0.0167564 -0.446872 -0.0519812 127 0 255
-0.0948383 -0.483281 0.237253 127 0 255
-0.220437 -0.00401598 -0.0567645 127 0 255
0.374673 -0.387274 0.0624457 127 0 255
-0.13652 -0.387163 0.189638 127 0 255
-0.251634 -0.128761 -0.0372523 127 0 255
0.198649 -0.404692 -0.0674083 127 0 255
-0.24181 -0.308284 0.212347 127 0 255
0.145672 -0.156193 -0.0555323 127 0 255
0.00585557 -0.380295 -0.0631337 127 0 255
0.198259 -0.374908 0.00109687 127 0 255
0.33035 -0.169442 -0.0355943 127 0 255
0.087173 -0.487281 0.29995 127 0 255
-0.0769239 -0.163756 -0.052548 127 0 255
-0.0963271 -0.283474 -0.0643489 127 0 255
0.0467899 -0.25958 -0.0531941 127 0 255
-0.0718979 -0.0425228 -0.0545727 127 0 255
-0.215532 -0.460808 0.164774 127 0 255
0.318403 -0.0900567 -0.0580906 127 0 255
-0.123484 -0.378974 0.313211 127 0 255
-0.272906 -0.238535 -0.0236982 127 0 255
0.260532 -0.179863 -0.0680394 127 0 255
-0.129693 -0.446436 -0.0616003 127 0 255
0.102075 -0.4689 -0.0638939 127 0 255
-0.276632 -0.45699 -0.0383275 127 0 255
-0.0800391 -0.480589 0.00646384 127 0 255
0.247888 -0.446352 -0.0701757 127 0 255
-0.199538 0.0499902 -0.0365481 103 37 254
0.329551 -0.33715 -0.0583732 127 0 255
-0.264076 -0.235109 0.276293 127 0 255
-0.000327037 -0.424792 0.237457 127 0 255
-0.258442 -0.0606681 0.112081 127 0 255
0.0422263 -0.484197 0.132742 127 0 255
-0.155369 -0.483218 0.241216 127 0 255
0.126948 -0.393696 -0.0443254 127 0 255
-0.187827 -0.324796 0.23746 127 0 255
0.0760544 -0.0171919 -0.0628192 127 0 255
-0.0559489 -0.483716 0.289536 127 0 255
0.198135 -0.483985 0.00369529 127 0 255
0.242359 -0.386875 0.0391705 127 0 255
-0.274083 -0.279469 0.117157 127 0 255
0.0532975 -0.434251 -0.067578 127 0 255
-0.27256 0.0532248 0.0572299 101 40 254
0.284499 -0.240586 -0.0646459 127 0 255
0.0731447 -0.124321 -0.0709887 127 0 255
-0.059648 -0.391052 0.286766 127 0 255
-0.219113 -0.394992 0.155695 127 0 255
-0.044957 -0.483066 0.0470223 127 0 255
-0.263361 0.0203032 0.191009 117 15 254
-0.0452516 -0.293432 -0.0532921 127 0 255
0.147818 -0.0661946 -0.0625064 127 0 255
-0.268715 -0.474092 0.226909 127 0 255
-0.272339 -0.467935 0.0377302 127 0 255
0.0684449 -0.370155 -0.0698591 127 0 255
-0.0143125 0.0189387 -0.0593205 119 12 254
-0.271939 -0.315242 -0.034558 127 0 255
0.124673 -0.437274 0.0624457 127 0 255
0.350597 -0.312839 -0.0165937 127 0 255
-0.270304 -0.146362 0.144282 127 0 255
0.104017 -0.26397 -0.0550157 127 0 255
-0.0252105 -0.150658 -0.0557493 127 0 255
-0.122504 -0.36686 -0.0595388 127 0 255
-0.0745241 -0.482182 -0.0547423 127 0 255
-0.0579743 -0.483417 0.196663 127 0 255
-0.100417 -0.113932 -0.0650797 127 0 255
-0.268839 -0.268886 0.23637 127 0 255
0.106995 -0.483234 0.142293 127 0 255
-0.225977 -0.109176 -0.0597899 127 0 255
-0.273117 -0.408644 0.243301 127 0 255
-0.005277 -0.483085 0.347091 127 0 255
-0.26784 -0.391629 0.0509443 127 0 255
-0.275075 -0.0285781 -0.0271488 127 0 255
-0.277034 -0.122447 0.00635073 127 0 255
-0.25327 -0.0686897 0.26686 127 0 255
-0.242336 0.0662046 -0.0446987 95 49 253
-0.170094 -0.0112007 -0.0565881 127 0 255
-0.267927 -0.340654 0.272463 127 0 255
0.201756 -0.459639 -0.0687789 127 0 255
0.195652 -0.227479 -0.0568746 127 0 255
-0.0578803 -0.412505 -0.0571892 127 0 255
0.0128449 -0.213955 -0.0575477 127 0 255
-0.083694 -0.244874 -0.0640622 127 0 255
0.0859666 -0.483423 0.0149142 127 0 255
-0.197083 -0.468683 0.329518 127 0 255
0.27651 -0.406749 -0.0700811 127 0 255
0.00608194 -0.0749981 -0.0614315 127 0 255
-0.27319 -0.185895 0.0372061 127 0 255
-0.0830771 -0.390345 0.187211 127 0 255
-0.272969 0.00701481 0.0836467 125 3 254
-0.271048 -0.150764 0.200705 127 0 255
-0.271296 -0.357745 0.147072 127 0 255
-0.25839 -0.400548 0.298656 127 0 255
0.298774 -0.415037 0.0593062 127 0 255
-0.1272 -0.482607 0.0294019 127 0 255
-0.124737 -0.483635 0.335974 127 0 255
-0.269952 -0.355941 0.0187913 127 0 255
-0.257622 -0.01539 0.247623 127 0 255
0.387173 -0.449774 0.0249457 127 0 255
0.00984579 -0.466926 -0.0308099 127 0 255
0.114055 -0.483298 0.0942856 127 0 255
0.144025 -0.483336 0.011205 127 0 255
-0.268711 -0.214855 0.122182 127 0 255
-0.0848484 -0.482673 0.11754 127 0 255
-0.164844 -0.485232 -0.0544551 127 0 255
-0.275621 -0.0714919 0.0211543 127 0 255
0.284422 -0.134301 -0.0663726 127 0 255
-0.103874 -0.00791527 -0.0563906 127 0 255
-0.165878 -0.482177 0.140245 127 0 255
-0.256135 -0.0365756 0.189214 127 0 255
-0.266936 -0.432426 0.106408 127 0 255
-0.169969 -0.379515 -0.0544848 127 0 255
-0.0534801 -0.341559 -0.0595462 127 0 255
0.231182 -0.348339 -0.0700418 127 0 255
-0.143364 -0.295634 -0.0632296 127 0 255
-0.254543 -0.196923 0.284098 127 0 255
-0.0302077 -0.428716 0.255728 127 0 255
-0.243951 -0.483266 -0.0333904 127 0 255
-0.176967 -0.372371 0.269397 127 0 255
-0.238898 -0.401457 -0.0587917 127 0 255
-0.2709 -0.1863 -0.0540385 127 0 255
0.224673 -0.287274 0.0124457 127 0 255
0.258503 -0.0673331 -0.0677638 127 0 255
0.138521 -0.462352 -0.0703033 127 0 255
-0.267288 -0.272135 0.167762 127 0 255
-0.202088 -0.0538021 -0.0649779 127 0 255
0.117542 -0.213399 -0.0675483 127 0 255
-0.273872 -0.261597 -0.0484775 127 0 255
0.195251 -0.138271 -0.0684212 127 0 255
0.0603068 -0.483317 0.0910818 127 0 255
-0.235035 -0.482602 0.0441874 127 0 255
0.1095 -0.0488251 -0.0563297 127 0 255
-0.260963 -0.00468852 -0.0671835 127 0 255
-0.119939 -0.461704 0.224071 127 0 255
-0.017627 -0.484432 0.288605 127 0 255
0.354654 -0.399048 -0.00490616 127 0 255
-0.212187 -0.483185 0.248683 127 0 255
0.00833015 -0.26803 -0.0650416 127 0 255
0.0406571 -0.484309 0.166959 127 0 255
-0.264473 -0.0982478 0.209587 127 0 255
-0.274228 -0.013726 0.0240345 127 0 255
-0.205783 -0.210492 -0.0659195 127 0 255
-0.00723845 -0.483284 0.105926 127 0 255
0.249905 -0.483464 -0.0111752 127 0 255
-0.015673 -0.0423167 -0.0591443 127 0 255
0.299839 -0.3003 -0.0665008 127 0 255
-0.261507 -0.465446 0.308765 127 0 255
0.080715 -0.322385 -0.0708364 127 0 255
-0.168408 0.0431672 -0.0623763 105 34 254
0.274673 -0.387274 -5.43091e-05 127 0 255
-0.254737 -0.432241 0.201441 127 0 255
0.166187 -0.345982 -0.072497 127 0 255
-0.129506 -0.0697525 -0.0561684 127 0 255
-0.245602 -0.323984 0.293593 127 0 255
0.333821 -0.43673 -0.0535544 127 0 255
-0.267419 -0.0827015 -0.0580687 127 0 255
-0.257197 0.0590595 0.0104191 97 46 253
-0.12181 -0.474982 -0.0126701 127 0 255
-0.263353 -0.0559211 0.138275 127 0 255
-0.269407 -0.483415 0.0848731 127 0 255
-0.134117 -0.204368 -0.0617872 127 0 255
0.11207 -0.426717 -0.0536535 127 0 255
0.00162731 -0.403553 -0.0681216 127 0 255
-0.174652 -0.441517 -0.0632712 127 0 255
-0.0290973 -0.232353 -0.0546185 127 0 255
-0.272915 -0.280934 -0.00175425 127 0 255
-0.0934892 -0.43907 -0.0624581 127 0 255
-0.207411 -0.282334 -0.0570982 127 0 255
0.334486 -0.366158 -0.0662237 127 0 255
-0.0132904 -0.482183 0.018143 127 0 255
-0.272172 -0.107057 0.0531136 127 0 255
-0.152098 -0.483228 0.272813 127 0 255
0.0779847 -0.161046 -0.057476 127 0 255
0.191728 -0.292858 -0.0494205 127 0 255
-0.270285 -0.333542 0.223337 127 0 255
-0.182034 -0.48325 0.0521841 127 0 255
0.338911 -0.117308 -0.0513641 127 0 255
-0.0832174 -0.384081 0.329326 127 0 255
-0.26198 -0.227983 0.180797 127 0 255
0.309568 -0.48329 -0.0195636 127 0 255
-0.161702 -0.386929 0.201398 127 0 255
-0.248025 -0.164709 0.240981 127 0 255
-0.269757 -0.309437 0.0877254 127 0 255
-0.132226 -0.130412 -0.0537615 127 0 255
0.0487883 -0.461542 -0.0630981 127 0 255
-0.276008 -0.203027 -0.0173137 127 0 255
0.179969 -0.400538 -0.0541957 127 0 255
-0.00646667 -0.483929 0.227355 127 0 255
0.267166 -0.210458 -0.0669348 127 0 255
0.1552 -0.4831 0.0927252 127 0 255
0.151503 -0.193052 -0.068872 127 0 255
-0.219457 -0.482377 0.152914 127 0 255
0.351279 -0.338948 -0.0148761 127 0 255
0.037847 -0.33816 -0.0510263 127 0 255
-0.263899 0.034837 0.104173 111 25 254
-0.108704 -0.482692 0.151671 127 0 255
-0.116248 0.0275983 -0.0610853 113 21 254
0.198657 -0.0438252 -0.0611371 127 0 255
-0.128011 -0.379022 0.281132 127 0 255
0.262173 -0.487274 0.112446 127 0 255
-0.270879 -0.408231 -0.0327525 127 0 255
-0.0893835 -0.482306 0.0582446 127 0 255
-0.271805 -0.231012 0.0321062 127 0 255
-0.0370757 -0.112728 -0.0600004 127 0 255
-0.217317 -0.334967 -0.0592063 127 0 255
0.34239 -0.445881 0.00533853 127 0 255
0.0299982 -0.181213 -0.0715955 127 0 255
0.142156 -0.0982664 -0.0694985 127 0 255
-0.18526 -0.482076 -0.00784445 127 0 255
-0.012827 -0.424791 0.174957 127 0 255
-0.189489 -0.151857 -0.0615173 127 0 255
0.0573722 -0.0584389 -0.0563679 127 0 255
0.0603701 -0.483266 0.036119 127 0 255
0.26925 -0.444908 -0.0504244 127 0 255
-0.270187 -0.470199 0.163764 127 0 255
0.134589 -0.289115 -0.0534429 127 0 255
0.275394 -0.367772 -0.0538562 127 0 255
0.187173 -0.387274 0.0624457 127 0 255
-0.0731735 -0.382621 0.22012 127 0 255
-0.0829242 -0.38005 -0.059554 127 0 255
-0.237999 -0.362449 0.299451 127 0 255
-0.268536 -0.0906845 0.098292 127 0 255
0.222071 -0.0947843 -0.0547911 127 0 255
-0.271963 -0.368799 0.0815565 127 0 255
0.163054 -0.480181 -0.0444424 127 0 255
0.0887599 -0.482829 -0.033372 127 0 255
-0.248435 -0.279343 0.290623 127 0 255
-0.0253272 -0.424809 0.374968 127 0 255
-0.0699224 -0.483384 0.234354 127 0 255
-0.277647 -0.117549 -0.0298605 127 0 255
-0.258335 -0.0903625 0.279488 127 0 255
0.0711515 -0.245025 -0.071618 127 0 255
0.192749 -0.182768 -0.0574436 127 0 255
-0.268692 -0.124515 0.160269 127 0 255
-0.0467442 -0.184784 -0.0554054 127 0 255
-0.212443 -0.457664 -0.0658926 127 0 255
-0.144215 -0.333564 -0.0583814 127 0 255
0.100063 -0.383815 -0.0491351 127 0 255
-0.267874 -0.238143 0.0899441 127 0 255
-0.170621 -0.253457 -0.0617766 127 0 255
0.12275 -0.0247616 -0.0632993 127 0 255
-0.266763 -0.307348 0.161671 127 0 255
-0.230916 -0.482956 0.200379 127 0 255
0.0546121 -0.104846 -0.0713785 127 0 255
-0.0528255 -0.482471 -0.039121 127 0 255
0.336664 -0.166395 -0.0638444 127 0 255
-0.187827 -0.337293 0.199958 127 0 255
-0.246303 -0.218712 0.25178 127 0 255
-0.265408 -0.0550953 0.225821 127 0 255
0.243869 -0.299188 -0.0500094 127 0 255
-0.254742 0.0444996 -0.0613618 105 34 254
0.227173 -0.381315 0.0286078 127 0 255
-0.267825 -0.338085 0.0102876 127 0 255
-0.271421 -0.145724 0.0654418 127 0 255
0.340304 -0.289855 -0.0204906 127 0 255
-0.250221 -0.433706 0.305706 127 0 255
-0.0878271 -0.362297 0.149961 127 0 255
-0.0204796 -0.483948 0.341343 127 0 255
0.302305 -0.0836163 -0.0656277 127 0 255
-0.187827 -0.324798 0.287461 127 0 255
-0.0152512 -0.306451 -0.0616219 127 0 255
-0.0966059 -0.483309 0.276605 127 0 255
-0.156982 -0.459784 0.22166 127 0 255
-0.0680659 -0.0334608 -0.0551051 127 0 255
-0.267937 -0.4266 0.0807207 127 0 255
-0.269585 -0.395631 0.197779 127 0 255
-0.0575206 -0.483202 0.180098 127 0 255
-0.0263628 -0.402655 0.265545 127 0 255
0.211548 -0.483479 -0.0299103 127 0 255
0.229026 -0.404664 -0.0490577 127 0 255
-0.156361 -0.483305 0.309891 127 0 255
-0.156871 -0.0298706 -0.0681552 127 0 255
-0.271047 -0.457425 0.0117403 127 0 255
-0.257201 -0.261852 -0.065527 127 0 255
-0.263457 -0.483023 0.286643 127 0 255
-0.271628 -0.191303 0.208955 127 0 255
-0.0252255 -0.483113 0.0624195 127 0 255
-0.268485 0.0110926 -0.0115237 123 6 254
-0.158424 -0.410359 -0.0636061 127 0 255
-0.119721 -0.162748 -0.0531643 127 0 255
-0.261372 -0.00736082 0.143988 127 0 255
-0.00757751 -0.0159267 -0.061471 127 0 255
-0.204781 -0.481682 0.0749695 127 0 255
-0.121467 -0.409661 0.187478 127 0 255
-0.0775708 -0.302318 -0.0606586 127 0 255
0.0432734 -0.409539 -0.0533611 127 0 255
-0.220799 -0.383332 0.166303 127 0 255
-0.271559 -0.296698 0.0457662 127 0 255
-0.26789 -0.356352 -0.0529319 127 0 255
0.322958 -0.237848 -0.0613167 127 0 255
-0.0348488 -0.365671 -0.0578069 127 0 255
-0.180635 -0.103424 -0.0574407 127 0 255
-0.0561368 -0.395879 0.339093 127 0 255
0.0384975 -0.304527 -0.0550622 127 0 255
-0.198013 0.0205026 -0.0652042 117 15 254
-0.270697 -0.0269028 0.0761504 127 0 255
-0.0878271 -0.337302 0.212464 127 0 255
0.2603 -0.16557 -0.0679866 127 0 255
-0.275327 0.0127205 0.274949 121 9 254
-0.270024 -0.390691 -0.000974419 127 0 255
-0.273646 -0.420602 0.252196 127 0 255
-0.27687 -0.154332 -0.0329433 127 0 255
-0.270308 -0.438684 0.137143 127 0 255
-0.10033 -0.0739172 -0.057227 127 0 255
-0.117057 -0.482848 -0.0496568 127 0 255
-0.267374 -0.283091 0.246364 127 0 255
0.345616 -0.391288 -0.0591053 127 0 255
-0.134494 -0.482621 0.174771 127 0 255
-0.132494 -0.249826 -0.0627783 127 0 255
0.172588 -0.255868 -0.0520747 127 0 255
0.335585 -0.312368 -0.0651318 127 0 255
-0.269229 -0.361626 0.234425 127 0 255
0.0238211 -0.482989 0.0144368 127 0 255
0.296393 -0.397757 0.0603857 127 0 255
0.124673 -0.412274 0.0249457 127 0 255
-0.269464 -0.167645 0.103198 127 0 255
0.0183175 -0.472561 -0.0600363 127 0 255
0.239652 -0.246774 -0.0471044 127 0 255
0.159036 -0.0367899 -0.0608533 127 0 255
-0.262966 0.0215466 0.182579 117 15 254
-0.246193 -0.482351 -0.0510134 127 0 255
-0.0887335 -0.482933 0.0917301 127 0 255
-0.0560748 -0.232345 -0.0576548 127 0 255
0.121521 -0.146847 -0.0668772 127 0 255
-0.264345 -0.0342012 -0.0625744 127 0 255
-0.275327 -0.174787 0.312454 127 0 255
0.0578621 -0.484505 0.15777 127 0 255
-0.0384009 -0.450092 -0.0596933 127 0 255
0.164776 -0.369402 -0.0438805 127 0 255
0.27808 -0.477337 -0.0462307 127 0 255
0.0102379 -0.120622 -0.0569483 127 0 255
-0.227216 -0.175149 -0.0566971 127 0 255
-0.0732055 0.0024415 -0.0646655 127 0 255
0.16725 -0.439741 -0.048826 127 0 255
-0.263885 -0.0663164 0.170821 127 0 255
0.231495 -0.125935 -0.0533305 127 0 255
-0.0468843 -0.461535 0.250266 127 0 255
0.0520603 -0.00755047 -0.0610285 127 0 255
-0.061649 -0.135129 -0.0536915 127 0 255
-0.200994 -0.482382 0.114494 127 0 255
0.259922 -0.329822 -0.0466991 127 0 255
0.0913429 -0.335039 -0.0528283 127 0 255
-0.19525 -0.367995 0.267118 127 0 255
-0.268425 -0.121971 0.225488 127 0 255
-0.277454 -0.0845483 -0.00122219 127 0 255
0.00146948 -0.483435 0.110814 127 0 255
-0.199647 -0.468103 0.328816 127 0 255
0.106798 -0.0759546 -0.0561323 127 0 255
-0.206356 0.0639826 -0.0476554 95 49 253
-0.0834873 -0.412808 0.196076 127 0 255
-0.271992 -0.00266336 0.0439745 127 0 255
0.0239871 -0.232589 -0.057555 127 0 255
-0.0419202 -0.0721066 -0.0661277 127 0 255
-0.260679 -0.191001 0.0180049 127 0 255
-0.195555 -0.482709 0.195219 127 0 255
-0.263251 -0.338573 0.0999606 127 0 255
0.201792 -0.374509 0.00486084 127 0 255
-0.0634931 -0.481639 0.0147146 127 0 255
0.351125 -0.461031 -0.0194463 127 0 255
-0.273256 -0.298946 -0.0408302 127 0 255
0.0650185 -0.187316 -0.0678966 127 0 255
-0.234509 -0.402693 0.310068 127 0 255
0.287911 -0.27661 -0.0526966 127 0 255
-0.193877 -0.353756 -0.0599353 127 0 255
-0.268305 -0.192137 0.155204 127 0 255
-0.128877 -0.37839 0.303139 127 0 255
0.159182 -0.483358 0.00619807 127 0 255
-0.138016 -0.483259 0.341922 127 0 255
-0.23956 -0.454184 0.248463 127 0 255
-0.229389 -0.0883895 -0.0572874 127 0 255
0.0335915 -0.483422 0.0575404 127 0 255
-0.255989 -0.125343 0.276519 127 0 255
-0.0285615 0.0171672 -0.059797 119 12 254
0.0973693 -0.486015 0.144189 127 0 255
0.231451 -0.373577 -0.0707089 127 0 255
-0.269192 -0.481224 0.105094 127 0 255
-0.267803 -0.35424 0.188054 127 0 255
-0.111522 -0.313257 -0.0596024 127 0 255
0.074673 -0.487283 0.312452 127 0 255
-0.270588 -0.254766 0.0652181 127 0 255
0.145387 -0.238457 -0.0682501 127 0 255
0.0355014 -0.0662622 -0.0730787 127 0 255
-0.0199323 -0.407435 -0.0533742 127 0 255
-0.257532 -0.0475885 0.274894 127 0 255
-0.233063 -0.482507 -0.00252479 127 0 255
0.291895 -0.404455 -0.0694992 127 0 255
-0.263869 0.0353645 0.120049 109 28 254
-0.0128271 -0.374796 0.17496 127 0 255
0.0739957 -0.482992 -0.0196395 127 0 255
-0.26719 -0.257221 0.188038 127 0 255
0.177734 -0.0934163 -0.0555307 127 0 255
-0.0558394 -0.392331 0.287844 127 0 255
-0.258718 -0.447973 -0.0659386 127 0 255
0.199747 -0.449375 -0.0701071 127 0 255
0.0695037 -0.413482 -0.0686058 127 0 255
-0.270558 -0.388528 0.113019 127 0 255
0.251453 -0.390098 0.0449327 127 0 255
0.279788 -0.205201 -0.0468507 127 0 255
-0.257274 -0.231466 0.285167 127 0 255
0.324588 -0.145537 -0.0398967 127 0 255
0.242604 -0.0619823 -0.0596939 127 0 255
-0.241404 -0.310436 0.223826 127 0 255
-0.0142787 -0.483962 0.252618 127 0 255
-0.181237 -0.481256 0.0252853 127 0 255
-0.164835 -0.478419 0.131984 127 0 255
0.200158 -0.212248 -0.0598369 127 0 255
-0.141452 -0.389689 0.211102 127 0 255
-0.0843613 -0.195671 -0.0636403 127 0 255
-0.223023 -0.235067 -0.0580764 127 0 255
0.122221 -0.31156 -0.0553475 127 0 255
0.000294011 -0.176906 -0.0580003 127 0 255
-0.265698 -0.478624 0.190786 127 0 255
0.203126 -0.307943 -0.0606009 127 0 255
-0.18098 -0.0547499 -0.0599614 127 0 255
-0.1614 -0.175283 -0.0612733 127 0 255
0.352331 -0.404816 -0.0175859 127 0 255
-0.269669 -0.0854671 0.0743498 127 0 255
-0.189907 -0.482508 -0.0481772 127 0 255
-0.128544 -0.370872 -0.0584586 127 0 255
0.123952 -0.483292 0.0920757 127 0 255
-0.0827369 -0.433311 -0.0547734 127 0 255
-0.0439053 -0.264066 -0.0648515 127 0 255
-0.118054 -0.450924 0.190879 127 0 255
-0.269625 -0.13481 0.135723 127 0 255
-0.268344 -0.387199 0.029952 127 0 255
-0.182287 -0.286374 -0.056581 127 0 255
-0.239677 -0.389039 -0.0494004 127 0 255
-0.262557 0.0219871 -0.0627807 117 15 254
-0.271975 0.0474265 0.01943 103 37 254
0.296588 -0.349642 -0.0671495 127 0 255
-0.274501 -0.0461783 0.027545 127 0 255
-0.255881 -0.00630146 0.222424 127 0 255
-0.263797 -0.245289 0.141566 127 0 255
0.0867811 -0.267464 -0.0561817 127 0 255
-0.273361 -0.129996 0.0260597 127 0 255
0.124673 -0.487274 0.249946 127 0 255
-0.143856 0.0406494 -0.0596635 107 31 254
-0.0393939 -0.414287 0.225989 127 0 255
0.0517674 -0.370572 -0.0509918 127 0 255
-0.26881 -0.198914 0.0776651 127 0 255
0.339322 -0.201682 -0.0594349 127 0 255
-0.0057602 -0.483191 0.345896 127 0 255
-0.118109 -0.483213 0.285192 127 0 255
0.0690216 -0.139056 -0.0575971 127 0 255
-0.231806 -0.403769 0.150591 127 0 255
-0.266105 -0.307374 0.117184 127 0 255
-0.260457 -0.0368284 0.103948 127 0 255
0.224877 -0.482769 -0.0136046 127 0 255
-0.0745499 -0.482818 0.139098 127 0 255
-0.233251 -0.48183 0.282354 127 0 255
-0.114572 -0.481324 0.0323551 127 0 255
-0.210539 -0.00921108 -0.0559915 127 0 255
-0.265268 -0.482247 0.0360026 127 0 255
-0.00673195 -0.349379 -0.0542036 127 0 255
0.353416 -0.327954 -0.00833043 127 0 255
0.278781 -0.13164 -0.0663545 127 0 255
-0.258209 -0.309731 0.291565 127 0 255
-0.201081 -0.419775 -0.0667357 127 0 255
0.133823 -0.183558 -0.0552826 127 0 255
0.103171 -0.0211921 -0.0623216 127 0 255
-0.116063 -0.111304 -0.0652267 127 0 255
-0.270016 -0.156081 -0.0551879 127 0 255
-0.133996 -0.470835 -0.0678527 127 0 255
-0.000326997 -0.449788 0.174954 127 0 255
-0.0146155 -0.476905 -0.0520442 127 0 255
-0.271421 -0.448275 -0.015628 127 0 255
0.349673 -0.487274 0.0374457 127 0 255
0.174673 -0.487274 0.187446 127 0 255
-0.242829 -0.482705 0.131744 127 0 255
0.120627 -0.482519 -0.0377741 127 0 255
-0.205265 -0.123611 -0.0565873 127 0 255
-0.236754 -0.328578 -0.0593021 127 0 255
0.318068 -0.43759 -0.0615842 127 0 255
0.133274 -0.346682 -0.0640692 127 0 255
-0.271062 -0.20359 0.220163 127 0 255
-0.204633 -0.483174 0.23893 127 0 255
-0.129499 -0.0502292 -0.0652807 127 0 255
0.155465 -0.125009 -0.0571258 127 0 255
0.338889 -0.113735 -0.0623777 127 0 255
-0.276138 -0.207434 -0.021312 127 0 255
-0.18723 -0.374629 0.294313 127 0 255
0.220882 -0.183557 -0.0680547 127 0 255
-0.0384412 -0.483653 0.293702 127 0 255
-0.25698 -0.076038 0.144921 127 0 255
0.155187 -0.414154 -0.0520096 127 0 255
0.323443 -0.279112 -0.0656705 127 0 255
-0.276393 -0.451189 0.240548 127 0 255
-0.107415 -0.483197 0.22251 127 0 255
-0.270421 0.0479839 0.0612856 103 37 254
-0.271671 -0.282929 -0.00893484 127 0 255
-0.274574 -0.0490972 -0.0245916 127 0 255
0.0127219 -0.277993 -0.0563783 127 0 255
-0.183936 -0.214113 -0.0547483 127 0 255
0.0878127 -0.483419 0.0130618 127 0 255
-0.0628271 -0.324802 0.187463 127 0 255
0.209771 -0.350661 -0.0481065 127 0 255
-0.270991 -0.38216 0.268598 127 0 255
-0.247116 -0.159856 0.249392 127 0 255
-0.0931661 -0.48211 -0.0370346 127 0 255
-0.116586 -0.276872 -0.0541369 127 0 255
0.319187 -0.483325 -0.0325873 127 0 255
-0.0185171 -0.482996 0.0881238 127 0 255
0.0212784 -0.00116829 -0.0617228 127 0 255
0.299972 -0.0818336 -0.0602375 127 0 255
0.106501 -0.221447 -0.0564561 127 0 255
-0.209238 -0.460852 0.16953 127 0 255
0.0503693 -0.483313 0.079805 127 0 255
0.301549 -0.409127 0.0612658 127 0 255
-0.0911297 -0.382465 0.324131 127 0 255
0.216134 -0.251639 -0.0655625 127 0 255
-0.0108738 -0.477046 0.0100068 127 0 255
0.0942585 -0.438011 -0.0566308 127 0 255
-0.272345 -0.407676 0.0623851 127 0 255
-0.232512 0.0649849 -0.047097 95 49 253
-0.00812979 -0.202844 -0.0711474 127 0 255
0.23242 -0.456413 -0.0691484 127 0 255
-0.257495 -0.12228 0.207849 127 0 255
0.0197363 -0.413302 -0.0707084 127 0 255
-0.228865 -0.474345 0.327806 127 0 255
0.16833 -0.293699 -0.0671989 127 0 255
-0.0222414 -0.0664198 -0.0587544 127 0 255
0.287173 -0.449774 0.0124457 127 0 255
-0.0514169 -0.374725 -0.0577798 127 0 255
-0.271592 -0.343211 0.0658186 127 0 255
-0.242125 -0.350352 0.243668 127 0 255
0.0445381 -0.484356 0.166051 127 0 255
0.387173 -0.387274 0.0249457 127 0 255
-0.0806166 0.0104505 -0.0550293 123 6 254
-0.272527 -0.22899 0.0254578 127 0 255
-0.162 -0.483074 0.216121 127 0 255
-0.0564943 -0.48111 0.179152 127 0 255
-0.260455 -0.0241607 0.159864 127 0 255
0.162173 -0.387274 0.0499457 127 0 255
0.00503737 -0.13099 -0.0730258 127 0 255
-0.268253 -0.0907098 -0.0558967 127 0 255
0.148816 -0.483145 0.0895146 127 0 255
-0.261061 -0.0541507 0.237256 127 0 255
-0.267364 -0.284455 0.092285 127 0 255
-0.117737 -0.221091 -0.0628385 127 0 255
0.0906082 -0.0951099 -0.0680227 127 0 255
-0.251333 -0.259923 0.289176 127 0 255
-0.173797 -0.482312 0.0539121 127 0 255
-0.104802 -0.146097 -0.0637409 127 0 255
0.205541 -0.0709192 -0.0686303 127 0 255
-0.0483933 -0.390429 0.231672 127 0 255
-0.271522 -0.33863 0.00942043 127 0 255
-0.26148 -0.304713 0.164446 127 0 255
-0.048795 -0.398937 0.329803 127 0 255
-0.0628271 -0.387295 0.149959 127 0 255
0.108965 -0.380357 -0.0472595 127 0 255
-0.278093 -0.468106 0.0841114 127 0 255
-0.167586 -0.316678 -0.0626644 127 0 255
-0.272385 -0.155801 0.0463799 127 0 255
-0.262661 -0.170219 0.1794 127 0 255
-0.0812593 -0.4812 0.046224 127 0 255
-0.268712 0.0090487 -0.0184663 123 6 254
0.18379 -0.483381 0.00342526 127 0 255
0.198996 -0.135911 -0.0681729 127 0 255
-0.137711 -0.476269 -0.00376723 127 0 255
0.277315 -0.28404 -0.0658704 127 0 255
-0.253527 -0.424462 0.221016 127 0 255
-0.273979 -0.252451 -0.048431 127 0 255
-0.250058 -0.359321 0.298904 127 0 255
0.156022 -0.474864 -0.0593138 127 0 255
-0.263207 0.033926 0.131646 111 25 254
-0.0455408 -0.289594 -0.0532239 127 0 255
0.341353 -0.294112 -0.0181549 127 0 255
0.0436982 -0.249714 -0.0698775 127 0 255
-0.0301958 -0.157564 -0.0557044 127 0 255
-0.12205 -0.00248277 -0.0597322 127 0 255
-0.105994 -0.381837 0.207758 127 0 255
-0.269632 -0.205376 0.134991 127 0 255
-0.15755 -0.400342 -0.0625654 127 0 255
0.0986504 -0.30305 -0.0722101 127 0 255
0.197378 -0.380589 0.00831071 127 0 255
-0.15265 -0.126066 -0.0542142 127 0 255
-0.0708837 -0.0905842 -0.0629473 127 0 255
-0.146865 -0.482554 0.15416 127 0 255
0.301968 -0.37399 -0.0549126 127 0 255
-0.160749 -0.48214 0.260272 127 0 255
-0.133373 -0.378 0.28678 127 0 255
-0.254121 -0.201847 0.284697 127 0 255
-0.260066 -0.483278 -0.0235551 127 0 255
-0.0936098 -0.4002 -0.0594154 127 0 255
0.0438091 -0.474681 -0.0226271 127 0 255
0.0751518 -0.0534846 -0.057107 127 0 255
-0.209383 -0.0577057 -0.0608847 127 0 255
-0.270556 -0.435327 0.131559 127 0 255
0.276908 -0.459633 -0.060754 127 0 255
-0.170157 0.0426677 -0.0626083 107 31 254
-0.2326 -0.421835 0.31193 127 0 255
-0.267838 -0.285479 0.242989 127 0 255
-0.269595 -0.370068 -0.0486396 127 0 255
-0.269525 -0.287253 0.0374595 127 0 255
-0.258062 -0.0163731 -0.0676735 127 0 255
-0.246653 -0.357944 0.18519 127 0 255
0.0270926 -0.341544 -0.0667844 127 0 255
0.154557 -0.0389202 -0.0613263 127 0 255
-0.0493855 -0.480591 -0.0575587 127 0 255
0.189622 -0.356539 -0.071675 127 0 255
0.308043 -0.165583 -0.0660557 127 0 255
-0.159029 -0.483583 0.332525 127 0 255
0.043625 -0.163546 -0.0579497 127 0 255
-0.227234 -0.174447 -0.0567096 127 0 255
-0.0162525 -0.483863 0.241003 127 0 255
-0.219472 -0.478532 0.0454814 127 0 255
-0.220285 -0.282301 -0.0579978 127 0 255
-0.26849 -0.0987196 0.107807 127 0 255
-0.274974 -0.467996 0.269916 127 0 255
-0.263952 -0.0560854 0.0437459 127 0 255
-0.271761 0.0506529 -0.0219143 103 37 254
-0.239965 -0.430628 -0.0630761 127 0 255
0.345607 -0.393396 -0.035172 127 0 255
0.239016 -0.217959 -0.0669201 127 0 255
-0.263372 -0.0853078 0.245923 127 0 255
0.362173 -0.237274 -0.0750543 127 0 255
-0.256532 -0.372532 0.130694 127 0 255
0.0966885 -0.484897 0.136455 127 0 255
0.249941 -0.391745 -0.0698472 127 0 255
-0.266258 0.0132816 0.0633857 121 9 254
0.143417 -0.263516 -0.0678704 127 0 255
-0.0952775 -0.48332 0.274498 127 0 255
-0.259219 0.011161 0.202437 123 6 254
-0.25943 -0.220664 0.0688528 127 0 255
-0.00833313 0.0110334 -0.0647247 123 6 254
-0.259525 -0.111694 0.165569 127 0 255
-0.267518 -0.251599 0.198646 127 0 255
-0.278005 -0.118206 -0.0162023 127 0 255
0.0137393 -0.456459 -0.0631397 127 0 255
-0.0347911 -0.397419 0.277761 127 0 255
0.116526 -0.136041 -0.0620429 127 0 255
0.0266578 -0.0820332 -0.0616718 127 0 255
-0.188974 -0.482419 -0.0362565 127 0 255
0.226438 -0.280689 -0.0482716 127 0 255
-0.155058 -0.389676 0.204602 127 0 255
-0.267283 -0.419928 0.180201 127 0 255
-0.00583513 -0.483276 0.344294 127 0 255
-0.205578 -0.483392 0.306342 127 0 255
-0.0218794 -0.483079 0.046608 127 0 255
0.14177 -0.434067 -0.0689429 127 0 255
-0.269961 -0.407582 0.0259534 127 0 255
-0.0934279 -0.48237 0.133971 127 0 255
-0.275327 0.0627256 -0.0750543 95 49 253
-0.0902724 -0.239001 -0.0617077 127 0 255
-0.253412 -0.482573 0.203197 127 0 255
-0.0685526 -0.163018 -0.0526076 127 0 255
-0.0974788 -0.0488299 -0.0543175 127 0 255
-0.189102 -0.365185 -0.0582982 127 0 255
0.27539 -0.0732109 -0.061547 127 0 255
-0.0340937 -0.417813 -0.0547933 127 0 255
0.0636249 -0.014346 -0.062644 127 0 255
0.239043 -0.480318 -0.0325988 127 0 255
-0.272582 -0.176916 0.0116628 127 0 255
-0.259027 -0.0192486 0.252218 127 0 255
0.0786606 -0.468318 -0.0584879 127 0 255
-0.0659788 -0.462833 0.226003 127 0 255
-0.112827 -0.3248 0.187463 127 0 255
0.172901 -0.184393 -0.0584425 127 0 255
-0.0295581 -0.335892 -0.0581256 127 0 255
0.0541026 -0.287171 -0.0570575 127 0 255
-0.159612 -0.0729291 -0.0571163 127 0 255
-0.063809 -0.395581 0.196363 127 0 255
-0.0482017 -0.474391 -0.0184528 127 0 255
0.126436 -0.0838893 -0.0560627 127 0 255
0.237899 -0.119983 -0.05418 127 0 255
-0.105195 -0.30771 -0.0592072 127 0 255
0.0817496 -0.185666 -0.0659434 127 0 255
-0.275815 -0.0301909 0.00225904 127 0 255
0.194495 -0.404786 -0.0658121 127 0 255
0.0891871 -0.390626 -0.0672335 127 0 255
-0.267182 -0.29589 -0.0561708 127 0 255
-0.106619 -0.458525 -0.0651311 127 0 255
0.0311705 -0.48309 0.0200321 127 0 255
-0.208371 -0.46717 0.140493 127 0 255
-0.172296 -0.233374 -0.0615173 127 0 255
-0.196272 0.0101395 -0.0657149 123 6 254
-0.261499 -0.167087 0.271688 127 0 255
-0.266431 -0.323353 0.259359 127 0 255
-0.0422033 -0.206302 -0.0548034 127 0 255
-0.269546 -0.181812 -0.0550578 127 0 255
-0.231219 -0.116795 -0.0603569 127 0 255
-0.265187 -0.484963 0.0736047 127 0 255
0.287652 -0.2053 -0.0476451 127 0 255
-0.273477 0.014488 0.156486 121 9 254
-0.27171 -0.430133 -0.031789 127 0 255
0.0380998 -0.4825 0.0910585 127 0 255
-0.121725 -0.183843 -0.0632751 127 0 255
-0.263521 -0.25723 0.142936 127 0 255
-0.268089 -0.475585 0.146707 127 0 255
0.268994 -0.328929 -0.0489888 127 0 255
-0.163074 -0.451642 -0.0643141 127 0 255
-0.138097 -0.348205 -0.0591968 127 0 255
0.137966 -0.483309 -0.0144141 127 0 255
-0.0406378 -0.0310475 -0.060988 127 0 255
-0.268275 -0.170194 0.0914701 127 0 255
-0.268813 -0.215946 0.233383 127 0 255
-0.265191 -0.00335041 0.0954856 127 0 255
-0.27265 -0.399933 0.23541 127 0 255
0.335688 -0.11336 -0.0504898 127 0 255
0.21489 -0.389446 0.0270896 127 0 255
-0.0530023 -0.483628 0.282066 127 0 255
0.374673 -0.449774 0.0499457 127 0 255
0.334769 -0.416948 -0.0600922 127 0 255
-0.187827 -0.324795 0.224959 127 0 255
-0.0025314 -0.249874 -0.0645969 127 0 255
-0.270886 -0.108406 0.0460124 127 0 255
-0.267361 -0.326148 0.144634 127 0 255
-0.225327 -0.312296 0.32496 127 0 255
-0.0962585 -0.481216 0.0594518 127 0 255
-0.207713 0.0518112 -0.0357822 101 40 254
-0.265337 -0.403787 0.0843116 127 0 255
-0.134807 -0.482123 0.203757 127 0 255
-0.000327073 -0.424796 0.31246 127 0 255
0.162173 -0.449774 0.0624457 127 0 255
-0.221596 -0.468593 -0.0647558 127 0 255
0.276488 -0.483478 -0.0239547 127 0 255
0.0287533 -0.386148 -0.0553942 127 0 255
-0.232529 -0.214884 -0.0586191 127 0 255
-0.265191 -0.0769871 0.185367 127 0 255
-0.0374527 -0.426665 0.238685 127 0 255
-0.0192014 -0.108516 -0.060955 127 0 255
-0.179093 -0.144747 -0.0547936 127 0 255
0.362173 -0.474774 -0.0625543 127 0 255
-0.196717 -0.37421 0.294536 127 0 255
0.321943 -0.251316 -0.059974 127 0 255
-0.164803 -0.482202 -0.00387643 127 0 255
-0.147765 -0.00810635 -0.0655374 127 0 255
0.317004 -0.328344 -0.0601298 127 0 255
0.274673 -0.487274 0.0999457 127 0 255
-0.252875 -0.0840793 0.269839 127 0 255
0.254434 -0.435376 -0.0500721 127 0 255
0.297374 -0.405312 0.0602161 127 0 255
-0.264324 0.0559992 0.0432128 99 43 254
-0.262483 -0.412801 0.291504 127 0 255
0.243955 -0.169474 -0.0689694 127 0 255
0.0644399 -0.321946 -0.0699091 127 0 255
-0.102652 -0.378501 -0.062254 127 0 255
-0.0940638 -0.382015 0.321414 127 0 255
0.201516 -0.457138 -0.0692998 127 0 255
-0.232794 -0.367767 -0.0589789 127 0 255
-0.269997 -0.148992 0.156105 127 0 255
-0.255412 -0.482633 0.25714 127 0 255
0.337038 -0.161282 -0.0636825 127 0 255
-0.271463 -0.305264 0.0612566 127 0 255
-0.133085 -0.483212 0.29042 127 0 255
0.352607 -0.328826 -0.0112073 127 0 255
-0.0378271 -0.3498 0.199962 127 0 255
0.10273 -0.253483 -0.0557652 127 0 255
0.24343 -0.06386 -0.0666875 127 0 255
0.192865 -0.242503 -0.0518944 127 0 255
0.0388454 -0.225279 -0.0576653 127 0 255
-0.09353 -0.476515 0.0155166 127 0 255
0.000491854 -0.319286 -0.0558555 127 0 255
0.0593927 -0.483396 0.154645 127 0 255
0.144289 -0.483976 0.0928251 127 0 255
-0.242706 -0.351041 0.220905 127 0 255
0.00645025 -0.034803 -0.0625606 127 0 255
0.243499 -0.350015 -0.0697154 127 0 255
-0.107838 -0.40468 0.185098 127 0 255
0.211335 -0.482776 -0.00560179 127 0 255
-0.0654665 -0.483019 0.16274 127 0 255
-0.251267 -0.157021 0.223218 127 0 255
0.140227 -0.348327 -0.0641856 127 0 255
-0.18525 -0.283268 -0.0563372 127 0 255
-0.240122 -0.483061 0.0332157 127 0 255
-0.261247 -0.0318502 0.153998 127 0 255
-0.258897 -0.0626566 -0.025327 127 0 255
0.0961734 -0.483135 0.000367202 127 0 255
0.167438 -0.0987459 -0.0559949 127 0 255
-0.0253272 -0.437308 0.374967 127 0 255
0.0840928 -0.139029 -0.0708537 127 0 255
-0.0718229 -0.304996 -0.0605395 127 0 255
-0.220905 -0.483039 0.223085 127 0 255
-0.270763 -0.338301 0.0130074 127 0 255
-0.126141 0.0273862 -0.0606718 113 21 254
-0.253123 -0.286898 0.292472 127 0 255
-0.176367 -0.482403 0.133046 127 0 255
-0.157884 -0.481136 0.0373798 127 0 255
-0.182232 -0.421766 -0.0667898 127 0 255
-0.22844 -0.381322 0.168886 127 0 255
-0.217392 -0.0309697 -0.065496 127 0 255
-0.025327 -0.43729 0.162456 127 0 255
-0.272105 -0.228488 0.0241733 127 0 255
0.312173 -0.399774 -5.43091e-05 127 0 255
-0.268851 -0.0534736 0.0788457 127 0 255
0.216608 -0.307743 -0.0480937 127 0 255
-0.256201 0.0540038 0.00142966 101 40 254
-0.0805689 -0.430575 -0.0646441 127 0 255
0.193205 -0.0519206 -0.0672827 127 0 255
-0.275285 -0.459733 -0.0427176 127 0 255
-0.224096 -0.322602 -0.0592123 127 0 255
0.315667 -0.483124 -0.0248733 127 0 255
0.019316 -0.429792 -0.0561045 127 0 255
-0.0977116 -0.098724 -0.0624508 127 0 255
0.0260437 -0.132218 -0.0605195 127 0 255
0.334307 -0.369144 -0.0650618 127 0 255
0.265891 -0.122528 -0.0657092 127 0 255
-0.0471702 -0.39884 0.323149 127 0 255
-0.270712 -0.393183 -0.03507 127 0 255
-0.260007 -0.111865 -0.0600403 127 0 255
-0.120028 -0.263624 -0.0642224 127 0 255
0.169318 -0.161052 -0.0601974 127 0 255
-0.259338 -0.205054 0.193116 127 0 255
0.324673 -0.487274 0.0499457 127 0 255
-0.273119 -0.235172 -0.0280213 127 0 255
-0.247901 -0.48192 0.102443 127 0 255
0.124673 -0.424774 0.0499457 127 0 255
-0.250485 -0.474362 0.316677 127 0 255
-0.266143 -0.368183 0.0952315 127 0 255
-0.277142 -0.0928108 0.00756038 127 0 255
-0.267659 -0.244971 0.082222 127 0 255
-0.26602 -0.0404579 0.215064 127 0 255
0.199673 -0.487274 0.162446 127 0 255
-0.187868 -0.195126 -0.055018 127 0 255
-0.0956554 -0.483222 0.220072 127 0 255
-0.274636 -0.00111154 0.0155862 127 0 255
0.327458 -0.199336 -0.0651276 127 0 255
0.125259 -0.286689 -0.0727479 127 0 255
0.133415 -0.0317227 -0.0640843 127 0 255
0.121544 -0.457123 -0.0677126 127 0 255
-0.0564989 -0.25741 -0.0564939 127 0 255
0.0625104 -0.0783554 -0.0716183 127 0 255
0.0584951 -0.455356 -0.0395529 127 0 255
-0.144806 -0.476451 -0.0669106 127 0 255
-0.14591 -0.100425 -0.0621211 127 0 255
0.174417 -0.381765 -0.0569847 127 0 255
-0.261845 -0.249438 0.282088 127 0 255
-0.178559 -0.468001 0.188403 127 0 255
0.34705 -0.294812 -0.0334679 127 0 255
-0.265843 -0.12982 0.127066 127 0 255
-0.256167 -0.444881 0.169846 127 0 255
0.0070512 -0.19172 -0.0570788 127 0 255
0.0792856 -0.355339 -0.0529654 127 0 255
-0.2681 0.0343137 0.115512 111 25 254
0.147641 -0.233271 -0.0686008 127 0 255
0.237173 -0.449774 0.0249457 127 0 255
-0.274208 -0.142413 -0.011953 127 0 255
0.26316 -0.291649 -0.0665822 127 0 255
-0.0343989 -0.388778 -0.0560288 127 0 255
0.0169364 -0.482259 0.00575023 127 0 255
-0.125476 -0.379071 0.291792 127 0 255
-0.265954 -0.281873 0.173486 127 0 255
-0.267684 -0.324472 -0.0480951 127 0 255
-0.108674 -0.475973 0.159787 127 0 255
-0.27134 -0.473512 0.0105131 127 0 255
0.172559 -0.298272 -0.0509081 127 0 255
0.0512182 -0.482476 0.0790221 127 0 255
-0.252689 -0.0108377 -0.0682848 127 0 255
-0.269111 -0.15074 0.0731811 127 0 255
0.287368 -0.395622 -0.0696195 127 0 255
-0.0273906 -0.482729 0.0458457 127 0 255
-0.269503 -0.394704 0.0136266 127 0 255
-0.0319561 -0.483724 0.244162 127 0 255
-0.22817 -0.359072 0.291268 127 0 255
-0.267168 -0.249872 0.228066 127 0 255
-0.0155118 -0.483831 0.340594 127 0 255
-0.0449461 -0.103713 -0.063849 127 0 255
0.0398342 -0.00420219 -0.0617845 127 0 255
-0.0868925 -0.482341 -0.0509915 127 0 255
-0.140285 -0.483223 0.331927 127 0 255
-0.229826 0.0648885 -0.047126 95 49 253
-0.149983 -0.170023 -0.0540712 127 0 255
0.169116 -0.474883 -0.0555131 127 0 255
-0.00292982 -0.28684 -0.0555575 127 0 255
-0.246982 -0.145118 0.247648 127 0 255
-0.100327 -0.337299 0.162462 127 0 255
0.297095 -0.448068 -0.0602407 127 0 255
0.210904 -0.1709 -0.0555409 127 0 255
-0.0713674 -0.0145626 -0.0634695 127 0 255
-0.273942 -0.445358 0.271153 127 0 255
-0.269904 -0.398839 0.198375 127 0 255
-0.206832 -0.0930671 -0.0596139 127 0 255
-0.26964 -0.407773 0.108377 127 0 255
0.311442 -0.0892577 -0.0650098 127 0 255
-0.270242 -0.0702619 0.124578 127 0 255
-0.0878271 -0.349802 0.237464 127 0 255
-0.0679868 -0.189386 -0.0636875 127 0 255
0.100479 -0.2152 -0.0660715 127 0 255
-0.214056 -0.482051 0.252774 127 0 255
-0.256719 -0.0685081 0.278955 127 0 255
-0.267585 -0.201953 0.152452 127 0 255
-0.266423 -0.301931 0.0974367 127 0 255
-0.0228881 -0.477975 -0.0330692 127 0 255
-0.0263925 -0.406937 0.252042 127 0 255
-0.173926 -0.379042 -0.0644967 127 0 255
-0.150141 -0.482311 0.267232 127 0 255
0.287319 -0.147785 -0.0668563 127 0 255
-0.00216422 -0.367044 -0.0605793 127 0 255
0.20123 -0.386477 0.0173409 127 0 255
-0.128479 -0.410457 0.189692 127 0 255
-0.129488 -0.482512 -0.000300241 127 0 255
-0.168955 -0.31508 -0.0624672 127 0 255
0.0605827 -0.408162 -0.051058 127 0 255
-0.269921 -0.295216 0.0330244 127 0 255
0.137173 -0.487274 0.224946 127 0 255
-0.155683 0.0443034 -0.05967 105 34 254
-0.230749 -0.412543 -0.0564444 127 0 255
-0.266387 -0.118825 0.199228 127 0 255
-0.27233 -0.188363 0.0398733 127 0 255
-0.27088 0.035391 -0.0492924 109 28 254
0.263811 -0.241401 -0.0604074 127 0 255
-0.216116 -0.27024 -0.0574437 127 0 255
0.215289 -0.100174 -0.054436 127 0 255
-0.261576 0.00255422 0.216134 127 0 255
-0.187827 -0.324797 0.26246 127 0 255
-0.26893 -0.361848 0.238686 127 0 255
-0.259493 -0.212691 0.285657 127 0 255
