ply
format ascii 1.0
comment Created by Open3D
element vertex 1190
property double x
property double y
property double z
property uchar red
property uchar green
property uchar blue
end_header
-0.0660695 -0.320528 0.0781092 50 205 255
-0.0873443 -0.13759 0.299603 97 158 255
0.290755 -0.3062 -0.140512 54 201 255
-0.290969 -0.479454 0.223821 10 245 255
0.38553 -0.466025 0.0658218 13 242 255
-0.0764867 -0.301584 -0.123026 55 200 255
0.322106 -0.487624 0.128073 8 247 255
-0.244493 -0.482299 -0.0895952 9 246 255
-0.384733 -0.487063 -0.0432414 8 247 255
0.0120755 -0.488029 0.20151 8 247 255
-0.0261268 -0.398354 0.192592 30 225 255
0.13815 -0.488537 0.126659 7 248 255
-0.165266 -0.258951 -0.0907151 65 189 255
-0.150358 -0.346216 -0.160702 44 211 255
0.054991 -0.487327 -0.136832 8 247 255
-0.0287746 -0.204046 -0.17252 80 175 255
-0.446706 -0.443782 -0.111904 19 236 255
-0.236761 -0.490161 0.150204 7 248 255
0.437656 -0.31259 0.262103 52 203 255
-0.423405 -0.42025 -0.160802 25 230 255
-0.101402 -0.424616 -0.133793 24 231 255
-0.502935 -0.205744 -0.143523 80 175 255
-0.0818926 -0.461732 -0.173127 14 241 255
0.00690752 -0.488047 0.291318 8 247 255
-0.0796603 -0.487633 0.302209 8 247 255
0.35222 -0.374954 0.167153 36 219 255
-0.0702655 -0.307987 -0.0314452 54 201 255
-0.27289 -0.206593 -0.157412 80 175 255
-0.500686 -0.484693 0.226474 8 247 255
0.24838 -0.31796 -0.171899 51 204 255
-0.198494 -0.291133 -0.16878 58 197 255
0.20754 -0.487438 0.213394 8 247 255
-0.280418 -0.486142 -0.134936 8 247 255
-0.0457772 -0.470555 0.00210218 12 243 255
-0.468235 -0.446847 -0.0268976 18 237 255
0.224518 -0.371008 -0.0765405 36 218 255
-0.0217714 -0.34656 -0.00404446 44 211 255
-0.0419773 -0.162441 0.280482 91 163 255
-0.50427 -0.386554 -0.0876954 34 221 255
-0.193935 -0.487328 -0.136469 8 247 255
-0.111389 -0.225033 0.148214 75 179 255
-0.138284 -0.164094 0.018865 89 165 255
-0.397323 -0.263139 -0.15376 65 190 255
-0.120441 -0.485212 -0.0326374 8 247 255
0.0787729 -0.488712 0.280008 7 248 255
-0.0197625 -0.487726 -0.173578 8 247 255
-0.463347 -0.169208 -0.168445 89 166 255
-0.298275 -0.338045 -0.168667 46 209 255
0.215606 -0.487755 -0.159247 8 247 255
-0.0664182 -0.231585 0.26517 73 182 255
-0.0510283 -0.304346 0.345345 55 200 255
0.11734 -0.200972 -0.157121 81 174 255
-0.188727 -0.341632 -0.0839064 44 210 255
-0.0734277 -0.387275 -0.177646 32 222 255
-0.061978 -0.472058 0.106386 12 243 255
-0.423074 -0.487184 0.252867 8 247 255
-0.0628397 -0.167906 0.0754266 89 166 255
0.144503 -0.487372 0.335944 8 247 255
-0.285201 -0.487342 0.0949142 8 247 255
-0.0711499 -0.487316 0.368736 8 247 255
-0.348805 -0.2273 -0.17322 73 181 255
-0.228821 -0.398743 0.188267 30 225 255
0.248326 -0.48743 0.119393 8 247 255
-0.475277 -0.415939 -0.166163 26 229 255
0.287679 -0.244646 -0.111421 70 185 255
-0.425996 -0.478096 -0.170848 10 245 255
-0.168061 -0.457573 -0.176118 15 240 255
-0.0724834 -0.250998 0.00665207 68 187 255
0.335972 -0.470256 -0.16774 12 243 255
0.21961 -0.41948 -0.171011 25 230 255
-0.104373 -0.487203 -0.0672384 8 247 255
-0.211197 -0.35116 -0.158387 43 211 255
0.163396 -0.488312 -0.0160047 7 248 255
-0.0467282 -0.397536 0.0759196 31 224 255
0.12275 -0.329369 -0.155599 48 207 255
-0.340736 -0.486265 -0.137137 8 247 255
-0.0446666 -0.420419 -0.0918966 25 230 255
-0.161412 -0.27042 -0.158022 63 192 255
-0.425162 -0.315633 -0.15364 52 203 255
-0.516199 -0.485388 -0.0270763 8 247 255
-0.052772 -0.258605 -0.0842899 65 189 255
-0.0071564 -0.487248 0.34828 8 247 255
0.377603 -0.454525 0.157724 16 239 255
-0.0666349 -0.349604 0.159481 43 211 255
0.387621 -0.487638 -0.0279734 8 247 255
-0.345647 -0.164878 -0.155936 89 165 255
0.0657258 -0.488871 0.169485 7 248 255
0.162497 -0.256355 -0.164554 67 188 255
-0.255566 -0.488012 0.22101 8 247 255
-0.495025 -0.34456 -0.148389 44 211 255
-0.184315 -0.488555 0.288955 7 248 255
-0.137171 -0.177492 -0.176991 87 168 255
0.103177 -0.453509 -0.161986 16 239 255
-0.0406047 -0.43728 0.350191 21 234 255
-0.0103124 -0.488673 0.00480206 7 248 255
-0.440174 -0.487263 0.148654 8 247 255
-0.503542 -0.337238 -0.0712979 46 209 255
-0.0852794 -0.343192 -0.156016 44 210 255
0.0535194 -0.348566 -0.155396 43 211 255
0.133258 -0.489228 0.0409168 7 248 255
0.0540059 -0.488768 0.0880689 7 248 255
-0.0668712 -0.459513 0.224003 15 240 255
0.269025 -0.424292 -0.124224 24 231 255
-0.315518 -0.487534 0.0234274 8 247 255
0.274531 -0.196248 -0.163035 81 173 255
-0.127695 -0.486989 -0.126193 8 247 255
-0.173978 -0.487113 0.376327 8 247 255
-0.055569 -0.191771 -0.0633741 83 172 255
-0.0498511 -0.476277 -0.115473 11 244 255
-0.139846 -0.48896 0.153331 7 248 255
-0.295496 -0.487501 0.314687 8 247 255
-0.459169 -0.223651 -0.154505 75 179 255
-0.0422556 -0.270216 0.297103 63 192 255
-0.0332845 -0.409079 -0.15746 28 227 255
-0.0635909 -0.21504 0.133082 77 178 255
-0.465137 -0.487164 0.0854431 8 247 255
0.140593 -0.488552 0.209661 7 248 255
-0.202886 -0.488663 0.103763 7 248 255
-0.503083 -0.282624 -0.140597 60 195 255
0.155473 -0.46103 -0.176158 14 241 255
-0.124813 -0.335443 0.241313 47 208 255
-0.0970307 -0.396496 0.110357 31 224 255
-0.500264 -0.440096 -0.106069 20 235 255
0.219536 -0.486807 -0.0959541 8 247 255
0.128153 -0.487726 -0.125691 8 247 255
-0.491224 -0.474421 0.0275421 11 244 255
0.164652 -0.181449 -0.156142 86 169 255
-0.0253068 -0.488795 0.128269 7 248 255
-0.435651 -0.169647 -0.155184 89 166 255
-0.354018 -0.487323 0.263426 8 247 255
-0.465282 -0.371733 -0.125066 36 218 255
-0.189973 -0.446035 -0.148555 18 237 255
-0.353428 -0.459774 -0.173228 15 240 255
0.016534 -0.152119 -0.16208 94 161 255
0.0344836 -0.453247 -0.169865 16 239 255
-0.193857 -0.149557 -0.160392 94 161 255
0.301151 -0.259638 -0.159329 65 189 255
-0.277199 -0.486814 -0.0377232 8 247 255
-0.0364278 -0.395986 0.14273 31 224 255
0.0761662 -0.396133 -0.156797 31 224 255
-0.110291 -0.471609 0.340035 12 243 255
-0.0771047 -0.224801 -0.156578 75 179 255
-0.111703 -0.150009 -0.0204729 94 161 255
-0.484488 -0.486762 -0.154022 8 247 255
0.245091 -0.487775 -0.131519 8 247 255
-0.29737 -0.485587 0.160942 8 247 255
-0.28089 -0.229351 -0.175633 73 181 255
-0.519373 -0.467767 0.0949517 13 242 255
0.317089 -0.432895 0.238987 22 233 255
-0.156629 -0.233217 -0.0479478 73 182 255
-0.382926 -0.487379 0.136916 8 247 255
-0.45562 -0.486665 -0.0273514 8 247 255
-0.392554 -0.486918 0.0246256 8 247 255
-0.0996053 -0.361008 0.0617517 40 215 255
0.0264391 -0.487222 -0.0958062 8 247 255
-0.0423208 -0.387817 0.279527 32 222 255
-0.19056 -0.487626 0.206992 8 247 255
0.17641 -0.488243 0.101808 7 248 255
-0.0474939 -0.280358 0.0939785 60 194 255
-0.0321842 -0.487323 -0.0449645 8 247 255
0.382215 -0.346581 0.249305 44 211 255
0.295541 -0.339612 -0.169712 46 209 255
-0.42308 -0.452578 -0.0706729 17 238 255
0.0693972 -0.487507 0.392523 8 247 255
0.264469 -0.431324 -0.16422 22 233 255
-0.108707 -0.401868 0.282847 30 225 255
0.252456 -0.430427 -0.0728706 22 233 255
-0.071134 -0.158098 -0.155695 92 163 255
0.210717 -0.357791 -0.172918 40 214 255
-0.22157 -0.488763 -0.0335457 7 248 255
0.388946 -0.40176 0.148119 30 225 255
0.101206 -0.153115 -0.165056 93 162 255
0.266552 -0.4875 -0.00471896 8 247 255
0.373714 -0.487458 -0.0770805 8 247 255
0.0725781 -0.487634 -0.0970314 8 247 255
0.222567 -0.487708 0.168547 8 247 255
0.228667 -0.487762 0.254208 8 247 255
0.315505 -0.487699 0.0772273 8 247 255
-0.265375 -0.268342 -0.158202 64 191 255
-0.489385 -0.44076 0.153014 20 235 255
-0.468731 -0.264955 -0.168693 65 190 255
0.304482 -0.480114 -0.145392 10 245 255
-0.0994105 -0.487421 0.222155 8 247 255
-0.357926 -0.487012 -0.080571 8 247 255
-0.314994 -0.42109 -0.15775 25 230 255
-0.428538 -0.377957 -0.169218 36 219 255
-0.148271 -0.430093 0.312651 22 233 255
-0.0664285 -0.417297 0.184769 26 229 255
-0.211508 -0.221551 -0.157436 76 179 255
-0.0265097 -0.468158 0.0502436 13 242 255
-0.0960295 -0.147991 0.0907321 95 160 255
-0.362568 -0.459312 0.0530656 15 240 255
0.332719 -0.418407 -0.161855 25 230 255
0.185603 -0.147167 -0.167105 95 160 255
-0.224817 -0.489734 0.270974 7 248 255
-0.000825272 -0.350278 -0.173737 43 211 255
-0.046015 -0.20502 0.0209132 80 175 255
-0.33394 -0.241566 -0.154129 71 184 255
-0.0832529 -0.185667 0.196746 85 170 255
-0.0481812 -0.291148 0.256342 58 197 255
-0.224094 -0.475192 -0.120036 11 244 255
-0.424933 -0.486578 -0.150242 8 247 255
0.117387 -0.396193 -0.164345 31 224 255
0.227756 -0.309435 -0.156189 52 202 255
0.325582 -0.467673 0.202147 13 242 255
0.0282556 -0.202386 -0.167952 81 174 255
0.0741559 -0.281284 -0.162964 60 195 255
-0.177221 -0.295479 -0.069762 56 198 255
-0.068268 -0.455481 -0.146725 16 239 255
0.401593 -0.399748 0.234585 30 225 255
0.365459 -0.489105 0.00760582 7 248 255
0.355051 -0.487563 0.119009 8 247 255
-0.0152917 -0.341833 0.203071 44 210 255
-0.126104 -0.488159 0.0184201 7 248 255
-0.251188 -0.463428 -0.176022 14 241 255
0.226418 -0.487927 0.0684615 8 247 255
-0.42015 -0.279681 -0.171842 60 194 255
-0.024961 -0.391914 0.0197987 32 223 255
-0.146163 -0.189446 -0.134541 84 171 255
0.188316 -0.402042 -0.155755 30 225 255
-0.0445528 -0.246098 0.340911 69 186 255
-0.0594379 -0.162598 0.149751 91 163 255
-0.398067 -0.482865 0.222442 9 246 255
0.30231 -0.487521 -0.0544114 8 247 255
-0.505948 -0.474987 0.188014 11 244 255
-0.335145 -0.487089 -0.0186865 8 247 255
-0.0468573 -0.269365 -0.174724 64 191 255
-0.098756 -0.354054 -0.098425 42 213 255
-0.11785 -0.369319 -0.167604 38 217 255
-0.29528 -0.486527 -0.102581 8 247 255
-0.357503 -0.306555 -0.154315 54 201 255
0.149303 -0.295455 -0.165897 56 198 255
0.350156 -0.30009 0.324603 56 199 255
0.412656 -0.30009 0.174603 56 199 255
-0.393032 -0.416424 -0.152485 26 229 255
0.066272 -0.48917 0.0227704 7 248 255
-0.100447 -0.432015 -0.0551315 22 233 255
-0.50247 -0.153323 -0.1353 93 162 255
-0.055149 -0.362188 0.353998 40 215 255
-0.240197 -0.479708 -0.152176 10 245 255
-0.0442402 -0.323112 -0.0687669 50 205 255
-0.261715 -0.371433 -0.161657 36 218 255
-0.127596 -0.488068 -0.163373 8 247 255
0.285842 -0.184144 -0.13424 85 170 255
-0.0435174 -0.268299 0.0135188 64 191 255
-0.0400027 -0.221521 0.216637 76 179 255
-0.00274189 -0.463924 -0.118096 14 241 255
-0.119757 -0.48808 0.36117 8 247 255
-0.0512074 -0.29312 0.161847 56 198 255
0.00367429 -0.488814 0.0752943 7 248 255
-0.205725 -0.400582 -0.173997 30 225 255
-0.469486 -0.487095 0.230037 8 247 255
0.098717 -0.489276 -0.0490292 7 248 255
-0.405934 -0.217137 -0.155596 77 178 255
-0.172471 -0.448751 0.23989 18 237 255
-0.0435378 -0.206317 0.286931 80 175 255
0.199948 -0.488357 -0.0674202 7 248 255
0.230371 -0.22467 -0.16674 75 179 255
-0.282183 -0.416423 0.162087 26 229 255
0.102535 -0.488253 0.308864 7 248 255
0.274175 -0.454474 0.200768 16 239 255
-0.0898025 -0.487649 -0.0240994 8 247 255
0.0225265 -0.287996 -0.161886 59 195 255
-0.504225 -0.445255 -0.0427268 18 237 255
-0.0421006 -0.14198 0.306728 96 159 255
-0.190467 -0.449858 -0.168669 17 238 255
-0.233889 -0.48748 0.330779 8 247 255
-0.149952 -0.322899 0.210618 50 205 255
-0.122237 -0.426475 -0.15731 23 232 255
0.269936 -0.366222 -0.148073 39 216 255
-0.216168 -0.189458 -0.176651 84 171 255
0.314874 -0.487675 0.00613934 8 247 255
-0.291935 -0.488099 0.269789 8 247 255
0.0102372 -0.272516 0.224277 63 192 255
-0.0446539 -0.487777 0.310505 8 247 255
-0.483118 -0.432358 -0.146527 22 233 255
-0.0807499 -0.181179 -0.00515458 86 169 255
-0.186436 -0.487771 -0.170625 8 247 255
0.20423 -0.488745 -0.0135102 7 248 255
-0.506878 -0.474001 0.143432 11 244 255
-0.0329108 -0.177921 -0.17465 87 168 255
-0.0661739 -0.139931 0.202154 97 158 255
-0.303913 -0.483065 -0.173736 9 246 255
-0.287183 -0.166504 -0.158436 89 165 255
0.179292 -0.48908 0.169641 7 248 255
-0.0669721 -0.227896 0.0745122 73 181 255
-0.329321 -0.348943 -0.156045 43 211 255
-0.0779769 -0.325433 -0.174319 48 206 255
-0.097924 -0.238309 -0.127807 71 184 255
-0.243493 -0.488636 0.0619707 7 248 255
-0.0201807 -0.39047 -0.177973 32 222 255
-0.153844 -0.487652 0.103658 8 247 255
-0.231727 -0.460312 0.20841 15 240 255
0.09009 -0.488492 0.122223 7 248 255
-0.0864367 -0.296816 0.0929283 56 199 255
-0.0562619 -0.383278 -0.112421 34 221 255
-0.050102 -0.487607 -0.15807 8 247 255
-0.512246 -0.486208 0.0260506 8 247 255
-0.146982 -0.487727 0.22654 8 247 255
0.080089 -0.346612 -0.172855 44 211 255
0.437656 -0.33759 0.224603 46 209 255
-0.0577385 -0.359125 0.215588 40 214 255
-0.078422 -0.473487 0.141424 11 244 255
-0.0544676 -0.488354 0.0202491 7 248 255
-0.151423 -0.38809 0.249508 32 222 255
-0.144552 -0.214532 -0.175883 78 177 255
-0.32704 -0.487275 0.164258 8 247 255
0.0226957 -0.35064 -0.140454 43 211 255
0.113565 -0.235777 -0.157347 72 183 255
-0.0430431 -0.326658 0.0344519 48 206 255
-0.0161668 -0.488574 0.193334 7 248 255
-0.323181 -0.487488 0.0654681 8 247 255
0.304643 -0.459887 -0.100424 15 240 255
-0.0760461 -0.435441 0.028976 21 234 255
0.0297857 -0.479116 -0.156189 10 245 255
0.0781481 -0.48831 0.219722 7 248 255
-0.406239 -0.487533 0.109284 8 247 255
0.0129036 -0.487633 0.391303 8 247 255
-0.416767 -0.455679 -0.0296993 16 239 255
0.368684 -0.365649 0.21065 39 216 255
0.0637321 -0.17404 -0.172446 88 167 255
0.282333 -0.484679 0.14653 8 247 255
-0.349999 -0.423817 -0.173905 24 231 255
0.112892 -0.28819 -0.113703 59 195 255
0.254492 -0.151581 -0.162595 94 161 255
-0.116048 -0.190283 -0.0701161 84 171 255
-0.121654 -0.243708 0.129218 70 185 255
-0.508737 -0.199058 -0.125252 81 173 255
-0.28369 -0.433935 -0.142676 21 234 255
-0.18757 -0.316529 -0.173751 51 204 255
-0.161957 -0.487895 -0.0518547 8 247 255
-0.0893049 -0.488041 0.0727212 8 247 255
0.0149303 -0.470107 0.128815 12 243 255
-0.176137 -0.253329 -0.135527 68 187 255
-0.502355 -0.311282 -0.103691 52 202 255
0.186953 -0.485455 -0.170212 8 247 255
0.024622 -0.487705 0.333871 8 247 255
-0.48597 -0.397757 -0.0602597 31 224 255
-0.125303 -0.149048 0.111165 94 161 255
-0.0662846 -0.378306 -0.0298399 36 219 255
0.173507 -0.488131 0.251442 8 247 255
-0.0937365 -0.298184 0.222831 56 199 255
-0.0480834 -0.221723 -0.0430296 76 179 255
-0.422396 -0.456629 -0.124174 16 239 255
0.343099 -0.388618 -0.126409 32 222 255
-0.179217 -0.487618 0.0226777 8 247 255
-0.122601 -0.470727 0.280266 12 243 255
-0.396065 -0.359016 -0.172202 40 214 255
0.201462 -0.272042 -0.171129 63 192 255
-0.0418939 -0.173489 0.331163 88 167 255
-0.277847 -0.487395 0.00943452 8 247 255
-0.0302463 -0.348858 0.135643 43 211 255
-0.0263934 -0.440418 0.260379 20 235 255
0.19664 -0.379026 -0.0802904 35 220 255
-0.50025 -0.48706 0.110652 8 247 255
-0.395051 -0.486916 0.306559 8 247 255
0.0058218 -0.486931 -0.136589 8 247 255
-0.452424 -0.481374 0.0236768 9 246 255
0.335114 -0.487579 -0.117667 8 247 255
-0.474673 -0.465396 0.195843 13 242 255
-0.314827 -0.48772 0.344038 8 247 255
-0.0334239 -0.245994 -0.15638 69 186 255
-0.0832104 -0.347367 0.270214 44 211 255
-0.444307 -0.149216 -0.168976 94 161 255
-0.339783 -0.487703 0.234319 8 247 255
0.105353 -0.488019 0.379368 8 247 255
-0.0577795 -0.42144 0.362438 25 230 255
-0.140862 -0.280603 -0.173511 60 194 255
0.243685 -0.487791 -0.0697554 8 247 255
0.367245 -0.417946 0.0978282 25 230 255
-0.215884 -0.487489 0.140298 8 247 255
-0.0716086 -0.43034 0.0871617 22 233 255
0.198951 -0.199556 -0.155223 81 174 255
0.316174 -0.281799 -0.118726 60 195 255
-0.503506 -0.353912 -0.126296 42 213 255
-0.0708978 -0.148738 0.263976 94 161 255
-0.196459 -0.488148 0.361921 7 248 255
-0.486879 -0.457671 -0.0935794 15 240 255
0.0253815 -0.488766 0.139802 7 248 255
-0.0281077 -0.487942 0.266284 8 247 255
0.117405 -0.489099 -0.00554207 7 248 255
0.0294559 -0.488185 -0.0568346 7 248 255
0.278569 -0.479495 -0.172259 10 245 255
-0.46746 -0.287224 -0.13554 59 195 255
-0.0670256 -0.413073 -0.175855 27 228 255
-0.264622 -0.487802 0.191193 8 247 255
-0.373822 -0.269072 -0.171354 64 191 255
0.350156 -0.30009 0.174603 56 199 255
-0.074942 -0.234774 0.167305 72 183 255
-0.242962 -0.298592 -0.156588 56 199 255
-0.470992 -0.229908 -0.165927 73 181 255
0.0460257 -0.408019 -0.160815 28 227 255
0.192691 -0.488654 0.0584496 7 248 255
-0.17079 -0.375694 -0.168975 36 219 255
0.20812 -0.440715 -0.153747 20 235 255
0.182876 -0.331834 -0.163204 48 207 255
0.372423 -0.436977 0.196551 21 234 255
0.145204 -0.487855 -0.116824 8 247 255
-0.02702 -0.480192 -0.0650996 10 245 255
-0.420563 -0.487227 0.186022 8 247 255
0.25731 -0.475084 0.229671 11 244 255
-0.0785444 -0.149336 0.0422922 94 161 255
0.0158118 -0.237385 -0.170081 72 183 255
0.15667 -0.488916 -0.0617433 7 248 255
-0.0713394 -0.468934 0.283284 12 243 255
-0.201418 -0.487716 -0.0758109 8 247 255
-0.0207434 -0.302158 -0.173889 55 200 255
0.132091 -0.152642 -0.165019 93 162 255
-0.469994 -0.360021 -0.166021 40 215 255
-0.506313 -0.251402 -0.10139 68 187 255
0.262553 -0.48749 0.0795936 8 247 255
-0.502404 -0.486438 -0.130683 8 247 255
-0.308227 -0.30036 -0.157885 56 199 255
-0.198726 -0.401653 0.216473 30 225 255
-0.0867951 -0.487869 0.172658 8 247 255
-0.0447823 -0.363418 -0.158569 39 216 255
-0.0931722 -0.48187 -0.100783 9 246 255
-0.190904 -0.302368 -0.127855 55 200 255
0.372039 -0.408334 0.259361 28 227 255
0.0986494 -0.485217 -0.171489 8 247 255
-0.374444 -0.361548 -0.153724 40 215 255
0.115882 -0.489071 0.0762277 7 248 255
0.15024 -0.41213 -0.162188 27 228 255
-0.147312 -0.169314 0.0346009 89 166 255
-0.443774 -0.487151 0.277144 8 247 255
-0.0106613 -0.488819 0.0676387 7 248 255
-0.0296018 -0.355355 0.250902 40 214 255
-0.329365 -0.441534 0.160184 19 236 255
-0.23699 -0.441709 -0.15579 19 236 255
-0.347976 -0.455537 0.0863307 16 239 255
-0.321638 -0.214549 -0.156829 78 177 255
-0.0375704 -0.269855 0.202049 63 192 255
-0.190868 -0.476444 0.118931 10 245 255
-0.475456 -0.48735 0.157322 8 247 255
-0.145533 -0.44897 -0.175416 18 237 255
-0.0379763 -0.445665 0.203275 18 237 255
0.11502 -0.488361 0.245162 7 248 255
-0.372164 -0.44602 -0.154315 18 237 255
-0.450828 -0.485444 0.0827997 8 247 255
-0.126353 -0.319683 -0.160314 51 204 255
0.381805 -0.486991 0.0336128 8 247 255
0.404113 -0.346037 0.277441 44 211 255
-0.40959 -0.173129 -0.170043 88 167 255
0.260221 -0.370138 -0.162391 38 217 255
-0.0227211 -0.450899 0.0813025 17 238 255
-0.349535 -0.462172 -0.0816212 14 241 255
-0.0220409 -0.177253 -0.156815 87 168 255
-0.262125 -0.488473 0.356505 7 248 255
-0.258354 -0.337344 -0.173176 46 209 255
-0.156135 -0.487625 -0.112895 8 247 255
0.175749 -0.487851 0.297049 8 247 255
0.0102192 -0.48838 0.23656 7 248 255
-0.152251 -0.16577 -0.159951 89 165 255
-0.401019 -0.468418 -0.172604 13 242 255
-0.153891 -0.487465 0.330409 8 247 255
-0.49172 -0.487134 -0.0210031 8 247 255
-0.204778 -0.245594 -0.169174 70 185 255
0.254656 -0.405469 -0.0776008 29 226 255
-0.0859102 -0.360393 0.116444 40 215 255
0.354344 -0.430248 -0.120748 22 233 255
0.214421 -0.488108 0.123755 8 247 255
-0.0743017 -0.253413 0.242192 68 187 255
0.384952 -0.457598 0.130733 15 240 255
-0.0405915 -0.434498 0.310999 21 234 255
-0.185577 -0.465274 0.272838 13 242 255
-0.0730301 -0.285417 -0.040956 59 195 255
-0.346584 -0.487971 0.292621 8 247 255
-0.0417189 -0.409761 -0.0600144 28 227 255
-0.120989 -0.420615 0.136492 25 230 255
0.0372797 -0.488485 0.124949 7 248 255
0.311107 -0.333103 -0.159085 47 208 255
-0.382999 -0.486842 -0.0985153 8 247 255
-0.0511802 -0.239836 0.118786 71 184 255
-0.428057 -0.360347 -0.153798 40 215 255
0.253949 -0.439449 -0.151289 20 235 255
0.223551 -0.487951 0.0108148 8 247 255
-0.380524 -0.48704 -0.0142837 8 247 255
-0.0948002 -0.221971 -0.174517 76 179 255
0.172968 -0.225748 -0.156123 75 179 255
-0.037581 -0.487699 0.346115 8 247 255
-0.0882256 -0.148224 0.139739 95 160 255
-0.470246 -0.301952 -0.166853 55 200 255
-0.180658 -0.487945 0.164573 8 247 255
-0.0594758 -0.487713 0.218425 8 247 255
-0.504774 -0.41813 -0.106649 25 230 255
-0.0974742 -0.384383 0.0487025 34 221 255
-0.135699 -0.487655 0.0578238 8 247 255
-0.496387 -0.359284 -0.0770407 40 215 255
-0.103677 -0.488502 0.289879 7 248 255
-0.0697245 -0.277766 -0.157616 60 194 255
-0.0659674 -0.487768 -0.0964255 8 247 255
-0.0514603 -0.315969 0.346722 52 203 255
-0.379172 -0.487436 0.0746793 8 247 255
0.255301 -0.254768 -0.166755 67 188 255
-0.265059 -0.487727 0.116598 8 247 255
-0.111627 -0.487791 0.126301 8 247 255
-0.480093 -0.176323 -0.155708 87 168 255
0.0154332 -0.488311 0.005426 7 248 255
-0.167365 -0.415571 -0.156655 26 229 255
-0.104616 -0.440305 -0.0191731 20 235 255
0.0690479 -0.488153 0.35769 7 248 255
-0.149914 -0.2073 -0.0408872 79 176 255
0.351427 -0.468816 -0.160012 12 243 255
0.109196 -0.488329 0.171997 7 248 255
-0.293359 -0.45745 -0.123514 15 240 255
-0.0278709 -0.419319 0.136546 25 230 255
0.383854 -0.382054 0.178445 35 220 255
-0.264689 -0.184599 -0.175875 85 170 255
0.057094 -0.234855 -0.16244 72 183 255
0.328215 -0.393708 -0.161605 32 223 255
0.331897 -0.486482 -0.0587314 8 247 255
0.34773 -0.48752 0.0706326 8 247 255
-0.221373 -0.454335 -0.17156 16 239 255
0.0759907 -0.485738 -0.134875 8 247 255
-0.0804826 -0.411067 -0.122197 27 228 255
-0.259557 -0.488124 0.289404 8 247 255
-0.497066 -0.477312 0.0815364 10 245 255
-0.0733245 -0.339527 -0.138948 46 209 255
-0.321845 -0.40099 -0.164832 30 225 255
0.294474 -0.487702 0.174041 8 247 255
-0.256673 -0.486675 -0.0689134 8 247 255
0.130782 -0.338282 -0.155199 46 209 255
-0.0453699 -0.360901 0.303796 40 215 255
0.299346 -0.416885 -0.10034 26 229 255
-0.38959 -0.40751 -0.172427 28 227 255
-0.317014 -0.256639 -0.167468 67 188 255
-0.396579 -0.486926 0.251542 8 247 255
-0.51199 -0.486031 -0.0692636 8 247 255
-0.0998443 -0.22509 0.299603 75 179 255
-0.0164541 -0.337384 0.170959 46 209 255
-0.0415781 -0.487954 0.123283 8 247 255
-0.323857 -0.45702 -0.174216 15 240 255
-0.0783461 -0.21957 -0.0179188 76 179 255
-0.101196 -0.177682 -0.155778 87 168 255
-0.389719 -0.310398 -0.153942 52 202 255
-0.445972 -0.486514 -0.107044 8 247 255
-0.352451 -0.164214 -0.155511 89 165 255
0.269997 -0.487972 -0.0252553 8 247 255
-0.278325 -0.458013 0.201739 15 240 255
0.0485645 -0.488813 0.275168 7 248 255
-0.236932 -0.380363 -0.157481 35 220 255
-0.220313 -0.487577 0.0357957 8 247 255
-0.0944227 -0.487446 -0.150777 8 247 255
-9.17094e-05 -0.402716 -0.158754 29 226 255
-0.0816752 -0.310232 0.138192 52 202 255
-0.443364 -0.442581 -0.163416 19 236 255
-0.40882 -0.212514 -0.171235 78 177 255
-0.326375 -0.487338 0.106729 8 247 255
-0.215535 -0.48794 0.2264 8 247 255
0.0837017 -0.396911 -0.172134 31 224 255
0.193235 -0.488058 0.221822 8 247 255
-0.456624 -0.404999 -0.133849 29 226 255
-0.0845333 -0.4316 0.330065 22 233 255
-0.0736436 -0.391391 0.20017 32 223 255
-0.227629 -0.48755 -0.118446 8 247 255
-0.31783 -0.486039 -0.127159 8 247 255
-0.0568518 -0.452496 -0.174152 17 238 255
0.350156 -0.30009 0.262103 56 199 255
-0.157765 -0.48744 0.270487 8 247 255
-0.100597 -0.200548 0.186038 81 174 255
-0.0627564 -0.292107 0.293136 58 197 255
-0.358622 -0.487778 0.17458 8 247 255
0.252662 -0.304302 -0.155357 55 200 255
0.249945 -0.190443 -0.166158 84 171 255
-0.0649861 -0.351874 0.0734513 42 213 255
-0.0533364 -0.260814 0.0570262 65 189 255
0.0366715 -0.341656 -0.17247 44 210 255
0.0182535 -0.466018 0.101493 13 242 255
-0.0468996 -0.223314 0.336649 75 179 255
-0.26043 -0.24336 -0.157714 70 185 255
-0.0979302 -0.217567 -0.0960424 77 178 255
-0.0166073 -0.290715 -0.15603 58 197 255
0.425156 -0.27509 0.249603 62 193 255
0.263388 -0.487196 -0.091557 8 247 255
-0.129606 -0.261789 -0.157689 65 190 255
-0.198459 -0.340834 -0.105761 44 210 255
0.294141 -0.224481 -0.156877 75 179 255
-0.0950487 -0.3871 -0.15671 32 222 255
0.156145 -0.488554 0.0168839 7 248 255
-0.451688 -0.263285 -0.15183 65 190 255
-0.0520983 -0.141758 0.247412 96 159 255
-0.306246 -0.487155 -0.0476343 8 247 255
0.297078 -0.487666 0.0307319 8 247 255
0.0880699 -0.489066 -0.0148247 7 248 255
-0.0650564 -0.323664 -0.00763518 50 205 255
0.142357 -0.488538 0.114453 7 248 255
-0.502524 -0.257301 -0.144046 67 188 255
0.378334 -0.487506 -0.0698858 8 247 255
-0.0212209 -0.487749 0.386006 8 247 255
-0.134084 -0.384118 0.257497 34 221 255
0.337656 -0.37509 -0.0628967 36 219 255
-0.0545427 -0.336544 -0.0888482 46 209 255
-0.4348 -0.487008 -0.0359819 8 247 255
0.161574 -0.487659 -0.12413 8 247 255
-0.0621611 -0.170684 0.102924 89 166 255
0.210642 -0.153326 -0.167006 93 162 255
0.00685554 -0.434495 -0.174796 21 234 255
-0.146022 -0.424695 -0.174342 24 231 255
0.0223328 -0.484191 -0.135483 9 246 255
-0.126545 -0.147125 0.0393163 95 160 255
0.0537219 -0.319279 -0.134706 51 204 255
0.382632 -0.454178 0.0775509 16 239 255
-0.307426 -0.487499 0.217633 8 247 255
-0.0864985 -0.282679 0.180947 60 195 255
0.303622 -0.487731 0.10531 8 247 255
0.118663 -0.260101 -0.163182 65 189 255
-0.285338 -0.415468 -0.174403 26 229 255
-0.0772084 -0.47618 0.00472208 11 244 255
-0.152695 -0.322361 0.198992 50 205 255
0.410245 -0.419915 0.168817 25 230 255
-0.0568699 -0.270665 -0.089455 63 192 255
-0.242813 -0.423195 0.21449 24 231 255
-0.0499418 -0.48822 0.0728464 7 248 255
0.0605371 -0.488785 0.0542547 7 248 255
-0.221044 -0.488634 -0.0351772 7 248 255
-0.49129 -0.486921 0.195024 8 247 255
0.116643 -0.487635 0.358376 8 247 255
-0.277389 -0.488318 0.0461001 7 248 255
0.225685 -0.379744 -0.153208 35 220 255
-0.514304 -0.469745 0.00875495 12 243 255
0.0485006 -0.487468 0.392958 8 247 255
-0.201652 -0.179052 -0.157016 87 168 255
-0.134733 -0.489036 -0.0197859 7 248 255
-0.0390689 -0.220273 0.244207 76 179 255
-0.037344 -0.363972 -0.177622 39 216 255
0.0681646 -0.161647 -0.156856 91 163 255
0.241669 -0.487723 0.183834 8 247 255
-0.309996 -0.421624 0.181859 25 230 255
0.147555 -0.488213 -0.17598 7 248 255
-0.0263772 -0.40606 0.246451 29 226 255
-0.0873443 -0.13759 -0.162897 97 158 255
-0.344942 -0.486888 -0.165521 8 247 255
-0.149261 -0.32823 -0.173144 48 207 255
-0.370475 -0.226957 -0.156143 73 181 255
-0.119587 -0.487465 0.191965 8 247 255
-0.145619 -0.438195 0.258579 20 235 255
-0.471699 -0.441218 -0.0334023 20 235 255
-0.148791 -0.486116 -0.176434 8 247 255
-0.0349181 -0.409165 0.0265949 28 227 255
0.134526 -0.199512 -0.163191 81 174 255
-0.517571 -0.467816 0.11198 13 242 255
0.121501 -0.48822 0.289683 7 248 255
-0.0884273 -0.4814 0.353858 9 246 255
-0.328281 -0.372692 -0.154435 36 218 255
-0.460172 -0.33365 -0.139393 47 208 255
-0.135333 -0.485038 0.133845 8 247 255
-0.0460851 -0.393903 0.349928 32 223 255
0.279448 -0.487131 -0.140268 8 247 255
0.187656 -0.40009 -0.0878967 30 225 255
-0.0261918 -0.488327 0.0217621 7 248 255
-0.0218199 -0.487943 0.163453 8 247 255
-0.121577 -0.151596 -0.0159028 94 161 255
-0.24084 -0.214302 -0.176177 78 177 255
0.0567367 -0.48889 0.186959 7 248 255
-0.343411 -0.485957 0.00599761 8 247 255
-0.466502 -0.486942 0.0353043 8 247 255
0.311858 -0.459563 0.228074 15 240 255
-0.0909361 -0.449966 0.100847 17 238 255
-0.501642 -0.411777 -0.0676858 27 228 255
0.148856 -0.344229 -0.165951 44 211 255
-0.0819094 -0.296456 -0.174613 56 198 255
-0.035963 -0.429054 -0.152311 23 232 255
-0.496214 -0.150435 -0.155883 94 161 255
-0.111289 -0.487726 -0.0527479 8 247 255
-0.191463 -0.489095 0.314782 7 248 255
-0.064762 -0.419643 0.282089 25 230 255
-0.0538795 -0.176045 0.191072 87 168 255
0.0917506 -0.48802 -0.0778208 8 247 255
-0.160984 -0.24784 -0.0961173 69 186 255
0.315685 -0.443687 -0.166187 19 236 255
0.179638 -0.271149 -0.156228 63 192 255
-0.263582 -0.487618 -0.0109259 8 247 255
0.303227 -0.262986 -0.151321 65 190 255
-0.0979418 -0.437675 -0.103002 20 235 255
0.211191 -0.488606 -0.0469743 7 248 255
-0.0540467 -0.194617 -0.0695845 83 172 255
-0.125401 -0.2436 0.168921 70 185 255
-0.00296529 -0.488013 0.284311 8 247 255
-0.0481591 -0.205485 0.0433117 80 175 255
-0.491889 -0.384233 -0.147303 34 221 255
-0.0760451 -0.187744 -0.17574 84 171 255
-0.505787 -0.282858 -0.0913878 60 195 255
0.366727 -0.398017 0.127594 31 224 255
-0.375389 -0.322024 -0.168166 50 205 255
-0.176168 -0.269104 -0.174547 64 191 255
0.218965 -0.420434 -0.170608 25 230 255
-0.0736233 -0.456854 0.182269 16 239 255
-0.052332 -0.311029 0.223763 52 202 255
-0.28017 -0.319567 -0.17055 51 204 255
-0.353628 -0.180502 -0.173383 86 169 255
-0.256914 -0.485948 -0.16964 8 247 255
-0.208441 -0.419281 -0.157103 25 230 255
0.0732708 -0.436385 -0.159697 21 234 255
-0.437882 -0.487143 0.214008 8 247 255
-0.474807 -0.486622 -0.164819 8 247 255
-0.0336389 -0.487543 -0.124322 8 247 255
0.373152 -0.386352 0.27318 34 221 255
0.348453 -0.487487 0.000270852 8 247 255
0.208786 -0.486743 -0.129873 8 247 255
0.278343 -0.308543 -0.171933 52 202 255
-0.0894135 -0.371391 0.297082 36 218 255
-0.0688561 -0.191757 0.281378 83 172 255
0.139926 -0.444926 -0.153298 19 236 255
0.230455 -0.48777 0.250987 8 247 255
-0.222674 -0.32941 -0.158245 48 207 255
-0.0443016 -0.371355 -0.0394224 36 218 255
0.0717384 -0.488829 0.136759 7 248 255
-0.0279396 -0.222554 -0.172949 75 179 255
-0.444248 -0.225666 -0.170943 75 179 255
-0.464135 -0.487492 0.131165 8 247 255
0.331289 -0.487637 0.139014 8 247 255
0.150589 -0.148035 -0.165852 95 160 255
0.135088 -0.488456 -0.0224115 7 248 255
-0.393456 -0.486592 -0.153465 8 247 255
-0.037313 -0.449724 -0.0914366 17 238 255
-0.0975122 -0.337922 0.159764 46 209 255
-0.139938 -0.148022 0.0793578 95 160 255
-0.351611 -0.487166 0.318123 8 247 255
-0.431558 -0.340983 -0.170831 44 210 255
0.267167 -0.173278 -0.147682 88 167 255
0.295112 -0.379717 -0.12641 35 220 255
-0.0623443 -0.13759 -0.0128967 97 158 255
-0.221817 -0.468144 0.243722 13 242 255
0.171195 -0.488108 0.201453 8 247 255
-0.175403 -0.487539 0.0623292 8 247 255
-0.254372 -0.169626 -0.159578 89 166 255
-0.404958 -0.176325 -0.154134 87 168 255
0.387656 -0.31259 0.312103 52 203 255
-0.503162 -0.323654 -0.134263 50 205 255
0.197763 -0.488988 0.0988266 7 248 255
0.295146 -0.487334 -0.0895368 8 247 255
-0.398272 -0.470428 0.0245487 12 243 255
-0.506396 -0.223878 -0.111435 75 179 255
0.0342093 -0.467735 -0.174226 13 242 255
-0.313432 -0.487482 0.27342 8 247 255
-0.470249 -0.41299 -0.16655 27 228 255
-0.0567787 -0.308722 0.122123 52 202 255
0.276454 -0.411201 -0.162431 27 228 255
0.10946 -0.489298 0.0406375 7 248 255
-0.279363 -0.487841 0.161453 8 247 255
-0.0469102 -0.277445 0.342083 60 194 255
0.0210142 -0.488719 -0.036376 7 248 255
-0.0431813 -0.140331 0.294491 97 158 255
-0.134066 -0.193344 -0.123221 83 172 255
0.411926 -0.373756 0.238402 36 218 255
-0.048266 -0.379096 0.105796 35 220 255
-0.100476 -0.429687 -0.170025 22 233 255
-0.101724 -0.488107 0.02898 8 247 255
-0.175425 -0.208151 -0.176691 79 176 255
0.387656 -0.30009 0.212103 56 199 255
0.0683611 -0.488003 0.319818 8 247 255
0.261016 -0.488174 0.024208 7 248 255
0.0220831 -0.156086 -0.162237 93 162 255
-0.0504604 -0.246379 -0.0297805 69 186 255
-0.0491211 -0.301426 0.045337 55 200 255
-0.180852 -0.487878 -0.0253198 8 247 255
-0.452661 -0.440045 -0.0914175 20 235 255
-0.366366 -0.487561 0.226657 8 247 255
-0.505217 -0.486803 0.0536456 8 247 255
-0.0242492 -0.386548 0.195449 34 221 255
-0.1712 -0.487206 -0.14201 8 247 255
-0.0567431 -0.487848 -0.0323833 8 247 255
-0.0230261 -0.362616 0.00656106 40 215 255
0.0283922 -0.48877 0.0397143 7 248 255
-0.172007 -0.352233 -0.158728 42 213 255
-0.413079 -0.423958 -0.152139 24 231 255
-0.455528 -0.4871 0.256682 8 247 255
-0.0658608 -0.140469 0.196489 97 158 255
-0.216105 -0.472561 -0.128363 11 244 255
-0.0946545 -0.257563 0.121812 67 188 255
-0.299182 -0.489412 0.0785415 7 248 255
-0.0751497 -0.408532 0.153731 28 227 255
-0.176197 -0.407213 0.262813 28 227 255
-0.375207 -0.486867 0.103995 8 247 255
-0.297963 -0.214443 -0.174698 78 177 255
-0.495146 -0.212158 -0.153201 78 177 255
0.254263 -0.483183 -0.172429 9 246 255
-0.0725222 -0.423669 -0.0118471 24 231 255
0.327831 -0.464836 0.167658 13 242 255
0.300156 -0.37509 -0.0378967 36 219 255
-0.482498 -0.387279 -0.0998025 32 222 255
0.201738 -0.314796 -0.163885 52 203 255
-0.0416074 -0.231391 0.298898 73 182 255
-0.0914774 -0.283437 -0.141369 60 195 255
0.299739 -0.440642 -0.139997 20 235 255
0.0663239 -0.308466 -0.162555 52 202 255
-0.179204 -0.226858 -0.147511 73 181 255
-0.40437 -0.261014 -0.171996 65 189 255
-0.0505947 -0.332459 -0.175206 47 208 255
-0.10927 -0.486932 -0.117518 8 247 255
-0.040539 -0.411785 -0.120391 27 228 255
0.140922 -0.487982 -0.0872984 8 247 255
-0.260397 -0.488033 0.310525 8 247 255
-0.504072 -0.478151 0.204791 10 245 255
0.264794 -0.488021 0.135094 8 247 255
-0.0850968 -0.48759 0.260012 8 247 255
0.138588 -0.489213 0.230966 7 248 255
-0.505835 -0.318317 -0.073794 51 204 255
0.0398585 -0.215238 -0.157504 77 178 255
-0.000778156 -0.48689 -0.135672 8 247 255
0.170865 -0.375645 -0.163457 36 219 255
-0.110566 -0.170331 -0.0472467 89 166 255
-0.28497 -0.373526 -0.167589 36 218 255
-0.0633107 -0.487713 0.142956 8 247 255
-0.477322 -0.486802 -0.0811184 8 247 255
-0.241311 -0.486627 0.161288 8 247 255
0.19521 -0.488847 0.015903 7 248 255
-0.0525943 -0.151008 -0.161244 94 161 255
-0.121275 -0.461685 0.333043 14 241 255
-0.504697 -0.16153 -0.133089 91 163 255
0.143491 -0.48757 0.325803 8 247 255
0.0727666 -0.488789 0.253598 7 248 255
0.154843 -0.489115 0.157718 7 248 255
-0.22553 -0.260968 -0.158011 65 189 255
-0.284758 -0.480733 -0.145543 9 246 255
-0.270269 -0.491864 0.246917 7 248 255
-0.0726969 -0.147952 0.0761541 95 160 255
-0.50105 -0.462803 0.135655 14 241 255
0.0109572 -0.487826 0.364533 8 247 255
-0.174973 -0.491151 0.189695 7 248 255
-0.15562 -0.445733 -0.169088 18 237 255
0.210942 -0.225363 -0.169762 75 179 255
-0.238892 -0.486231 -0.0841571 8 247 255
-0.325994 -0.168737 -0.157421 89 166 255
0.0204949 -0.487956 0.174364 8 247 255
-0.417046 -0.487284 0.14346 8 247 255
0.345533 -0.43125 -0.100669 22 233 255
-0.0421645 -0.174393 0.330686 88 167 255
-0.204385 -0.397632 0.206448 31 224 255
-0.0805297 -0.24795 -0.174922 69 186 255
-0.413903 -0.486999 -0.0589177 8 247 255
0.337834 -0.487569 -0.145044 8 247 255
0.378462 -0.486097 -0.0370549 8 247 255
-0.0445954 -0.311882 0.29331 52 202 255
-0.342146 -0.289596 -0.154241 58 197 255
0.00724089 -0.350398 -0.15663 43 211 255
-0.232929 -0.487382 0.095519 8 247 255
-0.218554 -0.416839 -0.174724 26 229 255
0.309625 -0.301849 -0.153182 55 200 255
0.15473 -0.489161 0.0859298 7 248 255
0.0553244 -0.488559 -0.0905786 7 248 255
-0.0952672 -0.357347 -0.172971 40 214 255
-0.143915 -0.333804 0.229347 47 208 255
-0.0558521 -0.448054 0.36294 18 237 255
-0.452827 -0.463486 0.196535 14 241 255
-0.396848 -0.486927 0.305216 8 247 255
0.256625 -0.487398 -0.0582401 8 247 255
-0.503874 -0.446167 -0.0415004 18 237 255
-0.0640799 -0.24115 0.201124 71 184 255
0.286326 -0.461095 0.239067 14 241 255
-0.350396 -0.487017 -0.031822 8 247 255
0.39732 -0.445463 0.107761 18 237 255
-0.0512966 -0.217065 0.0900041 77 178 255
-0.307782 -0.487719 0.344089 8 247 255
-0.101482 -0.382011 0.118364 35 220 255
0.0923317 -0.214614 -0.157428 78 177 255
0.364913 -0.372204 0.181639 36 218 255
-0.0944208 -0.487948 0.0933576 8 247 255
0.0554556 -0.488641 0.13391 7 248 255
-0.0529304 -0.195199 -0.00975341 81 173 255
-0.0593044 -0.399921 0.241128 30 225 255
0.0273287 -0.390254 -0.171665 32 222 255
-0.283845 -0.27518 -0.167313 62 193 255
0.263561 -0.418816 -0.0776895 25 230 255
0.180978 -0.466839 -0.169245 13 242 255
-0.122089 -0.1777 -0.176344 87 168 255
-0.137261 -0.436908 -0.152691 21 234 255
-0.188539 -0.488087 0.36573 8 247 255
-0.0108465 -0.471079 -0.0907618 12 243 255
-0.0556355 -0.211994 -0.155306 78 177 255
-0.0620213 -0.342151 0.184425 44 210 255
0.112912 -0.284304 -0.158025 60 195 255
-0.32516 -0.487128 -0.0880754 8 247 255
-0.459172 -0.189166 -0.154073 84 171 255
-0.456166 -0.446439 -0.148946 18 237 255
-0.504071 -0.37886 -0.117242 35 220 255
0.000657331 -0.476579 -0.162294 10 245 255
-0.0590592 -0.168228 0.137386 89 166 255
-0.0553091 -0.354555 0.352487 42 213 255
0.0149869 -0.253995 -0.170768 67 188 255
-0.344242 -0.367442 -0.164169 38 217 255
-0.0288596 -0.487934 0.220102 8 247 255
-0.456566 -0.487358 0.0834445 8 247 255
-0.402538 -0.458125 -0.0257162 15 240 255
-0.0936313 -0.37828 -0.131391 36 219 255
0.251209 -0.254491 -0.154036 67 188 255
-0.404 -0.286411 -0.153654 59 195 255
0.384952 -0.48667 0.0101846 8 247 255
-0.0764513 -0.317129 0.0624095 51 204 255
-0.487724 -0.310749 -0.154743 52 202 255
0.394285 -0.413136 0.209884 27 228 255
-0.0445429 -0.161134 0.245615 91 163 255
-0.194609 -0.487713 -0.165339 8 247 255
-0.191514 -0.295481 -0.158088 56 198 255
-0.0461271 -0.487621 0.378623 8 247 255
0.0793074 -0.363325 -0.159715 39 216 255
0.328245 -0.377671 -0.160524 36 219 255
-0.457858 -0.486824 -0.000207187 8 247 255
-0.182188 -0.487307 0.260653 8 247 255
-0.365114 -0.487317 0.0481626 8 247 255
-0.0520029 -0.479394 0.0337107 10 245 255
0.249611 -0.402761 -0.131482 29 226 255
0.0306344 -0.488909 0.240636 7 248 255
0.0870773 -0.481227 -0.175217 9 246 255
-0.0529928 -0.483356 -0.175435 9 246 255
-0.508763 -0.485651 -0.0987618 8 247 255
-0.0706538 -0.314409 -0.0572594 52 203 255
-0.149422 -0.48731 -0.081383 8 247 255
-0.173561 -0.429362 0.291587 23 232 255
-0.069842 -0.385042 0.0346631 34 221 255
0.105867 -0.488629 -0.105797 7 248 255
-0.164372 -0.402994 -0.172696 29 226 255
-0.0860007 -0.149829 0.0230933 94 161 255
-0.316032 -0.487395 0.147725 8 247 255
-0.097383 -0.307068 0.217556 54 201 255
-0.312214 -0.455054 -0.174069 16 239 255
-0.162873 -0.487654 0.127664 8 247 255
0.211714 -0.388216 -0.171502 32 222 255
-0.0698197 -0.265789 0.012829 64 191 255
0.176867 -0.192705 -0.164353 83 172 255
-0.0532677 -0.249614 0.135166 69 186 255
0.262782 -0.487697 0.196544 8 247 255
-0.388832 -0.487373 0.175841 8 247 255
-0.0131763 -0.408835 -0.177733 28 227 255
0.233771 -0.487706 0.0800655 8 247 255
-0.215813 -0.368902 -0.168046 38 217 255
-0.354007 -0.423269 -0.153765 24 231 255
-0.0536896 -0.226356 -0.0853619 75 179 255
0.0599924 -0.488376 -0.0378247 7 248 255
-0.0916254 -0.350426 0.265502 43 211 255
-0.450116 -0.272553 -0.171281 63 192 255
-0.00434589 -0.192604 -0.157832 83 172 255
-0.182876 -0.161468 -0.159905 91 163 255
0.171605 -0.489113 -0.0386579 7 248 255
0.204268 -0.487931 0.163053 8 247 255
-0.304059 -0.488028 -0.011459 8 247 255
0.0118652 -0.487109 0.314123 8 247 255
-0.117732 -0.252307 -0.175095 68 187 255
-0.493402 -0.45686 0.169218 16 239 255
-0.516959 -0.481868 -0.0239143 9 246 255
0.362656 -0.28759 0.337103 59 195 255
0.267514 -0.160743 -0.162139 91 163 255
-0.0646431 -0.466617 0.233003 13 242 255
0.32935 -0.48691 0.0518223 8 247 255
0.174823 -0.438712 -0.154841 20 235 255
0.380127 -0.344438 0.255277 44 211 255
-0.274512 -0.404714 -0.156658 29 226 255
0.23766 -0.48745 -0.0922584 8 247 255
0.242282 -0.337813 -0.167188 46 209 255
0.349782 -0.485836 -0.10285 8 247 255
0.306634 -0.4871 -0.0304036 8 247 255
-0.126494 -0.487634 0.236196 8 247 255
-0.38106 -0.486722 -0.117074 8 247 255
-0.0749983 -0.472834 -0.0340978 11 244 255
-0.223559 -0.487886 0.289654 8 247 255
0.0631337 -0.488758 0.0938351 7 248 255
-0.0731229 -0.221733 0.253083 76 179 255
-0.0136037 -0.488421 -0.0220433 7 248 255
-0.101626 -0.487522 0.308644 8 247 255
-0.0451177 -0.480141 0.0990461 10 245 255
-0.511749 -0.472697 0.0410643 11 244 255
-0.122687 -0.414062 0.280388 26 229 255
-0.4883 -0.448783 -0.158899 18 237 255
-0.138527 -0.208667 -0.0826634 79 176 255
0.194479 -0.487888 0.261003 8 247 255
0.0695667 -0.254541 -0.162617 67 188 255
-0.328263 -0.44201 0.160588 19 236 255
-0.242146 -0.45407 -0.174858 16 239 255
-0.411553 -0.466841 -0.170437 13 242 255
-0.479324 -0.416703 -0.0490265 26 229 255
-0.0725487 -0.424878 -0.0654215 24 231 255
-0.0725631 -0.294383 -0.110113 56 198 255
0.11024 -0.426788 -0.161732 23 232 255
-0.420997 -0.487012 0.0300985 8 247 255
-0.0695621 -0.447883 -0.152514 18 237 255
0.212264 -0.48673 -0.0857437 8 247 255
-0.216012 -0.487703 0.0192281 8 247 255
-0.192613 -0.31305 -0.11521 52 203 255
-0.270206 -0.206129 -0.157407 80 175 255
-0.0382301 -0.447791 0.297979 18 237 255
-0.0313332 -0.35944 0.25487 40 215 255
0.0727125 -0.154115 -0.163716 93 162 255
0.000191677 -0.327918 -0.173071 48 206 255
-0.10677 -0.217076 0.154699 77 178 255
-0.363002 -0.20323 -0.153552 80 175 255
-0.257645 -0.488283 0.350619 7 248 255
-0.135386 -0.488919 0.0755216 7 248 255
-0.0795884 -0.394496 -0.177134 31 224 255
0.107089 -0.488299 0.187443 7 248 255
0.0672451 -0.487651 0.391182 8 247 255
-0.0420789 -0.487618 -0.0898369 8 247 255
-0.422352 -0.389411 -0.15349 32 222 255
-0.0429341 -0.203806 0.205483 80 175 255
-0.314126 -0.492278 0.235327 6 249 255
0.371933 -0.447911 0.179757 18 237 255
0.0468265 -0.427008 -0.169704 23 232 255
0.209053 -0.291341 -0.155806 58 197 255
-0.260533 -0.34215 -0.158148 44 210 255
-0.358371 -0.460695 0.0567423 15 240 255
0.111278 -0.488569 0.118755 7 248 255
0.144008 -0.270651 -0.165351 63 192 255
-0.432903 -0.487193 0.286299 8 247 255
-0.0443929 -0.429134 0.157086 23 232 255
-0.0873808 -0.411072 0.316921 27 228 255
0.302351 -0.483661 -0.170045 9 246 255
-0.0426337 -0.368181 -0.0614113 38 217 255
0.379271 -0.482633 0.057902 9 246 255
-0.116021 -0.402481 0.145474 29 226 255
-0.164811 -0.487896 0.0101068 8 247 255
-0.0390089 -0.488038 0.309362 8 247 255
-0.207204 -0.462204 0.222082 14 241 255
-0.0462446 -0.31335 -0.158147 52 203 255
-0.43866 -0.486396 -0.12639 8 247 255
-0.41617 -0.225189 -0.155165 75 179 255
-0.258399 -0.4864 -0.0738093 8 247 255
0.133546 -0.488647 0.0496627 7 248 255
0.200156 -0.43759 -0.0878967 20 235 255
-0.0592182 -0.135381 0.280386 97 157 255
-0.302361 -0.440947 -0.155995 20 235 255
-0.159628 -0.249066 -0.0656535 69 186 255
-0.501082 -0.415955 -0.126874 26 229 255
-0.101145 -0.458829 -0.170421 15 240 255
-0.0655506 -0.266334 0.280696 64 191 255
0.0808829 -0.489209 0.0124013 7 248 255
-0.354115 -0.258039 -0.154248 65 189 255
-0.0864456 -0.46716 0.075221 13 242 255
0.274579 -0.487639 0.0547406 8 247 255
-0.193788 -0.487863 -0.107592 8 247 255
0.169947 -0.372004 -0.155354 36 218 255
-0.0804664 -0.48741 0.35086 8 247 255
-0.152878 -0.233547 -0.16261 73 182 255
-0.0329705 -0.262441 -0.174598 65 190 255
-0.509706 -0.485445 0.164269 8 247 255
-0.0335687 -0.36056 0.137852 40 215 255
-0.503869 -0.363564 -0.0803019 39 216 255
0.244673 -0.458264 -0.156984 15 240 255
-0.136331 -0.158801 -0.156027 92 163 255
-0.0777838 -0.207917 0.0392978 79 176 255
-0.40668 -0.302306 -0.166978 55 200 255
-0.0431305 -0.308228 0.202608 54 201 255
0.0244384 -0.295711 -0.15922 56 198 255
0.359484 -0.478935 0.125582 10 245 255
-0.146785 -0.487675 0.189931 8 247 255
0.342435 -0.383384 -0.136028 34 221 255
0.227928 -0.151728 -0.166608 94 161 255
0.0126211 -0.487847 0.0500752 8 247 255
-0.452508 -0.379264 -0.16684 35 220 255
-0.204137 -0.490771 0.131024 7 248 255
-0.04412 -0.421062 0.0683528 25 230 255
-0.0289406 -0.489247 0.153228 7 248 255
-0.47752 -0.229256 -0.151079 73 181 255
-0.380345 -0.487788 0.270635 8 247 255
-0.0518531 -0.178219 -0.175232 87 168 255
-0.172122 -0.487496 0.331488 8 247 255
0.139571 -0.488366 0.27325 7 248 255
-0.0824892 -0.23534 -0.0516791 72 183 255
0.239549 -0.487759 -0.0132376 8 247 255
-0.436843 -0.446612 -0.0562979 18 237 255
-0.044383 -0.432993 -0.0305922 22 233 255
-0.127745 -0.393295 -0.15775 32 223 255
0.263141 -0.217207 -0.15366 77 178 255
-0.346281 -0.430855 -0.174025 22 233 255
0.288733 -0.370196 -0.162477 38 217 255
-0.311418 -0.310983 -0.162313 52 202 255
-0.489447 -0.486921 0.217474 8 247 255
0.151926 -0.48792 -0.113292 8 247 255
-0.241841 -0.488013 0.184497 8 247 255
-0.464823 -0.304829 -0.138084 54 201 255
-0.279567 -0.488352 0.0335878 7 248 255
-0.101721 -0.311824 -0.173095 52 202 255
0.37039 -0.364182 0.215029 39 216 255
-0.0945525 -0.148485 0.104149 94 161 255
-0.5181 -0.467916 0.104861 13 242 255
-0.0454837 -0.307952 -0.0341704 54 201 255
-0.143882 -0.458627 0.305221 15 240 255
-0.358409 -0.487402 0.136329 8 247 255
-0.502349 -0.283601 -0.127889 60 195 255
-0.37049 -0.178846 -0.172742 87 168 255
-0.256748 -0.442832 0.200858 19 236 255
0.122621 -0.152876 -0.164944 93 162 255
-0.0681021 -0.138248 0.21707 97 158 255
-0.245747 -0.281222 -0.168401 60 195 255
-0.505306 -0.202019 -0.121064 81 174 255
-0.418125 -0.48736 0.0865043 8 247 255
-0.188503 -0.46282 -0.176681 14 241 255
-0.248565 -0.487492 0.256369 8 247 255
-0.0458975 -0.372989 0.305222 36 218 255
0.346398 -0.448053 -0.15192 18 237 255
-0.0816397 -0.487952 -0.0366885 8 247 255
-0.199036 -0.191719 -0.17668 83 172 255
-0.0197612 -0.443747 -0.158069 19 236 255
0.283892 -0.296526 -0.145467 56 198 255
-0.0937868 -0.244107 -0.125039 70 185 255
-0.14384 -0.147831 0.0709528 95 160 255
0.00440516 -0.17377 -0.173408 88 167 255
0.088612 -0.488169 0.308362 7 248 255
-0.501422 -0.486518 -0.131744 8 247 255
0.106772 -0.312329 -0.164109 52 202 255
-0.479481 -0.487349 0.103206 8 247 255
-0.0662401 -0.36137 0.00409155 40 215 255
-0.373581 -0.357053 -0.161409 40 214 255
-0.0432382 -0.252179 0.340139 68 187 255
-0.117697 -0.262972 0.140641 65 190 255
0.163278 -0.245424 -0.156523 70 185 255
-0.0957981 -0.468851 -0.139223 12 243 255
-0.492519 -0.478992 -0.00751097 10 245 255
-0.332803 -0.486857 -0.138597 8 247 255
0.243409 -0.487662 0.226293 8 247 255
-0.0312123 -0.375551 -0.158161 36 219 255
-0.391923 -0.421413 -0.169946 25 230 255
-0.0504189 -0.269275 0.0850051 64 191 255
-0.216505 -0.487859 -0.038112 8 247 255
-0.464445 -0.158444 -0.1677 92 163 255
-0.469677 -0.332974 -0.166573 47 208 255
0.128111 -0.375478 -0.162795 36 219 255
-0.196266 -0.488578 0.0653299 7 248 255
0.0387171 -0.393269 -0.157024 32 223 255
0.210783 -0.19443 -0.154843 83 172 255
-0.371469 -0.487005 -0.0731915 8 247 255
0.214424 -0.488434 0.0577382 7 248 255
0.0166965 -0.487668 -0.0751302 8 247 255
-0.135275 -0.48794 -0.0278509 8 247 255
0.044637 -0.48779 0.3477 8 247 255
-0.451287 -0.485748 0.174294 8 247 255
-0.291008 -0.488128 0.115473 8 247 255
-0.412402 -0.487087 0.240055 8 247 255
0.17101 -0.487855 -0.0967684 8 247 255
0.0370613 -0.487921 -0.144576 8 247 255
0.230958 -0.444885 -0.169709 19 236 255
0.316729 -0.487512 -0.0591963 8 247 255
-0.0167823 -0.347293 0.201439 44 211 255
-0.0660531 -0.357803 -0.115937 40 214 255
-0.0623982 -0.202376 0.147783 81 174 255
0.412656 -0.30009 0.174603 56 199 255
-0.483957 -0.434735 -0.0978151 21 234 255
0.377882 -0.396341 0.144079 31 224 255
0.300324 -0.475282 0.196038 11 244 255
-0.113303 -0.487765 0.147863 8 247 255
-0.0399142 -0.183485 0.275352 85 170 255
-0.297174 -0.487622 0.302335 8 247 255
0.037798 -0.332855 -0.136102 47 208 255
-0.189823 -0.36731 -0.158377 38 217 255
0.0277115 -0.488811 0.200462 7 248 255
0.218073 -0.48808 0.121087 8 247 255
-0.0289917 -0.449159 0.252713 17 238 255
0.12546 -0.488178 -0.0574301 7 248 255
-0.0549261 -0.48777 0.176189 8 247 255
-0.0532524 -0.317591 0.346337 51 204 255
-0.0867914 -0.182919 -0.0225291 86 169 255
-0.335466 -0.487201 0.0684073 8 247 255
0.110513 -0.487966 0.367991 8 247 255
0.306025 -0.487721 0.102232 8 247 255
-0.313783 -0.223432 -0.156814 75 179 255
0.388596 -0.345791 0.281586 44 211 255
-0.243062 -0.487237 -0.128894 8 247 255
-0.173937 -0.261947 -0.124993 65 190 255
-0.0158278 -0.235502 -0.157949 72 183 255
-0.467024 -0.486859 -0.0565553 8 247 255
-0.0835542 -0.434512 0.134705 21 234 255
-0.29018 -0.487102 -0.0508491 8 247 255
-0.0486506 -0.487823 0.257608 8 247 255
-0.0986494 -0.404119 -0.113379 29 226 255
-0.32762 -0.487516 0.203294 8 247 255
0.319759 -0.398905 -0.10092 30 225 255
-0.0552646 -0.487618 -0.144713 8 247 255
0.0681247 -0.488725 0.151065 7 248 255
-0.432248 -0.486599 -0.163325 8 247 255
-0.39479 -0.222359 -0.172123 76 179 255
0.177558 -0.488211 -0.149976 7 248 255
-0.165296 -0.445887 -0.151882 18 237 255
-0.0840144 -0.299868 0.0951047 56 199 255
0.29875 -0.256713 -0.161017 67 188 255
-0.160416 -0.304635 -0.172346 54 201 255
-0.0598395 -0.308836 0.252296 52 202 255
-0.00313745 -0.46327 -0.124172 14 241 255
-0.0500014 -0.462159 0.00783299 14 241 255
-0.25609 -0.48769 0.0793362 8 247 255
-0.0101218 -0.488683 0.103127 7 248 255
-0.0527669 -0.280868 0.152421 60 194 255
-0.41928 -0.339306 -0.15367 46 209 255
-0.505352 -0.429284 -0.0705575 23 232 255
0.0409107 -0.488996 -0.0018055 7 248 255
0.0976069 -0.199318 -0.163034 81 174 255
0.18222 -0.152431 -0.16072 93 162 255
-0.0400357 -0.165745 0.327204 89 165 255
0.170875 -0.488466 0.135983 7 248 255
0.323357 -0.470036 -0.11454 12 243 255
-0.227759 -0.170714 -0.161777 89 166 255
-0.128361 -0.487507 -0.139161 8 247 255
-0.043189 -0.328064 0.0330924 48 207 255
