ply
format ascii 1.0
comment Created by Open3D
element vertex 1170
property double x
property double y
property double z
property uchar red
property uchar green
property uchar blue
end_header
0.109233 -0.0288921 -0.21225 118 137 255
-0.142805 -0.375469 -0.226802 29 226 255
-0.186961 -0.284644 0.0661662 52 203 255
-0.150454 0.0750364 0.00320052 144 111 255
-0.150014 -0.174992 -0.0500323 80 175 255
-0.011255 -0.144704 -0.224829 88 167 255
-0.192058 -0.194716 0.189735 75 179 255
-0.209514 -0.0392642 -0.155926 115 140 255
-0.223015 -0.423606 0.0288067 17 238 255
-0.0433198 -0.00214683 -0.218824 124 131 255
0.107014 0.074253 -0.144732 144 111 255
-0.222787 -0.446211 -0.187632 11 244 255
0.193604 -0.487686 -0.113969 0 255 255
0.163581 0.0748764 -0.0487838 144 111 255
-0.181055 -0.356073 0.0162002 34 221 255
-0.221169 -0.25652 -0.108537 59 195 255
-0.150559 -0.372185 0.326297 30 225 255
0.162486 -0.0624916 0.124968 109 146 255
0.0997004 -0.487864 -0.0859828 0 255 255
0.298454 -0.487784 -0.197295 0 255 255
-0.185941 -0.376835 0.15853 29 226 255
-0.208402 -0.433882 -0.112078 14 241 255
0.19926 0.0770114 -0.129952 145 110 255
-0.218525 -0.182285 0.0828104 78 177 255
0.144042 -0.419038 -0.217798 18 237 255
0.00648514 -0.487963 -0.0433574 0 255 255
-0.206038 -0.199361 -0.146581 73 181 255
0.106272 -0.372509 0.444803 30 225 255
-0.223279 -0.329502 0.226103 40 214 255
-0.191872 -0.300157 -0.225252 48 207 255
0.0267494 -0.0272414 -0.223199 118 137 255
-0.0234794 0.0740859 -0.0994349 144 111 255
-0.205031 0.0721955 -0.0691225 144 111 255
0.0212499 -0.403117 0.374225 22 233 255
0.27408 -0.34836 -0.209598 36 219 255
-0.222473 0.0339545 0.146818 134 121 255
0.0534449 0.0721088 0.0642719 144 111 255
-0.220314 -0.29502 0.111603 50 205 255
0.390534 -0.13913 -0.222334 89 166 255
0.0686276 -0.169216 -0.214312 81 173 255
-0.145062 -0.487282 -0.110377 0 255 255
-0.214105 -0.015518 0.281587 121 134 255
0.118174 -0.343891 -0.226607 36 218 255
-0.117345 -0.302712 -0.21381 48 207 255
-0.220683 -0.38174 0.281446 27 228 255
-0.041755 -0.48766 -0.121423 0 255 255
-0.146825 -0.200045 0.0387808 73 181 255
0.26918 -0.0811145 -0.212878 104 151 255
0.370216 -0.356502 -0.226224 34 221 255
-0.191257 -0.280734 0.182981 52 202 255
-0.0968242 -0.420918 -0.22703 17 238 255
0.10581 0.0483218 -0.225413 137 118 255
0.0487358 -0.398243 -0.216021 23 232 255
0.260534 -0.268712 -0.222611 56 199 255
-0.016674 0.0732843 0.0318274 144 111 255
-0.217901 -0.144124 0.128876 88 167 255
0.279843 0.0750769 -0.211926 144 111 255
-0.0494045 -0.249488 -0.225972 60 194 255
-0.215957 -0.144923 -0.22554 88 167 255
-0.0765439 -0.486731 0.0327203 0 255 255
0.0696373 -0.0770119 -0.213666 105 150 255
-0.109496 0.0152781 -0.22123 129 126 255
-0.218277 -0.100818 0.191976 99 156 255
0.120569 -0.487417 -0.221685 0 255 255
-0.194723 -0.231855 -0.222303 65 189 255
-0.194435 -0.145597 0.269656 88 167 255
-0.196952 0.0308082 0.0418354 133 121 255
0.412486 0.0750084 -0.0625323 144 111 255
-0.218032 -0.166798 0.00521833 81 173 255
-0.220024 0.0134027 -0.111322 128 127 255
-0.0373678 0.0562835 -0.222249 139 116 255
-0.175247 -0.487094 0.0650632 0 255 255
-0.174511 -0.0673034 -0.222016 108 147 255
-0.200335 -0.469847 0.229514 5 250 255
0.0157397 -0.202369 -0.225611 73 182 255
0.383339 0.0261123 -0.211201 131 123 255
-0.149286 -0.300104 0.0370502 48 207 255
0.385757 -0.43355 -0.217425 14 241 255
-0.221232 -0.236681 0.255687 64 191 255
0.000508403 -0.487762 0.0416598 0 255 255
-0.190574 -0.455085 -0.199511 9 246 255
0.164354 -0.487793 -0.0363169 0 255 255
-0.218056 -0.0984252 0.0242112 100 155 255
-0.223 -0.383183 -0.0431479 27 228 255
0.167362 -0.0208405 -0.223634 120 135 255
0.172617 -0.228547 -0.228318 67 188 255
-0.0257773 -0.315728 -0.226118 44 211 255
-0.223939 -0.365787 -0.180299 31 224 255
-0.192667 -0.430005 0.1576 15 240 255
-0.132026 0.0733421 -0.0862437 144 111 255
-0.102673 -0.419493 0.344684 18 237 255
-0.223251 -0.480194 -0.0683598 2 253 255
0.172296 -0.319269 -0.213216 43 211 255
-0.19624 -0.0634643 0.124444 109 146 255
0.216134 -0.137991 -0.223165 89 165 255
-0.217309 0.0678065 -0.15522 142 113 255
-0.221998 -0.380343 0.0556206 28 227 255
0.373389 -0.0893807 -0.221494 102 153 255
0.378447 0.0750578 -0.134288 144 111 255
0.290199 -0.403835 -0.20864 22 233 255
-0.0574701 -0.373955 -0.227476 29 226 255
-0.167835 -0.486999 -0.0600784 0 255 255
0.107787 0.0749186 -0.0168641 144 111 255
-0.207054 -0.197781 0.291814 73 181 255
-0.147622 0.0738395 -0.174423 144 111 255
0.287486 0.0750084 0.0374678 144 111 255
0.382811 -0.237435 -0.221086 64 191 255
0.00623586 -0.376086 0.40727 29 226 255
-0.222655 -0.274614 -0.0158691 55 200 255
-0.202592 -0.125019 -0.124462 93 162 255
-0.17787 -0.327279 0.257714 40 214 255
-0.171962 -0.319778 0.131366 43 211 255
0.260678 -0.487787 -0.112084 0 255 255
0.107061 -0.15431 -0.212309 86 169 255
-0.0194769 0.0725248 -0.172205 144 111 255
-0.219104 -0.0195521 0.0912965 120 135 255
-0.224627 -0.480982 0.0636567 2 253 255
-0.217854 -0.0196373 0.198582 120 135 255
0.051002 0.0580548 -0.220602 140 114 255
-0.221886 -0.232316 0.0977492 65 189 255
-0.108541 -0.452951 0.249957 9 246 255
-0.114998 -0.161719 -0.225868 84 171 255
0.144987 -0.0824491 -0.222101 104 151 255
-0.220187 -0.00283248 -0.0298033 124 131 255
-0.00841746 0.0751559 0.0854251 144 111 255
0.0137597 -0.0813345 -0.212969 104 151 255
0.102009 -0.48758 -0.149896 0 255 255
0.0360282 -0.285727 -0.213588 52 203 255
-0.0604137 0.0750339 -0.057643 144 111 255
0.103802 -0.378766 0.386084 28 227 255
-0.158896 0.0732027 0.160384 144 111 255
0.266475 0.0749182 -0.170542 144 111 255
-0.200776 -0.0843678 -0.0706187 103 152 255
0.346409 -0.485809 -0.221515 1 254 255
-0.227101 -0.46748 0.247847 5 250 255
0.390505 0.0753444 -0.204375 144 111 255
-0.0592401 -0.464263 -0.220106 6 249 255
0.0401105 0.0750985 -0.0529685 144 111 255
-0.1624 -0.148211 0.0264026 87 168 255
-0.141493 0.0714885 0.0495133 143 112 255
-0.217216 -0.0503142 -0.223782 112 143 255
0.30889 -0.226572 -0.222955 67 188 255
-0.171942 0.0458592 -0.224145 137 118 255
0.250444 -0.483264 -0.221128 1 254 255
-0.211122 -0.280052 0.289505 52 202 255
0.314819 -0.0483538 -0.222408 113 142 255
-0.187085 -0.487254 -0.00656077 0 255 255
-0.22259 -0.156466 -0.163153 85 170 255
-0.0848349 -0.21798 -0.225224 69 186 255
-0.160396 -0.42895 0.354157 15 240 255
-0.220765 -0.38921 0.18895 25 230 255
-0.0671484 -0.384322 0.367128 27 228 255
0.0837988 0.0743293 -0.115651 144 111 255
-0.223652 -0.333972 -0.108643 40 215 255
0.189931 -0.404288 -0.217266 22 233 255
0.194922 -0.376924 0.401968 29 226 255
0.219453 -0.487811 -0.0511326 0 255 255
0.210485 0.074097 -0.213299 144 111 255
-0.218471 -0.273659 0.153774 55 200 255
-0.207442 0.0714586 0.0378345 143 112 255
0.0208034 -0.487902 -0.112312 0 255 255
-0.223577 -0.267194 -0.155529 56 198 255
-0.218994 -0.193957 -0.025063 75 179 255
0.263699 0.00510518 -0.220815 126 129 255
-0.168667 -0.337199 -0.226044 39 216 255
-0.0550725 0.0749501 0.0261642 144 111 255
0.271145 -0.150953 -0.21613 86 169 255
-0.124097 -0.0786402 -0.221972 105 150 255
-0.181278 -0.246069 0.0165554 62 193 255
-0.222433 -0.00964252 -0.162172 123 131 255
-0.222181 -0.419427 0.106954 18 237 255
-0.130065 0.0750138 -0.039034 144 111 255
-0.0410088 -0.48765 -0.17297 0 255 255
0.289187 0.0749203 -0.0994151 144 111 255
0.0748033 -0.454447 -0.225347 9 246 255
-0.193914 -0.122953 0.145981 94 161 255
0.174986 -0.0374916 0.0624677 115 140 255
-0.222779 -0.405725 -0.153142 21 234 255
0.116059 -0.244743 -0.228535 62 193 255
-0.072277 -0.13029 -0.209822 92 163 255
-0.219655 -0.0467752 0.0026549 113 142 255
0.170645 0.0749183 -0.122557 144 111 255
-0.218851 -0.0301662 -0.0957982 117 138 255
0.396786 -0.0531321 -0.221663 111 144 255
-0.188341 -0.486114 -0.115344 1 254 255
-0.224581 -0.225899 -0.194885 67 188 255
-0.224584 0.0363327 0.213301 134 121 255
-0.209425 -0.369752 -0.0248227 30 225 255
-0.107582 -0.487839 0.105049 0 255 255
0.326925 -0.487791 -0.174188 0 255 255
-0.122049 -0.486408 0.0109402 1 254 255
-0.152375 -0.376109 0.275873 29 226 255
-0.194323 -0.478547 0.185444 3 252 255
-0.22119 -0.301616 0.0835519 48 207 255
0.149076 -0.19657 -0.211988 75 179 255
-0.0849692 0.0604414 -0.220012 141 113 255
-0.0766225 -0.31873 -0.22037 43 211 255
0.199712 0.0733531 -0.0163271 144 111 255
0.0443064 -0.488022 -0.00283676 0 255 255
-0.17574 -0.420703 -0.227562 17 238 255
0.0300725 0.0736471 0.0201605 144 111 255
-0.219752 -0.091436 0.294763 102 153 255
0.30445 -0.296778 -0.220967 48 206 255
-0.16117 -0.147736 -0.208829 87 168 255
-0.221031 -0.40424 0.25971 22 233 255
0.0874855 -0.0374916 0.0749677 115 140 255
0.319575 0.025762 -0.219634 131 123 255
0.213635 -0.294517 -0.213738 50 205 255
0.0384714 -0.487638 -0.178167 0 255 255
0.0836845 -0.372182 -0.227155 30 225 255
-0.184517 -0.203232 0.143703 73 182 255
-0.206549 -0.0813595 -0.156093 104 151 255
-0.225456 -0.468048 0.118006 5 250 255
-0.096174 -0.487528 -0.128943 0 255 255
0.153677 -0.487416 -0.187962 0 255 255
-0.22378 -0.48712 -0.147642 0 255 255
-0.205858 -0.0564976 0.192364 111 144 255
0.0672389 0.07374 -0.193288 144 111 255
-0.150014 -0.0499916 -0.0125322 112 143 255
-0.00302281 -0.257696 -0.217407 59 195 255
0.146946 -0.00169553 -0.211427 125 130 255
-0.193551 0.0737745 0.0950004 144 111 255
0.0120826 0.00710705 -0.223307 127 128 255
-0.215911 0.059327 -0.0834883 140 114 255
0.00676485 -0.121991 -0.22557 94 161 255
0.159894 0.0744725 -0.178217 144 111 255
0.385346 -0.297085 -0.220628 48 206 255
0.324478 0.0762524 -0.159763 145 110 255
0.339037 -0.407 -0.224817 21 234 255
-0.0927533 -0.486645 -0.0385917 0 255 255
-0.133081 -0.426964 0.308501 16 239 255
-0.0349115 -0.487131 0.0569297 0 255 255
-0.175942 -0.346097 0.17007 36 219 255
-0.194148 -0.129225 0.23721 92 163 255
0.199221 -0.0844328 -0.221262 103 152 255
-0.221858 -0.3233 0.273325 42 213 255
-0.152813 -0.213289 0.0674554 70 185 255
0.242025 0.0750446 -0.0586273 144 111 255
-0.131562 -0.210639 -0.213014 71 184 255
-0.2224 -0.420756 -0.0679016 17 238 255
0.29288 -0.487927 -0.0774002 0 255 255
0.356234 0.0749871 -0.0890677 144 111 255
-0.209548 -0.311046 -0.192498 44 210 255
-0.0253718 -0.415527 -0.22761 19 236 255
0.395359 -0.170806 -0.218749 81 174 255
0.110491 -0.303541 -0.213858 47 208 255
-0.0755456 0.0751601 0.101488 144 111 255
-0.0706799 0.073477 -0.173191 144 111 255
0.213456 -0.487486 -0.164757 0 255 255
0.0707897 -0.376771 0.433831 29 226 255
-0.118509 -0.378871 -0.212489 28 227 255
-0.209491 -0.315924 -0.00550003 44 211 255
-0.218101 -0.0795841 0.0985484 105 150 255
0.0975211 -0.126151 -0.228826 93 162 255
-0.203387 0.0722943 0.164244 144 111 255
-0.219487 -0.231295 -0.0745548 65 189 255
-0.221423 -0.36458 0.131425 32 223 255
-0.148443 -0.486844 -0.207154 0 255 255
-0.0758471 -0.0467567 -0.214461 113 142 255
-0.166512 -0.340599 0.0654904 38 217 255
-0.224243 -0.102072 -0.19328 99 156 255
-0.207848 0.00638566 0.0136675 127 128 255
0.238947 -0.437339 -0.220988 13 242 255
0.308848 -0.117551 -0.223873 95 160 255
-0.182344 -0.439455 0.249146 13 242 255
-0.220769 0.021845 -0.217972 131 124 255
-0.224664 0.0178849 0.253671 130 125 255
0.148269 -0.487713 -0.114386 0 255 255
-0.137514 -0.0999916 -0.0500323 99 156 255
-0.0293524 -0.487806 -0.0778378 0 255 255
0.213332 -0.200879 -0.214744 73 181 255
-0.0521956 -0.18423 -0.226123 78 177 255
-0.217366 -0.485107 0.180153 1 254 255
0.130461 0.071673 0.0313099 143 112 255
0.0738006 -0.0472881 -0.222461 113 142 255
-0.218759 -0.217662 0.0543159 69 186 255
-0.216594 -0.231181 0.200056 65 189 255
0.00243246 0.0657615 -0.218282 142 113 255
-0.18658 -0.405497 -0.0289711 21 234 255
-0.18681 -0.485937 0.0933698 1 254 255
0.187325 -0.34362 -0.223852 36 218 255
0.0107807 0.0749262 -0.123211 144 111 255
0.158001 -0.37394 0.429144 29 226 255
-0.212414 -0.139617 -0.0405104 89 166 255
-0.223692 -0.445781 0.0217875 11 244 255
-0.211889 -0.314142 -0.0738428 44 210 255
-0.173135 0.074783 -0.062327 144 111 255
0.135957 0.0751087 -0.0888058 144 111 255
0.109006 -0.487901 -0.0597074 0 255 255
0.0110347 -0.367422 -0.221496 31 224 255
0.215866 -0.00819334 -0.222118 123 131 255
-0.182407 -0.279065 0.134743 54 201 255
-0.112515 -0.349992 0.224968 35 220 255
0.341167 0.0638258 -0.217193 141 113 255
-0.221893 -0.353632 -0.22253 35 220 255
-0.192196 -0.174678 0.198548 80 175 255
-0.0897076 0.0760469 0.00522445 145 110 255
0.223931 0.0751151 -0.157052 144 111 255
-0.148563 0.0754492 0.109686 144 111 255
-0.219251 -0.187878 0.115447 77 178 255
0.0737547 0.0177579 -0.222513 130 125 255
0.437486 0.0125084 -0.225032 128 127 255
0.086798 -0.196614 -0.228667 75 179 255
-0.143959 0.0249129 -0.224038 131 124 255
-0.18153 -0.380499 0.303866 28 227 255
-0.185601 -0.407019 0.0935896 21 234 255
-0.20296 -0.487214 -0.196377 0 255 255
-0.218038 -0.00665481 0.1412 123 131 255
-0.190233 -0.15158 0.0501705 86 169 255
-0.0390529 -0.409542 0.375748 20 235 255
-0.162446 -0.487207 -0.0705788 0 255 255
0.296879 -0.192891 -0.217586 76 179 255
-0.0237205 -0.0621978 -0.224575 109 146 255
0.17702 -0.454585 -0.223461 9 246 255
0.288428 0.074983 -0.0451745 144 111 255
0.212295 -0.487635 -0.088743 0 255 255
0.15017 -0.143911 -0.229356 88 167 255
-0.221931 -0.357948 0.0528427 32 222 255
-0.137514 -0.312492 -0.0500323 44 210 255
-0.115969 -0.487416 -0.177828 0 255 255
0.384508 -0.341401 -0.220751 38 217 255
-0.0945809 0.0738796 -0.120856 144 111 255
-0.158773 -0.486785 0.140665 0 255 255
-0.221004 -0.0780279 -0.04702 105 150 255
-0.222039 -0.279755 0.0275501 52 202 255
0.251442 -0.341489 -0.21066 38 217 255
0.266512 -0.487474 -0.179451 0 255 255
0.237486 0.0750084 0.0499678 144 111 255
-0.144428 -0.0614347 -0.21004 109 146 255
-0.213585 -0.0351713 0.242871 116 139 255
0.0575496 -0.487941 -0.0449578 0 255 255
-0.219752 -0.463726 0.266595 6 249 255
-0.135402 -0.250509 -0.221616 60 194 255
-0.186635 0.0750177 -0.152002 144 111 255
-0.217601 -0.314457 0.196064 44 210 255
-0.208593 -0.219454 0.291137 69 186 255
0.346831 -0.118192 -0.209677 95 160 255
0.0799353 -0.487919 -0.212063 0 255 255
0.346605 -0.0350058 -0.213956 116 139 255
-0.0140017 0.07513 -0.0297772 144 111 255
0.25799 -0.0588721 -0.221119 110 145 255
0.0839234 0.0718802 0.0520148 143 112 255
0.199049 0.0750912 -0.0686262 144 111 255
-0.220848 -0.184142 -0.112192 78 177 255
0.151647 -0.28319 -0.221119 52 202 255
-0.2233 -0.40104 0.00303302 22 233 255
0.069897 -0.487791 -0.122958 0 255 255
0.129714 0.0734988 -0.198261 144 111 255
0.0999855 -0.0374916 0.124968 115 140 255
0.0686152 -0.275272 -0.213918 55 200 255
-0.178991 -0.124853 0.10637 93 162 255
-0.190944 -0.487099 0.04034 0 255 255
-0.217021 -0.0187124 0.0444553 120 135 255
0.424986 -0.112492 -0.212532 96 159 255
0.132041 -0.0683489 -0.213035 108 147 255
-0.217451 -0.292646 -0.225324 50 205 255
-0.17169 -0.236308 -5.72803e-05 65 190 255
0.012742 -0.487084 -0.21678 0 255 255
0.24362 0.0648048 -0.220529 142 113 255
-0.216365 -0.112979 0.214305 96 159 255
-0.219116 -0.178927 -0.214234 79 176 255
-0.215574 -0.354106 -0.156246 34 221 255
0.424986 0.0750084 -0.137532 144 111 255
-0.198718 0.0734619 -0.00391998 144 111 255
0.130709 -0.41252 -0.217418 19 236 255
-0.191182 -0.278356 0.241548 54 201 255
-0.212105 -0.14635 0.288972 88 167 255
-0.10833 -0.450576 -0.225759 10 245 255
-0.0117495 -0.208904 -0.216754 72 183 255
0.375451 -0.264554 -0.2109 56 198 255
-0.104119 -0.453159 0.251621 9 246 255
-0.0121899 -0.383399 0.412719 27 228 255
0.281744 -0.255794 -0.222966 60 195 255
0.30872 -0.346505 -0.221603 36 219 255
-0.218965 0.0152375 -0.0574149 129 126 255
-0.20961 -0.0639591 -0.122554 109 146 255
-0.0938054 -9.12924e-05 -0.221593 125 130 255
-0.222111 -0.420036 -0.118815 18 237 255
-0.219338 -0.286227 -0.114972 52 203 255
-0.214698 -0.0025077 0.281105 124 131 255
-0.221877 0.0390211 0.12273 135 120 255
0.0741198 0.0750034 -0.0721852 144 111 255
-0.0398786 0.07517 0.085748 144 111 255
-0.00703553 -0.487734 -0.147163 0 255 255
0.262025 -0.407575 -0.217905 21 234 255
-0.222224 -0.358834 0.2263 32 222 255
0.0421762 -0.41994 -0.218852 18 237 255
0.351091 -0.439189 -0.224272 13 242 255
-0.217934 -0.106787 0.0449529 97 157 255
0.157335 -0.487869 -0.0437297 0 255 255
0.18337 -0.125786 -0.213222 93 162 255
-0.124826 0.0731418 -0.184148 144 111 255
-0.218431 -0.150988 0.175821 86 169 255
-0.0154518 -0.309169 -0.217193 46 209 255
-0.0925671 -0.417579 0.370841 18 237 255
-0.0191853 -0.487766 0.0128632 0 255 255
-0.218847 -0.207898 -0.0058818 72 183 255
0.371179 0.0122264 -0.220956 128 127 255
-0.15056 -0.298499 0.0441757 48 206 255
-0.109025 -0.327698 -0.223943 40 214 255
-0.0387893 -0.115087 -0.211102 96 159 255
-0.110639 0.0749049 0.0520302 144 111 255
0.0499009 0.0748844 -0.14531 144 111 255
-0.195859 -0.0343405 -0.204337 116 139 255
0.0510343 -0.397721 0.395438 23 232 255
0.139707 0.0204811 -0.223881 130 125 255
-0.220104 -0.429794 0.172884 15 240 255
-0.218688 -0.235444 0.143396 65 190 255
-0.116839 -0.487221 0.0667977 0 255 255
-0.201963 -0.0754202 0.288217 105 149 255
-0.0452086 0.0741703 -0.0923974 144 111 255
0.0487387 -0.152625 -0.224842 86 169 255
0.121869 -0.370058 0.442548 30 225 255
0.345058 -0.181333 -0.223555 79 176 255
0.271277 0.0754527 -0.117792 144 111 255
-0.214274 0.0619074 0.0599331 141 113 255
-0.216942 0.0629465 -0.123235 141 113 255
-0.20234 -0.487413 -0.0152856 0 255 255
-0.00764646 -0.00763275 -0.209657 123 131 255
-0.175575 -0.372108 -0.0166491 30 225 255
0.0463574 0.0750874 -0.0135282 144 111 255
-0.223409 -0.40347 -0.187079 22 233 255
0.16637 -0.38673 0.389986 26 229 255
0.153139 0.0734188 -0.00692581 144 111 255
0.303362 -0.480874 -0.221728 2 253 255
-0.214111 -0.487384 -0.0931826 0 255 255
-0.220475 -0.365907 -0.0932082 31 224 255
0.0135574 -0.487938 -0.0662625 0 255 255
-0.151879 -0.361423 0.316262 32 222 255
-0.147817 0.0670319 -0.216395 142 113 255
0.39396 0.0720658 -0.211961 143 112 255
-0.189036 -0.386255 0.195728 26 229 255
-0.204717 0.024839 0.192296 131 124 255
0.0399584 -0.348228 -0.21319 36 219 255
-0.0777114 -0.38511 -0.214594 26 229 255
0.321779 0.0749747 -0.0604435 144 111 255
-0.176239 -0.479106 -0.184706 2 253 255
-0.185278 -0.186706 -0.00158932 77 178 255
0.290197 0.0301749 -0.220923 133 121 255
-0.0701202 -0.487379 -0.20449 0 255 255
-0.221131 0.00598092 -0.135858 127 128 255
0.21253 -0.250945 -0.226902 60 194 255
-0.197235 -0.333755 0.0977822 40 215 255
-0.1056 0.0751199 -0.0377697 144 111 255
-0.192051 -0.233344 0.0985368 65 190 255
0.238059 -0.159935 -0.224024 84 171 255
-0.163589 -0.095827 -0.205416 101 154 255
0.125803 -0.365202 -0.227555 32 223 255
-0.226304 -0.473633 0.217138 4 251 255
-0.180252 -0.398826 -0.227441 23 232 255
-0.178702 -0.187957 -0.20981 77 178 255
0.282714 -0.487713 -0.115459 0 255 255
-0.13965 -0.487956 -0.0852692 0 255 255
-0.222357 -0.234638 -0.133104 65 190 255
-0.192604 -0.224379 0.242303 68 187 255
-0.218944 -0.104605 -0.00969041 97 157 255
-0.214516 -0.409382 0.288605 20 235 255
-0.221846 -0.112545 -0.12698 96 159 255
-0.180082 -0.338151 0.23757 38 217 255
0.0272601 -0.237543 -0.225558 64 191 255
0.305937 0.0750161 -0.175774 144 111 255
-0.165296 -0.120605 0.0473343 94 161 255
0.129138 0.0744746 -0.137063 144 111 255
-0.179508 -0.318197 -0.208269 44 211 255
0.214493 -0.487476 -0.217615 0 255 255
-0.191499 -0.0809815 0.109609 104 151 255
-0.0689767 -0.252935 -0.217126 60 195 255
0.121544 -0.487537 -0.187376 0 255 255
0.0638974 -0.102229 -0.213713 99 156 255
-0.204742 -0.00388834 0.0812927 124 131 255
0.355762 -0.380834 -0.225736 28 227 255
-0.14866 0.074762 -0.114936 144 111 255
-0.174958 -0.45167 0.266776 9 246 255
-0.223525 -0.326591 0.149368 40 214 255
-0.214025 -0.175106 -0.0836809 80 175 255
-0.0380505 0.0346072 -0.212685 134 121 255
-0.204282 -0.430122 0.051495 15 240 255
-0.0138753 -0.448273 -0.226022 10 245 255
-0.218292 0.0405702 0.00381803 135 120 255
0.337916 -0.249548 -0.221849 60 194 255
0.149985 -0.0749916 0.0874677 105 149 255
-0.221387 -0.0508523 0.18726 112 143 255
0.281051 -0.0255074 -0.214751 119 136 255
0.0297065 0.0730151 0.0662607 144 111 255
0.400993 -0.0438613 -0.222294 113 141 255
-0.22195 -0.263523 0.265403 58 197 255
-0.0198997 0.0732928 -0.13531 144 111 255
-0.218317 -0.131276 0.114282 91 163 255
0.0813122 0.0711771 -0.215654 143 112 255
-0.0831057 -0.112663 -0.225736 96 159 255
-0.206852 -0.276308 -0.0483413 54 201 255
-0.0213962 -0.359249 -0.214492 32 222 255
-0.0598636 -0.487552 -0.145548 0 255 255
-0.076268 -0.487526 0.018775 0 255 255
0.0742418 -0.0158789 -0.21105 121 134 255
-0.177894 -0.454396 -0.226597 9 246 255
-0.215624 -0.236577 -0.219595 64 191 255
0.384798 -0.202007 -0.221938 73 182 255
-0.153681 0.0739141 0.00156537 144 111 255
0.203564 -0.363179 -0.220104 32 223 255
0.179682 -0.0302062 -0.213567 117 138 255
-0.171068 0.0733132 0.165118 144 111 255
0.234724 0.0767819 -0.194397 145 110 255
0.338365 0.075678 -0.111521 144 111 255
-0.190478 -0.296191 0.18296 48 206 255
0.168164 -0.487489 -0.133196 0 255 255
0.24155 -0.0918242 -0.220865 102 153 255
-0.119235 -0.0322706 -0.224446 117 138 255
-0.157086 -0.48728 -0.00300187 0 255 255
-0.221892 -0.350458 0.00709698 35 220 255
-0.197355 -0.265117 0.0645877 56 198 255
-0.220081 0.0578233 -0.186434 140 114 255
0.213451 0.0751096 -0.104642 144 111 255
0.170106 -0.190578 -0.229085 76 179 255
0.0882847 -0.3911 0.386689 25 230 255
-0.223364 -0.466212 -0.1899 6 249 255
-0.219134 -0.0964719 0.256494 100 155 255
-0.218513 -0.0312702 -0.0630614 117 138 255
-0.153078 -0.187362 0.0614629 77 178 255
-0.178792 -0.325562 0.287614 42 213 255
0.346905 -0.32813 -0.211746 40 214 255
-0.21912 -0.0612185 0.0703568 109 146 255
-0.189565 -0.12155 -0.22212 94 161 255
0.175721 0.0636296 -0.216232 141 113 255
-0.158308 -0.431223 0.31466 15 240 255
0.107139 0.0735915 0.000982191 144 111 255
-0.14973 -0.478309 0.123353 3 252 255
0.369736 0.0759156 -0.174349 144 111 255
0.0894062 -0.487816 -0.108371 0 255 255
-1.44898e-05 -0.362492 0.449968 32 223 255
-0.224128 -0.29587 -0.163838 48 206 255
-0.0434804 -0.487733 -0.0809097 0 255 255
0.0263121 -0.48786 0.00760395 0 255 255
-0.206096 0.0735146 -0.0488304 144 111 255
-0.0700256 -0.299387 -0.226969 48 207 255
-0.221701 -0.414629 0.12494 19 236 255
-0.216465 -0.195683 0.248713 75 179 255
-0.107296 0.0722565 0.0971458 144 111 255
0.237125 -0.48756 -0.144907 0 255 255
-0.222317 -0.151998 -0.164141 86 169 255
0.270951 -0.314201 -0.211348 44 210 255
-0.218662 -0.163032 0.0302868 83 172 255
0.0235445 0.07453 -0.0882664 144 111 255
0.215989 -0.487714 -0.05367 0 255 255
-0.222543 -0.0387091 -0.199424 115 140 255
-0.129094 -0.487328 -0.139516 0 255 255
0.314542 -0.0925529 -0.222 101 154 255
0.137846 -0.249662 -0.215507 60 194 255
0.0420863 -0.191955 -0.216366 76 179 255
-0.0800485 -0.181967 -0.216956 78 177 255
-0.0412781 0.0751517 0.0115138 144 111 255
0.0985287 -0.487902 -0.028285 0 255 255
-0.22321 -0.483827 0.0251374 1 254 255
-0.195107 -0.442997 0.206117 12 243 255
0.0772222 -0.3016 -0.223298 48 207 255
-0.192153 -0.213916 0.182204 70 185 255
-0.171623 -0.374575 0.0171772 29 226 255
0.259944 -0.219839 -0.223522 69 186 255
-0.218942 -0.0322448 0.137098 117 138 255
-0.22366 -0.419032 -0.0298809 18 237 255
0.132785 -0.487302 -0.2219 0 255 255
0.382973 -0.424234 -0.217624 16 239 255
-0.138366 -0.41114 -0.227013 20 235 255
-0.163741 -0.313615 0.097422 44 210 255
0.0279225 -0.075967 -0.220834 105 149 255
0.162486 -0.0374916 0.124968 115 140 255
-0.218025 -0.486497 0.136772 1 254 255
-0.189795 0.0198426 -0.209398 130 125 255
-0.0442293 -0.0177197 -0.222092 121 134 255
0.141865 -0.115144 -0.215393 96 159 255
0.124986 0.0750084 0.0999678 144 111 255
0.0735437 -0.428309 -0.216622 15 240 255
-0.0596716 -0.414737 -0.227726 19 236 255
0.303276 -0.487618 -0.170983 0 255 255
0.246709 0.0749488 -0.030979 144 111 255
0.217807 -0.409386 -0.212337 20 235 255
0.150505 0.0751048 -0.0774911 144 111 255
-0.203524 -0.0764022 0.0148413 105 150 255
-0.0095078 0.0721261 -0.213903 144 111 255
-0.222004 -0.324933 0.0545149 42 213 255
-0.218744 -0.212443 -0.0499353 71 184 255
-0.133567 -0.277188 -0.223212 54 201 255
-0.192891 0.0529391 0.076237 139 116 255
-0.188322 -0.386239 0.15635 26 229 255
-0.122068 -0.38324 0.309231 27 228 255
0.0509606 -0.48772 -0.166253 0 255 255
-0.18361 -0.362128 -0.227468 32 223 255
0.101333 -0.157496 -0.229491 85 170 255
0.352475 -0.487322 -0.21781 0 255 255
-0.141513 -0.140226 -0.209891 89 166 255
0.0847236 0.0748879 -0.152889 144 111 255
-0.0362404 -0.141731 -0.223866 89 166 255
-0.164402 -0.27188 0.00640693 55 200 255
-0.0860911 0.0745604 -0.0776317 144 111 255
-0.0203449 -0.48765 0.0551051 0 255 255
0.202816 0.014856 -0.213134 129 126 255
-0.221376 -0.112638 -0.0606088 96 159 255
-0.220152 -0.406893 0.238819 21 234 255
-0.0534139 -0.389923 0.396554 25 230 255
-0.217933 -0.180571 0.143032 79 176 255
-0.0888608 0.0536269 -0.221584 139 116 255
-0.223104 -0.306105 -0.0890294 47 208 255
-0.222459 -0.443415 -0.104027 12 243 255
0.293095 -0.146851 -0.224213 87 168 255
-0.19475 -0.163512 0.271322 83 172 255
0.187486 0.0750084 0.0749677 144 111 255
0.387486 0.0750084 -0.0250323 144 111 255
0.116543 -0.0561476 -0.222819 111 144 255
-0.219974 -0.038071 0.276274 115 140 255
0.342296 0.00419131 -0.221799 126 129 255
-0.157281 -0.214746 -0.21928 70 185 255
0.290612 -0.487918 -0.0782411 0 255 255
-0.18178 -0.487242 -0.0793263 0 255 255
0.262277 -0.460897 -0.223226 7 248 255
0.305816 -0.39518 -0.209072 24 231 255
0.0763368 -0.376304 0.436676 29 226 255
-0.222234 -0.309233 0.266144 46 209 255
-0.0750894 -0.0752993 -0.224845 105 149 255
-0.148208 -0.487136 0.0462838 0 255 255
-0.197153 -0.0969417 0.206383 100 155 255
-0.222536 -0.273875 -0.0110785 55 200 255
0.114375 -0.326733 -0.224279 40 214 255
0.0174616 0.0751316 0.0261499 144 111 255
0.206472 -0.29619 -0.213767 48 206 255
0.373313 -0.0934303 -0.217211 101 154 255
-0.204017 -0.375853 0.0611926 29 226 255
-0.224629 0.022591 0.236663 131 124 255
-0.220288 -0.046753 -0.112317 113 142 255
-0.222115 -0.3543 0.164189 34 221 255
-0.137514 -0.249992 0.149968 60 194 255
-0.206337 -0.0200755 -0.0125729 120 135 255
-0.194053 -0.487011 -0.176153 0 255 255
-0.0976087 -0.487525 -0.0189019 0 255 255
-0.180154 0.0734052 -0.0990852 144 111 255
-0.207149 0.0714434 0.112505 143 112 255
0.288576 0.0750578 -0.206043 144 111 255
0.112486 -0.0624916 0.0499678 109 146 255
-0.137514 -0.137492 -0.0125322 89 165 255
-0.219928 -0.238242 0.0568173 64 191 255
-0.0744096 0.0724865 -0.195154 144 111 255
-0.0222304 0.0750139 -0.0587377 144 111 255
0.0493198 -0.000611953 -0.212252 125 130 255
-0.167596 -0.376881 0.248534 29 226 255
0.192586 0.0743904 -0.184985 144 111 255
-0.224504 -0.449158 0.0654331 10 245 255
-0.218077 -0.277051 0.164574 54 201 255
-0.214561 -0.357754 -0.12203 32 222 255
-0.207546 0.0655823 0.185509 142 113 255
-0.205406 -0.263164 -0.189625 58 197 255
-0.153744 0.0738112 0.0334032 144 111 255
-0.217226 -0.47668 -0.0455685 3 252 255
-0.22303 0.0113671 -0.182688 128 127 255
0.00904125 -0.392131 -0.226883 25 230 255
-0.011045 -0.255834 -0.217467 60 195 255
0.328607 -0.282867 -0.220889 52 202 255
0.121433 0.00933497 -0.224137 127 128 255
-0.150014 -0.0499916 0.124968 112 143 255
0.173589 -0.424832 -0.218418 16 239 255
0.39697 0.0108306 -0.220439 128 127 255
-0.206563 -0.269821 0.287815 56 199 255
-0.219995 -0.327784 -0.0328749 40 214 255
0.227242 -0.0328762 -0.219803 117 138 255
-0.199975 -0.451702 0.283928 9 246 255
-0.0774237 0.0751605 0.0509349 144 111 255
-0.189538 -0.471911 0.14497 4 251 255
-0.0384153 -0.487653 -0.195718 0 255 255
-0.222252 -0.0851455 -0.16355 103 152 255
0.189717 -0.382166 0.398519 27 228 255
-0.165513 -0.328017 0.037842 40 214 255
0.088264 0.0748481 -0.0900144 144 111 255
-0.219484 -0.00166166 0.172083 125 130 255
-0.171314 -0.338897 0.139936 38 217 255
-0.162514 -0.0749916 -0.100032 105 149 255
-0.222808 -0.174892 -0.149341 80 175 255
0.0136799 -0.400307 0.375747 23 232 255
0.183651 0.073038 -0.00976324 144 111 255
0.011003 -0.487975 -0.114063 0 255 255
0.381492 -0.172379 -0.209469 81 174 255
-0.19802 -0.372824 0.294654 30 225 255
-0.210166 -0.00020252 -0.0793672 125 130 255
-0.21771 -0.174546 0.0797629 80 175 255
-0.17247 0.0749506 -0.200681 144 111 255
-0.09157 -0.35445 -0.216013 34 221 255
-0.190248 -0.398281 -0.0253628 23 232 255
-0.150014 -0.187492 -0.0500323 77 178 255
0.192355 -0.487474 -0.184833 0 255 255
0.00189073 -0.169048 -0.216501 81 173 255
-0.217469 -0.148783 0.24131 87 168 255
-0.105923 -0.486796 0.107194 0 255 255
-0.22483 -0.335603 -0.178228 39 216 255
0.175243 -0.342298 -0.225393 36 218 255
0.385922 -0.251624 -0.220554 60 194 255
-0.146674 -0.17915 0.0362526 79 176 255
0.0680656 -0.225538 -0.215937 67 188 255
-0.0965439 -0.418787 0.36218 18 237 255
-0.0821567 -0.487599 -0.113655 0 255 255
0.374601 0.0758639 -0.136077 144 111 255
-0.193039 -0.423182 0.103761 17 238 255
0.186591 -0.0860079 -0.213925 103 152 255
-0.219053 -0.0919217 0.176305 102 153 255
-0.0563208 0.0728369 -0.145687 144 111 255
0.307386 -0.0591293 -0.223127 110 145 255
0.254953 -0.369887 -0.218959 30 225 255
0.128604 -0.487651 -0.110107 0 255 255
0.182061 -0.194719 -0.21374 75 179 255
-0.154451 0.0750701 -0.0545028 144 111 255
0.00719828 0.0751474 0.0757284 144 111 255
0.00447239 -0.458097 -0.22624 8 247 255
-0.210897 -0.143694 -0.0952346 88 167 255
0.0724968 0.0748882 0.000773803 144 111 255
-0.220158 -0.389388 -0.223812 25 230 255
-0.207298 -0.191673 0.29145 76 179 255
0.274202 0.0750774 -0.115162 144 111 255
0.0426467 -0.314119 -0.224874 44 210 255
-0.14258 -0.00655204 -0.224206 123 131 255
-0.225685 -0.451715 0.220129 9 246 255
0.240476 -0.261629 -0.214774 58 197 255
0.149985 -0.0249916 0.0624677 119 136 255
0.0659144 0.0663401 -0.218092 142 113 255
-0.0238485 -0.0712403 -0.224739 107 147 255
-0.221169 -0.252 -0.111042 60 194 255
0.10495 -0.397726 -0.21684 23 232 255
0.244871 -0.11895 -0.21625 95 160 255
-0.218645 -0.0075518 0.0755523 123 131 255
0.266622 0.036091 -0.221395 134 121 255
0.216611 -0.4877 -0.088533 0 255 255
0.315754 -0.431306 -0.208055 15 240 255
-0.109947 -0.441907 -0.225974 12 243 255
0.139137 0.0732315 -0.212615 144 111 255
-0.216558 -0.227525 0.211453 67 188 255
0.30526 -0.204728 -0.216295 73 182 255
0.108403 -0.106345 -0.212676 97 157 255
-0.222832 -0.396686 -0.151631 23 232 255
-0.222406 -0.346954 0.221049 36 219 255
-0.199097 -0.0912019 0.283965 102 153 255
-0.193032 -0.122526 0.13815 94 161 255
-0.221149 -0.315454 0.0895947 44 211 255
-0.0887346 -0.224979 -0.217222 67 188 255
-0.218065 0.0478598 0.0157746 137 118 255
-0.219152 -0.0505626 -0.0310526 112 143 255
0.319631 0.0754539 -0.0598162 144 111 255
0.111449 -0.372625 0.444022 30 225 255
0.161828 0.0747375 -0.150067 144 111 255
0.393292 0.072097 -0.211941 144 111 255
-0.218676 -0.136033 -0.00829962 89 165 255
-0.153902 0.0744455 -0.153278 144 111 255
0.0342421 -0.0469766 -0.220623 113 142 255
0.159382 -0.259163 -0.222466 59 195 255
-0.191612 -0.486712 0.0835561 0 255 255
0.345089 -0.138576 -0.224272 89 165 255
0.034558 0.0750954 -0.0467706 144 111 255
-0.222913 -0.38595 -0.0446013 26 229 255
0.110161 -0.4876 -0.17412 0 255 255
-0.189054 -0.0854389 -0.221433 103 152 255
-0.174762 0.0599009 0.138887 140 114 255
-0.177583 -0.287067 -0.225241 52 203 255
-0.069007 0.0751462 -0.0288209 144 111 255
-0.161344 -0.487183 -0.116193 0 255 255
-0.180965 -0.479683 -0.222828 2 253 255
-0.137514 -0.287492 -0.0500323 51 204 255
0.00955288 -0.118269 -0.225243 95 160 255
-0.218587 -0.156704 0.19098 85 170 255
0.040504 -0.488046 -0.0372757 0 255 255
0.173036 0.0750854 -0.05553 144 111 255
-0.219619 0.0269812 -0.101852 131 123 255
-0.199234 -0.165216 -0.223402 83 172 255
-0.183769 -0.337765 0.201804 39 216 255
-0.220555 -0.0344303 0.218518 116 139 255
0.378362 -0.306647 -0.212852 47 208 255
-0.136425 -0.340886 -0.225886 38 217 255
0.0442763 0.0736717 -0.144236 144 111 255
0.0700157 -0.484725 -0.218586 1 254 255
-0.208101 -0.486839 0.194107 0 255 255
0.137486 -0.0624916 0.137468 109 146 255
-0.202964 -0.131477 -0.1466 91 163 255
0.0668168 -0.369892 0.394332 30 225 255
-0.0506083 -0.487563 0.0195629 0 255 255
0.396425 -0.0354508 -0.2116 116 139 255
-0.214441 -0.487152 -0.146728 0 255 255
-0.217565 -0.22226 -0.0061933 68 187 255
0.0131327 0.0598017 -0.22085 140 114 255
-0.0453604 0.0717532 0.0803308 143 112 255
-0.206856 -0.423322 0.0283853 17 238 255
-0.191322 -0.197172 0.0929017 75 179 255
0.219606 0.0751264 -0.138496 144 111 255
0.115033 -0.487883 -0.0314639 0 255 255
-0.221451 -0.372323 0.121497 30 225 255
0.176937 -0.475142 -0.220231 3 252 255
-0.218343 -0.0843396 0.117728 103 152 255
-0.150014 -0.262492 0.299968 58 197 255
-0.222125 0.0352949 0.130597 134 121 255
-0.150014 -0.0499916 0.0624677 112 143 255
0.148376 -0.3788 0.399963 28 227 255
-0.148414 -0.487359 -0.0366584 0 255 255
-0.22395 -0.267245 -0.206743 56 198 255
-0.190534 -0.424962 -0.206149 16 239 255
-0.0928865 -0.487381 -0.197285 0 255 255
-0.217315 -0.295432 0.221316 48 206 255
0.339975 0.0451498 -0.221562 137 118 255
-0.110791 0.074126 -0.0980381 144 111 255
0.190324 -0.15433 -0.222923 86 169 255
-0.0417934 -0.302631 -0.219718 48 207 255
-0.0881701 0.0238441 -0.212866 131 124 255
-0.218024 0.0620674 -0.143886 141 113 255
-0.21926 -0.165424 -0.0552592 83 172 255
-0.22011 -0.381242 0.280837 27 228 255
-0.149848 0.0735994 0.0850248 144 111 255
-0.122463 -0.166513 -0.213325 81 173 255
-0.214799 -0.0046254 0.279037 124 131 255
-0.21955 -0.254396 0.126547 60 195 255
-0.131045 -0.426133 0.312392 16 239 255
-0.222287 -0.303365 0.0373231 47 208 255
0.111589 -0.213216 -0.214187 70 185 255
-0.223187 -0.0408083 -0.143098 115 140 255
0.276792 -0.487558 -0.167728 0 255 255
0.315893 -0.328524 -0.222935 40 214 255
-0.100014 0.0750084 0.187468 144 111 255
-0.219833 -0.465642 0.262385 6 249 255
0.325884 0.0762261 -0.158168 145 110 255
-0.122871 -0.487649 0.0191418 0 255 255
-0.222333 -0.21943 -0.150878 69 186 255
0.147371 -0.0439299 -0.214376 113 141 255
-0.0875145 -0.362492 0.387468 32 223 255
-0.217852 -0.125296 0.0755293 93 162 255
0.0183503 -0.487414 -0.214221 0 255 255
-0.171035 -0.226248 -0.000981775 67 188 255
0.382025 -0.423612 -0.217663 17 238 255
0.147699 -0.37393 -0.215296 29 226 255
-0.0237075 0.0724845 -0.189221 144 111 255
-0.215108 -0.346803 -0.0744125 36 219 255
0.197548 -0.487795 -0.0558476 0 255 255
-0.213903 0.0637947 -0.0634911 141 113 255
0.0488193 -0.381558 -0.215024 27 228 255
-0.200837 -0.0849564 -0.0725119 103 152 255
-0.0213122 -0.20537 -0.216794 72 183 255
-0.115804 0.0745968 0.010663 144 111 255
0.213833 0.0323174 -0.221281 133 121 255
-0.222745 -0.484402 0.0116151 1 254 255
0.255493 -0.168698 -0.223607 81 173 255
-0.182974 -0.0221753 -0.220046 119 136 255
-0.192378 -0.179285 0.201946 79 176 255
-0.156184 -0.297666 0.00670512 48 206 255
0.0910302 -0.285411 -0.226179 52 203 255
-0.219402 -0.25025 -0.0647956 60 194 255
0.0246797 -0.488 0.009585 0 255 255
-0.207912 -0.430622 -0.0707716 15 240 255
0.340744 -0.043743 -0.222597 113 141 255
-0.0524192 -0.415632 -0.216785 19 236 255
0.344568 -0.22227 -0.21568 68 187 255
-0.218254 -0.412352 0.180562 19 236 255
-0.036378 -0.408895 0.379135 20 235 255
0.112032 0.0748852 -0.160028 144 111 255
-0.223646 -0.114385 -0.197233 96 159 255
-0.191371 -0.253223 0.250555 60 195 255
-0.20808 -0.0144782 0.0276668 121 134 255
-0.187672 -0.333724 0.29636 40 215 255
0.0499855 -0.362492 0.474968 32 223 255
-0.106267 -0.487331 -0.0842438 0 255 255
0.0441669 -0.487752 -0.121636 0 255 255
0.00317856 0.00312538 -0.223246 126 129 255
0.207835 -0.487642 -0.142154 0 255 255
0.317537 -0.484877 -0.222116 1 254 255
0.244257 0.074902 -0.0449502 144 111 255
-0.222972 -0.382553 0.024314 27 228 255
-0.200103 -0.340936 -0.227455 38 217 255
0.282071 -0.0141204 -0.22175 121 134 255
0.214767 -0.3255 -0.22281 42 213 255
-0.0331941 -0.486976 -0.158466 0 255 255
-0.118107 -0.258364 -0.220713 59 195 255
0.0547488 -0.152227 -0.21606 86 169 255
-0.222137 -0.43523 -0.171639 14 241 255
0.108751 0.0717241 0.0381675 143 112 255
-0.194572 0.0420261 -0.224146 136 119 255
-0.223714 -0.299013 -0.142374 48 207 255
-0.0179782 0.0751363 -0.00136536 144 111 255
-0.0737189 -0.155967 -0.225534 85 170 255
-0.0258296 -0.48781 -0.0785118 0 255 255
-0.18903 -0.288392 0.0777856 51 204 255
-0.165218 -0.140559 0.0292305 89 166 255
-0.144295 -0.0906724 -0.209275 102 153 255
0.25929 0.0749082 -0.179093 144 111 255
-0.158366 -0.48694 0.107738 0 255 255
-0.215345 0.0569622 0.0562014 140 114 255
-0.21676 -0.0785666 0.23968 105 150 255
-0.218992 -0.0355644 0.11657 116 139 255
0.0844923 -0.0507714 -0.222272 112 143 255
-0.214549 -0.219591 -0.219518 69 186 255
-0.017741 -0.344248 -0.218008 36 218 255
-0.218671 -0.201342 0.0438222 73 181 255
0.349365 0.0755005 -0.09655 144 111 255
-0.066229 -0.0420897 -0.223349 113 141 255
0.289449 -0.262084 -0.222594 58 197 255
-0.113617 0.0729897 -0.190675 144 111 255
0.25927 -0.487846 -0.0791405 0 255 255
0.0739915 0.0748674 -0.0355294 144 111 255
-0.203575 -0.0760403 0.0149272 105 149 255
0.186812 -0.236782 -0.228053 64 191 255
-0.220425 -0.473233 0.150498 4 251 255
0.116728 -0.47102 -0.222679 4 251 255
0.0427453 -0.243477 -0.22415 63 192 255
0.236934 -0.0648236 -0.213904 108 147 255
0.424986 -0.0749916 -0.225032 105 149 255
0.108343 -0.487863 -0.0833775 0 255 255
-0.211111 -0.132352 0.290091 91 163 255
-0.0145453 0.0733178 -0.136756 144 111 255
-0.221627 -0.401513 0.0834834 22 233 255
-0.040896 -0.487578 0.0543527 0 255 255
-0.188624 -0.457161 0.251082 8 247 255
-0.15383 0.0750538 -0.0232854 144 111 255
0.262877 -0.421605 -0.215816 17 238 255
0.213342 0.0748566 -0.0968491 144 111 255
-0.137514 -0.0874916 -0.0375322 103 152 255
0.142673 0.0465913 -0.223693 137 118 255
-0.174444 -0.365135 -0.00222053 32 223 255
-0.191885 -0.279854 0.19079 52 202 255
0.0511453 0.0716971 0.0527798 143 112 255
0.00935606 -0.40068 0.403035 22 233 255
-0.169582 -0.487065 0.00524067 0 255 255
-0.167428 -0.323081 0.113156 42 213 255
-0.206946 -0.218272 0.290902 69 186 255
0.117239 0.0746362 -0.111607 144 111 255
-0.217771 -0.186391 0.147398 77 178 255
-0.173326 -0.374405 0.231409 29 226 255
-0.166329 -0.403188 -0.212168 22 233 255
0.29102 -0.109988 -0.216088 97 158 255
-0.0832301 -0.292238 -0.22681 50 205 255
-0.215397 0.0124257 -0.159506 128 127 255
0.112486 -0.0749916 0.0999678 105 149 255
-0.22265 -0.46725 -0.0567199 5 250 255
-0.19933 -0.481782 0.17621 2 253 255
0.157847 -0.487478 -0.154961 0 255 255
0.338451 -0.367283 -0.219811 31 224 255
0.0665229 -0.345601 -0.22614 36 218 255
0.35255 0.0733546 -0.209605 144 111 255
-0.211748 -0.466901 -0.222399 6 249 255
0.156319 -0.305695 -0.218826 47 208 255
-0.165444 -0.245395 -0.209947 62 193 255
-0.190096 -0.410597 0.156604 20 235 255
-0.22159 -0.486878 0.0746003 0 255 255
-0.0339543 -0.459084 -0.222964 8 247 255
-0.220412 -0.211005 -0.0977742 71 184 255
-0.208833 0.0275218 0.213432 131 123 255
-0.219556 -0.296302 0.131182 48 206 255
-0.129645 -0.487228 -0.157127 0 255 255
-0.221544 -0.386645 -0.109058 26 229 255
0.161609 0.0750781 -0.00109572 144 111 255
0.233027 -0.224526 -0.215861 68 187 255
0.0608077 -0.451678 -0.225115 9 246 255
-0.222149 -0.0601342 -0.202504 110 145 255
-0.18741 -0.418365 0.300452 18 237 255
-0.21126 0.0133735 -0.0441272 128 127 255
0.152338 -0.135372 -0.21505 89 165 255
-0.0852833 -0.394008 -0.227016 24 231 255
-0.218508 -0.0635401 0.157364 109 146 255
0.276776 -0.310575 -0.21177 46 209 255
0.126119 -0.0141034 -0.224397 121 134 255
-0.20936 -0.308669 -0.0107457 46 209 255
0.242929 -0.485407 -0.219257 1 254 255
-0.207549 -0.17182 -0.177939 81 174 255
0.0183219 0.0744106 -0.0936475 144 111 255
-0.187944 -0.217099 0.0523297 69 186 255
0.0324006 -0.487253 -0.171789 0 255 255
-0.0917469 0.0735603 -0.12305 144 111 255
-0.10131 -0.487591 -0.0465246 0 255 255
-0.222042 -0.34052 0.265759 38 217 255
0.19974 0.0740053 -0.212033 144 111 255
0.384927 -0.155113 -0.222383 85 170 255
-0.121412 -0.48664 0.133851 0 255 255
-0.0530659 -0.0913635 -0.211345 102 153 255
-0.220617 -0.102003 -0.0940847 99 156 255
0.201898 -0.403179 -0.220161 22 233 255
-0.11694 0.0565884 -0.219907 140 114 255
-0.219695 -0.485896 -0.10895 1 254 255
0.0508282 -0.107325 -0.219259 97 157 255
-0.218937 -0.0532875 0.051879 111 144 255
0.38588 0.0153384 -0.21113 129 126 255
-0.107335 -0.384829 0.34339 27 228 255
0.106471 0.0738745 -0.197458 144 111 255
-0.0726737 0.0751594 0.0875746 144 111 255
-0.202943 0.072544 0.157887 144 111 255
0.304971 0.0756916 -0.117244 144 111 255
-0.194378 -0.127362 0.240929 92 163 255
-0.198789 0.0749081 -0.182566 144 111 255
0.114787 -0.410333 -0.227358 20 235 255
0.264492 0.0764343 -0.212044 145 110 255
-0.0484123 0.0751213 -0.0494991 144 111 255
0.356115 -0.090324 -0.224313 102 153 255
-0.218874 -0.169922 0.015854 81 173 255
-0.0137547 -0.264758 -0.217556 56 198 255
-0.18738 -0.345364 0.0699225 36 218 255
0.0621419 0.0157271 -0.2165 129 126 255
-0.189711 -0.195782 0.161916 75 179 255
-0.211746 -0.0631904 0.290631 109 146 255
0.267339 -0.374416 -0.209367 29 226 255
0.286424 0.0749995 -0.054233 144 111 255
0.0626338 -0.365627 0.409916 31 224 255
-0.209548 -0.0299296 -0.128472 117 138 255
-0.224265 -0.342211 -0.159734 36 218 255
-0.221109 -0.24548 0.0811584 62 193 255
-0.219041 -0.405374 0.223146 21 234 255
0.378768 -0.219835 -0.215513 69 186 255
0.174986 -0.0624916 0.0749677 109 146 255
-0.108474 -0.000227636 -0.223868 125 130 255
-0.181818 0.074091 -0.081889 144 111 255
0.188782 -0.0168378 -0.213165 121 134 255
-0.0152 -0.0408132 -0.223739 115 140 255
0.0381889 -0.295109 -0.214838 48 206 255
0.100839 -0.487562 -0.161122 0 255 255
-0.172033 -0.14381 -0.220895 88 167 255
-0.0637523 0.0721239 -0.212008 144 111 255
-0.221055 -0.281901 -0.0882032 52 202 255
0.313464 -0.00136556 -0.214132 125 130 255
-0.158608 0.0743615 0.0753116 144 111 255
-0.138426 -0.486062 -0.201948 1 254 255
-0.217933 -0.125481 0.159903 93 162 255
-0.159421 -0.487038 0.056429 0 255 255
-0.219977 -0.253732 0.00483862 60 195 255
-0.220033 -0.00154389 0.110052 125 130 255
-0.218092 -0.231522 0.152735 65 189 255
-0.00337764 -0.405211 -0.216851 21 234 255
0.15905 -0.375476 0.422039 29 226 255
0.0696233 -0.191777 -0.215513 76 179 255
0.279795 -0.192106 -0.218628 76 179 255
0.171899 0.0750257 -0.115322 144 111 255
0.343612 -0.487987 -0.218751 0 255 255
0.000278341 -0.487897 -0.0823763 0 255 255
0.191342 -0.452353 -0.223682 9 246 255
-0.226808 -0.466473 0.244605 6 249 255
-0.218963 -0.093626 -0.00742378 101 154 255
0.371428 0.0749124 -0.177309 144 111 255
-0.121969 -0.204444 -0.218164 73 182 255
-0.0818919 -0.486769 -0.154296 0 255 255
0.351799 -0.315852 -0.226381 44 211 255
-0.21194 -0.273946 -0.156565 55 200 255
-0.137824 -0.366907 -0.226761 31 224 255
-0.219142 -0.00343427 0.186508 124 131 255
0.219485 -0.134516 -0.223193 91 163 255
-0.088763 0.0749684 0.0234853 144 111 255
-0.21453 -0.430547 -0.00632451 15 240 255
-0.218735 -0.339825 0.176619 38 217 255
0.114526 -0.325651 -0.21611 42 213 255
-0.211471 -0.29429 0.287976 50 205 255
0.0157635 0.0749363 -0.0153147 144 111 255
0.207072 0.0750602 -0.0406649 144 111 255
-0.222529 -0.0122367 -0.202364 121 133 255
-0.152896 -0.367572 0.275071 31 224 255
-0.200364 0.0726189 0.0234331 144 111 255
0.437486 -0.0124916 -0.225032 121 133 255
0.172464 -0.071946 -0.214136 107 147 255
0.0441258 -0.487914 -0.0089531 0 255 255
-0.00973542 -0.157896 -0.216995 85 170 255
-0.147104 -0.182274 0.0433075 78 177 255
-0.221241 -0.350065 0.0961019 35 220 255
-0.222209 -0.0137654 0.28214 121 133 255
-0.218249 -0.108402 0.0672325 97 158 255
-0.200713 -0.0745836 0.198945 105 149 255
-0.218462 3.06185e-05 -0.00875708 125 130 255
-0.179288 -0.26543 0.0365732 56 198 255
-0.0909414 -0.39688 0.38167 23 232 255
0.261163 -0.487668 -0.112708 0 255 255
-0.146831 -0.487324 -0.0771927 0 255 255
0.245501 -0.00283191 -0.212854 124 131 255
-0.216665 -0.233717 0.217202 65 190 255
-0.139689 -0.0773884 -0.222023 105 150 255
0.00235289 0.0733165 0.0742194 144 111 255
0.167351 -0.191595 -0.229073 76 179 255
-0.178459 -0.31489 -0.208588 44 211 255
-0.219376 -0.192244 -0.0463227 76 179 255
-0.119905 -0.437479 -0.226037 13 242 255
-0.141806 -0.433496 0.281342 14 241 255
0.0662142 0.0746007 -0.0933673 144 111 255
-0.0689442 -0.235931 -0.216828 65 190 255
-0.199495 -0.0652233 -0.0585642 108 147 255
0.333429 -0.139824 -0.224402 89 166 255
-0.168078 0.0750593 -0.137232 144 111 255
-0.204643 -0.105494 -0.1408 97 157 255
0.119952 -0.266518 -0.227047 56 198 255
-0.106797 0.0741605 -0.0424246 144 111 255
-0.176971 -0.339878 0.162884 38 217 255
-0.21809 -0.487265 0.118427 0 255 255
-0.0813769 -0.339665 -0.223661 38 217 255
-0.214943 -0.427923 -0.131468 15 240 255
0.32827 -0.416237 -0.22376 18 237 255
-0.220665 -0.35047 -0.0204868 35 220 255
-0.191127 -0.288114 0.236601 51 204 255
0.112347 -0.156906 -0.215504 85 170 255
-0.210583 -0.178946 0.289592 79 176 255
0.112486 -0.0249916 0.0749677 119 136 255
-0.00835312 0.0220851 -0.210664 131 124 255
0.371192 0.075411 -0.121826 144 111 255
0.0955736 0.0415782 -0.224558 136 119 255
0.412486 -0.324992 -0.212532 42 213 255
-0.0302913 -0.395991 0.405692 24 231 255
-0.218076 -0.359436 -0.227167 32 222 255
0.0088947 -0.0810854 -0.213014 104 151 255
-0.119527 -0.487271 0.0438062 0 255 255
-0.0527525 -0.48763 -0.0955321 0 255 255
-0.224281 -0.282313 -0.204147 52 202 255
-0.218369 -0.170917 0.0990279 81 174 255
-0.221461 -0.17465 -0.127036 80 175 255
0.109007 0.0750442 0.0133022 144 111 255
-0.203783 -0.468378 -0.0442986 5 250 255
0.221408 -0.277342 -0.214339 54 201 255
-0.22137 -0.419875 0.144247 18 237 255
0.381404 -0.0636763 -0.212693 109 146 255
0.324986 0.0750084 0.0124677 144 111 255
0.273536 -0.487626 -0.202165 0 255 255
-0.161337 0.00917538 -0.22416 127 128 255
-0.218836 -0.186006 0.20541 77 178 255
0.0111346 -0.330773 -0.225809 40 215 255
-0.104435 -0.111414 -0.22039 97 158 255
-0.223014 -0.417718 -0.195522 18 237 255
-0.174818 -0.487111 -0.159789 0 255 255
-0.224509 -0.47504 0.0490138 3 252 255
0.156746 -0.486655 -0.205304 0 255 255
0.322317 0.0685666 -0.211607 143 112 255
0.322063 -0.266354 -0.221521 56 198 255
-0.137514 -0.412492 0.137468 19 236 255
0.221479 -0.347964 -0.221388 36 219 255
0.206059 -0.48769 -0.122164 0 255 255
0.0455444 0.0742187 -0.142684 144 111 255
0.219425 0.0751178 -0.154416 144 111 255
0.0974972 -0.108423 -0.21353 97 158 255
-0.214735 0.0256642 0.0466416 131 123 255
0.424986 -0.174992 -0.212532 80 175 255
-0.05714 -0.47133 -0.214847 4 251 255
-0.218653 0.0305696 -0.0758548 133 121 255
-0.218863 -0.203421 -0.212439 73 182 255
-0.0263565 0.0749825 -0.0848048 144 111 255
-0.0336983 0.0749561 0.0296955 144 111 255
-0.220567 -0.28465 0.0599341 52 203 255
-0.219484 -0.133994 -0.0293636 91 163 255
0.167332 0.0120896 -0.222941 128 127 255
0.118276 -0.487809 -0.0989701 0 255 255
0.119439 -0.383379 0.41776 27 228 255
-0.207655 -0.254935 -0.0434364 60 195 255
-0.217656 -0.363183 -0.0777231 32 223 255
0.26553 0.075055 -0.0840079 144 111 255
-0.15489 0.0668972 -0.216388 142 113 255
-0.0926485 -0.0409528 -0.215084 115 140 255
0.273876 -0.0906899 -0.223132 102 153 255
-0.0789976 0.0748373 -0.14249 144 111 255
0.0576202 -0.0513315 -0.213067 112 143 255
-0.204857 -0.379943 0.0542392 28 227 255
0.0597548 -0.412424 -0.218039 19 236 255
-0.210866 0.0618447 0.189309 141 113 255
-0.0489809 -0.172666 -0.216438 81 174 255
-0.196386 0.073377 0.0858403 144 111 255
0.124986 0.0625084 0.0999678 141 113 255
-0.210362 0.0667995 -0.02308 142 113 255
0.0155972 -0.487814 0.0168137 0 255 255
0.1387 0.0751108 -0.0927756 144 111 255
0.0466333 -0.398245 0.39481 23 232 255
0.285383 -0.487893 -0.0821053 0 255 255
0.376381 -0.444382 -0.218468 11 244 255
-0.212516 -0.395187 0.289057 24 231 255
-0.15512 -0.313847 0.0785434 44 210 255
-0.120005 -0.422568 0.340948 17 238 255
-0.216601 -0.024529 0.234293 119 136 255
0.338845 -0.187205 -0.223429 77 178 255
-0.11957 0.0751298 0.0635197 144 111 255
-0.00652109 0.0666441 -0.217815 142 113 255
0.105721 -0.366808 -0.227221 31 224 255
-0.220181 0.0491041 -0.135639 138 117 255
0.0718657 -0.487747 -0.186855 0 255 255
0.295203 0.0750556 -0.159791 144 111 255
0.169431 0.0748733 -0.169654 144 111 255
-0.00230205 -0.221102 -0.217239 68 187 255
-0.217307 -0.288181 0.195172 51 204 255
-0.207845 0.0190795 0.144371 130 125 255
