ply
format ascii 1.0
comment Created by Open3D
element vertex 1213
property double x
property double y
property double z
property uchar red
property uchar green
property uchar blue
end_header
0.0244653 -0.466636 0.219123 5 250 255
0.182083 -0.47198 0.122548 3 252 255
0.0424616 -0.413332 0.13405 18 237 255
-0.149817 -0.368386 0.149195 30 225 255
0.0916737 -0.312892 0.246453 44 211 255
0.00659574 -0.279147 0.155837 52 202 255
-0.144867 -0.363277 0.325982 31 224 255
-0.0449056 -0.475658 0.252993 2 253 255
0.162239 -0.374721 0.3256 28 227 255
0.162239 -0.299721 0.2881 48 207 255
0.050658 -0.346795 0.251561 35 220 255
-0.0927613 -0.290027 0.126826 50 205 255
-0.141637 -0.279515 0.228583 52 202 255
0.0750313 -0.474776 0.322955 3 252 255
-0.152821 -0.381185 0.460308 27 228 255
-0.12282 -0.337363 0.351222 38 217 255
-0.146959 -0.476642 0.277792 2 253 255
0.00495797 -0.374024 0.194554 28 227 255
0.126738 -0.351923 0.226975 34 221 255
0.228885 -0.290245 0.1709 50 205 255
-0.100982 -0.307269 0.169383 46 209 255
-0.115092 -0.417984 0.407682 17 238 255
-0.049058 -0.343755 0.15454 36 219 255
-0.033714 -0.39084 0.239666 24 231 255
-0.0583559 -0.439209 0.172272 12 243 255
0.142436 -0.401455 0.159254 21 234 255
0.217931 -0.440639 0.245763 11 244 255
-0.0036504 -0.47346 0.120896 3 252 255
-0.0130793 -0.398818 0.393917 22 233 255
-0.126915 -0.263909 0.125641 56 198 255
-0.00943245 -0.438307 0.160008 12 243 255
0.186736 -0.467065 0.164796 5 250 255
0.0516628 -0.407696 0.355041 20 235 255
0.183076 -0.306671 0.20845 46 209 255
-0.0321943 -0.436519 0.259745 12 243 255
0.190164 -0.474637 0.295846 3 252 255
-0.110041 -0.473637 0.116497 3 252 255
-0.135617 -0.475494 0.396363 3 252 255
0.092636 -0.346779 0.144409 35 220 255
-0.0564695 -0.42339 0.441959 16 239 255
0.146833 -0.474999 0.339971 3 252 255
-0.0550366 -0.46478 0.321009 5 250 255
0.101774 -0.426081 0.231952 15 240 255
-0.149829 -0.404956 0.348487 21 234 255
-0.110746 -0.371361 0.149368 29 226 255
0.279876 -0.474237 0.202143 3 252 255
-0.141089 -0.315828 0.38199 43 211 255
0.0302525 -0.368093 0.302341 30 225 255
-0.0661235 -0.427941 0.127408 15 240 255
0.130966 -0.288437 0.206524 50 205 255
-0.0476147 -0.360886 0.363306 32 223 255
-0.00515501 -0.476265 0.408204 2 253 255
0.212239 -0.224721 0.2006 67 188 255
-0.108038 -0.398962 0.295949 22 233 255
0.188208 -0.360796 0.218142 32 223 255
-0.0901989 -0.330599 0.31552 40 215 255
-0.141133 -0.357605 0.269402 32 222 255
-0.125034 -0.346268 0.453723 36 219 255
0.19139 -0.346776 0.157586 35 220 255
-0.0264224 -0.400241 0.175424 22 233 255
0.249848 -0.412062 0.197871 19 236 255
0.142113 -0.34642 0.163186 36 219 255
0.0997387 -0.237221 0.2131 64 191 255
-0.135079 -0.344782 0.194927 36 219 255
-0.0377748 -0.380154 0.128154 27 228 255
0.31104 -0.330344 0.145059 40 215 255
-0.0380789 -0.292588 0.132511 48 206 255
-0.137372 -0.393859 0.170268 23 232 255
-0.00694985 -0.326187 0.256484 40 214 255
-0.0924192 -0.476106 0.196593 2 253 255
0.34394 -0.473421 0.138313 3 252 255
0.0987898 -0.301305 0.145048 47 208 255
-0.139572 -0.334811 0.13921 39 216 255
0.266711 -0.314262 0.159948 44 211 255
-0.123351 -0.413806 0.227405 18 237 255
0.119371 -0.446827 0.326005 10 245 255
-0.112032 -0.448374 0.330077 9 246 255
0.0661336 -0.385298 0.2677 26 229 255
0.228988 -0.375107 0.143408 28 227 255
-0.0538852 -0.336941 0.275127 38 217 255
0.0588538 -0.418386 0.41565 17 238 255
0.12105 -0.474726 0.270271 3 252 255
-0.143884 -0.456796 0.44291 7 248 255
-0.00570609 -0.411148 0.351088 19 236 255
0.0958238 -0.23863 0.155218 63 192 255
-0.0833798 -0.302191 0.21197 47 208 255
-0.140994 -0.476727 0.179932 2 253 255
0.175918 -0.245149 0.142692 60 194 255
0.0726562 -0.470695 0.291808 4 251 255
0.0428492 -0.29133 0.141063 50 205 255
-0.132132 -0.233239 0.258531 65 190 255
-0.0876753 -0.414022 0.172801 18 237 255
0.0638881 -0.464301 0.131295 5 250 255
-0.0773426 -0.366561 0.437403 30 225 255
0.0679514 -0.354294 0.213572 34 221 255
-0.0971405 -0.453636 0.259443 8 247 255
0.240392 -0.454268 0.157277 8 247 255
-0.124081 -0.385575 0.419636 26 229 255
0.0432049 -0.473458 0.172358 3 252 255
0.288766 -0.472298 0.121185 3 252 255
-0.00732948 -0.475461 0.288268 3 252 255
0.117973 -0.448735 0.153558 9 246 255
0.171182 -0.47482 0.372657 3 252 255
-0.144817 -0.476915 0.229821 2 253 255
0.292375 -0.394548 0.166435 23 232 255
-0.0732062 -0.32095 0.145089 42 213 255
-0.117672 -0.309751 0.323798 44 210 255
-0.121251 -0.448283 0.145907 9 246 255
-0.0156797 -0.422956 0.444068 16 239 255
-0.104446 -0.33504 0.254988 38 217 255
0.211438 -0.263026 0.168682 56 198 255
0.118774 -0.265071 0.169543 56 199 255
0.0431169 -0.475322 0.343289 3 252 255
0.115444 -0.408454 0.360474 20 235 255
-0.0121687 -0.339604 0.173402 36 218 255
-0.0913622 -0.473521 0.414187 3 252 255
-0.114441 -0.325036 0.393438 40 214 255
0.0232012 -0.389304 0.135847 25 230 255
0.158611 -0.474673 0.246511 3 252 255
0.0826148 -0.475411 0.392715 3 252 255
-0.0252613 -0.374721 0.4881 28 227 255
-0.0607347 -0.361086 0.190067 32 223 255
0.157622 -0.384753 0.179088 26 229 255
-0.0806862 -0.361997 0.282563 32 223 255
-0.12795 -0.256991 0.407024 58 197 255
-0.0739136 -0.255028 0.191817 59 195 255
-0.0457312 -0.22768 0.147 65 189 255
0.0322709 -0.373262 0.370008 29 226 255
-0.0530252 -0.386511 0.413191 25 230 255
-0.0627613 -0.299721 0.3256 48 207 255
-0.0574536 -0.421395 0.22905 16 239 255
0.0438229 -0.348088 0.173892 35 220 255
0.326905 -0.39944 0.145386 22 233 255
-0.12723 -0.257136 0.351149 58 197 255
-0.114829 -0.273324 0.237212 54 201 255
0.205649 -0.399589 0.233969 22 233 255
-0.126058 -0.423597 0.45807 16 239 255
-0.128043 -0.231702 0.164829 65 190 255
-0.0587522 -0.431126 0.282956 14 241 255
-0.000261285 -0.224721 0.2006 67 188 255
0.288666 -0.442063 0.141151 11 244 255
0.19637 -0.473998 0.225747 3 252 255
-0.008133 -0.446837 0.232331 10 245 255
-0.0795459 -0.475919 0.348116 2 253 255
-0.107471 -0.340521 0.120849 36 218 255
-0.0896623 -0.348691 0.379626 35 220 255
0.176365 -0.343982 0.260314 36 219 255
-0.123447 -0.399386 0.262596 22 233 255
0.0816711 -0.427683 0.20881 15 240 255
0.0819142 -0.404794 0.139144 21 234 255
0.216011 -0.472702 0.166396 3 252 255
-0.0804333 -0.443193 0.208634 11 244 255
-0.0303733 -0.462123 0.358973 6 249 255
0.138676 -0.47449 0.196472 3 252 255
0.0438881 -0.444861 0.317097 10 245 255
-0.142894 -0.314987 0.290454 44 211 255
-0.145937 -0.361267 0.375771 32 223 255
-0.12213 -0.390966 0.121237 24 231 255
0.0544045 -0.255949 0.160736 59 195 255
-0.140526 -0.29544 0.141272 48 206 255
-0.0565114 -0.395551 0.159839 23 232 255
0.207968 -0.406429 0.154139 20 235 255
0.249739 -0.249721 0.2006 60 195 255
-0.0966782 -0.448097 0.126742 10 245 255
-0.073509 -0.439359 0.400561 12 243 255
0.291014 -0.472977 0.152513 3 252 255
0.120201 -0.341798 0.280037 36 218 255
-0.0430372 -0.378927 0.314296 27 228 255
-0.146854 -0.39749 0.306723 22 233 255
-0.0127613 -0.299721 0.3256 48 207 255
0.247624 -0.329409 0.194028 40 215 255
-0.118352 -0.447861 0.189145 10 245 255
-0.0576993 -0.357797 0.241962 32 222 255
0.0648641 -0.437867 0.25728 12 243 255
0.146568 -0.418996 0.339336 17 238 255
-0.105402 -0.406432 0.334286 20 235 255
0.229798 -0.471831 0.124736 3 252 255
0.0303114 -0.468465 0.38964 4 251 255
-0.147107 -0.366846 0.429886 30 225 255
-0.119574 -0.375643 0.205137 28 227 255
-0.152988 -0.476329 0.146664 2 253 255
-0.0342707 -0.459282 0.174921 7 248 255
-0.132662 -0.325842 0.237215 40 214 255
-0.100261 -0.337221 0.4881 38 217 255
-0.147759 -0.470367 0.377469 4 251 255
-0.14719 -0.416472 0.417746 18 237 255
0.024389 -0.341363 0.280092 36 218 255
0.093824 -0.465137 0.359426 5 250 255
0.247257 -0.374905 0.209772 28 227 255
-0.0431104 -0.429534 0.131797 14 241 255
-0.0902585 -0.395408 0.421437 23 232 255
-0.0223417 -0.341492 0.130499 36 218 255
0.0875317 -0.380693 0.16651 27 228 255
-0.019192 -0.29678 0.184647 48 207 255
0.0951802 -0.383238 0.314407 26 229 255
-0.121199 -0.476216 0.288923 2 253 255
-0.100261 -0.299721 0.4256 48 207 255
0.118706 -0.473079 0.122121 3 252 255
0.137306 -0.475007 0.39488 3 252 255
0.00685083 -0.474714 0.201789 3 252 255
-0.0613118 -0.284361 0.154262 51 204 255
0.229201 -0.33566 0.154156 38 217 255
0.237239 -0.487221 0.3131 0 255 255
0.0115399 -0.423114 0.181581 16 239 255
-0.143555 -0.250638 0.126439 60 195 255
0.0786319 -0.402879 0.392674 21 234 255
0.278499 -0.474249 0.227954 3 252 255
-0.0333202 -0.358354 0.211995 32 223 255
-0.0600094 -0.475471 0.276939 3 252 255
0.00946466 -0.303129 0.225618 47 208 255
-0.0133481 -0.427618 0.393793 15 240 255
0.173712 -0.420972 0.168242 16 239 255
-0.100698 -0.337426 0.176184 38 217 255
-0.107531 -0.254389 0.159907 59 195 255
0.0554321 -0.45612 0.204375 7 248 255
-0.0837998 -0.386687 0.222285 25 230 255
0.125919 -0.3155 0.236314 43 211 255
0.142271 -0.468533 0.269377 4 251 255
0.258507 -0.290183 0.148571 50 205 255
0.0268266 -0.473327 0.143429 3 252 255
0.141389 -0.384875 0.297889 26 229 255
0.0845086 -0.432057 0.164157 14 241 255
0.156131 -0.430395 0.137595 14 241 255
0.00801795 -0.375674 0.250816 28 227 255
0.220649 -0.351212 0.227636 34 221 255
-0.152385 -0.301878 0.446818 47 208 255
-0.0548847 -0.474273 0.138368 3 252 255
0.113805 -0.474985 0.337153 3 252 255
-0.0106165 -0.357309 0.354298 32 222 255
0.0159442 -0.31383 0.164938 44 211 255
0.0519208 -0.474677 0.239666 3 252 255
-0.144207 -0.476282 0.33874 2 253 255
-0.0673488 -0.342765 0.333771 36 219 255
0.133632 -0.265694 0.145059 56 199 255
0.221674 -0.261862 0.138415 56 198 255
0.227629 -0.427044 0.182035 15 240 255
-0.126581 -0.427269 0.360063 15 240 255
0.270984 -0.416701 0.155843 18 237 255
-0.136977 -0.256177 0.318346 59 195 255
-0.0864684 -0.445381 0.152515 10 245 255
-0.0634314 -0.334296 0.126622 39 216 255
-0.126923 -0.287938 0.382312 51 204 255
-0.110215 -0.455456 0.413679 8 247 255
0.163826 -0.310459 0.146763 44 210 255
-0.103235 -0.347691 0.441204 35 220 255
0.310648 -0.474104 0.183864 3 252 255
0.212239 -0.274721 0.2131 54 201 255
-0.0286289 -0.468597 0.318217 4 251 255
-0.0587764 -0.313679 0.201189 44 211 255
-0.147199 -0.335274 0.416827 38 217 255
0.160038 -0.333372 0.184287 39 216 255
-0.105808 -0.40309 0.147256 21 234 255
0.225053 -0.467276 0.230229 5 250 255
-0.0877613 -0.387221 0.4881 25 230 255
0.020938 -0.470062 0.269626 4 251 255
0.128117 -0.443992 0.175566 11 244 255
-0.00948233 -0.287233 0.135388 51 204 255
-0.0455105 -0.476285 0.38786 2 253 255
0.187513 -0.372687 0.160917 29 226 255
-0.12078 -0.434761 0.291129 13 242 255
-0.137597 -0.339708 0.32455 36 218 255
8.24699e-05 -0.374198 0.162066 28 227 255
0.0406424 -0.475191 0.415511 3 252 255
0.0700198 -0.354881 0.330434 32 222 255
0.280617 -0.349455 0.148845 35 220 255
-0.101319 -0.255561 0.208258 59 195 255
0.168643 -0.474805 0.310755 3 252 255
0.088471 -0.387361 0.259206 25 230 255
-0.0932362 -0.259856 0.130409 58 197 255
-0.0894313 -0.473878 0.117886 3 252 255
-0.109612 -0.382326 0.367169 26 229 255
0.0593952 -0.326397 0.187525 40 214 255
0.116898 -0.322001 0.145728 42 213 255
0.0542203 -0.316203 0.245188 43 211 255
-0.0237446 -0.468649 0.43045 4 251 255
-0.00594307 -0.41732 0.225728 17 238 255
-0.0217934 -0.348144 0.298811 35 220 255
-0.0882533 -0.411637 0.301686 19 236 255
-0.138356 -0.44069 0.250626 11 244 255
0.0244143 -0.432212 0.371604 14 241 255
0.0371245 -0.356662 0.138255 32 222 255
0.124849 -0.396826 0.139226 23 232 255
0.0140194 -0.475726 0.361855 2 253 255
-0.126117 -0.287999 0.122714 51 204 255
-0.121044 -0.47672 0.207801 2 253 255
-0.131062 -0.232735 0.232859 65 190 255
0.243209 -0.474306 0.271747 3 252 255
0.0781746 -0.274857 0.145166 54 201 255
0.0591133 -0.376656 0.394522 28 227 255
-0.129023 -0.367965 0.463801 30 225 255
-0.119514 -0.476015 0.371999 2 253 255
-0.0998354 -0.354901 0.316285 32 222 255
0.105766 -0.360022 0.18159 32 223 255
-0.135922 -0.42661 0.134576 15 240 255
-0.124274 -0.284568 0.198213 51 204 255
0.265466 -0.362874 0.18248 31 224 255
-0.0650238 -0.475505 0.229588 2 253 255
0.310863 -0.377179 0.154645 28 227 255
-0.0613629 -0.378576 0.12634 27 228 255
-0.122545 -0.293295 0.28432 48 206 255
0.26619 -0.450479 0.188897 9 246 255
0.072774 -0.280041 0.199762 52 202 255
-0.0589834 -0.388186 0.376912 25 230 255
0.0872387 -0.299721 0.3006 48 207 255
0.303068 -0.309432 0.145555 44 210 255
0.0913694 -0.474577 0.20733 3 252 255
-0.132604 -0.361011 0.127671 32 223 255
0.184323 -0.472968 0.170241 3 252 255
-0.0307587 -0.472317 0.124649 3 252 255
0.200791 -0.336856 0.173489 38 217 255
0.182371 -0.401434 0.260443 21 234 255
0.0675861 -0.4496 0.148257 9 246 255
0.0320293 -0.475381 0.310265 3 252 255
-0.0662685 -0.334022 0.245738 39 216 255
0.156838 -0.279794 0.200425 52 202 255
0.276978 -0.260699 0.150914 56 198 255
-0.137875 -0.321227 0.175272 42 213 255
-0.048482 -0.424385 0.188339 16 239 255
-0.127117 -0.242025 0.367712 62 193 255
-0.103713 -0.475706 0.319774 2 253 255
-0.149069 -0.43143 0.216297 14 241 255
-0.0882549 -0.419246 0.231684 17 238 255
0.318967 -0.44466 0.160362 10 245 255
0.124414 -0.474293 0.239215 3 252 255
-0.133256 -0.236341 0.286507 64 191 255
-0.151796 -0.402006 0.46597 21 234 255
-0.00533684 -0.329356 0.199217 40 215 255
-0.000704292 -0.475105 0.24286 3 252 255
0.133192 -0.473311 0.153841 3 252 255
-0.0742546 -0.40688 0.45531 20 235 255
0.258352 -0.473748 0.178161 3 252 255
0.0662198 -0.430547 0.280924 14 241 255
-0.141135 -0.371671 0.249668 29 226 255
0.0306107 -0.443266 0.133298 11 244 255
0.0734084 -0.317582 0.144615 43 211 255
0.146372 -0.252138 0.161797 60 195 255
-0.0645141 -0.285669 0.129392 51 204 255
0.070741 -0.235333 0.153979 64 191 255
-0.0967886 -0.475663 0.264115 2 253 255
0.172233 -0.47226 0.347483 3 252 255
0.166303 -0.366993 0.14359 30 225 255
-0.0863582 -0.372716 0.256913 29 226 255
0.0662698 -0.38422 0.195321 26 229 255
0.192516 -0.414039 0.219218 18 237 255
0.0217896 -0.261116 0.141766 56 198 255
0.137239 -0.324721 0.3256 40 214 255
0.208556 -0.472743 0.12358 3 252 255
0.104687 -0.475143 0.305697 3 252 255
0.239233 -0.245057 0.154052 60 194 255
-0.0170111 -0.397998 0.26363 22 233 255
0.168896 -0.322519 0.233497 42 213 255
-0.151138 -0.413608 0.376507 18 237 255
-0.062218 -0.47544 0.177086 3 252 255
0.00715263 -0.447985 0.17656 10 245 255
-0.143433 -0.290731 0.352139 50 205 255
-0.0883722 -0.295521 0.158925 48 206 255
0.197527 -0.451291 0.175464 9 246 255
0.120843 -0.451285 0.264065 9 246 255
-0.0708565 -0.235861 0.150338 64 191 255
0.0211242 -0.408759 0.155101 20 235 255
0.199912 -0.300968 0.154087 47 208 255
-0.0382718 -0.47527 0.338078 3 252 255
-0.0861282 -0.416843 0.126052 18 237 255
0.249028 -0.421732 0.140065 16 239 255
-0.0752613 -0.299721 0.2881 48 207 255
0.0571127 -0.463236 0.343776 6 249 255
0.0338849 -0.352388 0.327067 34 221 255
-0.130135 -0.303581 0.429749 47 208 255
0.0122387 -0.299721 0.2881 48 207 255
0.0614889 -0.474556 0.191874 3 252 255
-0.0545836 -0.455085 0.44026 8 247 255
-0.125201 -0.378391 0.301155 27 228 255
-0.0401495 -0.462033 0.276504 6 249 255
-0.0388465 -0.373375 0.163061 29 226 255
-0.109777 -0.229601 0.150277 65 190 255
0.105193 -0.475417 0.406871 3 252 255
0.0700312 -0.474655 0.285012 3 252 255
-0.0835455 -0.350252 0.145879 35 220 255
0.188013 -0.241771 0.152091 62 193 255
-0.0116793 -0.474133 0.151307 3 252 255
-0.10424 -0.433616 0.380148 13 242 255
-0.0159619 -0.251747 0.152526 60 195 255
-0.105438 -0.330159 0.284721 40 215 255
-0.149439 -0.452087 0.4066 8 247 255
-0.102381 -0.409551 0.203853 19 236 255
-0.00514467 -0.468913 0.396677 4 251 255
0.167234 -0.473195 0.128069 3 252 255
-0.0118801 -0.396344 0.304774 23 232 255
-0.13826 -0.268163 0.170443 56 199 255
0.202113 -0.474637 0.316659 3 252 255
0.00526358 -0.450417 0.344999 9 246 255
0.0617077 -0.336917 0.277904 38 217 255
0.323076 -0.461178 0.140474 6 249 255
0.0443967 -0.302307 0.163489 47 208 255
-0.137063 -0.411983 0.181078 19 236 255
0.158696 -0.358966 0.240814 32 223 255
-0.118083 -0.311064 0.348763 44 210 255
0.244814 -0.464642 0.130679 5 250 255
-0.0332837 -0.475448 0.21424 3 252 255
-0.0024064 -0.369862 0.375929 30 225 255
-0.0875865 -0.348732 0.411077 35 220 255
-0.0532884 -0.414266 0.250625 18 237 255
-0.152868 -0.473805 0.208208 3 252 255
0.14936 -0.467924 0.216169 4 251 255
0.0808551 -0.366101 0.14259 31 224 255
-0.121057 -0.467627 0.12392 5 250 255
-0.112898 -0.405631 0.468255 20 235 255
-0.086396 -0.444544 0.290052 10 245 255
-0.143982 -0.26716 0.416677 56 199 255
-0.134746 -0.308129 0.256167 44 210 255
0.190194 -0.474682 0.265028 3 252 255
0.0363921 -0.33892 0.211833 36 218 255
-0.0108667 -0.405396 0.13204 20 235 255
-0.0963127 -0.369011 0.198035 30 225 255
0.0856249 -0.472641 0.131208 3 252 255
0.0878483 -0.412133 0.334093 19 236 255
0.111867 -0.299586 0.219934 48 207 255
-0.0269566 -0.308078 0.15055 44 210 255
-0.151546 -0.466838 0.271781 5 250 255
-0.0496117 -0.368724 0.285743 30 225 255
0.280606 -0.416013 0.175287 18 237 255
0.227501 -0.325505 0.209654 40 214 255
-0.136937 -0.369091 0.182682 30 225 255
0.120608 -0.405011 0.160701 21 234 255
0.041858 -0.464024 0.42812 5 250 255
-0.1296 -0.232546 0.193071 65 190 255
0.0944455 -0.274575 0.171599 54 201 255
-0.0738583 -0.353547 0.371507 34 221 255
0.287748 -0.400677 0.143034 22 233 255
0.224003 -0.474439 0.206918 3 252 255
-0.0384397 -0.446182 0.391611 10 245 255
0.201222 -0.33302 0.145032 39 216 255
-0.144568 -0.28447 0.223956 51 204 255
-0.121452 -0.371705 0.341081 29 226 255
0.107854 -0.330945 0.267447 40 215 255
-0.0954774 -0.320224 0.236634 42 213 255
-0.0437663 -0.388879 0.335461 25 230 255
0.114967 -0.437638 0.212217 12 243 255
0.0523578 -0.425154 0.180998 15 240 255
0.0968177 -0.475109 0.368343 3 252 255
-0.0615864 -0.28348 0.189835 52 203 255
-0.0424509 -0.449464 0.144819 9 246 255
0.00465894 -0.438343 0.284572 12 243 255
0.162239 -0.224721 0.2006 67 188 255
0.0569469 -0.386007 0.340397 25 230 255
-0.0357025 -0.388811 0.397949 25 230 255
-0.076695 -0.476178 0.383478 2 253 255
-0.146889 -0.451087 0.139322 9 246 255
-0.134028 -0.343132 0.219968 36 219 255
-0.119305 -0.432219 0.430234 14 241 255
-0.112831 -0.47595 0.166589 2 253 255
0.193535 -0.275334 0.181861 54 201 255
0.0515325 -0.420299 0.421234 17 238 255
-0.10251 -0.327039 0.121536 40 214 255
-0.147762 -0.47511 0.325277 3 252 255
-0.143664 -0.346377 0.303652 36 219 255
-0.152175 -0.375132 0.403064 28 227 255
0.189685 -0.410516 0.138737 19 236 255
-0.0733988 -0.468321 0.328113 4 251 255
0.125221 -0.44933 0.135034 9 246 255
0.0298363 -0.320012 0.139214 42 213 255
-0.0947688 -0.333597 0.343601 39 216 255
0.249186 -0.472684 0.14585 3 252 255
0.320228 -0.361522 0.144339 32 223 255
0.14102 -0.365726 0.281167 31 224 255
-0.109505 -0.389506 0.249532 25 230 255
0.201539 -0.360265 0.248028 32 223 255
-0.0631912 -0.452364 0.23202 8 247 255
0.176689 -0.281361 0.14526 52 203 255
0.162239 -0.299721 0.3256 48 207 255
-0.042606 -0.324729 0.209689 40 214 255
0.0193117 -0.292813 0.185766 48 206 255
0.0486365 -0.472749 0.129924 3 252 255
0.0530116 -0.375556 0.16016 28 227 255
0.237019 -0.396735 0.209807 23 232 255
-0.151591 -0.340342 0.458203 36 218 255
-0.148938 -0.446949 0.452342 10 245 255
-0.113861 -0.290306 0.145535 50 205 255
-0.105658 -0.449652 0.249826 9 246 255
-0.0752613 -0.424721 0.3756 16 239 255
-0.122322 -0.292554 0.312009 48 206 255
-0.11853 -0.425706 0.329794 15 240 255
0.0904137 -0.375654 0.294805 28 227 255
-0.123638 -0.348557 0.396962 35 220 255
-0.158955 -0.476873 0.174706 2 253 255
0.126686 -0.353661 0.145343 34 221 255
-0.0172777 -0.363918 0.223245 31 224 255
0.203069 -0.446596 0.154807 10 245 255
0.186804 -0.471452 0.205807 4 251 255
-0.144184 -0.273718 0.377125 54 201 255
0.0331058 -0.237266 0.152041 63 192 255
0.0268635 -0.434084 0.239211 13 242 255
0.274038 -0.452421 0.16263 8 247 255
0.102981 -0.474206 0.160531 3 252 255
0.0167023 -0.403783 0.389821 21 234 255
0.112371 -0.334932 0.201449 38 217 255
0.13672 -0.469736 0.340867 4 251 255
-0.146071 -0.389302 0.229511 25 230 255
-0.0719888 -0.32835 0.166489 40 215 255
-0.118969 -0.344387 0.151229 36 219 255
0.00942902 -0.406292 0.195575 20 235 255
0.219715 -0.457898 0.249969 7 248 255
-0.101822 -0.3875 0.12254 25 230 255
-0.106419 -0.403826 0.380528 21 234 255
0.00456012 -0.474307 0.18095 3 252 255
0.126909 -0.391989 0.338414 24 231 255
-0.0493002 -0.251613 0.138516 60 195 255
0.278912 -0.335671 0.160681 38 217 255
-0.0539224 -0.344599 0.312798 36 219 255
0.251906 -0.280766 0.159809 52 203 255
0.257898 -0.381047 0.14463 27 228 255
-0.0324145 -0.422337 0.434452 16 239 255
-0.133769 -0.25792 0.257656 58 197 255
0.0946851 -0.319468 0.166517 42 213 255
-0.162761 -0.224721 0.4256 67 188 255
0.156659 -0.474858 0.386677 3 252 255
-0.00181001 -0.475429 0.343479 3 252 255
0.0373481 -0.474849 0.216443 3 252 255
0.048586 -0.475836 0.395809 2 253 255
0.0909273 -0.430158 0.138376 14 241 255
-0.00109818 -0.409449 0.342647 19 236 255
-0.149797 -0.406961 0.339023 20 235 255
-0.027335 -0.357461 0.129581 32 222 255
-0.120299 -0.237755 0.134762 63 192 255
-0.0730027 -0.352295 0.203548 34 221 255
0.0772761 -0.336644 0.229256 38 217 255
-0.0430313 -0.413475 0.15207 18 237 255
0.0940451 -0.47481 0.251895 3 252 255
-0.0280407 -0.476411 0.410314 2 253 255
0.0220781 -0.365374 0.198267 31 224 255
-0.13857 -0.419445 0.283335 17 238 255
-0.0328856 -0.462012 0.197067 6 249 255
-0.0185564 -0.475182 0.275006 3 252 255
0.0514468 -0.280492 0.202429 52 203 255
0.23492 -0.324538 0.142633 40 214 255
0.266261 -0.474264 0.241805 3 252 255
0.0872387 -0.224721 0.1881 67 188 255
0.00333657 -0.32578 0.245248 40 214 255
-0.000261285 -0.399721 0.4881 22 233 255
-0.137847 -0.399823 0.137948 22 233 255
-0.101825 -0.389814 0.444491 24 231 255
0.120275 -0.272165 0.194035 55 200 255
0.0196434 -0.448146 0.158066 10 245 255
0.216508 -0.368576 0.143866 30 225 255
0.163513 -0.446721 0.151612 10 245 255
0.339368 -0.473577 0.146898 3 252 255
0.217716 -0.299706 0.183015 48 207 255
0.103134 -0.430696 0.2736 14 241 255
-0.129952 -0.31876 0.126494 43 211 255
-0.146747 -0.370658 0.370234 29 226 255
0.0497661 -0.377193 0.136437 28 227 255
-0.130512 -0.241533 0.327825 62 193 255
-0.0925131 -0.434462 0.423634 13 242 255
0.0773112 -0.466373 0.175299 5 250 255
0.1578 -0.384818 0.177845 26 229 255
0.0672497 -0.47517 0.341585 3 252 255
0.134194 -0.474652 0.297578 3 252 255
-0.122766 -0.31111 0.205171 44 210 255
0.0147138 -0.467527 0.296713 5 250 255
0.137239 -0.299721 0.2881 48 207 255
-0.0508329 -0.322065 0.128429 42 213 255
-0.149565 -0.407257 0.440518 20 235 255
-0.128188 -0.476643 0.242107 2 253 255
-0.137889 -0.442753 0.182654 11 244 255
-0.106461 -0.476075 0.386471 2 253 255
-0.0614583 -0.391821 0.248506 24 231 255
0.112577 -0.275484 0.145767 54 201 255
-0.0976157 -0.474335 0.136268 3 252 255
0.236171 -0.440185 0.205895 12 243 255
-0.0525294 -0.475457 0.30502 3 252 255
0.294764 -0.472055 0.18905 3 252 255
-0.0777304 -0.415834 0.203779 18 237 255
0.202651 -0.253108 0.138177 59 195 255
0.03413 -0.354687 0.258548 32 222 255
-0.112394 -0.42111 0.123247 16 239 255
0.118497 -0.474403 0.189014 3 252 255
0.271121 -0.382253 0.182715 26 229 255
-0.0684962 -0.398279 0.395045 22 233 255
0.0969021 -0.361884 0.329586 32 223 255
0.194023 -0.352079 0.183244 34 221 255
0.0288203 -0.353032 0.160913 34 221 255
-0.100819 -0.441959 0.338155 11 244 255
-0.141392 -0.320628 0.384032 42 213 255
-0.0915758 -0.476073 0.205839 2 253 255
-0.100261 -0.299721 0.4506 48 207 255
-0.0717838 -0.370641 0.157183 29 226 255
0.0916208 -0.438269 0.33829 12 243 255
-0.108263 -0.362487 0.272106 31 224 255
-0.149299 -0.368453 0.1492 30 225 255
0.249739 -0.274721 0.2131 54 201 255
0.188317 -0.318992 0.218407 43 211 255
-0.146912 -0.44408 0.381405 11 244 255
-0.0877697 -0.273917 0.203441 54 201 255
-0.0418007 -0.289261 0.167493 50 205 255
-0.133763 -0.476355 0.29651 2 253 255
-0.0212148 -0.349439 0.160478 35 220 255
-0.0691151 -0.456325 0.154193 7 248 255
-0.0667482 -0.376125 0.348834 28 227 255
-0.0139943 -0.353518 0.324664 34 221 255
0.147527 -0.304634 0.146932 46 209 255
0.0697698 -0.402564 0.167424 21 234 255
-0.140016 -0.316232 0.328269 43 211 255
0.163052 -0.396425 0.278991 23 232 255
0.293356 -0.472298 0.124625 3 252 255
-0.0485918 -0.403583 0.128889 21 234 255
-0.0508919 -0.332556 0.252056 39 216 255
0.122925 -0.352456 0.18165 34 221 255
-0.0183699 -0.230752 0.148911 65 190 255
0.00585737 -0.312138 0.136266 44 211 255
0.0433106 -0.361222 0.352511 32 223 255
-0.131464 -0.474768 0.129949 3 252 255
-0.138382 -0.294843 0.172652 48 206 255
0.218774 -0.474546 0.283124 3 252 255
0.167974 -0.474308 0.190538 3 252 255
-0.0437977 -0.390016 0.183473 24 231 255
0.225524 -0.374777 0.225059 28 227 255
0.159807 -0.385562 0.141031 26 229 255
-0.123928 -0.475931 0.350508 2 253 255
0.237239 -0.224721 0.2006 67 188 255
0.157927 -0.264892 0.171755 56 199 255
-0.0723474 -0.371286 0.419169 29 226 255
-0.150969 -0.361734 0.4546 32 223 255
0.240916 -0.402595 0.162292 21 234 255
0.315327 -0.408037 0.15671 20 235 255
-0.130118 -0.46296 0.422398 6 249 255
0.208023 -0.472898 0.143364 3 252 255
0.285333 -0.295299 0.149335 48 206 255
0.102727 -0.442305 0.179203 11 244 255
0.162432 -0.471053 0.275382 4 251 255
-0.117351 -0.24958 0.220392 60 195 255
0.183295 -0.474651 0.353468 3 252 255
-0.124231 -0.274573 0.333714 54 201 255
0.0246035 -0.472998 0.126368 3 252 255
-0.112629 -0.326276 0.423831 40 214 255
0.0154035 -0.415535 0.135128 18 237 255
-0.142486 -0.244257 0.393215 62 193 255
0.0497387 -0.299721 0.3256 48 207 255
-0.107433 -0.330788 0.369554 40 215 255
0.0497347 -0.474751 0.260953 3 252 255
-0.141403 -0.440181 0.315728 12 243 255
-0.0442187 -0.475354 0.240947 3 252 255
-0.0502613 -0.424721 0.3256 16 239 255
0.0116765 -0.444049 0.199744 11 244 255
0.0372387 -0.224721 0.1881 67 188 255
-0.140779 -0.345838 0.275328 36 219 255
0.102693 -0.473363 0.122369 3 252 255
0.215364 -0.473947 0.240367 3 252 255
-0.064585 -0.465703 0.430211 5 250 255
0.0652338 -0.290889 0.160178 50 205 255
-0.105716 -0.338446 0.191529 38 217 255
0.00697694 -0.385661 0.278163 25 230 255
0.0264958 -0.412879 0.3438 19 236 255
-0.110544 -0.381611 0.403363 27 228 255
-0.119166 -0.293586 0.257485 48 206 255
-0.118822 -0.421655 0.230411 16 239 255
-0.0794579 -0.355264 0.12342 32 222 255
0.0540277 -0.302689 0.226667 47 208 255
-0.105462 -0.366649 0.233499 30 225 255
-0.00921717 -0.475751 0.372322 2 253 255
-0.0767836 -0.336582 0.294694 38 217 255
-0.082147 -0.420656 0.253208 17 238 255
0.123466 -0.242905 0.151971 62 193 255
-0.143022 -0.297914 0.413319 48 207 255
-0.0951136 -0.424044 0.152074 16 239 255
0.189417 -0.414768 0.241529 18 237 255
-0.0877613 -0.224721 0.1881 67 188 255
-0.079743 -0.475586 0.288322 2 253 255
0.12465 -0.392723 0.295172 24 231 255
-0.0193336 -0.442718 0.134267 11 244 255
-0.10574 -0.283158 0.12613 52 203 255
-0.102027 -0.365165 0.450161 31 224 255
-0.046443 -0.475134 0.173401 3 252 255
-0.0779776 -0.465644 0.128085 5 250 255
0.0710833 -0.347932 0.298373 35 220 255
0.063733 -0.445504 0.418276 10 245 255
0.068735 -0.369272 0.201682 30 225 255
0.259905 -0.474212 0.20447 3 252 255
0.162239 -0.337221 0.3256 38 217 255
0.165749 -0.347615 0.145424 35 220 255
0.284949 -0.446144 0.140929 10 245 255
0.102049 -0.393223 0.140302 24 231 255
-0.0126621 -0.456806 0.257517 7 248 255
0.21754 -0.429226 0.142664 14 241 255
-0.134626 -0.272202 0.296479 55 200 255
0.289986 -0.372973 0.163457 29 226 255
-0.135423 -0.255232 0.197633 59 195 255
0.0909721 -0.470592 0.293031 4 251 255
-0.0945314 -0.371987 0.323506 29 226 255
-0.116406 -0.449865 0.28043 9 246 255
0.24493 -0.308356 0.171478 44 210 255
-0.128159 -0.394641 0.362811 23 232 255
0.0731464 -0.332723 0.158161 39 216 255
0.0715984 -0.475612 0.400754 2 253 255
-0.0194012 -0.34471 0.281388 36 219 255
-0.0240217 -0.473795 0.124962 3 252 255
-0.142359 -0.242727 0.130181 62 193 255
0.145489 -0.320922 0.239275 42 213 255
0.322655 -0.473916 0.171016 3 252 255
-0.133032 -0.394668 0.473148 23 232 255
0.0162909 -0.37382 0.135188 29 226 255
-0.00393896 -0.465245 0.328371 5 250 255
0.0849321 -0.413569 0.284267 18 237 255
-0.106875 -0.371205 0.156685 29 226 255
0.138885 -0.415403 0.343658 18 237 255
-0.0611883 -0.475573 0.348103 2 253 255
0.0384105 -0.426908 0.2118 15 240 255
-0.0282045 -0.263133 0.137087 56 198 255
-0.1071 -0.46819 0.201729 4 251 255
-0.135835 -0.375691 0.210139 28 227 255
0.164619 -0.474675 0.236325 3 252 255
0.0459691 -0.460078 0.360269 6 249 255
0.0615729 -0.419646 0.152576 17 238 255
-0.03801 -0.434205 0.447222 13 242 255
0.136553 -0.425494 0.152894 15 240 255
0.217079 -0.424103 0.191267 16 239 255
-0.0905581 -0.269208 0.15201 55 200 255
-0.0207557 -0.356895 0.354914 32 222 255
-0.135764 -0.392685 0.281192 24 231 255
0.0745368 -0.318557 0.256481 43 211 255
0.0506957 -0.475051 0.30377 3 252 255
-0.0854433 -0.297841 0.208328 48 207 255
-0.100261 -0.299721 0.4881 48 207 255
-0.132753 -0.233068 0.268373 65 190 255
0.0333838 -0.473599 0.171281 3 252 255
-0.0377613 -0.224721 0.1881 67 188 255
0.168623 -0.472975 0.145787 3 252 255
-0.0210497 -0.429907 0.158004 14 241 255
0.222897 -0.474158 0.182216 3 252 255
-0.150257 -0.354283 0.407774 34 221 255
0.00196276 -0.39043 0.237725 24 231 255
0.122918 -0.474999 0.351218 3 252 255
0.0557956 -0.389546 0.404569 25 230 255
0.0175497 -0.475065 0.240984 3 252 255
-0.0760005 -0.44287 0.195533 11 244 255
0.110946 -0.382026 0.164606 26 229 255
-0.146932 -0.405196 0.41624 20 235 255
0.00207859 -0.416816 0.399748 18 237 255
-0.0584273 -0.356573 0.215043 32 222 255
0.222871 -0.244488 0.154995 62 193 255
0.222775 -0.436499 0.237858 12 243 255
0.0887237 -0.293461 0.21553 48 206 255
0.182434 -0.353253 0.260535 34 221 255
-0.0690182 -0.305383 0.127742 46 209 255
0.0726992 -0.467035 0.203235 5 250 255
-0.143633 -0.303364 0.287102 47 208 255
-0.0969387 -0.402179 0.302794 21 234 255
-0.157749 -0.47659 0.156615 2 253 255
0.0269954 -0.348832 0.297192 35 220 255
0.140115 -0.346249 0.213676 36 219 255
-0.0414255 -0.368616 0.263848 30 225 255
0.0901966 -0.387338 0.354878 25 230 255
-0.141027 -0.281281 0.149501 52 203 255
-0.120211 -0.430872 0.451446 14 241 255
-0.122706 -0.443949 0.368114 11 244 255
0.00627297 -0.307916 0.223839 44 210 255
0.165222 -0.293692 0.203583 48 206 255
-0.123955 -0.410432 0.160846 19 236 255
-0.0504514 -0.459554 0.266382 7 248 255
-0.0850571 -0.475457 0.168055 3 252 255
-0.105425 -0.36297 0.356136 31 224 255
0.0119892 -0.476379 0.409147 2 253 255
0.287753 -0.472925 0.150723 3 252 255
0.126922 -0.475082 0.394804 3 252 255
0.0680714 -0.266255 0.143786 56 199 255
-0.0897612 -0.467312 0.366937 5 250 255
0.0497715 -0.333001 0.140857 39 216 255
-0.00532613 -0.444948 0.369246 10 245 255
0.198725 -0.47455 0.322668 3 252 255
-0.103453 -0.476115 0.255228 2 253 255
0.13909 -0.467779 0.168579 4 251 255
-0.146138 -0.291407 0.441421 50 205 255
0.254272 -0.471834 0.12495 3 252 255
-0.0705514 -0.476637 0.409819 2 253 255
-0.0259949 -0.404609 0.190848 21 234 255
0.308302 -0.431707 0.163938 14 241 255
-0.102549 -0.466668 0.316826 5 250 255
-0.13843 -0.346054 0.163811 36 219 255
-0.126789 -0.243811 0.377614 62 193 255
-0.139035 -0.331807 0.343976 39 216 255
-0.0489552 -0.344275 0.160512 36 219 255
0.122955 -0.32664 0.156802 40 214 255
0.212581 -0.374973 0.205533 28 227 255
-0.153441 -0.461546 0.212565 6 249 255
-0.0868217 -0.422766 0.437771 16 239 255
0.166796 -0.461396 0.133084 6 249 255
0.0997387 -0.299721 0.3256 48 207 255
0.115469 -0.474665 0.222739 3 252 255
-0.114381 -0.450543 0.149758 9 246 255
0.209783 -0.386863 0.142233 25 230 255
-0.0963228 -0.331107 0.260127 39 216 255
0.174402 -0.332554 0.17599 39 216 255
-0.0790807 -0.410211 0.1268 19 236 255
-0.0976468 -0.229914 0.1466 65 190 255
-0.0576637 -0.370131 0.315156 29 226 255
0.209298 -0.287114 0.149948 51 204 255
0.145205 -0.475039 0.317393 3 252 255
-0.0545772 -0.44143 0.404139 11 244 255
0.32025 -0.362996 0.144704 31 224 255
0.00236126 -0.382563 0.163174 26 229 255
0.0641269 -0.473544 0.163293 3 252 255
-0.122483 -0.30075 0.373035 47 208 255
-0.0220753 -0.475325 0.305263 3 252 255
-0.0128077 -0.335081 0.132279 38 217 255
0.0291411 -0.333403 0.175204 39 216 255
0.187255 -0.260669 0.173373 56 198 255
-0.148567 -0.469744 0.350627 4 251 255
0.262436 -0.358087 0.185117 32 222 255
0.0350275 -0.475654 0.357743 2 253 255
0.100217 -0.337141 0.232301 38 217 255
-0.0627613 -0.399721 0.4881 22 233 255
-0.148793 -0.421544 0.213397 16 239 255
-0.119939 -0.338336 0.1206 38 217 255
0.00893084 -0.276666 0.138413 52 202 255
-0.0626232 -0.266462 0.132691 56 199 255
-0.124765 -0.340939 0.451188 36 218 255
-0.0214764 -0.316613 0.193909 43 211 255
-0.149964 -0.47165 0.29757 3 252 255
0.0966688 -0.46597 0.357451 5 250 255
-0.127619 -0.232184 0.164945 65 190 255
0.258978 -0.416056 0.192328 18 237 255
0.0997387 -0.224721 0.2131 67 188 255
-0.11719 -0.406678 0.194419 20 235 255
0.135562 -0.354243 0.284033 34 221 255
0.23913 -0.474332 0.27526 3 252 255
-0.000261285 -0.299721 0.3256 48 207 255
-0.0127613 -0.374721 0.4756 28 227 255
0.220121 -0.355016 0.156148 32 222 255
-0.0201428 -0.445753 0.205363 10 245 255
-0.133372 -0.329505 0.218657 40 215 255
-0.110746 -0.340773 0.321288 36 218 255
-0.109241 -0.277734 0.166551 52 202 255
0.206332 -0.331515 0.2283 39 216 255
-0.0692645 -0.413417 0.163695 18 237 255
0.281298 -0.474253 0.221088 3 252 255
-0.0467838 -0.372675 0.370313 29 226 255
0.081967 -0.275431 0.176742 54 201 255
0.0530678 -0.400685 0.137952 22 233 255
0.065377 -0.474671 0.23531 3 252 255
-0.142719 -0.459664 0.430105 7 248 255
0.275395 -0.263085 0.152858 56 198 255
-0.121994 -0.387726 0.317814 25 230 255
-0.0740458 -0.450416 0.259087 9 246 255
0.159261 -0.423173 0.137548 16 239 255
0.08457 -0.449916 0.15441 9 246 255
-0.0673839 -0.299315 0.158829 48 207 255
0.0970617 -0.347898 0.144113 35 220 255
-0.151977 -0.404177 0.383791 21 234 255
-0.0949724 -0.342138 0.421698 36 218 255
-0.0877613 -0.299721 0.3256 48 207 255
0.140337 -0.472967 0.134674 3 252 255
-0.0377613 -0.299721 0.2756 48 207 255
-0.116502 -0.412732 0.264932 19 236 255
0.303167 -0.325702 0.148132 40 214 255
0.23968 -0.451948 0.157124 9 246 255
0.32199 -0.47288 0.132243 3 252 255
0.186443 -0.326252 0.146022 40 214 255
-0.128112 -0.476489 0.172443 2 253 255
0.053116 -0.375841 0.377876 28 227 255
-0.0966607 -0.338617 0.226247 38 217 255
-0.0173609 -0.386947 0.130852 25 230 255
0.242867 -0.323826 0.195269 40 214 255
-0.0479004 -0.476238 0.379274 2 253 255
0.144737 -0.376745 0.157636 28 227 255
-0.0522205 -0.462727 0.188189 6 249 255
0.12545 -0.267913 0.177519 56 199 255
-0.0470423 -0.412146 0.234136 19 236 255
0.0138654 -0.475416 0.286063 3 252 255
-0.151056 -0.417068 0.45948 17 238 255
0.0391912 -0.440656 0.166386 11 244 255
0.168857 -0.474656 0.277943 3 252 255
0.00290959 -0.462413 0.135427 6 249 255
0.16535 -0.473923 0.364981 3 252 255
-0.0150787 -0.475252 0.209461 3 252 255
-0.138376 -0.440255 0.250837 12 243 255
-0.128869 -0.269742 0.405695 55 200 255
-0.105248 -0.41935 0.405463 17 238 255
-0.115689 -0.442498 0.125558 11 244 255
-0.136527 -0.306284 0.130196 46 209 255
-0.0413528 -0.229011 0.148918 65 189 255
0.236436 -0.268102 0.163788 56 199 255
-0.144492 -0.344788 0.374109 36 219 255
0.133991 -0.378481 0.317828 27 228 255
0.143135 -0.263299 0.144642 56 198 255
-0.132599 -0.336209 0.257874 38 217 255
0.0676366 -0.336082 0.185205 38 217 255
0.116752 -0.474855 0.267406 3 252 255
-0.131161 -0.24205 0.317218 62 193 255
0.267314 -0.421266 0.143927 16 239 255
-0.103795 -0.322861 0.159677 42 213 255
0.0122387 -0.224721 0.2006 67 188 255
0.107062 -0.426711 0.330061 15 240 255
-0.0238442 -0.469578 0.428705 4 251 255
0.0896694 -0.475257 0.341529 3 252 255
-0.0391452 -0.396152 0.339575 23 232 255
-0.0872749 -0.373493 0.123075 29 226 255
-0.128136 -0.476097 0.380913 2 253 255
0.199739 -0.224721 0.2006 67 188 255
0.0244373 -0.322357 0.247671 42 213 255
-0.0188859 -0.35501 0.196306 32 222 255
-0.14398 -0.357557 0.303677 32 222 255
0.213617 -0.436796 0.173483 12 243 255
-0.0871207 -0.362516 0.185526 31 224 255
-0.148505 -0.320986 0.455259 42 213 255
-0.0773091 -0.475779 0.229292 2 253 255
-0.0252613 -0.274721 0.2006 54 201 255
-0.0745626 -0.43847 0.127978 12 243 255
0.257644 -0.366379 0.155118 30 225 255
-0.0954219 -0.403169 0.461351 21 234 255
0.0953706 -0.349036 0.303475 35 220 255
-0.115424 -0.473768 0.117599 3 252 255
0.240348 -0.474314 0.236537 3 252 255
0.0463849 -0.255917 0.157352 59 195 255
0.104491 -0.459738 0.195519 7 248 255
0.0970997 -0.287913 0.145059 51 204 255
-0.109506 -0.446409 0.223203 10 245 255
0.0181108 -0.467961 0.201969 4 251 255
-0.138975 -0.27277 0.202638 54 201 255
-0.000626169 -0.474042 0.15605 3 252 255
0.0241118 -0.457989 0.307427 7 248 255
-0.0558971 -0.374594 0.144398 28 227 255
-0.0125504 -0.379865 0.30369 27 228 255
-0.0752613 -0.299721 0.2506 48 207 255
0.192385 -0.449216 0.138402 9 246 255
0.0354251 -0.412139 0.364668 19 236 255
-0.0442728 -0.467699 0.341223 4 251 255
0.112603 -0.417724 0.137827 17 238 255
-0.0184651 -0.292683 0.151532 48 206 255
-0.0948326 -0.388209 0.258782 25 230 255
-0.0876231 -0.258146 0.20045 58 197 255
0.0228619 -0.29108 0.213923 50 205 255
-0.148785 -0.381344 0.469132 27 228 255
-0.0731203 -0.383784 0.433233 26 229 255
-0.120513 -0.272762 0.246917 54 201 255
-0.0815588 -0.351956 0.362682 34 221 255
-0.100738 -0.475808 0.33867 2 253 255
0.174906 -0.385107 0.261506 26 229 255
0.0242941 -0.362345 0.359039 31 224 255
0.282893 -0.442791 0.179215 11 244 255
-0.129913 -0.360376 0.126994 32 223 255
0.0635654 -0.437468 0.199695 12 243 255
0.199345 -0.292198 0.188801 48 206 255
0.0214973 -0.468042 0.25425 4 251 255
0.159711 -0.352684 0.195141 34 221 255
0.0729993 -0.43164 0.278868 14 241 255
0.182595 -0.245482 0.157656 60 194 255
0.204517 -0.473895 0.212028 3 252 255
0.324083 -0.440339 0.156154 12 243 255
-0.134607 -0.384429 0.424038 26 229 255
-0.0940228 -0.363885 0.297026 31 224 255
-0.0292107 -0.332981 0.230941 39 216 255
-0.0901927 -0.327768 0.123247 40 215 255
-0.100554 -0.255738 0.130515 59 195 255
-0.141399 -0.274083 0.346923 54 201 255
0.0480547 -0.364168 0.179184 31 224 255
-0.0600203 -0.389318 0.189398 25 230 255
0.0883493 -0.241576 0.154527 62 193 255
-0.053473 -0.474622 0.147902 3 252 255
0.177957 -0.397162 0.152306 23 232 255
-0.0377613 -0.299721 0.3256 48 207 255
-0.130644 -0.476465 0.273728 2 253 255
0.139899 -0.299622 0.155804 48 207 255
-0.0847979 -0.444148 0.290051 11 244 255
-0.121007 -0.409126 0.121973 19 236 255
0.265316 -0.313673 0.160315 44 211 255
-0.100552 -0.383614 0.376951 26 229 255
-0.149607 -0.460442 0.399714 6 249 255
-0.0630121 -0.426903 0.438739 15 240 255
0.125505 -0.295128 0.212661 48 206 255
0.193922 -0.412664 0.219145 19 236 255
-0.116489 -0.31855 0.279114 43 211 255
-0.00911659 -0.392954 0.387793 24 231 255
-0.147606 -0.475915 0.141164 2 253 255
-0.0222549 -0.475112 0.248631 3 252 255
0.00704496 -0.251954 0.154438 60 195 255
-0.0839184 -0.471477 0.418608 4 251 255
-0.0098355 -0.446084 0.286884 10 245 255
0.0193716 -0.475527 0.326403 2 253 255
-0.132118 -0.232356 0.249326 65 190 255
0.13876 -0.467833 0.21531 4 251 255
0.0457629 -0.358216 0.267723 32 222 255
-0.0585699 -0.3743 0.235476 28 227 255
-0.133909 -0.476816 0.224933 2 253 255
0.00842586 -0.405803 0.167879 20 235 255
-0.0547073 -0.31481 0.201101 44 211 255
0.0103211 -0.341069 0.134889 36 218 255
-0.120556 -0.43788 0.179171 12 243 255
-0.0534492 -0.337421 0.281413 38 217 255
0.103788 -0.408079 0.161003 20 235 255
0.0502577 -0.406712 0.417682 20 235 255
0.147451 -0.468794 0.331365 4 251 255
-0.138372 -0.374107 0.341776 28 227 255
0.272393 -0.467423 0.129471 5 250 255
-0.121093 -0.317394 0.417504 43 211 255
0.0642031 -0.475596 0.371868 2 253 255
-0.138181 -0.319247 0.173104 43 211 255
0.274123 -0.47372 0.173791 3 252 255
-0.120238 -0.431168 0.310092 14 241 255
0.0415222 -0.294045 0.143504 48 206 255
0.0372387 -0.299721 0.2881 48 207 255
0.247088 -0.373595 0.209766 29 226 255
-0.145908 -0.39394 0.233846 23 232 255
0.284914 -0.397663 0.143228 22 233 255
0.109759 -0.324122 0.256896 40 214 255
0.00386085 -0.462705 0.402535 6 249 255
-0.144166 -0.438109 0.349571 12 243 255
-0.0207602 -0.369389 0.245141 30 225 255
0.0448379 -0.435287 0.13696 13 242 255
-0.137124 -0.386959 0.169597 25 230 255
0.219304 -0.472782 0.145266 3 252 255
-0.0446091 -0.267243 0.153847 56 199 255
-0.0870693 -0.411726 0.179129 19 236 255
0.00211226 -0.425554 0.225109 15 240 255
-0.0801538 -0.353773 0.400033 34 221 255
0.0999122 -0.459708 0.133691 7 248 255
-0.0691262 -0.338479 0.319084 38 217 255
0.0186546 -0.354838 0.314907 32 222 255
0.229455 -0.337947 0.14282 38 217 255
0.137612 -0.338087 0.146079 38 217 255
-0.133812 -0.240669 0.215191 63 192 255
0.0913592 -0.475067 0.30973 3 252 255
-0.0542844 -0.433674 0.220624 13 242 255
-0.0491171 -0.468024 0.130662 4 251 255
-0.0800224 -0.333657 0.196336 39 216 255
0.163315 -0.47443 0.183611 3 252 255
-0.0813039 -0.475544 0.311665 2 253 255
0.0500627 -0.309087 0.205408 44 210 255
-0.100261 -0.349721 0.4881 35 220 255
-0.0176452 -0.324798 0.15858 40 214 255
0.127786 -0.381825 0.275968 26 229 255
0.341128 -0.473767 0.142468 3 252 255
0.149739 -0.487221 0.4256 0 255 255
0.0814826 -0.366708 0.341983 30 225 255
-0.0335008 -0.35211 0.338707 34 221 255
-0.133847 -0.269751 0.129154 55 200 255
0.0548801 -0.473002 0.146524 3 252 255
-0.0639327 -0.23552 0.143625 64 191 255
0.120153 -0.433859 0.17767 13 242 255
-0.10727 -0.475002 0.404401 3 252 255
-0.0429081 -0.345262 0.127965 36 219 255
0.19721 -0.474595 0.287784 3 252 255
0.100216 -0.475273 0.393519 3 252 255
-0.143996 -0.282922 0.381553 52 203 255
0.0854841 -0.372718 0.159277 29 226 255
-0.0942736 -0.3754 0.14382 28 227 255
-0.105157 -0.388434 0.219493 25 230 255
-0.14295 -0.301432 0.323171 47 208 255
0.0748188 -0.474616 0.261155 3 252 255
-0.0101013 -0.411007 0.352986 19 236 255
0.322744 -0.40698 0.150357 20 235 255
-0.00114394 -0.344683 0.272948 36 219 255
-0.0719581 -0.475522 0.270901 2 253 255
-0.100542 -0.43695 0.355995 12 243 255
0.104894 -0.433907 0.271832 13 242 255
0.185556 -0.472702 0.122575 3 252 255
0.247814 -0.296659 0.147781 48 207 255
-0.131183 -0.263188 0.282659 56 198 255
-0.118686 -0.364977 0.457146 31 224 255
0.162941 -0.266432 0.188571 56 199 255
-0.137828 -0.422752 0.137589 16 239 255
-0.0654505 -0.278367 0.191456 52 202 255
0.0394368 -0.474773 0.195862 3 252 255
0.139149 -0.342129 0.180739 36 218 255
0.0256348 -0.339061 0.210164 36 218 255
0.0951302 -0.474288 0.178906 3 252 255
0.162239 -0.424721 0.3006 16 239 255
0.215236 -0.40386 0.154405 21 234 255
-0.131209 -0.400956 0.391558 22 233 255
-0.0321371 -0.38554 0.149063 26 229 255
-0.0467294 -0.475447 0.204109 3 252 255
0.191523 -0.338451 0.247649 38 217 255
0.140414 -0.474271 0.24406 3 252 255
-0.0819875 -0.357801 0.25285 32 222 255
-0.148927 -0.350273 0.416172 35 220 255
-0.151954 -0.434798 0.43948 13 242 255
-0.124502 -0.476047 0.334886 2 253 255
-0.134432 -0.302694 0.246241 47 208 255
-0.0168241 -0.475283 0.333552 3 252 255
0.214493 -0.262266 0.138489 56 198 255
-0.0448792 -0.445042 0.395419 10 245 255
-0.13085 -0.243143 0.353143 62 193 255
0.2396 -0.473676 0.175611 3 252 255
-0.0109198 -0.42282 0.134238 16 239 255
0.0809601 -0.308548 0.144783 44 210 255
0.140363 -0.338817 0.269487 36 218 255
-0.144547 -0.275544 0.424702 54 201 255
0.273998 -0.341014 0.164173 36 218 255
-0.0339202 -0.428159 0.188617 15 240 255
0.000347293 -0.476157 0.387145 2 253 255
0.0903562 -0.347766 0.202558 35 220 255
-0.139993 -0.443907 0.28493 11 244 255
-0.0167944 -0.396461 0.262145 23 232 255
-0.0904646 -0.440315 0.221144 12 243 255
-0.0311718 -0.287335 0.133835 51 204 255
0.184693 -0.47476 0.240581 3 252 255
-0.118813 -0.349707 0.395058 35 220 255
-0.122492 -0.304883 0.196363 46 209 255
0.137239 -0.224721 0.2006 67 188 255
-0.132932 -0.363146 0.242088 31 224 255
0.227607 -0.38335 0.192754 26 229 255
0.0485211 -0.475908 0.402035 2 253 255
0.100604 -0.27528 0.195859 54 201 255
0.13503 -0.377527 0.141871 28 227 255
-0.15165 -0.404655 0.361487 21 234 255
-0.125223 -0.334926 0.30184 38 217 255
0.0497387 -0.399721 0.3256 22 233 255
-0.140041 -0.332779 0.146725 39 216 255
0.126108 -0.473474 0.148158 3 252 255
-0.136209 -0.24677 0.164737 60 194 255
0.165538 -0.474793 0.377986 3 252 255
0.153791 -0.306607 0.218266 46 209 255
-0.0687813 -0.404146 0.417457 21 234 255
-0.108347 -0.311469 0.122199 44 211 255
0.162239 -0.299721 0.3006 48 207 255
-0.109227 -0.476431 0.188811 2 253 255
-0.064304 -0.427551 0.152156 15 240 255
0.197736 -0.335638 0.173831 38 217 255
0.121511 -0.243039 0.152002 62 193 255
0.0326541 -0.390422 0.155133 24 231 255
-0.120708 -0.405033 0.470931 21 234 255
0.171548 -0.469329 0.323908 4 251 255
0.176217 -0.285034 0.149084 51 204 255
-0.0487927 -0.46708 0.31746 5 250 255
-0.0127613 -0.387221 0.4506 25 230 255
-0.101442 -0.315534 0.240216 43 211 255
-0.115272 -0.365103 0.187438 31 224 255
0.0163698 -0.298562 0.154084 48 207 255
0.207832 -0.435574 0.223771 13 242 255
-0.0147694 -0.37424 0.179717 28 227 255
-0.00446411 -0.36652 0.371583 30 225 255
0.237711 -0.472578 0.122702 3 252 255
-0.0512702 -0.459833 0.24144 7 248 255
0.085419 -0.339581 0.263917 36 218 255
-0.0151452 -0.453581 0.15459 8 247 255
-0.136328 -0.398185 0.291191 22 233 255
0.29863 -0.412681 0.166997 19 236 255
-0.0987806 -0.331874 0.34007 39 216 255
-0.0814046 -0.331344 0.15025 39 216 255
0.0921453 -0.321897 0.168917 42 213 255
0.30481 -0.473016 0.148196 3 252 255
-0.055735 -0.381608 0.126901 27 228 255
-0.117959 -0.405149 0.348208 21 234 255
0.0555142 -0.469093 0.226652 4 251 255
-0.0736348 -0.275561 0.129631 54 201 255
0.187535 -0.356858 0.144546 32 222 255
-0.102053 -0.269042 0.21486 55 200 255
-0.143152 -0.45975 0.140846 7 248 255
0.0492118 -0.475179 0.33712 3 252 255
0.0696447 -0.364872 0.141736 31 224 255
-0.0378934 -0.399308 0.38885 22 233 255
-0.0810459 -0.472432 0.121617 3 252 255
0.225432 -0.322379 0.206487 42 213 255
-0.0860278 -0.475903 0.359741 2 253 255
-0.0745949 -0.404348 0.221443 21 234 255
-0.137182 -0.381251 0.137727 27 228 255
0.123959 -0.474955 0.313858 3 252 255
-0.146483 -0.477046 0.201085 2 253 255
-0.126417 -0.23948 0.132604 63 192 255
-0.102341 -0.476207 0.235626 2 253 255
0.0636117 -0.278698 0.17021 52 202 255
-0.0338557 -0.476394 0.406068 2 253 255
-0.0447282 -0.340089 0.177014 36 218 255
0.250794 -0.388979 0.146346 25 230 255
-0.0844352 -0.43957 0.413091 12 243 255
-0.122424 -0.294171 0.345166 48 206 255
0.191598 -0.472057 0.202898 3 252 255
-0.071143 -0.332703 0.245348 39 216 255
0.0443948 -0.35057 0.312155 34 221 255
0.280519 -0.273433 0.151438 54 201 255
-0.0537221 -0.355339 0.353048 32 222 255
0.0837714 -0.41056 0.138986 19 236 255
0.255398 -0.436101 0.194032 13 242 255
-0.0932737 -0.331256 0.302227 39 216 255
0.253873 -0.438511 0.139388 12 243 255
0.0564188 -0.474854 0.288597 3 252 255
-0.108787 -0.361392 0.425978 32 223 255
0.070116 -0.473079 0.133063 3 252 255
0.135859 -0.469062 0.131233 4 251 255
0.011411 -0.47334 0.140614 3 252 255
0.251238 -0.474324 0.252594 3 252 255
-0.0896374 -0.43255 0.275051 13 242 255
-0.130251 -0.439542 0.394494 12 243 255
0.0919512 -0.391332 0.355143 24 231 255
-0.0822996 -0.475523 0.171091 2 253 255
0.305868 -0.338289 0.149358 38 217 255
0.0144937 -0.344072 0.172365 36 219 255
-0.113817 -0.476054 0.298932 2 253 255
0.124739 -0.299721 0.3256 48 207 255
-0.0349688 -0.431799 0.245678 14 241 255
0.0192646 -0.414764 0.391609 18 237 255
0.134183 -0.408779 0.137968 20 235 255
0.119814 -0.47112 0.244158 4 251 255
0.181819 -0.464012 0.155157 5 250 255
0.203906 -0.36594 0.221391 31 224 255
0.0624669 -0.433205 0.177148 13 242 255
-0.0962294 -0.24987 0.155428 60 195 255
0.0843467 -0.3089 0.242002 44 210 255
-0.1043 -0.45328 0.150353 8 247 255
-0.121971 -0.342635 0.364228 36 218 255
-0.143401 -0.360842 0.466032 32 223 255
0.0365096 -0.254082 0.145684 59 195 255
-0.0508973 -0.429158 0.131146 14 241 255
-0.138305 -0.420317 0.173807 17 238 255
0.0076779 -0.475102 0.224364 3 252 255
-0.0532083 -0.363437 0.273592 31 224 255
0.156369 -0.346799 0.231504 35 220 255
0.213233 -0.272577 0.171646 54 201 255
-0.12323 -0.360972 0.27535 32 223 255
0.155672 -0.248679 0.15911 60 194 255
0.0268389 -0.356132 0.137057 32 222 255
0.300673 -0.445589 0.146661 10 245 255
0.267109 -0.384997 0.189056 26 229 255
-0.089025 -0.389613 0.162537 24 231 255
0.00526782 -0.375797 0.236237 28 227 255
