ply
format ascii 1.0
comment Created by Open3D
element vertex 1207
property double x
property double y
property double z
property uchar red
property uchar green
property uchar blue
end_header
-0.411145 -0.095083 0.122503 127 0 255
-0.408634 -0.222741 -0.394402 127 0 255
-0.418276 -0.144435 -0.144115 127 0 255
-0.475317 -0.0748349 0.474979 127 0 255
-0.41761 -0.163477 0.453846 127 0 255
-0.431385 -0.253538 -0.208534 127 0 255
-0.418517 -0.482768 -0.347268 127 0 255
-0.421402 -0.214078 0.320309 127 0 255
0.0377597 0.0754662 0.0771823 89 59 253
-0.414689 -0.180886 -0.33428 127 0 255
-0.459376 -0.487915 0.283446 127 0 255
-0.413966 -0.194017 0.0539729 127 0 255
-0.204697 0.0757358 -0.0322164 89 59 253
-0.410912 -0.301944 -0.370874 127 0 255
-0.17876 0.0748992 -0.20767 89 59 253
0.309705 -0.261092 0.25684 127 0 255
-0.475327 0.0752167 -0.0750485 89 59 253
-0.462142 -0.377596 -0.414394 127 0 255
-0.428545 -0.0827099 0.239327 127 0 255
-0.38264 0.0644931 -0.128798 95 49 253
-0.145044 0.0761191 0.0621799 89 59 253
0.147156 0.0749256 0.131983 89 59 253
0.0871731 0.000225605 -0.125054 127 0 255
-0.412835 -0.330925 0.367089 127 0 255
-0.0148472 0.0755997 -0.40991 89 59 253
-0.111072 0.0764805 0.344288 89 59 253
-0.392348 -0.443008 -0.485003 127 0 255
-0.475327 -0.262292 -0.125043 127 0 255
-0.463521 -0.243483 -0.352215 127 0 255
0.200214 -0.312391 -0.0208246 127 0 255
-0.300327 -0.337282 -0.500048 127 0 255
0.262623 -0.334175 0.0451868 127 0 255
-0.389437 0.050609 -0.448328 103 37 254
-0.420867 -0.0154292 0.0284005 127 0 255
-0.405714 -0.235928 0.198127 127 0 255
-0.453439 -0.474192 -0.0645703 127 0 255
-0.049829 0.0739586 -0.0403693 91 56 253
-0.449386 -0.385434 0.30499 127 0 255
-0.436223 -0.138411 -0.0748044 127 0 255
-0.0912256 0.0765319 -0.36195 89 59 253
-0.406247 -0.0944907 -0.414815 127 0 255
-0.408654 -0.442067 -0.397404 127 0 255
-0.0253265 0.0752046 0.387459 89 59 253
-0.228651 0.0766933 0.146982 89 59 253
-0.425498 0.0746979 0.400656 89 59 253
0.0123889 0.0742693 -0.147508 89 59 253
-0.402731 -0.478331 0.0184627 127 0 255
0.0371731 0.025221 0.324949 115 18 254
0.274673 -0.299774 -0.212554 127 0 255
0.169517 0.0739065 -0.348424 91 56 253
0.299673 -0.224774 0.0624457 127 0 255
-0.412724 -0.289312 0.123463 127 0 255
-0.306512 -0.483443 -0.196533 127 0 255
-0.391803 -0.0244585 -0.384308 127 0 255
-0.399908 -0.341872 -0.481858 127 0 255
-0.419269 -0.223455 -0.0579066 127 0 255
-0.420136 -0.0699435 -0.287391 127 0 255
0.110105 0.075342 0.0645197 89 59 253
-0.424869 0.012661 -0.0964953 121 9 254
-0.260995 0.0760989 0.399388 89 59 253
-0.41008 -0.232179 -0.49182 127 0 255
-0.475319 -0.0248137 0.299971 127 0 255
-0.430594 -0.284796 0.00945551 127 0 255
0.0565041 0.0759305 -0.219947 89 59 253
0.42557 -0.18946 0.0086664 127 0 255
-0.408598 -0.488014 -0.123266 127 0 255
-0.384717 -0.313931 0.238327 127 0 255
0.414878 -0.234246 0.164308 127 0 255
0.469333 -0.273184 0.0638261 127 0 255
-0.323197 0.0760873 0.318949 89 59 253
-0.419946 -0.132467 -0.475837 127 0 255
0.0174317 0.0760814 -0.459917 89 59 253
-0.457646 -0.486124 0.210426 127 0 255
-0.425137 -0.136774 0.167173 127 0 255
0.0578796 0.0792015 0.0147841 87 62 253
-0.355095 -0.48201 -0.029385 127 0 255
-0.274062 0.0751431 -0.372922 89 59 253
-0.39779 -0.0565132 0.408612 127 0 255
-0.427561 0.061926 0.157401 97 46 253
-0.0622965 0.0767772 -0.253779 89 59 253
-0.413779 -0.146921 0.0260279 127 0 255
-0.290114 0.0771708 0.0308686 89 59 253
0.185298 0.0746005 -0.18595 89 59 253
-0.439393 -0.328814 -0.289994 127 0 255
-0.453679 -0.415967 -0.465661 127 0 255
0.287173 -0.249774 -0.0500543 127 0 255
-0.420417 -0.24961 0.369913 127 0 255
-0.410708 0.060455 -0.182885 97 46 253
0.0261681 0.0735015 -0.080099 91 56 253
0.0746731 0.075222 0.362448 89 59 253
-0.324663 -0.398233 0.349254 127 0 255
0.210011 -0.255823 -0.0100296 127 0 255
0.193842 0.0751465 -0.0219562 89 59 253
-0.0625473 0.0629509 -0.441865 95 49 253
-0.475325 -0.36231 0.0624688 127 0 255
-0.406298 -0.346829 0.427246 127 0 255
-0.431281 -0.362708 0.154885 127 0 255
-0.426117 -0.0284307 0.184807 127 0 255
-0.475326 -0.112309 0.0999684 127 0 255
-0.382423 -0.472212 -0.274318 127 0 255
-0.33299 -0.470307 -0.123125 127 0 255
-0.159787 0.0744596 -0.367034 89 59 253
-0.416452 -0.115575 -0.193551 127 0 255
0.351844 -0.214701 0.211534 127 0 255
0.387173 -0.249774 -0.0500543 127 0 255
-0.416024 -0.0438668 0.326906 127 0 255
-0.475327 0.000225605 -0.250054 127 0 255
-0.433038 0.0675492 0.220971 93 53 253
0.133245 0.07495 -0.222661 89 59 253
-0.22753 0.0808553 0.254113 87 62 253
-0.414459 0.0642799 -0.397853 95 49 253
-0.443197 -0.459167 0.389906 127 0 255
0.0498517 0.0747622 0.235501 89 59 253
-0.411137 0.0463566 -0.5026 105 34 254
-0.429707 -0.0304502 -0.165596 127 0 255
-0.180867 0.0758958 0.0100479 89 59 253
-0.475327 0.000209175 -0.0500436 127 0 255
-0.421193 -0.250973 -0.280998 127 0 255
-0.420523 -0.351849 0.272988 127 0 255
-0.350327 -0.212274 -0.487554 127 0 255
-0.410636 -0.402557 -0.135447 127 0 255
0.274673 -0.287274 -0.150054 127 0 255
-0.35032 0.0751698 0.462481 89 59 253
-0.362827 -0.0747744 -0.475054 127 0 255
-0.398628 -0.13751 0.426407 127 0 255
-0.475319 -0.24982 0.287475 127 0 255
-0.42256 -0.128171 -0.287612 127 0 255
0.394407 -0.158723 0.126637 127 0 255
0.0855881 0.0746855 0.152988 89 59 253
-0.434391 -0.489496 0.0682894 127 0 255
-0.410317 -0.281042 -0.127892 127 0 255
-0.402101 -0.181058 0.257845 127 0 255
0.312173 0.0752256 -0.100054 89 59 253
-0.331723 0.0580993 -0.38768 99 43 254
-0.454149 -0.394128 -0.375063 127 0 255
-0.155356 0.0765611 0.125937 89 59 253
-0.375324 -0.0748217 0.224976 127 0 255
-0.320901 -0.482353 -0.406816 127 0 255
0.167763 0.0762794 0.0301441 89 59 253
-0.475327 -0.324804 -0.012535 127 0 255
-0.412078 -0.0352258 -0.429232 127 0 255
-0.416703 -0.180367 -0.205814 127 0 255
-0.411791 -0.372609 -0.194728 127 0 255
-0.215717 0.074878 -0.307917 89 59 253
-0.445505 -0.432142 0.0174848 127 0 255
-0.422022 0.0784986 0.292739 87 62 253
-0.337341 -0.48273 -0.307052 127 0 255
-0.414646 -0.26925 -0.440396 127 0 255
-0.1943 0.0762802 0.376525 89 59 253
-0.412507 -0.243919 0.461347 127 0 255
-0.403505 0.0630967 -0.0712928 95 49 253
-0.457811 -0.479134 0.14231 127 0 255
-0.455572 -0.420472 0.243375 127 0 255
-0.442057 -0.402062 0.355568 127 0 255
0.108008 0.078158 -0.00722823 87 62 253
-0.429353 0.0232102 0.114471 117 15 254
-0.0450067 0.0757828 0.0922122 89 59 253
-0.296781 0.0772109 0.155015 89 59 253
-0.418115 -0.064351 -0.0329554 127 0 255
-0.437205 -0.447293 -0.204515 127 0 255
0.220197 0.0755807 -0.122314 89 59 253
-0.0853663 0.077078 -0.178716 89 59 253
-0.429206 0.0130727 0.29502 121 9 254
-0.425826 -0.175711 0.370052 127 0 255
-0.0916594 0.0769855 -0.0506432 89 59 253
0.452932 -0.26049 0.126098 127 0 255
0.106098 0.0751845 -0.269156 89 59 253
-0.414796 -0.0938604 -0.332236 127 0 255
-0.366182 -0.308687 0.336819 127 0 255
-0.375897 -0.381621 0.223382 127 0 255
-0.418843 -0.41225 -0.0600828 127 0 255
-0.36282 -0.399838 0.449987 127 0 255
-0.422686 -0.162139 0.105629 127 0 255
-0.440701 -0.33213 -0.390741 127 0 255
-0.373072 -0.461611 -0.367295 127 0 255
-0.266876 0.0756648 -0.0506029 89 59 253
0.224673 0.0752256 0.249946 89 59 253
-0.360383 -0.485179 -0.187444 127 0 255
-0.396109 -0.26957 0.246824 127 0 255
-0.413646 -0.292991 0.416857 127 0 255
-0.255976 0.0767901 0.0930504 89 59 253
-0.451142 -0.426701 0.16067 127 0 255
-0.127451 0.0767648 -0.320227 89 59 253
-0.411342 -0.150983 -0.388296 127 0 255
-0.38008 0.0666991 0.00808047 93 53 253
0.439015 -0.285374 0.0110021 127 0 255
0.120123 0.074774 -0.0643318 89 59 253
-0.0994792 0.0769075 0.228361 89 59 253
-0.0805822 0.0760298 0.0461822 89 59 253
0.152287 -0.322669 -0.00325462 127 0 255
0.00502875 0.0711386 -0.306236 91 56 253
-0.459864 -0.4812 0.334272 127 0 255
-0.425843 -0.0418101 0.073885 127 0 255
-0.415334 -0.160582 -0.0163016 127 0 255
0.0371731 0.0252256 0.137446 115 18 254
0.287173 -0.262274 0.299946 127 0 255
-0.412859 -0.265405 0.0496448 127 0 255
0.122808 0.075406 -0.177947 89 59 253
-0.433351 -0.304334 -0.0682043 127 0 255
-0.441589 -0.425843 0.0713135 127 0 255
0.16632 0.0741608 -0.286666 91 56 253
-0.0628265 0.0752301 -0.500054 89 59 253
-0.345792 0.0763915 0.234094 89 59 253
0.162173 0.0752256 0.324946 89 59 253
-0.0253265 -0.374789 -0.50004 127 0 255
-0.449161 -0.463075 -0.325132 127 0 255
0.0496731 0.0252256 0.0249457 115 18 254
-0.42186 -0.232093 0.166086 127 0 255
-0.0387605 0.0744617 -0.138089 89 59 253
-0.422336 -0.0118276 -0.272268 127 0 255
-0.42446 -0.186694 -0.1077 127 0 255
-0.420109 0.0028841 0.221248 127 0 255
-0.436574 -0.361611 -0.235349 127 0 255
-0.222852 0.0771367 -0.199042 89 59 253
0.433827 -0.170363 0.06537 127 0 255
-0.475317 -0.287325 0.362478 127 0 255
-0.241464 -0.475056 -0.474678 127 0 255
0.0184284 -0.316054 -0.475826 127 0 255
-0.442799 -0.371986 -0.319731 127 0 255
0.2968 -0.233678 0.233131 127 0 255
-0.252848 0.0658905 -0.273531 95 49 253
-0.475327 0.0127225 -0.150052 121 9 254
0.287173 0.0752256 0.0374457 89 59 253
0.216344 0.0734402 -0.222097 91 56 253
-0.415843 0.0588085 -0.240349 97 46 253
-0.266713 -0.467036 -0.241473 127 0 255
-0.402269 -0.477037 -0.459442 127 0 255
0.00187492 0.0739055 -0.376205 91 56 253
-0.150854 0.074595 -0.26917 89 59 253
-0.376968 0.0761043 0.374457 89 59 253
-0.427546 -0.466421 0.249296 127 0 255
-0.475317 -0.137335 0.474979 127 0 255
-0.414104 -0.0372863 -0.348879 127 0 255
-0.475322 -0.0623124 0.19997 127 0 255
0.0868892 0.0748268 0.282319 89 59 253
0.0329613 0.074664 -0.038274 89 59 253
-0.475327 -0.312291 -0.150043 127 0 255
-0.410533 -0.0434196 -0.510622 127 0 255
-0.455531 -0.43399 -0.43068 127 0 255
-0.416794 -0.232114 -0.229005 127 0 255
-0.417048 -0.365727 0.0953348 127 0 255
-0.475327 -0.0873027 0.0249641 127 0 255
-0.0639288 0.0706372 -0.297504 91 56 253
-0.330749 0.0575362 -0.0711144 99 43 254
-0.386742 0.0126407 -0.434395 121 9 254
-0.417702 -0.0837822 -0.114394 127 0 255
-0.049213 0.0757119 0.245777 89 59 253
-0.475327 -0.199803 -3.5806e-05 127 0 255
0.0484911 0.0760719 -0.185729 89 59 253
-0.431188 0.0631781 0.00794025 95 49 253
-0.428824 -0.0646585 0.372305 127 0 255
0.237173 -0.312274 -0.262554 127 0 255
-0.157375 0.0770669 -0.179321 89 59 253
0.352089 -0.147179 0.0615036 127 0 255
-0.311434 0.0760946 -0.416048 89 59 253
0.438632 -0.230968 0.00824567 127 0 255
-0.379741 0.076208 0.307465 89 59 253
-0.430181 0.0647116 0.0878083 95 49 253
-0.276148 0.0800185 0.228593 87 62 253
-0.0481771 0.0758402 0.0103352 89 59 253
-0.234872 0.0763426 -0.385246 89 59 253
-0.412899 -0.0388905 0.446099 127 0 255
-0.415117 -0.190467 -0.485375 127 0 255
-0.393213 0.0339761 -0.1738 111 25 254
0.237173 0.0252256 -0.0625543 115 18 254
-0.404774 -0.0987279 0.283077 127 0 255
-0.412365 -0.250911 -0.331128 127 0 255
-0.45001 -0.451072 -0.162871 127 0 255
-0.296716 -0.478669 -0.48926 127 0 255
-0.415309 0.0203369 0.367955 117 15 254
-0.315707 0.0759189 0.0152196 89 59 253
-0.080925 0.0649614 -0.397931 95 49 253
0.152742 0.0752669 -0.140994 89 59 253
-0.285079 0.0694708 -0.137341 93 53 253
-0.390719 -0.210148 0.407002 127 0 255
-0.418611 -0.30297 0.305386 127 0 255
-0.413657 -0.216545 0.10981 127 0 255
-0.475327 -0.0747746 -0.212554 127 0 255
0.149361 0.074612 0.23592 89 59 253
0.274673 0.0752256 0.0999457 89 59 253
-0.427196 -0.0738637 0.156553 127 0 255
-0.342637 -0.3915 0.401741 127 0 255
-0.282765 -0.461563 -0.169778 127 0 255
-0.434159 -0.353183 0.390879 127 0 255
-2.29874e-06 0.0759231 -0.243816 89 59 253
-0.423688 0.0342591 -0.365464 111 25 254
-0.433144 -0.358614 -0.0511462 127 0 255
-0.122719 0.077352 -0.456354 89 59 253
0.224673 0.0752256 0.174946 89 59 253
-0.404617 -0.36242 -0.470985 127 0 255
-0.335566 -0.334955 0.356796 127 0 255
-0.319656 -0.467937 -0.23139 127 0 255
-0.475327 -0.162276 -0.250053 127 0 255
0.0137491 0.0760127 0.143465 89 59 253
-0.392795 -0.248599 0.285146 127 0 255
-0.420362 -0.229364 -0.106102 127 0 255
-0.400491 -0.470175 -0.061052 127 0 255
0.162839 -0.288605 -0.0365558 127 0 255
-0.407955 -0.442972 -0.258494 127 0 255
-0.359585 -0.462781 -0.4888 127 0 255
-0.475321 -0.349816 0.212473 127 0 255
-0.289772 0.0761522 0.415881 89 59 253
-0.303508 -0.482723 -0.313815 127 0 255
-0.475318 -0.187324 0.349976 127 0 255
-0.275327 -0.0747709 -0.487554 127 0 255
-0.192608 0.0811088 0.140382 87 62 253
0.344167 -0.269709 0.22288 127 0 255
-0.423356 -0.280288 0.0993498 127 0 255
0.447441 -0.205911 0.0876599 127 0 255
-0.475318 0.062676 0.412473 95 49 253
-0.419657 0.00497802 -0.0187952 125 3 254
0.385642 -0.135622 0.0971626 127 0 255
-0.406943 -0.479473 -0.389613 127 0 255
-0.427268 -0.320042 0.158573 127 0 255
-0.412034 -0.298099 -0.304764 127 0 255
-0.411082 -0.111063 0.455573 127 0 255
-0.311228 0.0761056 0.300675 89 59 253
-0.401591 -0.289037 -0.48906 127 0 255
-0.432041 -0.254027 -4.26841e-05 127 0 255
-0.402032 -0.167646 0.234662 127 0 255
-0.140468 0.0769484 -0.0748963 89 59 253
-0.115255 0.0765464 0.350254 89 59 253
-0.360064 -0.483191 -0.136312 127 0 255
-0.378898 0.0674173 0.180486 93 53 253
-0.417785 0.0564885 -0.292636 99 43 254
-0.414641 -0.0410736 0.25201 127 0 255
-0.424646 -0.0417716 -0.0990968 127 0 255
-0.16106 0.0815392 0.0172765 87 62 253
-0.429353 -0.398404 -0.101863 127 0 255
-0.42136 -0.184294 0.299028 127 0 255
0.0403221 0.0764089 -0.132869 89 59 253
-0.22991 -0.460151 -0.521593 127 0 255
0.149673 0.000225605 -0.0875543 127 0 255
-0.431329 -0.0233009 -0.209199 127 0 255
0.402562 -0.234284 0.178456 127 0 255
0.118743 0.0756146 0.102916 89 59 253
-0.3796 -0.270127 0.352712 127 0 255
-0.287827 0.075228 -0.487554 89 59 253
-0.422227 -0.184002 -0.256265 127 0 255
0.374673 -0.262274 0.0874457 127 0 255
-0.429533 -0.100347 0.323548 127 0 255
-0.417912 -0.275808 -0.182701 127 0 255
-0.411895 -0.181074 0.164837 127 0 255
-0.475317 -0.237334 0.46248 127 0 255
-0.0456697 0.0764744 -0.223651 89 59 253
-0.408626 -0.247261 -0.393215 127 0 255
-0.103662 0.076532 0.120181 89 59 253
-0.421001 -0.401517 0.116762 127 0 255
-0.406916 -0.272965 0.194409 127 0 255
-0.430136 -0.142985 0.0693074 127 0 255
-0.421307 -0.434092 0.00187678 127 0 255
-0.370142 -0.349627 0.25503 127 0 255
-0.412815 -0.449834 0.462483 127 0 255
-0.475317 -0.0248344 0.474978 127 0 255
-0.413392 -0.10356 -0.37769 127 0 255
-0.443962 -0.422473 -0.304446 127 0 255
0.00757677 0.0753671 0.067222 89 59 253
-0.475327 -0.162274 -0.325054 127 0 255
-0.435303 -0.148804 -0.184791 127 0 255
0.471245 -0.26196 0.0867643 127 0 255
0.111946 0.0765581 -0.100563 89 59 253
-0.418443 -0.0993017 -0.0384065 127 0 255
-0.380614 0.0757544 -0.398471 89 59 253
-0.393611 -0.478048 -0.201935 127 0 255
-0.416699 -0.086383 -0.491802 127 0 255
-0.475318 -0.0998292 0.412477 127 0 255
-0.229658 0.0700561 0.0687965 93 53 253
-0.199565 0.0772497 -0.147947 89 59 253
-0.451607 -0.487693 0.0812077 127 0 255
-0.386518 0.0489362 -0.479619 103 37 254
-0.427362 0.0546299 -0.0930848 101 40 254
-0.202011 0.0754403 -0.0400673 89 59 253
-0.213298 0.0765077 0.242076 89 59 253
0.142516 0.0741549 -0.3281 91 56 253
0.244048 0.0752372 -0.0929642 89 59 253
-0.409001 0.0449796 0.434381 105 34 254
-0.41816 -0.181375 0.454735 127 0 255
-0.419584 -0.300065 -0.0303084 127 0 255
-0.369411 -0.303757 0.396319 127 0 255
-0.224719 0.0758334 0.392665 89 59 253
-0.42418 -0.327415 -0.106782 127 0 255
-0.0489473 0.0746991 -0.0812765 89 59 253
-0.475324 -0.124812 0.14997 127 0 255
-0.0303664 0.0762002 -0.342331 89 59 253
-0.475321 0.075194 0.249966 89 59 253
-0.412534 -0.191074 -0.42504 127 0 255
-0.475327 -0.0373 0.0124624 127 0 255
-0.431472 -0.201733 0.0467786 127 0 255
-0.201463 0.0749239 -0.224313 89 59 253
-0.429799 -0.0018897 0.146319 127 0 255
-0.419757 0.0799311 0.334873 87 62 253
-0.420319 -0.360902 0.320202 127 0 255
-0.461147 -0.486042 0.234588 127 0 255
-0.375324 0.000180444 0.237475 127 0 255
-0.475327 0.0752256 -0.200054 89 59 253
0.255095 -0.33374 0.0548703 127 0 255
0.312173 -0.224774 0.124946 127 0 255
-0.42411 -0.0993405 -0.267805 127 0 255
-0.450223 -0.482169 -0.0475024 127 0 255
-0.429247 -0.307561 -0.247592 127 0 255
-0.416902 -0.0764617 -0.174426 127 0 255
-0.279368 0.0770543 0.144158 89 59 253
-0.424874 0.0100185 0.0396039 123 6 254
0.224356 0.0748107 -0.190302 89 59 253
-0.417709 -0.203705 -0.162108 127 0 255
-0.0136787 -0.324547 -0.473202 127 0 255
-0.387004 0.0693481 0.0960997 93 53 253
-0.164463 0.0780931 0.360928 89 59 253
-0.411283 -0.323976 -0.422295 127 0 255
-0.418496 -0.408724 0.181338 127 0 255
-0.427878 -0.47356 0.343334 127 0 255
-0.412948 -0.190287 -0.357913 127 0 255
0.0713069 0.0751425 0.0370283 89 59 253
0.196695 0.0736905 -0.278473 91 56 253
-0.427284 -0.130572 0.241764 127 0 255
-0.286982 0.0714705 -0.0235609 91 56 253
-0.454982 -0.394105 0.262096 127 0 255
-0.200956 0.0769404 -0.335859 89 59 253
-0.475319 0.0251849 0.32497 115 18 254
-0.337827 -0.349781 -0.47505 127 0 255
-0.300327 -0.212275 -0.487552 127 0 255
-0.139426 0.0761916 0.0776989 89 59 253
-0.475327 -0.199793 -0.087542 127 0 255
-0.381047 0.0741647 0.25829 91 56 253
-0.0168366 0.0764037 -0.437494 89 59 253
-0.428576 -0.142606 0.364304 127 0 255
-0.0294035 0.0742693 -0.177113 89 59 253
-0.417637 -0.155719 -0.481138 127 0 255
-0.349924 -0.331709 0.307841 127 0 255
-0.409786 -0.405095 -0.443021 127 0 255
-0.433632 -0.388478 -0.0150467 127 0 255
-0.402078 -0.213729 0.33409 127 0 255
-0.425681 -0.101576 0.0420661 127 0 255
-0.130972 0.0741555 -0.371567 91 56 253
-0.452068 -0.4504 0.115065 127 0 255
-0.304415 0.0761353 0.0529159 89 59 253
0.0597403 0.0728748 -0.250866 91 56 253
-0.012073 0.0803147 0.0263226 87 62 253
-0.392789 0.0409221 -0.0337687 107 31 254
0.173308 0.0753754 0.00782495 89 59 253
-0.397703 -0.0130337 -0.351234 127 0 255
-0.423436 -0.222583 0.404268 127 0 255
-0.42793 -0.279683 0.264612 127 0 255
-0.475327 -0.28731 0.0499686 127 0 255
-0.410659 -0.48765 -0.114826 127 0 255
-0.313318 0.0754191 -0.371252 89 59 253
-0.315235 -0.381542 0.379652 127 0 255
-0.407846 0.0031738 -0.472022 127 0 255
-0.422762 0.0248359 0.266605 115 18 254
0.158815 0.0742298 -0.373792 89 59 253
0.349673 -0.224774 0.0374457 127 0 255
-0.425429 0.0224638 -0.130263 117 15 254
0.00724014 0.0764618 -0.0807159 89 59 253
0.0336653 0.0748811 0.232746 89 59 253
-0.475324 -0.262314 0.149971 127 0 255
-0.262827 -0.349785 -0.475045 127 0 255
-0.475326 0.0126944 0.099966 121 9 254
-0.419858 -0.21922 -0.297095 127 0 255
0.0497609 0.0749908 0.117796 89 59 253
-0.438206 -0.158623 -0.117363 127 0 255
-0.405587 -0.457657 0.195254 127 0 255
-0.424858 0.0667349 0.17879 93 53 253
-0.416886 -0.105855 0.174211 127 0 255
-0.475327 -0.1373 -0.0125377 127 0 255
-0.475321 -0.212316 0.224973 127 0 255
-0.419785 -0.0544018 0.0946749 127 0 255
-0.265943 0.075025 -0.250411 89 59 253
-0.389109 -0.331042 0.438686 127 0 255
0.0893842 0.075886 -0.15926 89 59 253
-0.41173 -0.0119909 0.344233 127 0 255
-0.442329 -0.348311 -0.318581 127 0 255
-0.40384 -0.268026 0.144974 127 0 255
0.0871731 0.0252256 -0.0500543 115 18 254
-0.167047 0.0747097 -0.280177 89 59 253
-0.439583 -0.487499 0.0426461 127 0 255
0.111078 0.0746883 0.262491 89 59 253
-0.406871 -0.243717 -0.492065 127 0 255
-0.361978 0.0690161 0.0343826 93 53 253
-0.326564 -0.482348 -0.41062 127 0 255
-0.412994 -0.0506304 -0.399407 127 0 255
-0.378195 -0.472712 -0.286937 127 0 255
-0.171911 0.076801 0.158226 89 59 253
-0.36809 -0.475778 -0.00762126 127 0 255
-0.427199 -0.469069 0.275116 127 0 255
-0.475318 -0.324822 0.299976 127 0 255
-0.384378 -0.361854 0.200804 127 0 255
0.208195 -0.279457 -0.00669725 127 0 255
-0.419286 -0.192997 -0.024883 127 0 255
-0.122768 0.0765216 0.31861 89 59 253
-0.475318 0.000173297 0.412475 127 0 255
-0.411245 -0.380213 -0.191276 127 0 255
0.162173 0.000225605 -0.175054 127 0 255
-0.424066 -0.0470809 -0.252114 127 0 255
-0.397902 0.0557431 -0.336226 99 43 254
-0.412849 -0.14071 -0.418718 127 0 255
-0.310096 -0.478252 -0.258882 127 0 255
-0.410432 0.0590411 -0.217886 97 46 253
-0.450519 -0.48729 0.161599 127 0 255
0.35573 -0.226155 0.214644 127 0 255
0.487173 -0.224774 0.0374457 127 0 255
-0.436259 -0.31445 -0.380619 127 0 255
-0.475327 -0.0622852 -0.112547 127 0 255
-0.433569 -0.444568 -0.366938 127 0 255
-0.429673 -0.306518 0.0807481 127 0 255
-0.475319 -0.162317 0.274973 127 0 255
-0.308023 -0.48231 -0.134316 127 0 255
-0.0952547 0.0741389 -0.302971 91 56 253
-0.205295 0.0774337 0.00687215 89 59 253
-0.451501 -0.416092 -0.469064 127 0 255
0.125994 0.0776577 0.0165063 89 59 253
-0.320238 0.0717132 0.154441 91 56 253
0.0562608 0.0753811 -0.0244935 89 59 253
-0.432856 -0.415616 -0.125804 127 0 255
-0.337249 0.0553399 -0.0515388 99 43 254
-0.419195 -0.293175 0.355791 127 0 255
0.154629 0.0743987 -0.220742 89 59 253
-0.10637 0.0763689 -0.038781 89 59 253
-0.162826 0.0752331 -0.500054 89 59 253
0.118991 0.0748037 0.136502 89 59 253
-0.272901 -0.457886 -0.520913 127 0 255
-0.475324 -0.199813 0.149971 127 0 255
0.187173 0.0252256 -0.0500543 115 18 254
-0.0361267 0.078632 0.090969 87 62 253
-0.416106 -0.140079 -0.295741 127 0 255
-0.421841 -0.0292313 -0.0427207 127 0 255
-0.414003 -0.0813779 0.449821 127 0 255
-0.428816 -0.0642211 0.267668 127 0 255
0.436512 -0.244667 0.140317 127 0 255
-0.327146 -0.482613 -0.345049 127 0 255
-0.39972 -0.264743 0.455695 127 0 255
0.293119 -0.236523 0.232809 127 0 255
-0.34205 -0.478671 -0.479008 127 0 255
0.0251839 -0.30187 -0.460978 127 0 255
0.439438 -0.284638 0.012257 127 0 255
0.166851 -0.320732 -0.0177587 127 0 255
0.431591 -0.191176 0.0169808 127 0 255
-0.0588201 0.0758153 0.235414 89 59 253
-0.282897 0.0766532 0.215138 89 59 253
-0.426824 -0.384347 0.0621989 127 0 255
-0.151497 0.0751027 -0.13662 89 59 253
-0.42731 -0.142485 -0.0537705 127 0 255
0.111621 0.0748182 -0.293188 89 59 253
-0.378384 0.0637771 -0.177093 95 49 253
-0.249997 0.0766846 -0.362029 89 59 253
-0.420766 0.0648225 0.0423358 95 49 253
-0.406139 -0.445093 -0.198228 127 0 255
0.134899 0.0748338 -0.0571071 89 59 253
-0.445908 -0.374389 0.348693 127 0 255
-0.417729 -0.130658 0.412296 127 0 255
-0.418836 -0.241625 -0.144104 127 0 255
-0.40774 -0.37158 0.249608 127 0 255
-0.115233 0.0811772 0.0421286 87 62 253
-0.475327 -0.262299 -0.0500383 127 0 255
-0.475327 -0.399801 -0.0625367 127 0 255
-0.403261 -0.448216 -0.485258 127 0 255
-0.281406 0.0751258 -0.145024 89 59 253
0.312173 0.0752256 -0.0375543 89 59 253
-0.395494 0.0485712 0.40228 103 37 254
-0.187826 -0.324788 -0.475041 127 0 255
-0.421718 -0.0433755 0.0304412 127 0 255
-0.4155 -0.240543 0.0516084 127 0 255
-0.428628 -0.0314887 -0.14186 127 0 255
-0.411434 0.0139765 -0.264712 121 9 254
0.0496731 0.0252247 0.312446 115 18 254
-0.42235 -0.226547 0.26516 127 0 255
-0.430322 0.0511941 -0.375735 101 40 254
-0.28893 0.0760656 0.401475 89 59 253
-0.430383 0.0602263 0.122139 97 46 253
-0.0719587 0.0669159 -0.369551 93 53 253
-0.475316 -0.299834 0.46248 127 0 255
-0.032921 0.0724304 -0.263953 91 56 253
-0.412763 -0.363447 0.147074 127 0 255
0.372747 -0.261376 0.235141 127 0 255
-0.415643 -0.0879921 -0.210124 127 0 255
-0.40967 -0.286271 -0.348532 127 0 255
-0.0522676 0.0751512 -0.0179178 89 59 253
-0.435186 -0.199707 -0.191654 127 0 255
-0.415618 -0.169233 0.134737 127 0 255
-0.274415 0.0762586 0.0649227 89 59 253
-0.339478 0.0763773 -0.419102 89 59 253
0.000882646 0.0761622 -0.184577 89 59 253
0.287173 -0.299774 -0.187554 127 0 255
-0.419895 -0.303708 -0.00588426 127 0 255
-0.411188 -0.134752 -0.352107 127 0 255
-0.432407 -0.486987 -0.0205816 127 0 255
-0.428473 -0.0377671 0.134616 127 0 255
-0.445724 -0.364735 -0.357501 127 0 255
-0.220911 0.076726 0.152138 89 59 253
-0.455222 -0.483178 0.347013 127 0 255
-0.426057 -0.268207 -0.244837 127 0 255
0.238383 0.0734108 -0.11577 91 56 253
-0.412457 -0.012284 0.431215 127 0 255
0.374673 -0.224774 0.112446 127 0 255
-0.423253 -0.374868 -0.131677 127 0 255
0.237173 -0.249774 0.174946 127 0 255
-0.386899 0.00251698 -0.428303 127 0 255
-0.430076 -0.0833814 0.366987 127 0 255
-0.451238 -0.403987 0.296201 127 0 255
-0.0521579 0.074628 -0.113054 89 59 253
-0.370797 0.0648646 0.214486 95 49 253
-0.411156 -0.475322 -0.403323 127 0 255
-0.393895 -0.188954 0.399328 127 0 255
0.299673 -0.249774 -0.0375543 127 0 255
-0.414483 -0.0553981 -0.314679 127 0 255
-0.415904 -0.298135 -0.478251 127 0 255
-0.311875 0.076066 0.308889 89 59 253
0.237173 -0.262274 0.262446 127 0 255
-0.237826 0.07523 -0.500054 89 59 253
-0.442964 -0.412015 -0.291654 127 0 255
-0.415232 -0.0400432 -0.507612 127 0 255
-0.436106 -0.125417 -0.129383 127 0 255
-0.42921 -0.13168 0.00403076 127 0 255
0.143493 0.075294 -0.126416 89 59 253
-0.404467 -0.453955 -0.152211 127 0 255
-0.416488 -0.0192183 0.288543 127 0 255
-0.421024 -0.45449 0.122762 127 0 255
-0.424762 -0.179528 0.212713 127 0 255
-0.410468 0.0682903 -0.0174465 93 53 253
0.274673 0.0752256 -0.237554 89 59 253
-0.447576 -0.444644 0.210788 127 0 255
-0.431934 -0.256564 -0.0845598 127 0 255
-0.100429 0.0769494 0.237859 89 59 253
-0.432104 0.0667198 0.238128 93 53 253
-0.408896 -0.312537 0.200254 127 0 255
0.069818 0.074707 0.255697 89 59 253
-0.41605 -0.230955 -0.458825 127 0 255
-0.43013 -0.30417 -0.164865 127 0 255
-0.413057 -0.146053 0.333494 127 0 255
0.359964 -0.147542 0.0584667 127 0 255
-0.475319 -0.0748158 0.299972 127 0 255
-0.427979 -0.418586 -0.223408 127 0 255
0.137405 -0.302972 0.00736449 127 0 255
-0.412903 0.0605975 -0.138625 97 46 253
-0.413219 -0.0620887 0.194225 127 0 255
0.180245 0.07375 -0.309833 91 56 253
-0.347585 -0.329 0.377037 127 0 255
-0.308754 -0.484209 -0.179882 127 0 255
-0.431336 0.0719348 0.35551 91 56 253
0.102775 0.0753563 -0.254065 89 59 253
-0.405949 -0.473093 -0.302237 127 0 255
-0.411234 -0.22502 -0.364933 127 0 255
0.433986 -0.174417 0.0782544 127 0 255
-0.424579 -0.0882328 0.0986433 127 0 255
-0.418103 0.0213445 -0.316827 117 15 254
-0.385944 -0.246339 0.417761 127 0 255
-0.412549 0.0382089 -0.50352 109 28 254
-0.224641 0.076416 0.236782 89 59 253
-0.475317 -0.174829 0.412478 127 0 255
-0.0551688 0.063822 -0.428953 95 49 253
-0.000616942 0.0752761 0.11232 89 59 253
-0.378472 0.0677859 0.153831 93 53 253
-0.421872 -0.00342532 -0.217077 127 0 255
-0.475327 -0.249777 -0.287553 127 0 255
0.0959204 0.0722202 0.0887104 91 56 253
-0.00135481 0.0760073 -0.30738 89 59 253
-0.423238 -0.395238 0.0262501 127 0 255
-0.209326 0.0763695 -0.378032 89 59 253
-0.475318 -0.249822 0.312476 127 0 255
-0.271274 0.0757775 -0.0292161 89 59 253
-0.256782 -0.474738 -0.474803 127 0 255
-0.419517 -0.129674 -0.472678 127 0 255
0.262173 0.0752256 0.137446 89 59 253
0.0371731 0.0252256 -0.0375543 115 18 254
-0.475327 -0.21231 0.0749689 127 0 255
-0.000327041 0.0752074 0.374958 89 59 253
-0.387817 -0.449834 0.449984 127 0 255
-0.416515 -0.468559 0.0651066 127 0 255
-0.359689 -0.484337 -0.399103 127 0 255
-0.419029 -0.196304 -0.0657721 127 0 255
-0.35278 -0.480348 -0.241556 127 0 255
-0.139046 0.0745504 -0.264398 89 59 253
-0.475327 -0.0997744 -0.250054 127 0 255
-0.354284 -0.335706 0.295375 127 0 255
0.165187 0.0744995 -0.183075 89 59 253
-0.233256 0.0757963 0.399474 89 59 253
-0.0944877 0.0798276 0.0907132 87 62 253
-0.42826 -0.0078376 -0.0859041 127 0 255
-0.0551621 0.0768143 -0.17193 89 59 253
-0.402956 -0.141496 0.27785 127 0 255
-0.424569 0.00932079 0.22527 123 6 254
-0.300031 -0.482671 -0.325685 127 0 255
-0.177566 0.076854 -0.0434244 89 59 253
0.187173 -0.324774 -0.275054 127 0 255
0.0350873 0.0728404 -0.258383 91 56 253
-0.420758 -0.310795 0.262425 127 0 255
0.299673 0.0752256 0.0124457 89 59 253
-0.405325 -0.0848881 -0.407435 127 0 255
-0.41185 -0.354415 -0.453526 127 0 255
0.462069 -0.275369 0.0503869 127 0 255
-0.419016 -0.2056 0.453891 127 0 255
0.0260764 0.0750658 0.0212035 89 59 253
-0.390675 -0.482021 -0.454731 127 0 255
0.199673 0.0752256 0.274946 89 59 253
-0.41786 -0.0925859 -0.0958061 127 0 255
-0.425134 -0.323782 0.117008 127 0 255
-0.416582 -0.172859 -0.225609 127 0 255
-0.409271 -0.44873 -0.105973 127 0 255
0.322401 -0.260979 0.255919 127 0 255
-0.459885 -0.45368 0.298381 127 0 255
-0.475327 0.0752256 -0.250054 89 59 253
-0.389652 0.0644573 -0.0559452 95 49 253
0.149673 -0.0122744 -0.125054 127 0 255
-0.475327 -0.0498063 0.0749665 127 0 255
0.249673 -0.312274 -0.237554 127 0 255
0.0811783 0.0758715 -0.17848 89 59 253
-0.259182 0.0659204 -0.260998 95 49 253
-0.413738 -0.298253 0.404971 127 0 255
0.405107 -0.240925 0.184102 127 0 255
-0.451875 -0.445284 -0.17094 127 0 255
-0.41112 -0.10987 0.204065 127 0 255
-0.378012 0.0754046 0.281011 89 59 253
-0.325731 0.0688996 -0.00700337 93 53 253
-0.0155214 0.0756595 -0.39371 89 59 253
-0.430709 -0.233105 -0.0178793 127 0 255
-0.413528 -0.282401 -0.432201 127 0 255
-0.414619 -0.169796 0.047508 127 0 255
-0.138837 0.0742886 -0.344889 89 59 253
0.324673 0.0752256 -0.100054 89 59 253
0.0246732 -0.337286 -0.500045 127 0 255
-0.237281 0.073911 0.092726 91 56 253
0.0147297 0.0765178 -0.0970181 89 59 253
-0.428133 -0.0799193 0.0002968 127 0 255
-0.404515 -0.138186 0.454207 127 0 255
-0.213605 0.0748661 -0.312039 89 59 253
0.434768 -0.265464 -0.0037426 127 0 255
0.098134 0.0746528 -0.0832524 89 59 253
-0.202 0.077622 -0.214485 89 59 253
0.216573 0.0736925 -0.182622 91 56 253
-0.456322 -0.398439 -0.394447 127 0 255
-0.375511 -0.48646 -0.158894 127 0 255
-0.300141 0.0761465 -0.40767 89 59 253
0.450278 -0.260029 0.131447 127 0 255
-0.419704 -0.267615 -0.202762 127 0 255
-0.451056 -0.464143 -0.0043805 127 0 255
-0.385644 -0.386321 0.203483 127 0 255
-0.414173 0.0494349 -0.437664 103 37 254
-0.416977 -0.291631 -0.0792963 127 0 255
-0.428468 0.000844207 0.0983179 127 0 255
-0.0726259 0.0750117 -0.0645239 89 59 253
-0.416617 -0.0524373 0.316561 127 0 255
-0.317044 -0.390245 0.385795 127 0 255
-0.475327 -0.0997799 -0.175051 127 0 255
-0.404948 -0.263249 0.132047 127 0 255
-0.421937 -0.289506 0.335184 127 0 255
-0.418243 -0.0815213 -0.476889 127 0 255
-0.422907 -0.236671 0.208451 127 0 255
0.249673 0.0752256 0.0499457 89 59 253
-0.415249 -0.0967944 -0.325231 127 0 255
-0.42966 0.041651 0.162372 107 31 254
-0.157092 0.0766901 0.0470232 89 59 253
0.0496731 0.0252256 0.212446 115 18 254
-0.408945 0.0763097 0.409824 89 59 253
-0.475327 0.0752117 -0.0375452 89 59 253
0.110914 0.0752457 -0.0220997 89 59 253
-0.32206 0.059967 -0.0696437 97 46 253
0.461072 -0.221278 0.0689047 127 0 255
-0.441838 -0.39563 0.357176 127 0 255
-0.438867 -0.451383 -0.461232 127 0 255
-0.42961 -0.219215 -0.272474 127 0 255
-0.456002 -0.485868 0.204952 127 0 255
-0.475317 -0.262329 0.399978 127 0 255
-0.362827 -0.362279 -0.500051 127 0 255
-0.427773 0.0207543 0.349956 117 15 254
-0.475327 0.0127256 -0.187554 121 9 254
-0.426147 -0.128975 0.135104 127 0 255
-0.416017 -0.12414 -0.224481 127 0 255
-0.429245 0.000174347 0.00177339 127 0 255
-0.14192 0.0765108 0.123318 89 59 253
-0.419716 -0.401559 -0.080358 127 0 255
-0.447965 -0.489235 0.109486 127 0 255
-0.200091 0.0762082 0.373681 89 59 253
-0.411644 -0.290397 -0.308752 127 0 255
-0.392684 -0.251361 0.283789 127 0 255
-0.0636326 0.0768319 -0.261599 89 59 253
-0.475326 -0.349809 0.0499683 127 0 255
-0.406555 -0.34167 0.430906 127 0 255
-0.413681 -0.191394 -0.416422 127 0 255
-0.420015 -0.218408 0.0935487 127 0 255
-0.475324 -0.0623102 0.149969 127 0 255
-0.407268 -0.479823 -0.349247 127 0 255
-0.433432 0.0642989 0.284469 95 49 253
-0.413155 -0.0276037 0.41078 127 0 255
0.193508 -0.271471 -0.0271873 127 0 255
-0.418295 -0.146904 -0.142156 127 0 255
0.312173 -0.224774 0.0624457 127 0 255
-0.329258 -0.469709 -0.128327 127 0 255
0.018467 0.0762721 -0.164681 89 59 253
-0.414032 -0.0625344 -0.367819 127 0 255
-0.447132 -0.391727 0.0980581 127 0 255
0.133218 0.0745974 0.239888 89 59 253
-0.400957 -0.470733 -0.0687592 127 0 255
-0.270516 0.0726489 0.134088 91 56 253
-0.289761 -0.46487 -0.207003 127 0 255
0.15387 0.0767842 0.0253881 89 59 253
-0.406889 -0.0585759 0.233995 127 0 255
-0.446223 -0.418015 -0.326975 127 0 255
-0.475323 0.0751945 0.199966 89 59 253
-0.411717 -0.210186 -0.489619 127 0 255
-0.407553 -0.446517 -0.247536 127 0 255
-0.403232 -0.478019 0.0134205 127 0 255
-0.421088 -0.383217 0.283038 127 0 255
-0.420331 -0.175744 0.325292 127 0 255
0.163625 0.0739197 -0.344687 91 56 253
-0.475327 -0.137274 -0.337554 127 0 255
-0.401277 0.0398533 -0.0935734 107 31 254
0.217699 0.0755862 -0.09754 89 59 253
-0.435522 -0.321381 -0.261663 127 0 255
0.224673 0.0752256 0.212446 89 59 253
-0.348686 0.0766158 0.240172 89 59 253
-0.475322 -0.124814 0.199971 127 0 255
-0.150326 -0.324788 -0.475039 127 0 255
-0.475318 0.0126679 0.462477 121 9 254
-0.475327 -0.0497914 -0.0625432 127 0 255
-0.396945 0.0239846 -0.389603 115 18 254
-0.408617 0.0564331 -0.295472 99 43 254
-0.423272 -0.36119 0.17754 127 0 255
-0.429046 0.0412187 -0.190312 107 31 254
-0.458769 -0.445447 0.248773 127 0 255
0.149673 0.0752256 0.324946 89 59 253
-0.426818 -0.125057 0.0825935 127 0 255
0.0464279 0.0757942 0.121557 89 59 253
-0.403827 -0.202668 0.256957 127 0 255
-0.425827 -0.330044 -0.102251 127 0 255
-0.418419 0.0658494 0.077012 95 49 253
-0.423432 -0.10801 0.389571 127 0 255
-0.362827 -0.0747744 -0.487554 127 0 255
-0.186373 0.0800541 0.168833 87 62 253
-0.414418 -0.173738 -0.345094 127 0 255
-0.346794 0.0720119 0.167443 91 56 253
0.0881394 0.0748092 0.280475 89 59 253
-0.396603 -0.425964 -0.472124 127 0 255
-0.426952 -0.380894 -0.0356603 127 0 255
-0.203269 0.075881 0.00485717 89 59 253
0.0951088 0.0734421 -0.131114 91 56 253
-0.441792 -0.338951 -0.393042 127 0 255
0.0222047 -0.30315 -0.464359 127 0 255
-0.475327 -0.224788 -0.150045 127 0 255
-0.431113 -0.071274 -0.159478 127 0 255
-0.39923 -0.295689 0.451612 127 0 255
-0.418028 -0.350296 0.337735 127 0 255
0.048 0.0741057 -0.220434 91 56 253
-0.390752 0.0760624 0.327736 89 59 253
-0.0805099 0.0673481 -0.359046 93 53 253
-0.475318 -0.0373218 0.362474 127 0 255
0.036107 0.0786951 -0.0487846 87 62 253
-0.417038 -0.374944 -0.180965 127 0 255
0.117456 0.0757809 0.13239 89 59 253
-0.362982 -0.468643 -0.364186 127 0 255
-0.00520178 0.0738917 -0.358717 91 56 253
0.0652813 0.0751485 0.0368718 89 59 253
-0.475323 0.00019023 0.174968 127 0 255
-0.423289 -0.0587434 -0.261147 127 0 255
-0.420863 -0.297573 0.00468082 127 0 255
-0.42035 -0.244031 0.374042 127 0 255
0.44228 -0.187331 0.0355457 127 0 255
-0.300327 -0.362284 -0.500047 127 0 255
-0.0652865 0.0757712 0.0961112 89 59 253
-0.115975 0.0770739 -0.0489933 89 59 253
0.399673 -0.249774 -0.0500543 127 0 255
-0.376453 0.0757806 -0.404557 89 59 253
0.0272552 0.074912 0.240503 89 59 253
-0.268813 -0.465199 -0.520359 127 0 255
-0.454582 -0.47153 0.0486312 127 0 255
-0.427129 -0.470675 0.344177 127 0 255
-0.36282 -0.374837 0.449986 127 0 255
-0.475324 -0.324814 0.124971 127 0 255
-0.227148 0.0771622 0.253338 89 59 253
-0.261199 0.0750746 -0.366336 89 59 253
-0.418419 -0.204888 0.0168013 127 0 255
-0.287827 -0.0747716 -0.500054 127 0 255
-0.0175929 0.0767702 0.0396179 89 59 253
-0.404666 -0.005495 -0.479505 127 0 255
0.324673 -0.224774 0.162446 127 0 255
0.190374 0.0737988 -0.278611 91 56 253
-0.383568 -0.313273 0.24804 127 0 255
-0.411743 -0.0890489 0.453123 127 0 255
0.0996731 0.000225605 -0.125054 127 0 255
-0.278592 0.0746805 0.41318 89 59 253
-0.415629 -0.209313 0.18582 127 0 255
0.374673 -0.224774 0.0249457 127 0 255
-0.437716 -0.395449 -0.472047 127 0 255
-0.412409 -0.282899 -0.134069 127 0 255
-0.356433 -0.469153 -0.205864 127 0 255
-0.275311 0.0771632 0.0491224 89 59 253
0.287173 0.0752256 -0.175054 89 59 253
-0.450206 -0.44054 0.152827 127 0 255
-0.408077 -0.128603 -0.415942 127 0 255
-0.475321 -0.262316 0.212473 127 0 255
-0.402502 -0.317421 -0.481515 127 0 255
-0.41856 -0.1043 -0.0297541 127 0 255
-0.429034 -0.315318 0.0749172 127 0 255
-0.119602 0.0765462 0.342531 89 59 253
-0.425108 0.023154 0.0579333 117 15 254
-0.181369 0.0766657 -0.35781 89 59 253
-0.409523 -0.239576 -0.401976 127 0 255
-0.042344 0.073886 -0.305965 91 56 253
-0.315255 0.0771972 0.307486 89 59 253
-0.475327 0.000217663 -0.112549 127 0 255
0.139069 -0.320413 0.000885444 127 0 255
-0.450318 0.0751707 0.462476 89 59 253
-0.339071 -0.482715 -0.316571 127 0 255
-0.403196 0.00321219 -0.329206 127 0 255
-0.362437 -0.48218 -0.444339 127 0 255
-0.475319 -0.112317 0.299973 127 0 255
0.375591 -0.236448 0.208579 127 0 255
0.139244 0.0748704 -0.214858 89 59 253
-0.475319 0.0751844 0.34997 89 59 253
-0.418168 -0.203485 -0.139367 127 0 255
-0.340456 -0.36678 0.393974 127 0 255
-0.0498184 0.0742552 -0.19884 89 59 253
-0.422416 -0.0644785 0.0494378 127 0 255
-0.475326 -0.16231 0.0874687 127 0 255
0.122837 0.0742502 -0.316946 89 59 253
-0.112171 0.0768125 -0.274275 89 59 253
-0.429141 0.0127681 0.29656 121 9 254
-0.429101 0.0295904 -0.0247955 113 21 254
-0.368554 -0.306729 0.336564 127 0 255
-0.426389 -0.127359 -0.262065 127 0 255
0.223792 0.0733528 -0.210406 91 56 253
-0.389232 0.0597695 0.129896 97 46 253
-0.42646 -0.159082 -0.0850094 127 0 255
-0.40981 -0.441195 -0.374063 127 0 255
0.324673 -0.249774 -0.0500543 127 0 255
-0.398409 0.0343336 -0.2184 111 25 254
-0.415892 -0.212846 -0.249642 127 0 255
-0.419625 -0.0400632 0.162179 127 0 255
-0.419706 -0.168947 -0.479659 127 0 255
-0.396946 -0.179736 0.430275 127 0 255
-0.434965 -0.39864 -0.209682 127 0 255
-0.375323 -0.0873242 0.262478 127 0 255
0.00801343 0.0749115 0.135663 89 59 253
-0.42418 -0.042378 -0.0658493 127 0 255
-0.428137 -0.0349859 -0.180361 127 0 255
-0.427832 -0.461823 0.300416 127 0 255
-0.408907 -0.294728 0.195907 127 0 255
-0.0312328 0.0766986 -0.138683 89 59 253
-0.418147 -0.485629 -0.0993353 127 0 255
-0.443594 -0.369923 -0.327254 127 0 255
-0.422218 -0.148868 0.183875 127 0 255
-0.475318 -0.0498298 0.424977 127 0 255
-0.0486808 0.0758754 -0.0496465 89 59 253
-0.362819 0.0751695 0.46248 89 59 253
-0.403864 -0.0478094 -0.421699 127 0 255
-0.299593 -0.47985 -0.248918 127 0 255
-0.0693939 0.0648227 -0.40373 95 49 253
-0.419954 -0.353293 0.236476 127 0 255
-0.201088 0.0771493 -0.186239 89 59 253
-0.414387 -0.251477 -0.305399 127 0 255
0.237173 0.0752256 0.0874457 89 59 253
-0.42014 -0.249126 0.309285 127 0 255
0.249673 -0.262274 0.287446 127 0 255
0.438563 -0.25913 0.155141 127 0 255
-0.300327 0.0752276 -0.475054 89 59 253
-0.277172 0.0718382 -0.0419048 91 56 253
-0.475327 -0.337291 -0.162544 127 0 255
-0.424523 0.0703774 0.20166 91 56 253
-0.333845 0.0765036 -0.379084 89 59 253
-0.428306 -0.0513331 0.366692 127 0 255
0.321565 -0.260676 0.255816 127 0 255
-0.417229 -0.398304 0.166581 127 0 255
-0.151951 0.0790263 -0.0576518 87 62 253
-0.425316 -0.412336 0.462484 127 0 255
-0.427546 -0.454223 -0.287702 127 0 255
-0.389824 0.0634954 -0.145068 95 49 253
-0.423655 -0.235609 -0.0701591 127 0 255
-0.451804 -0.439364 -0.439012 127 0 255
-0.437006 -0.303105 -0.358803 127 0 255
0.174972 -0.283721 -0.0386675 127 0 255
-0.417782 -0.371317 0.0887997 127 0 255
-0.212826 0.0752311 -0.500054 89 59 253
-0.475327 -0.112291 -0.0875437 127 0 255
-0.339021 0.0576087 -0.0255567 99 43 254
0.456032 -0.230538 0.0889792 127 0 255
-0.415507 -0.232456 0.457273 127 0 255
0.0108974 0.0739817 -0.274432 91 56 253
-0.42213 -0.410047 -0.0332511 127 0 255
-0.475322 -0.337316 0.187472 127 0 255
-0.420465 -0.149837 -0.301857 127 0 255
-0.406177 -0.253219 -0.491281 127 0 255
-0.413195 -0.042367 0.445339 127 0 255
0.224673 0.0252256 -0.0500543 115 18 254
-0.415521 -0.269597 0.0674594 127 0 255
-0.475319 -0.199819 0.274974 127 0 255
0.439658 -0.24607 0.00890507 127 0 255
-0.26228 0.0771649 -0.269132 89 59 253
-0.252253 -0.476007 -0.478463 127 0 255
-0.421752 -0.234604 -0.184982 127 0 255
-0.377346 -0.276822 0.36786 127 0 255
-0.430388 -0.160535 -0.000944834 127 0 255
-0.416422 -0.202759 0.127179 127 0 255
-0.416508 -0.0364686 -0.505687 127 0 255
0.0496731 0.0252256 0.137446 115 18 254
-0.387174 0.064333 0.407866 95 49 253
0.137173 0.0252256 -0.0500543 115 18 254
0.115572 0.0755433 0.0930124 89 59 253
0.249673 0.0752256 -0.275054 89 59 253
0.0371731 0.0252256 0.0249457 115 18 254
-0.413829 -0.457597 0.198747 127 0 255
0.0496731 0.0752175 0.362451 89 59 253
-0.475318 -0.212325 0.362477 127 0 255
-0.415478 0.0633561 -0.387505 95 49 253
-0.371475 -0.35574 0.24775 127 0 255
-0.428534 -0.0475268 -0.00228729 127 0 255
-0.475317 -0.312326 0.374978 127 0 255
-0.475327 -0.349804 -0.0125347 127 0 255
-0.432878 -0.375152 -0.131563 127 0 255
-0.426587 0.0121968 -0.149181 121 9 254
0.154407 0.0745065 -0.168022 89 59 253
0.112173 0.0752256 -0.437554 89 59 253
-0.450263 -0.452483 -0.17288 127 0 255
-0.475327 -0.249805 0.0124658 127 0 255
-0.427489 -0.14502 -0.190749 127 0 255
-0.427193 -0.121084 0.22852 127 0 255
-0.13782 0.0764128 0.0822967 89 59 253
-0.403188 0.0544309 -0.469683 101 40 254
-0.443582 -0.438793 0.0683207 127 0 255
-0.423563 -0.0167066 0.235038 127 0 255
-0.410363 -0.286381 -0.409265 127 0 255
-0.0286527 0.0648594 -0.423775 95 49 253
-0.421997 0.00757991 -0.252687 125 3 254
-0.118949 0.0741955 -0.331058 91 56 253
-0.425282 -0.284345 -0.246147 127 0 255
-0.370932 -0.477442 -0.249108 127 0 255
-0.326427 0.0698927 0.0251311 93 53 253
-0.347993 -0.333771 0.311078 127 0 255
-0.459722 -0.483488 0.270809 127 0 255
-0.457451 -0.480833 0.144079 127 0 255
-0.475318 -0.137326 0.374976 127 0 255
0.287173 -0.224774 0.0999457 127 0 255
0.433386 -0.177697 0.0834282 127 0 255
-0.417152 -0.345364 0.373484 127 0 255
-0.429452 -0.0874443 0.325416 127 0 255
0.128569 0.0762589 -0.104978 89 59 253
0.00655267 0.0785648 0.0744191 87 62 253
-0.0117124 0.0774682 -0.0988347 89 59 253
-0.339549 -0.471151 -0.385344 127 0 255
0.287173 0.0752256 -0.0375543 89 59 253
-0.319488 0.0716962 0.161095 91 56 253
-0.475316 -0.262334 0.46248 127 0 255
-0.425583 -0.0972973 0.13624 127 0 255
-0.41014 -0.188209 0.346155 127 0 255
-0.225323 0.0751797 0.437475 89 59 253
0.287173 -0.287274 -0.162554 127 0 255
-0.475317 -0.124833 0.449979 127 0 255
-0.432521 -0.301026 -0.0590374 127 0 255
-0.475327 -0.0497744 -0.250054 127 0 255
-0.0193627 0.0762312 -0.214228 89 59 253
-0.427974 0.0474966 -0.0655135 103 37 254
-0.371582 -0.483688 -0.135286 127 0 255
0.140031 0.0744832 -0.285665 89 59 253
-0.475325 -0.237313 0.12497 127 0 255
-0.407898 -0.160049 -0.382406 127 0 255
0.164487 0.0753629 0.0142408 89 59 253
-0.455466 -0.390933 -0.426786 127 0 255
0.0567677 0.0760704 -0.162226 89 59 253
-0.206323 0.0767586 0.165936 89 59 253
-0.414001 -0.0339254 -0.332783 127 0 255
-0.475319 -0.312319 0.262475 127 0 255
-0.357056 -0.46852 -0.485215 127 0 255
-0.303385 -0.475512 -0.322102 127 0 255
-0.454328 -0.482879 0.348944 127 0 255
-0.238411 0.0693708 0.0798624 93 53 253
-0.420325 -0.00403184 0.133116 127 0 255
-0.389415 0.00147437 -0.41728 127 0 255
0.469564 -0.268966 0.06352 127 0 255
0.243436 0.0732127 -0.0974492 91 56 253
-0.197861 0.0757117 -0.0368647 89 59 253
-0.450317 -0.324835 0.462482 127 0 255
-0.418317 0.0648375 0.032309 95 49 253
-0.416717 -0.188482 0.0810456 127 0 255
-0.442447 -0.451141 -0.032734 127 0 255
-0.403322 0.0464535 0.351036 105 34 254
-0.325327 -0.212274 -0.487554 127 0 255
-0.0606357 0.0752096 -0.0188932 89 59 253
-0.420912 -0.156234 0.29194 127 0 255
-0.433253 -0.107603 -0.0855869 127 0 255
-0.424708 -0.188565 0.396824 127 0 255
-0.454448 -0.398672 0.268972 127 0 255
0.0082765 -0.313455 -0.456766 127 0 255
0.115247 0.0746104 0.253598 89 59 253
-0.410512 -0.296167 0.132615 127 0 255
-0.395667 -0.269492 0.251269 127 0 255
-0.418441 -0.0906276 -0.4811 127 0 255
-0.475327 0.000196001 0.062465 127 0 255
-0.0378263 0.0752036 0.38746 89 59 253
-0.418463 -0.105011 0.0196188 127 0 255
0.114448 0.074852 -0.025911 89 59 253
-0.436453 -0.178063 -0.0440393 127 0 255
-0.411013 -0.104739 -0.358287 127 0 255
-0.422484 -0.290336 -0.188501 127 0 255
-0.418069 -0.337259 -0.418599 127 0 255
-0.475319 0.0501768 0.399973 103 37 254
-0.356332 0.0768595 0.231933 89 59 253
-0.407479 0.0562607 -0.31104 99 43 254
-0.430599 0.0669472 0.270904 93 53 253
-0.420083 -0.353566 -0.0830659 127 0 255
-0.475327 -0.274794 -0.112542 127 0 255
-0.3171 -0.3769 0.378723 127 0 255
-0.428172 -0.0478247 -0.138458 127 0 255
-0.124897 0.0764254 0.122854 89 59 253
-0.430299 0.0604637 0.120021 97 46 253
-0.475327 -0.21228 -0.237551 127 0 255
-0.268654 0.0765754 -0.374615 89 59 253
0.375194 -0.257195 0.229577 127 0 255
-0.420642 -0.0689323 -0.283028 127 0 255
0.195774 -0.290931 -0.00401858 127 0 255
0.387173 -0.262274 0.0499457 127 0 255
-0.420073 -0.350801 0.297003 127 0 255
-0.426537 -0.318718 -0.0163259 127 0 255
-0.40533 -0.135882 0.45449 127 0 255
-0.431471 -0.311847 -0.301766 127 0 255
-0.256634 0.0758853 0.398692 89 59 253
-0.411601 -0.246584 -0.363111 127 0 255
-0.410457 -0.403802 -0.144548 127 0 255
-0.204464 0.0748273 -0.324167 89 59 253
-0.422901 -0.428101 0.00951446 127 0 255
-0.442425 -0.399114 -0.303954 127 0 255
-0.39178 -0.394253 0.217003 127 0 255
0.0481588 0.0747167 -0.0322199 89 59 253
-0.417889 -0.0346672 0.286868 127 0 255
-0.0565348 0.0746916 -0.102914 89 59 253
-0.454158 -0.488077 0.219014 127 0 255
0.187173 0.0752256 0.312446 89 59 253
-0.388183 -0.45976 -0.192342 127 0 255
-0.38808 -0.289345 0.435386 127 0 255
-0.285882 -0.479867 -0.496679 127 0 255
-0.133552 0.074516 -0.265746 89 59 253
0.0371731 0.0252256 0.249946 115 18 254
-0.424273 -0.043256 0.0798001 127 0 255
-0.418911 -0.221337 -0.301865 127 0 255
-0.415018 0.0127463 -0.498474 121 9 254
-0.475327 0.0752237 -0.125053 89 59 253
-0.404988 -0.115024 0.276372 127 0 255
-0.475323 -0.174814 0.174971 127 0 255
-0.424133 -0.236111 -0.0172097 127 0 255
-0.325327 -0.337281 -0.50005 127 0 255
0.417519 -0.247564 0.176412 127 0 255
-0.424755 -0.204338 0.241087 127 0 255
-0.425283 -0.486435 -0.0589533 127 0 255
-0.343654 -0.330343 0.370649 127 0 255
-0.429231 -0.0654053 -0.212384 127 0 255
-0.00834526 0.0761342 -0.326543 89 59 253
-0.437086 -0.139648 -0.15322 127 0 255
0.0443715 0.0757075 -0.254965 89 59 253
-0.305594 -0.480632 -0.144511 127 0 255
-0.407374 -0.475108 -0.316381 127 0 255
-0.414998 -0.0243174 0.347978 127 0 255
-0.475327 -0.149774 -0.275054 127 0 255
0.019328 0.0764678 -0.141807 89 59 253
-0.431026 0.0417953 0.220812 107 31 254
-0.192271 0.0749296 -0.207886 89 59 253
-0.0307582 0.0786269 0.0892261 87 62 253
0.362173 -0.262274 0.124946 127 0 255
-0.422654 -0.441209 0.143941 127 0 255
-0.399612 -0.0548663 0.42324 127 0 255
0.0731845 0.0752935 0.0164607 89 59 253
-0.419802 -0.245358 -0.104183 127 0 255
-0.428829 -0.0656381 0.222719 127 0 255
-0.285301 -0.475647 -0.231716 127 0 255
0.439043 -0.283834 0.0113642 127 0 255
-0.412982 -0.472468 -0.398859 127 0 255
-0.421337 -0.0223494 -0.0973223 127 0 255
-0.403541 -0.226203 0.342502 127 0 255
-0.424358 -0.126272 0.0564433 127 0 255
-0.396961 -0.00272712 -0.366082 127 0 255
0.165335 0.0739279 -0.335188 91 56 253
-0.417602 -0.242055 0.0480997 127 0 255
-0.0972045 0.0660946 -0.373715 95 49 253
-0.475327 0.0752019 0.0374612 89 59 253
0.249673 0.0752256 0.0124457 89 59 253
-0.251236 0.0765464 0.121301 89 59 253
-0.414261 -0.190843 -0.423959 127 0 255
-0.412242 -0.179879 0.155828 127 0 255
-0.162826 -0.324788 -0.50004 127 0 255
-0.0878264 0.0752314 -0.500054 89 59 253
-0.428066 -0.373512 -0.461889 127 0 255
-0.412437 -0.353082 0.147148 127 0 255
-0.048425 0.0766473 -0.249768 89 59 253
0.0073171 0.0754946 0.0255618 89 59 253
0.456939 -0.257264 0.112871 127 0 255
0.20447 0.074685 -0.210571 89 59 253
0.199673 -0.324774 -0.262554 127 0 255
-0.398096 0.0617202 -0.191063 97 46 253
-0.0128265 -0.362288 -0.500041 127 0 255
-0.387327 -0.237773 0.418289 127 0 255
-0.430039 -0.118982 0.376152 127 0 255
0.224673 0.0752256 0.137446 89 59 253
-0.376723 0.0661625 -0.0205729 95 49 253
-0.424389 -0.300563 0.305975 127 0 255
-0.430686 -0.483682 0.107992 127 0 255
-0.292073 0.0768884 0.0552406 89 59 253
-0.402309 -0.290147 -0.487889 127 0 255
-0.452001 -0.380539 -0.38909 127 0 255
-0.428469 -0.00952141 -0.0235836 127 0 255
-0.475317 -0.187334 0.462479 127 0 255
-0.262827 -0.337284 -0.475046 127 0 255
-0.475327 0.0127256 -0.250054 121 9 254
-0.418285 -0.141306 -0.475244 127 0 255
-0.434211 -0.196236 -0.21758 127 0 255
-0.108831 0.0808239 0.0694995 87 62 253
-0.407069 -0.153469 0.217154 127 0 255
0.218549 0.0755901 -0.112035 89 59 253
0.162173 0.000225605 -0.162554 127 0 255
-0.42101 -0.244256 0.161597 127 0 255
0.107024 0.074786 0.129647 89 59 253
-0.35628 0.0721061 0.191569 91 56 253
-0.425857 -0.47707 -0.147584 127 0 255
