ply
format ascii 1.0
comment Created by Open3D
element vertex 1208
property double x
property double y
property double z
property uchar red
property uchar green
property uchar blue
end_header
-0.04801 -0.366521 0.242277 127 0 255
-0.4119 -0.0804318 -0.00354584 127 0 255
-0.413749 -0.369776 -0.126158 127 0 255
-0.223539 -0.483465 -0.389465 127 0 255
0.124618 -0.486096 0.140909 127 0 255
-0.211553 -0.0038513 -0.435626 127 0 255
0.0955864 -0.484993 -0.25103 127 0 255
0.240895 -0.484952 -0.110504 127 0 255
0.189829 -0.362611 0.290272 127 0 255
-0.358201 -0.484399 0.159634 127 0 255
0.0770101 -0.485008 -0.359553 127 0 255
-0.061219 -0.485606 -0.282229 127 0 255
-0.137268 -0.0906248 -0.43324 127 0 255
0.224414 -0.411667 -0.427945 127 0 255
0.0271719 -0.342674 -0.385461 127 0 255
-0.235111 -0.277424 -0.413053 127 0 255
0.0616616 -0.356168 0.385537 127 0 255
-0.224333 -0.485917 0.293882 127 0 255
-0.30484 -0.452812 -0.444083 127 0 255
-0.411394 -0.441201 -0.29421 127 0 255
-0.0373553 -0.483624 -0.105966 127 0 255
-0.41518 -0.325677 0.191153 127 0 255
-0.32718 -0.0602935 -0.423769 127 0 255
0.0479299 -0.372565 0.204747 127 0 255
-0.148624 -0.469005 -0.196687 127 0 255
-0.0868639 -0.328589 -0.413211 127 0 255
0.138742 -0.484358 -0.0266058 127 0 255
0.238124 -0.482243 -0.269573 127 0 255
-0.120684 -0.222917 -0.426859 127 0 255
0.149673 -0.312274 0.349946 127 0 255
-0.402071 -0.209601 -0.425815 127 0 255
-0.337202 -0.482982 -0.249469 127 0 255
-0.384584 -0.0612136 -0.118895 127 0 255
-0.391127 -0.296268 -0.108621 127 0 255
0.0133933 -0.484973 0.311845 127 0 255
-0.394104 -0.275931 -0.00147885 127 0 255
0.0487546 -0.483749 0.176045 127 0 255
0.197015 -0.141986 -0.433387 127 0 255
-0.048158 -0.337377 -0.334941 127 0 255
0.183634 -0.483829 -0.143015 127 0 255
-0.139657 -0.472344 -0.0546402 127 0 255
0.242285 -0.45361 0.25402 127 0 255
-0.161407 -0.481177 -0.400572 127 0 255
0.017799 -0.42085 0.369289 127 0 255
0.157533 -0.484964 0.0723205 127 0 255
0.0557727 -0.0847887 -0.422622 127 0 255
-0.103068 -0.466199 0.124634 127 0 255
-0.382126 -0.249944 -0.235371 127 0 255
0.196229 -0.476196 -0.431102 127 0 255
-0.106171 -0.452919 -0.337742 127 0 255
-0.391647 -0.160167 -0.344805 127 0 255
-0.128054 0.00539563 -0.431369 125 3 254
0.148305 -0.386229 0.406894 127 0 255
-0.376572 -0.39838 0.0895327 127 0 255
0.00165787 -0.358883 0.288031 127 0 255
-0.395063 -0.484664 -0.408401 127 0 255
-0.122434 -0.432185 0.251644 127 0 255
0.0425857 -0.190832 -0.415963 127 0 255
-0.384762 -0.296742 0.0651591 127 0 255
-0.368038 -0.276641 -0.344739 127 0 255
-0.32878 -0.4826 0.0107945 127 0 255
-0.0059093 -0.485377 -0.335464 127 0 255
-0.406868 -0.418524 -0.0446075 127 0 255
-0.00500007 -0.0215502 -0.434769 127 0 255
-0.296012 -0.485723 -0.368815 127 0 255
-0.409696 -0.00639688 -0.0550526 127 0 255
-0.364408 -0.486012 -0.0897075 127 0 255
-0.254209 -0.482938 -0.295675 127 0 255
0.103414 -0.486275 0.225531 127 0 255
0.229644 -0.484602 0.0584334 127 0 255
-0.27563 -0.488004 0.0788849 127 0 255
0.249566 -0.360618 0.317646 127 0 255
-0.391156 -0.483223 0.213387 127 0 255
-0.0136768 -0.389178 -0.3371 127 0 255
-0.0908996 -0.40174 -0.436555 127 0 255
-0.381807 -0.347441 -0.0589514 127 0 255
0.137173 -0.324789 -0.350045 127 0 255
-0.175483 -0.159631 -0.43583 127 0 255
-0.187827 -0.399812 -0.312529 127 0 255
-0.437819 -0.162312 0.24997 127 0 255
0.16604 -0.484248 -0.223495 127 0 255
-0.379061 -0.48344 0.0688937 127 0 255
-0.0257987 -0.483694 0.0183494 127 0 255
-0.0838036 -0.485918 0.369559 127 0 255
0.179554 -0.237811 -0.434795 127 0 255
-0.414736 -0.31071 -0.249698 127 0 255
-0.0497171 -0.246274 -0.429184 127 0 255
0.20531 -0.48511 -0.360684 127 0 255
-0.0284117 -0.0941934 -0.432018 127 0 255
-0.40541 -0.0276187 0.0569432 127 0 255
-0.393265 -0.175473 -0.26101 127 0 255
-0.30567 -0.415006 -0.398138 127 0 255
-0.372952 -0.383091 -0.179239 127 0 255
-0.120212 -0.486036 0.0376066 127 0 255
-0.394114 -0.271751 0.213782 127 0 255
-0.406972 0.0130294 -0.242076 121 9 254
-0.411494 -0.417624 0.17381 127 0 255
-0.388118 -0.183715 0.111693 127 0 255
-0.388264 -0.240054 -0.124459 127 0 255
-0.342527 -0.286691 -0.429105 127 0 255
-0.272658 -0.158969 -0.437523 127 0 255
0.112908 -0.321618 -0.433434 127 0 255
0.0723981 -0.48429 -0.166649 127 0 255
0.125216 -0.144163 -0.418532 127 0 255
-0.412085 -0.350362 -0.413395 127 0 255
-0.311856 -0.459722 -0.19853 127 0 255
-0.0265464 -0.472363 -0.231057 127 0 255
-0.202386 -0.362183 -0.438841 127 0 255
-0.0851662 -0.484454 0.263439 127 0 255
0.312173 -0.374774 0.224946 127 0 255
0.194368 -0.441014 0.328567 127 0 255
-0.370659 -0.0821439 -0.431059 127 0 255
0.218308 -0.488014 -0.0359952 127 0 255
-0.367883 -0.390943 -0.328221 127 0 255
0.111685 -0.462527 0.39788 127 0 255
-0.232507 -0.457404 0.234252 127 0 255
-0.391923 -0.131744 0.181639 127 0 255
0.160545 -0.393628 -0.4301 127 0 255
-0.405182 -0.0870024 -0.190139 127 0 255
0.0772135 -0.374345 -0.394543 127 0 255
0.249716 -0.484582 -0.210887 127 0 255
0.338454 -0.485672 -0.00203096 127 0 255
-0.180626 -0.468971 -0.0815374 127 0 255
0.0621729 -0.387294 -0.262541 127 0 255
-0.00937717 -0.487098 0.387941 127 0 255
-0.371634 -0.375357 0.241632 127 0 255
-0.179441 -0.0434634 -0.432589 127 0 255
-0.408938 -0.0483779 0.155424 127 0 255
-0.0878641 -0.484095 -0.0731621 127 0 255
-0.3928 0.0434497 -0.421852 105 34 254
-0.390552 -0.20867 0.0376133 127 0 255
-0.0148158 -0.438816 0.20479 127 0 255
-0.300327 -0.412312 0.11247 127 0 255
-0.407009 -0.355893 0.0456926 127 0 255
-0.40709 0.00705342 -0.162505 125 3 254
-0.414149 -0.158304 -0.0387123 127 0 255
0.0398255 -0.38982 0.295454 127 0 255
-0.187014 -0.4642 -0.268776 127 0 255
-0.390909 -0.48271 -0.273942 127 0 255
-0.00596226 -0.478009 -0.419432 127 0 255
-0.0995138 -0.484468 -0.172873 127 0 255
-0.0687286 -0.169809 -0.429137 127 0 255
-0.0919673 -0.0584195 -0.432372 127 0 255
0.108533 -0.38423 0.181631 127 0 255
-0.387933 -0.147304 -0.136022 127 0 255
-0.00850279 -0.331269 -0.432493 127 0 255
0.0279249 -0.484691 -0.120784 127 0 255
-0.28428 -0.482946 0.19631 127 0 255
0.233834 -0.483733 0.177431 127 0 255
-0.392864 -0.0485607 -0.323519 127 0 255
-0.215131 -0.482366 0.0579988 127 0 255
-0.379698 -0.482529 -0.148854 127 0 255
-0.119843 -0.404404 -0.389237 127 0 255
-0.290473 -0.366393 -0.4397 127 0 255
0.312173 -0.437287 -0.312546 127 0 255
-0.389183 -0.0590911 -0.0631511 127 0 255
0.0407538 -0.484743 -0.280062 127 0 255
0.0619472 -0.484346 -0.00325454 127 0 255
-0.0988602 -0.378016 0.299452 127 0 255
-0.409851 -0.272715 0.117821 127 0 255
-0.317856 0.0337166 -0.43327 111 25 254
-0.300327 -0.412306 -0.0875334 127 0 255
-0.0253271 -0.399801 -0.225037 127 0 255
0.170648 -0.0564229 -0.430151 127 0 255
-0.40695 -0.230925 -0.182543 127 0 255
-0.193877 -0.481776 0.161867 127 0 255
-0.208273 -0.458546 -0.331442 127 0 255
0.162016 -0.484104 0.181001 127 0 255
-0.151059 -0.276694 -0.432411 127 0 255
0.116554 -0.253522 -0.436483 127 0 255
-0.0157997 -0.366995 0.206208 127 0 255
-0.287827 -0.0747921 -0.362541 127 0 255
0.145695 -0.405888 0.323416 127 0 255
0.0442225 -0.428644 -0.406307 127 0 255
0.151017 -0.4056 0.233291 127 0 255
-0.355694 -0.342319 -0.329829 127 0 255
-0.12419 -0.485941 -0.269061 127 0 255
0.337173 -0.487282 -0.225049 127 0 255
-0.272006 -0.46953 -0.0747461 127 0 255
-0.399147 -0.231026 -0.371854 127 0 255
0.0791681 -0.481671 0.0627156 127 0 255
0.218669 -0.359789 -0.419702 127 0 255
-0.319885 -0.403213 -0.23238 127 0 255
-0.24729 -0.485839 -0.212566 127 0 255
-0.123953 -0.402812 -0.259488 127 0 255
-0.337827 -0.324817 0.0374737 127 0 255
-0.26244 -0.0642394 -0.427564 127 0 255
-0.405324 -0.452817 0.0946304 127 0 255
-0.0566987 -0.4837 0.0535213 127 0 255
0.0466503 -0.427037 -0.317012 127 0 255
-0.083484 -0.440444 0.346541 127 0 255
0.151292 -0.484756 -0.30652 127 0 255
-0.412493 -0.299345 -0.0298999 127 0 255
-0.41338 0.0297807 -0.358125 113 21 254
-0.00904014 -0.484558 0.274603 127 0 255
-0.368139 -0.110724 -0.397197 127 0 255
-0.324858 -0.455075 -0.295256 127 0 255
-0.370603 -0.486985 -0.0162879 127 0 255
-0.0952485 -0.454771 0.184786 127 0 255
-0.00826376 -0.35332 0.351206 127 0 255
-0.264792 -0.303385 -0.43819 127 0 255
-0.212746 -0.469916 -0.122347 127 0 255
0.0668191 -0.0399468 -0.422656 127 0 255
0.266552 -0.484423 -0.109776 127 0 255
0.249673 -0.23729 -0.437544 127 0 255
-0.411747 -0.115765 0.0241991 127 0 255
0.00700867 -0.141398 -0.430951 127 0 255
0.212173 -0.38728 -0.250051 127 0 255
-0.222445 -0.469464 -0.002796 127 0 255
-0.329927 -0.179032 -0.432449 127 0 255
0.235581 -0.378892 0.271337 127 0 255
0.146297 -0.431538 -0.406336 127 0 255
-0.159255 -0.48369 0.320987 127 0 255
-0.179038 -0.224324 -0.433306 127 0 255
0.240179 -0.485951 -0.404049 127 0 255
-0.404224 -0.472168 -0.339899 127 0 255
-0.375455 -0.38742 -0.0108279 127 0 255
0.0977621 -0.484906 0.302359 127 0 255
0.262849 -0.484449 -0.309542 127 0 255
0.301845 -0.483808 0.0824042 127 0 255
-0.41436 -0.378247 0.209406 127 0 255
-0.406054 -0.369916 -0.258867 127 0 255
-0.402068 -0.130333 -0.207006 127 0 255
0.0884507 -0.369372 0.257306 127 0 255
-0.335567 -0.465557 -0.443345 127 0 255
-0.0763765 -0.483703 -0.371955 127 0 255
0.0795631 -0.404287 0.399388 127 0 255
0.139302 -0.184599 -0.416074 127 0 255
0.0633313 -0.477687 0.124757 127 0 255
-0.381378 -0.219668 -0.291319 127 0 255
-0.0345606 -0.474969 -0.155804 127 0 255
-0.366543 -0.402771 -0.375629 127 0 255
-0.376536 -0.485615 0.272759 127 0 255
-0.411187 -0.12672 0.105645 127 0 255
0.0952333 -0.484236 -0.0416612 127 0 255
-0.412732 -0.115273 -0.302036 127 0 255
0.121249 -0.484075 -0.198316 127 0 255
-0.385879 -0.301994 -0.183276 127 0 255
-0.243695 -0.458408 -0.443781 127 0 255
-0.412021 -0.242525 -0.0830501 127 0 255
-0.410136 -0.328069 0.112035 127 0 255
-0.410397 -0.0639478 -0.420711 127 0 255
0.0555897 -0.342454 -0.436483 127 0 255
0.0715739 -0.443473 0.229883 127 0 255
-0.0257628 -0.484979 -0.0727684 127 0 255
-0.276769 -0.483928 0.267928 127 0 255
0.299673 -0.362283 -0.300049 127 0 255
0.162423 -0.486403 0.104183 127 0 255
0.259341 -0.486056 -0.0133406 127 0 255
-0.0172368 -0.214683 -0.431649 127 0 255
-0.25945 -0.478652 0.138193 127 0 255
0.0505008 -0.484297 -0.388801 127 0 255
-0.175984 -0.393549 -0.443565 127 0 255
-0.247954 -0.205701 -0.422829 127 0 255
-0.0116506 -0.466224 -0.293991 127 0 255
0.087173 -0.399786 -0.212547 127 0 255
-0.336751 -0.00448354 -0.440681 127 0 255
0.233378 -0.397376 0.350028 127 0 255
-0.394063 -0.0603108 0.196549 127 0 255
-0.144018 -0.4845 0.130601 127 0 255
0.170474 -0.275418 -0.412342 127 0 255
0.021151 -0.485251 -0.204639 127 0 255
-0.406248 -0.320651 -0.427821 127 0 255
-0.392157 -0.200102 0.175266 127 0 255
-0.409969 -0.225577 0.0719929 127 0 255
-0.142637 -0.362858 -0.378922 127 0 255
0.155315 -0.362075 0.401366 127 0 255
0.199673 -0.399788 -0.337545 127 0 255
-0.408576 -0.390376 -0.147067 127 0 255
-0.159698 -0.466275 -0.435772 127 0 255
-0.0146952 -0.482764 0.108196 127 0 255
-0.33183 -0.281604 -0.393533 127 0 255
-0.16091 -0.107621 -0.438 127 0 255
-0.0486442 -0.320626 -0.36846 127 0 255
-0.408102 -0.45577 -0.219475 127 0 255
-0.175172 -0.447891 0.258865 127 0 255
-0.414088 -0.148786 -0.410278 127 0 255
-0.398165 -0.030371 -0.262974 127 0 255
-0.343201 -0.465738 0.220179 127 0 255
0.19763 -0.4419 0.23936 127 0 255
-0.296679 -0.474525 -0.133513 127 0 255
0.161356 -0.104456 -0.42076 127 0 255
0.200616 -0.483985 -0.178074 127 0 255
-0.417503 -0.455444 -0.000242802 127 0 255
0.0922526 -0.443197 -0.434374 127 0 255
0.312173 -0.374774 0.312446 127 0 255
-0.143504 -0.482847 -0.138745 127 0 255
-0.0184451 -0.387333 0.29576 127 0 255
-0.413276 -0.276191 0.176543 127 0 255
-0.0508218 -0.36353 -0.430801 127 0 255
0.130454 -0.459191 0.361336 127 0 255
0.0757905 -0.182692 -0.42926 127 0 255
-0.0794029 -0.0143742 -0.420627 127 0 255
-0.152171 -0.48659 -0.335399 127 0 255
-0.362609 -0.484288 0.140887 127 0 255
-0.088513 -0.48351 -0.0229715 127 0 255
0.192274 -0.484366 0.0117103 127 0 255
0.131856 -0.484288 -0.375261 127 0 255
-0.37359 -0.302719 -0.269497 127 0 255
-0.0893062 -0.288186 -0.434496 127 0 255
-0.0895799 -0.406365 0.249868 127 0 255
0.234367 -0.485963 0.136492 127 0 255
-0.390595 -0.164655 -0.0872153 127 0 255
-0.402604 -0.47235 -0.0800598 127 0 255
-0.03549 -0.483979 0.187983 127 0 255
-0.415883 -0.0439067 -0.119363 127 0 255
-0.410049 -0.399052 -0.414531 127 0 255
-0.268898 -0.485721 -0.349416 127 0 255
0.024673 -0.31229 0.374956 127 0 255
-0.148138 -0.482083 0.19741 127 0 255
-0.0737535 -0.43701 -0.403646 127 0 255
-0.299002 -0.484428 0.0205228 127 0 255
0.0174152 -0.485325 0.0539098 127 0 255
-0.395799 -0.0831327 0.0637419 127 0 255
0.0692668 -0.275628 -0.435414 127 0 255
-0.22415 -0.460846 0.297921 127 0 255
-0.0608074 -0.482485 0.29383 127 0 255
-0.0780116 -0.117947 -0.429738 127 0 255
-0.0628272 -0.312305 0.349966 127 0 255
-0.413283 -0.248303 -0.022153 127 0 255
-0.347626 -0.477643 -0.373736 127 0 255
0.196361 -0.484511 -0.108858 127 0 255
0.135644 -0.0369007 -0.430243 127 0 255
-0.204162 -0.326008 -0.416421 127 0 255
0.104933 -0.466112 0.159183 127 0 255
-0.139604 -0.48605 0.0569052 127 0 255
0.176719 -0.356557 0.331167 127 0 255
0.124673 -0.387291 -0.337543 127 0 255
0.246981 -0.438142 0.302127 127 0 255
-0.347896 -0.363975 -0.430667 127 0 255
-0.41006 0.0246678 -0.298714 115 18 254
0.100671 -0.397815 0.342776 127 0 255
0.13239 -0.484133 0.268816 127 0 255
-0.319641 -0.0986684 -0.435702 127 0 255
-0.385644 -0.178151 -0.210806 127 0 255
0.0471119 -0.485746 0.322916 127 0 255
-0.371981 -0.412055 -0.0676308 127 0 255
-0.41584 -0.325273 0.230085 127 0 255
-0.412866 -0.114764 0.197265 127 0 255
-0.409894 -0.0259114 0.0275459 127 0 255
0.00197259 -0.0227847 -0.433754 127 0 255
-0.00615919 -0.432898 -0.406174 127 0 255
0.00856983 -0.268347 -0.412077 127 0 255
-0.310865 -0.236878 -0.43085 127 0 255
-0.295585 0.0111479 -0.400554 123 6 254
0.0903659 -0.107481 -0.43598 127 0 255
-0.147921 -0.467376 -0.22552 127 0 255
-0.264597 -0.48537 -0.260887 127 0 255
-0.369392 -0.43123 0.174958 127 0 255
0.0874698 -0.480733 -0.333074 127 0 255
-0.406051 0.00710531 -0.200778 125 3 254
-0.393749 -0.327012 -0.355499 127 0 255
0.259174 -0.484702 -0.229277 127 0 255
-0.0417012 -0.48539 0.363241 127 0 255
0.237173 -0.112285 -0.437548 127 0 255
0.139006 -0.350284 -0.436809 127 0 255
0.333693 -0.485668 0.0282075 127 0 255
-0.3728 -0.385864 -0.235922 127 0 255
-0.216346 -0.128674 -0.435304 127 0 255
0.0224167 -0.483851 -0.0685247 127 0 255
-0.386519 -0.13898 -0.280851 127 0 255
-0.179314 -0.483836 -0.0252449 127 0 255
-0.0727122 -0.462782 -0.301397 127 0 255
0.225845 -0.440138 -0.434543 127 0 255
-0.131385 -0.178748 -0.432902 127 0 255
0.0427069 -0.391074 0.392574 127 0 255
-0.409703 -0.428092 0.037425 127 0 255
-0.390222 -0.318357 -0.0916992 127 0 255
-0.415745 -0.246337 0.22063 127 0 255
0.283441 -0.484317 -0.06339 127 0 255
-0.392898 -0.260771 -0.425278 127 0 255
0.18703 -0.484875 -0.31714 127 0 255
-0.406537 -0.458289 0.236742 127 0 255
-0.393374 -0.175917 -0.361656 127 0 255
-0.384941 -0.0107332 -0.363573 127 0 255
-0.0608997 -0.480903 -0.225305 127 0 255
-0.296192 -0.482887 0.116939 127 0 255
-0.395939 -0.10408 -0.0134955 127 0 255
-0.0517523 -0.387795 0.209453 127 0 255
0.0855485 -0.484174 -0.250674 127 0 255
0.249673 -0.362274 0.399946 127 0 255
-0.194624 -0.484743 -0.166139 127 0 255
-0.385476 -0.265909 -0.169238 127 0 255
0.0694008 -0.485511 0.385056 127 0 255
0.187151 -0.484563 -0.042689 127 0 255
-0.290998 -0.394079 -0.44173 127 0 255
-0.402469 -0.452584 -0.424598 127 0 255
0.0215368 -0.483952 0.180866 127 0 255
-0.376944 -0.389521 0.099102 127 0 255
0.176985 -0.383268 0.239031 127 0 255
-0.112043 -0.482335 -0.407736 127 0 255
-0.406199 -0.241497 -0.27075 127 0 255
-0.275379 -0.483382 -0.030968 127 0 255
-0.398777 -0.0525968 0.126916 127 0 255
-0.351734 -0.443531 -0.259999 127 0 255
-0.378506 -0.349944 -0.0156343 127 0 255
-0.394937 -0.0597823 -0.199223 127 0 255
0.127017 -0.485264 0.0515376 127 0 255
-0.181211 -0.0362989 -0.423723 127 0 255
0.0427315 -0.415142 0.237813 127 0 255
-0.401237 -0.438999 -0.152853 127 0 255
-0.236542 -0.482353 -0.417798 127 0 255
-0.415454 -0.0952055 -0.33103 127 0 255
-0.124602 -0.485506 -0.0918436 127 0 255
-0.144562 -0.324246 -0.434056 127 0 255
-0.304142 -0.320021 -0.400525 127 0 255
0.113863 -0.480773 -0.162426 127 0 255
-0.0511238 -0.366273 0.361847 127 0 255
0.19992 -0.220879 -0.42665 127 0 255
0.0348782 -0.333185 -0.386672 127 0 255
-0.051403 -0.484525 0.115483 127 0 255
0.259539 -0.484484 -0.147661 127 0 255
-0.21066 -0.483136 0.10818 127 0 255
-0.409332 -0.31351 0.0589639 127 0 255
-0.393981 -0.19536 -0.034577 127 0 255
-0.331083 -0.478561 -0.126858 127 0 255
0.168371 -0.486016 0.224612 127 0 255
-0.388447 -0.349061 0.177764 127 0 255
0.118106 -0.351446 0.362853 127 0 255
-0.407585 -0.330147 -0.205935 127 0 255
-0.312827 -0.387314 0.0624712 127 0 255
-0.41134 -0.195404 0.136227 127 0 255
0.00768102 -0.0796291 -0.421306 127 0 255
0.272933 -0.479514 0.0623622 127 0 255
-0.106487 -0.484627 0.304362 127 0 255
-0.40577 -0.349178 -0.304373 127 0 255
0.202188 -0.314285 -0.432789 127 0 255
0.017973 -0.440943 -0.342615 127 0 255
-0.387082 -0.126753 -0.130949 127 0 255
-0.38479 -0.0107787 -0.430967 127 0 255
-3.85386e-05 -0.48344 -0.0202764 127 0 255
-0.321656 -0.482712 -0.211837 127 0 255
-0.413113 -0.448773 -0.329285 127 0 255
-0.311184 -0.455156 0.187099 127 0 255
0.0677086 -0.361785 0.289868 127 0 255
0.190641 -0.435386 0.361104 127 0 255
0.247149 -0.483693 -0.349547 127 0 255
0.0136584 -0.446765 0.389172 127 0 255
0.178888 -0.48431 -0.250502 127 0 255
0.103442 -0.393301 -0.430062 127 0 255
-0.413806 -0.0102612 -0.0483798 127 0 255
-0.0937434 -0.484905 0.200705 127 0 255
-0.43782 -0.037309 0.224968 127 0 255
-0.0754048 -0.213339 -0.426088 127 0 255
-0.390987 -0.175215 0.0585162 127 0 255
-0.150327 -0.387304 0.237465 127 0 255
-0.298771 -0.481556 -0.415243 127 0 255
-0.267008 -0.0238208 -0.432037 127 0 255
0.220594 -0.377484 -0.412743 127 0 255
-0.232792 -0.48344 -0.0835555 127 0 255
-0.0864998 -0.483014 -0.133958 127 0 255
-0.0753271 -0.399805 -0.212534 127 0 255
-0.035493 -0.304423 -0.433975 127 0 255
0.337173 -0.487274 -0.150054 127 0 255
-0.384085 -0.0857737 -0.253082 127 0 255
0.0385743 -0.485042 0.252164 127 0 255
0.131732 -0.470439 -0.430069 127 0 255
-0.190576 -0.484195 0.272567 127 0 255
-0.0239822 -0.48378 -0.379916 127 0 255
-0.404347 -0.473748 0.136174 127 0 255
0.199673 -0.312274 0.374946 127 0 255
-0.217862 -0.290427 -0.438558 127 0 255
-0.206339 -0.484905 -0.238016 127 0 255
0.0491771 -0.480259 -0.136297 127 0 255
-0.363966 -0.440352 0.020003 127 0 255
-0.174383 -0.450627 -0.397918 127 0 255
-0.371695 -0.400352 0.238722 127 0 255
-0.0521199 -0.36711 0.279943 127 0 255
-0.408055 -0.189546 -0.164977 127 0 255
0.129971 -0.484407 -0.0180358 127 0 255
0.000153681 -0.402933 -0.429837 127 0 255
0.199148 -0.486526 0.0919689 127 0 255
-0.411201 -0.260297 0.0253935 127 0 255
-0.238737 -0.386001 -0.441863 127 0 255
0.0356115 -0.19806 -0.432728 127 0 255
0.031929 -0.368316 0.221244 127 0 255
-0.0895772 -0.483535 0.078527 127 0 255
0.118671 -0.439005 0.23329 127 0 255
-0.347675 -0.177796 -0.429689 127 0 255
-0.214985 -0.476174 0.210816 127 0 255
-0.345345 -0.483409 -0.045694 127 0 255
-0.104593 -0.368357 -0.435124 127 0 255
-0.326169 -0.453056 -0.327501 127 0 255
-0.0554161 -0.0846411 -0.419821 127 0 255
-0.387957 -0.482378 -0.178173 127 0 255
0.05855 -0.462237 -0.43479 127 0 255
-0.126287 0.001681 -0.431704 127 0 255
-0.267664 -0.158063 -0.425372 127 0 255
-0.0344036 -0.439589 0.250881 127 0 255
-0.408828 -0.227659 -0.312171 127 0 255
-0.331795 -0.375391 -0.391547 127 0 255
-0.391818 -0.105059 -0.0798008 127 0 255
0.0277455 -0.471351 -0.240235 127 0 255
0.132639 -0.168067 -0.438277 127 0 255
0.234115 -0.424556 0.251543 127 0 255
-0.363438 -0.481156 -0.431283 127 0 255
-0.196191 -0.206918 -0.436022 127 0 255
0.224673 -0.0497815 -0.43755 127 0 255
0.299673 -0.39979 -0.350044 127 0 255
-0.395422 -0.146587 0.215262 127 0 255
0.170785 -0.484139 0.155005 127 0 255
-0.41168 -0.357196 -0.0846222 127 0 255
-0.0428144 -0.421321 0.366087 127 0 255
-0.407481 0.00487575 -0.155677 125 3 254
-0.211354 -0.482274 0.0522052 127 0 255
-0.408675 0.0369131 -0.366916 109 28 254
-0.390254 -0.259228 -0.0735712 127 0 255
0.110839 -0.321432 -0.408915 127 0 255
-0.412051 -0.0628933 -0.377498 127 0 255
-0.410858 -0.106796 0.138787 127 0 255
0.0508069 -0.0307298 -0.424455 127 0 255
-0.34001 -0.484277 0.0848163 127 0 255
-0.317666 -0.401428 -0.230648 127 0 255
-0.0434987 -0.475846 0.0126252 127 0 255
0.206222 -0.479024 -0.42954 127 0 255
-0.104659 -0.484754 -0.210105 127 0 255
0.248253 -0.360922 0.314936 127 0 255
-0.247193 -0.482909 -0.146233 127 0 255
-0.4111 -0.415633 0.134943 127 0 255
0.124673 -0.387285 -0.262547 127 0 255
-0.392915 -0.265535 -0.364887 127 0 255
-0.0389112 -0.449309 -0.436382 127 0 255
-0.381768 -0.308532 0.128113 127 0 255
0.0866682 -0.483355 0.110976 127 0 255
-0.403318 -0.0292971 0.0767034 127 0 255
-0.218784 -0.48275 -0.346219 127 0 255
-0.033411 -0.36105 -0.381604 127 0 255
-0.10721 -0.48612 -0.301143 127 0 255
-0.116588 -0.247156 -0.429991 127 0 255
0.130098 -0.255707 -0.436865 127 0 255
-0.407849 -0.439668 -0.25184 127 0 255
0.243326 -0.48693 -0.276648 127 0 255
0.140672 -0.361749 0.309763 127 0 255
-0.383177 -0.135732 -0.432811 127 0 255
0.0574709 -0.120274 -0.422813 127 0 255
0.261948 -0.485847 0.106535 127 0 255
-0.264057 -0.261554 -0.434157 127 0 255
0.287173 -0.487295 -0.400041 127 0 255
-0.393805 -0.0578745 -0.0204019 127 0 255
0.186774 -0.405542 0.391432 127 0 255
-0.300327 -0.399809 -0.0500319 127 0 255
0.0674393 -0.484758 -0.0466033 127 0 255
-0.127014 -0.1249 -0.433374 127 0 255
-0.100979 -0.486742 0.351019 127 0 255
-0.396443 -0.378664 -0.353627 127 0 255
0.399673 -0.487274 0.0124457 127 0 255
-0.268727 -0.0938301 -0.429901 127 0 255
-0.126588 -0.356716 -0.377034 127 0 255
0.0759797 -0.485253 0.189111 127 0 255
0.294742 -0.484208 -0.0344057 127 0 255
-0.0456604 -0.149898 -0.428694 127 0 255
-0.133981 -0.478417 -0.0111463 127 0 255
0.191459 -0.133941 -0.434736 127 0 255
0.0238266 -0.487381 0.391686 127 0 255
-0.415517 -0.313041 -0.2783 127 0 255
-0.392165 -0.301138 0.218972 127 0 255
-0.409928 -0.187179 -0.0908771 127 0 255
0.262173 -0.337287 -0.337546 127 0 255
-0.118943 -0.446135 -0.436495 127 0 255
-0.410326 -0.367585 -0.154743 127 0 255
-0.00538683 -0.48482 -0.181608 127 0 255
-0.384528 -0.0633113 -0.12022 127 0 255
-0.112833 -0.485961 0.132346 127 0 255
-0.407001 0.0130796 -0.24434 121 9 254
0.0537256 -0.442064 -0.309347 127 0 255
0.00931732 -0.484414 0.121144 127 0 255
0.214241 -0.484638 0.0284566 127 0 255
0.043744 -0.351619 0.329251 127 0 255
-0.359639 0.0376569 -0.410168 109 28 254
0.199673 -0.374776 -0.225053 127 0 255
0.0366707 -0.483492 0.0234937 127 0 255
-0.407333 -0.364977 0.0840047 127 0 255
-0.399187 -0.364212 -0.433051 127 0 255
-0.013043 -0.412219 0.200348 127 0 255
-0.262694 -0.485451 0.245505 127 0 255
-0.0905338 -0.37492 0.314785 127 0 255
-0.408191 -0.249805 0.0872722 127 0 255
-0.0262975 -0.486822 -0.276418 127 0 255
-0.353653 -0.319841 -0.335901 127 0 255
-0.406708 -0.416062 -0.0643925 127 0 255
0.0758682 -0.224714 -0.41396 127 0 255
-0.212299 -0.421351 -0.442151 127 0 255
-0.437827 -0.199774 -0.437554 127 0 255
0.117134 -0.463974 0.39117 127 0 255
0.274673 -0.312274 0.362446 127 0 255
-0.251332 -0.341431 -0.413973 127 0 255
-0.279118 -0.45613 -0.313668 127 0 255
-0.400533 -0.0507558 -0.29049 127 0 255
-0.356737 -0.48291 0.243711 127 0 255
-0.0535302 -0.483912 -0.0776238 127 0 255
-0.38356 -0.266737 -0.211344 127 0 255
-0.206337 -0.0868567 -0.436068 127 0 255
-0.346627 -0.0335758 -0.428165 127 0 255
0.140825 -0.437481 0.281524 127 0 255
0.0284963 -0.331308 -0.436167 127 0 255
-0.0370642 -0.0170908 -0.432461 127 0 255
-0.179218 -0.480679 -0.280565 127 0 255
-0.383817 -0.482935 -0.317836 127 0 255
-0.303241 -0.471702 0.0574359 127 0 255
-0.411331 -0.141416 0.0534592 127 0 255
0.181842 -0.359238 -0.40797 127 0 255
-0.135927 -0.484046 0.243074 127 0 255
0.199708 -0.481175 -0.181781 127 0 255
-0.111107 -0.0678398 -0.433076 127 0 255
0.115417 -0.0425506 -0.425795 127 0 255
-0.344652 -0.412948 -0.434949 127 0 255
-0.267091 -0.482691 -0.197525 127 0 255
0.128002 -0.484317 -0.257965 127 0 255
0.0024113 -0.484715 0.290412 127 0 255
-0.220833 -0.48529 -0.00437445 127 0 255
-0.385791 -0.482435 -0.114254 127 0 255
-0.0666048 -0.486194 -0.343057 127 0 255
-0.403892 -0.197555 -0.229685 127 0 255
0.112571 -0.371695 0.262567 127 0 255
-0.350036 -0.311677 -0.430176 127 0 255
-0.200327 -0.362312 -0.250029 127 0 255
-0.02793 -0.263699 -0.43326 127 0 255
-0.398266 -0.469824 0.052897 127 0 255
0.299673 -0.362274 0.237446 127 0 255
0.203664 -0.469421 0.22972 127 0 255
0.0706023 -0.47814 -0.200818 127 0 255
-0.20402 -0.481964 0.153401 127 0 255
-0.348881 -0.218192 -0.431411 127 0 255
0.187291 -0.273859 -0.434389 127 0 255
-0.380271 -0.355536 0.0267111 127 0 255
0.200124 -0.48418 -0.351368 127 0 255
-0.325327 -0.0622872 -0.362545 127 0 255
-0.223057 -0.00505465 -0.432133 127 0 255
0.321234 -0.483849 0.0585124 127 0 255
0.0339238 -0.394015 -0.393371 127 0 255
-0.0411713 -0.48446 0.214748 127 0 255
-0.387917 -0.307406 -0.157206 127 0 255
0.109111 -0.475037 -0.323895 127 0 255
-0.148207 -0.484119 -0.3505 127 0 255
-0.33104 -0.449184 -0.377054 127 0 255
0.0814647 -0.48615 0.253948 127 0 255
-0.414447 -0.162815 -0.026256 127 0 255
0.216304 -0.480416 -0.0561016 127 0 255
-0.411413 -0.152621 -0.308106 127 0 255
0.188413 -0.18588 -0.43465 127 0 255
0.187173 -0.362284 -0.312548 127 0 255
0.0121729 -0.399796 -0.22504 127 0 255
-0.41007 -0.305933 -0.0460882 127 0 255
0.177553 -0.412036 -0.430068 127 0 255
-0.401157 -0.12444 -0.162967 127 0 255
-0.171265 -0.470862 -0.125796 127 0 255
0.0645884 -0.364688 0.388062 127 0 255
-0.323725 -0.483006 -0.264757 127 0 255
-0.405692 -0.472388 0.184172 127 0 255
0.0244292 -0.483294 -0.364672 127 0 255
-0.0483472 -0.320732 -0.368562 127 0 255
-0.197186 -0.485913 0.304615 127 0 255
0.159395 -0.0985045 -0.438706 127 0 255
-0.415296 -0.230707 0.206978 127 0 255
-0.178059 -0.255153 -0.430941 127 0 255
-0.161137 -0.485157 0.0753606 127 0 255
0.112946 -0.485516 0.0825757 127 0 255
-0.409583 -0.245345 -0.133363 127 0 255
-0.411832 -0.0385972 -0.41426 127 0 255
-0.386845 -0.483251 -0.0270472 127 0 255
-0.410306 0.0259348 -0.312123 115 18 254
0.0665785 -0.485555 0.32794 127 0 255
-0.385815 -0.482359 -0.219226 127 0 255
-0.310445 0.0318382 -0.433211 111 25 254
-0.390047 -0.121946 0.110439 127 0 255
0.198267 -0.367932 0.274478 127 0 255
0.0225138 -0.139141 -0.42186 127 0 255
-0.41486 -0.0593853 -0.0792704 127 0 255
-0.415119 -0.365448 0.198088 127 0 255
-0.386959 -0.385483 -0.287375 127 0 255
-0.39525 -0.101324 0.212911 127 0 255
-0.0316876 -0.477679 -0.140588 127 0 255
-0.294935 -0.482937 -0.0998911 127 0 255
-0.405716 -0.462808 -0.386984 127 0 255
-0.19964 -0.164668 -0.427769 127 0 255
-0.250146 -0.483596 0.0875285 127 0 255
-0.312827 -0.387314 0.149972 127 0 255
0.0792556 -0.440883 0.406869 127 0 255
-0.395351 -0.247299 0.136241 127 0 255
0.172612 -0.366131 0.402273 127 0 255
-0.280689 -0.429835 -0.40624 127 0 255
0.0905002 -0.3725 -0.433836 127 0 255
-0.27945 -0.481153 0.175931 127 0 255
-0.406361 -0.0555884 -0.18485 127 0 255
-0.116927 -0.433266 0.24278 127 0 255
0.153459 -0.484275 -0.407224 127 0 255
-0.0199909 -0.361825 0.283565 127 0 255
-0.169924 -0.381331 -0.44259 127 0 255
-0.406816 -0.388455 -0.188552 127 0 255
0.0314586 -0.477711 -0.427068 127 0 255
0.00285674 -0.479949 0.0553617 127 0 255
-0.0974297 -0.485371 0.0341489 127 0 255
-0.400177 -0.216906 -0.367067 127 0 255
0.260227 -0.485154 -0.120105 127 0 255
-0.110779 -0.471221 -0.169283 127 0 255
-0.107995 -0.313254 -0.432176 127 0 255
-0.0170049 -0.397047 0.370777 127 0 255
0.0200261 -0.262894 -0.434647 127 0 255
-0.263652 -0.22059 -0.431205 127 0 255
-0.0505605 -0.484515 0.160797 127 0 255
0.0847544 -0.484577 0.0214296 127 0 255
-0.425319 -0.362315 0.274972 127 0 255
-0.391277 -0.223841 0.0254328 127 0 255
-0.319947 -0.133473 -0.423874 127 0 255
-0.408754 -0.432472 0.0896776 127 0 255
-0.412438 -0.160948 0.190673 127 0 255
-0.401829 -0.0764919 0.026408 127 0 255
0.247939 -0.393089 0.335821 127 0 255
-0.377337 -0.424574 -0.094188 127 0 255
0.212542 -0.486487 0.166631 127 0 255
-0.302336 -0.479922 -0.0152607 127 0 255
0.171737 -0.485732 0.0493313 127 0 255
0.160029 -0.444909 0.355537 127 0 255
-0.0265315 -0.460413 -0.320544 127 0 255
-0.0219851 -0.190839 -0.428334 127 0 255
-0.403649 -0.466095 0.248379 127 0 255
0.258573 -0.484982 -0.314788 127 0 255
-0.191994 -0.47943 -0.38892 127 0 255
-0.139816 -0.4853 -0.0569642 127 0 255
-0.150433 -0.0114237 -0.436418 127 0 255
0.0340315 -0.444319 0.269633 127 0 255
-0.395666 0.0462537 -0.410535 105 34 254
0.240166 -0.484538 -0.214804 127 0 255
0.112173 -0.312274 0.374946 127 0 255
-0.0211028 -0.485316 0.363337 127 0 255
-0.146303 -0.470822 0.171238 127 0 255
-0.10315 -0.179275 -0.431985 127 0 255
0.114529 -0.188133 -0.415948 127 0 255
-0.393365 -0.149442 -0.237988 127 0 255
-0.413518 -0.0871356 -0.358825 127 0 255
-0.274725 -0.2949 -0.406052 127 0 255
-0.365797 -0.428678 -0.324254 127 0 255
0.135362 -0.484525 0.191118 127 0 255
-0.277672 -0.459053 -0.265538 127 0 255
-0.344721 -0.484613 0.18924 127 0 255
0.2586 -0.484186 -0.00446345 127 0 255
-0.0195165 -0.365723 0.2122 127 0 255
-0.243243 -0.469727 -0.050789 127 0 255
-0.107487 -0.386117 -0.383546 127 0 255
0.201939 -0.484536 -0.115467 127 0 255
0.159239 -0.477423 -0.21943 127 0 255
0.0866592 -0.0742405 -0.422553 127 0 255
0.0746729 -0.324797 -0.35004 127 0 255
0.161354 -0.482318 -0.0267239 127 0 255
-0.408853 -0.319792 0.0139629 127 0 255
-0.402815 -0.0353228 0.0925715 127 0 255
0.225972 -0.43204 -0.432349 127 0 255
-0.336749 -0.477158 -0.151538 127 0 255
-0.178214 -0.4828 -0.181115 127 0 255
0.246028 -0.437434 0.294667 127 0 255
0.0986684 -0.404962 0.226082 127 0 255
-0.0862075 -0.484219 0.261769 127 0 255
-0.41206 -0.324045 0.162835 127 0 255
-0.283355 -0.484243 -0.383869 127 0 255
-0.372754 -0.410097 0.232878 127 0 255
-0.0522496 -0.484767 -0.212041 127 0 255
-0.437818 -0.262313 0.262471 127 0 255
-0.372487 -0.40731 -0.0205677 127 0 255
0.0430469 -0.484997 -0.143792 127 0 255
-0.382363 -0.266029 -0.303444 127 0 255
-0.0770403 -0.396453 0.351454 127 0 255
-0.372432 -0.460749 -0.443027 127 0 255
0.095122 -0.471986 -0.428726 127 0 255
0.145605 -0.302928 -0.433272 127 0 255
-0.0290686 -0.470293 -0.427992 127 0 255
-0.400823 -0.0174871 -0.122496 127 0 255
-0.404135 -0.0851558 -0.255043 127 0 255
-0.413101 -0.333275 -0.110356 127 0 255
-0.150327 -0.387313 -0.312528 127 0 255
-0.342378 -0.333126 -0.357199 127 0 255
-0.260594 -0.483824 0.276827 127 0 255
0.0363937 -0.36123 0.276751 127 0 255
-0.0611718 -0.048607 -0.432069 127 0 255
-0.408912 -0.172053 -0.420824 127 0 255
-0.410346 -0.185311 0.107465 127 0 255
-0.167815 -0.478212 0.00880024 127 0 255
-0.389068 -0.189506 -0.139115 127 0 255
-0.0185427 -0.48414 -0.0578797 127 0 255
0.0386173 -0.480934 0.166781 127 0 255
0.040802 -0.484705 -0.265116 127 0 255
-0.132291 -0.485734 -0.280792 127 0 255
-0.39398 -0.13127 -0.0417396 127 0 255
-0.181596 -0.314015 -0.416007 127 0 255
-0.36926 -0.417402 -0.216142 127 0 255
0.387173 -0.487274 -0.0375543 127 0 255
0.170184 -0.384841 0.237222 127 0 255
-0.105954 -0.447073 -0.435378 127 0 255
0.0765497 -0.399027 0.355205 127 0 255
-0.0755588 -0.485853 0.369659 127 0 255
-0.400971 -0.0827731 -0.425536 127 0 255
-0.376816 -0.327774 0.0957703 127 0 255
0.0773774 -0.485019 -0.345596 127 0 255
-0.410152 -0.013117 -0.330635 127 0 255
-0.38363 -0.258007 -0.426324 127 0 255
0.20768 -0.357266 0.358719 127 0 255
0.0123574 -0.0261088 -0.434342 127 0 255
0.190736 -0.484444 -0.277888 127 0 255
-0.391861 -0.255668 -0.029957 127 0 255
-0.259402 -0.0488033 -0.427226 127 0 255
-0.405589 -0.472868 -0.292782 127 0 255
-0.0825308 -0.250793 -0.430384 127 0 255
-0.175358 -0.466103 0.22107 127 0 255
-0.384873 -0.175575 -0.319737 127 0 255
-0.0834668 -0.378652 0.271274 127 0 255
0.137182 -0.395018 -0.409475 127 0 255
0.374673 -0.487274 0.0624457 127 0 255
-0.383912 -0.483829 0.110037 127 0 255
-0.404797 -0.339564 -0.429129 127 0 255
-0.175506 -0.464845 -0.435839 127 0 255
-0.0233433 -0.38389 -0.39422 127 0 255
-0.413154 -0.0140196 -0.0382197 127 0 255
-0.181658 -0.0936208 -0.43795 127 0 255
0.17485 -0.0660272 -0.429674 127 0 255
0.167702 -0.486519 0.124538 127 0 255
-0.232956 -0.483869 -0.264763 127 0 255
-0.0846674 -0.478675 -0.0391084 127 0 255
-0.211758 -0.483404 -0.097258 127 0 255
0.137173 -0.412278 -0.212552 127 0 255
-0.305642 -0.356359 -0.437775 127 0 255
0.0157568 -0.350139 0.344277 127 0 255
-0.0617124 -0.484591 0.093739 127 0 255
-0.128249 -0.485703 0.296425 127 0 255
-0.382703 -0.229699 -0.227782 127 0 255
0.274673 -0.424785 -0.300047 127 0 255
-0.412093 -0.397671 0.156121 127 0 255
-0.402326 0.00483362 -0.184763 125 3 254
0.0072105 -0.102358 -0.432687 127 0 255
0.214975 -0.343941 -0.421407 127 0 255
0.106223 -0.11785 -0.437312 127 0 255
-0.246164 -0.145531 -0.42272 127 0 255
-0.403964 -0.468291 -0.0597438 127 0 255
-0.388964 -0.0825882 0.15423 127 0 255
0.0325179 -0.475309 0.0845573 127 0 255
0.0680944 -0.484396 -0.040034 127 0 255
0.287173 -0.337274 0.387446 127 0 255
-0.406624 -0.396333 0.0567968 127 0 255
-0.148984 -0.217608 -0.433083 127 0 255
0.317877 -0.485843 0.00865909 127 0 255
0.197661 -0.232142 -0.426871 127 0 255
0.1321 -0.415455 0.296208 127 0 255
-0.305322 -0.474374 -0.434693 127 0 255
-0.336421 -0.484073 0.0123797 127 0 255
-0.00906607 -0.484273 0.243482 127 0 255
-0.399769 -0.432892 -0.150767 127 0 255
0.263176 -0.483884 0.0996572 127 0 255
-0.414341 -0.333788 -0.264709 127 0 255
-0.413486 -0.202093 -0.0150404 127 0 255
-0.34748 -0.0862847 -0.433307 127 0 255
-0.262489 -0.400647 -0.408919 127 0 255
0.232568 -0.392256 0.257598 127 0 255
-0.380921 -0.354751 0.242095 127 0 255
-0.388194 -0.111152 -0.327013 127 0 255
0.0722074 -0.363154 -0.392546 127 0 255
-0.404352 -0.381247 -0.387155 127 0 255
-0.13157 -0.482935 -0.383395 127 0 255
-0.378815 -0.483421 0.271242 127 0 255
0.0792815 -0.233045 -0.43023 127 0 255
-0.404094 -0.365448 -0.0558455 127 0 255
-0.323597 -0.484476 0.105375 127 0 255
-0.0653572 -0.471627 -0.253342 127 0 255
-0.296471 -0.476875 -0.165116 127 0 255
-0.308415 -0.197643 -0.418656 127 0 255
-0.0566491 -0.338386 -0.427994 127 0 255
-0.413925 0.00201413 -0.404148 127 0 255
-0.274993 -0.485411 -0.321618 127 0 255
0.0418827 -0.460623 0.329512 127 0 255
0.246406 -0.48379 -0.379616 127 0 255
-0.392769 -0.187159 0.172498 127 0 255
-0.150327 -0.374808 -0.225032 127 0 255
-0.111053 -0.483499 -0.109941 127 0 255
0.131884 -0.48591 0.241639 127 0 255
-0.29874 0.031844 -0.415792 111 25 254
0.0952302 -0.484324 -0.264815 127 0 255
-0.264233 -0.478787 0.147561 127 0 255
-0.394032 -0.308553 -0.369932 127 0 255
-0.103108 -0.132157 -0.431755 127 0 255
0.157937 -0.47956 -0.374305 127 0 255
0.031631 -0.416089 -0.430277 127 0 255
0.0496729 -0.387296 -0.26254 127 0 255
-0.142364 -0.484769 0.123059 127 0 255
-0.214394 -0.479724 -0.201831 127 0 255
0.287173 -0.412292 -0.375043 127 0 255
-0.0451542 -0.444234 0.203437 127 0 255
0.312173 -0.362274 0.312446 127 0 255
-0.437819 -0.187313 0.24997 127 0 255
-0.406229 -0.270753 0.0839367 127 0 255
0.0786276 -0.466207 0.172534 127 0 255
0.257724 -0.484781 -0.242028 127 0 255
0.224507 -0.455298 0.252921 127 0 255
-0.390257 -0.293502 -0.120129 127 0 255
0.275511 -0.485855 -0.0511398 127 0 255
-0.395029 -0.11834 0.0344042 127 0 255
-0.322965 -0.270079 -0.431155 127 0 255
-0.248403 -0.479082 0.065444 127 0 255
-0.134442 -0.484294 -0.225616 127 0 255
0.0508499 -0.369476 0.230913 127 0 255
-0.0586126 -0.482918 -0.390287 127 0 255
-0.408146 -0.421199 -0.334288 127 0 255
-0.283962 -0.474906 0.221451 127 0 255
0.130024 -0.445418 0.397145 127 0 255
0.0131085 -0.341558 -0.38379 127 0 255
-0.404685 0.0113693 -0.246788 123 6 254
-0.386383 -0.155944 -0.166252 127 0 255
0.0994734 -0.479861 -0.190999 127 0 255
0.173514 -0.358205 0.314715 127 0 255
-0.310678 -0.483369 -0.0580146 127 0 255
-0.210907 -0.232592 -0.425124 127 0 255
0.0915635 -0.310687 -0.431507 127 0 255
-0.41246 -0.440311 0.0150934 127 0 255
0.0154633 -0.486151 -0.20802 127 0 255
-0.178268 -0.483665 0.313113 127 0 255
-0.402098 -0.195545 -0.269318 127 0 255
0.0391461 -0.168251 -0.432777 127 0 255
-0.386773 -0.329139 -0.179177 127 0 255
-0.0399005 -0.483324 0.0273755 127 0 255
0.162173 -0.324787 -0.350046 127 0 255
-0.00952692 -0.485217 -0.336159 127 0 255
0.312173 -0.387274 0.224946 127 0 255
-0.129496 -0.0541026 -0.423857 127 0 255
-0.00992077 -0.484451 -0.131219 127 0 255
-0.137827 -0.362308 0.287467 127 0 255
0.013275 -0.48741 0.390254 127 0 255
-0.40754 -0.465446 -0.234878 127 0 255
0.0943295 -0.485308 0.297455 127 0 255
-0.373357 -0.413198 -0.435345 127 0 255
-0.390653 -0.195913 0.0441603 127 0 255
-0.394778 -0.281968 0.155886 127 0 255
-0.161226 -0.15294 -0.435356 127 0 255
-0.350548 0.0155427 -0.442634 121 9 254
-0.0861199 -0.449569 0.344722 127 0 255
-0.230741 -0.482597 -0.37214 127 0 255
-0.0316221 -0.130517 -0.418824 127 0 255
0.202544 -0.28793 -0.42533 127 0 255
-0.409099 -0.386586 -0.117626 127 0 255
-0.390061 -0.138047 -0.0893774 127 0 255
-0.404603 -0.475037 0.163436 127 0 255
-0.193777 -0.378769 -0.412324 127 0 255
-0.0624884 -0.382428 0.228839 127 0 255
-0.437823 -0.0123053 0.137466 127 0 255
0.236024 -0.484527 -0.170785 127 0 255
0.0211744 -0.476814 -0.0357437 127 0 255
-0.383437 -0.310795 0.0260331 127 0 255
0.287173 -0.349783 -0.300049 127 0 255
-0.270045 -0.323388 -0.437841 127 0 255
0.134336 -0.0418074 -0.43546 127 0 255
-0.227498 -0.0042992 -0.432123 127 0 255
-0.330794 -0.482681 -0.208245 127 0 255
0.118556 -0.485124 0.108949 127 0 255
-0.351256 -0.478598 -0.362865 127 0 255
-0.199025 -0.456431 0.249839 127 0 255
0.228911 -0.422334 0.34329 127 0 255
-0.0466348 -0.425335 -0.433751 127 0 255
-0.392562 -0.0803489 -0.162159 127 0 255
-0.135398 -0.313007 -0.414559 127 0 255
0.015468 -0.29596 -0.436185 127 0 255
0.0968074 -0.361635 0.318787 127 0 255
-0.393602 -0.180341 -0.367757 127 0 255
0.219853 -0.484442 0.0162263 127 0 255
-0.376961 -0.411356 0.104565 127 0 255
-0.220204 -0.461293 -0.440671 127 0 255
-0.0878272 -0.324808 0.349968 127 0 255
-0.412424 -0.0737661 -0.010459 127 0 255
-0.00876237 -0.484635 0.162576 127 0 255
-0.383167 -0.274725 -0.23656 127 0 255
0.153369 -0.453801 -0.430676 127 0 255
-0.0370384 -0.216631 -0.430622 127 0 255
-0.194446 -0.483829 0.00344626 127 0 255
0.190637 -0.106491 -0.428018 127 0 255
-0.100755 -0.459033 0.178513 127 0 255
-0.12151 -0.406169 -0.433374 127 0 255
0.16051 -0.381698 0.40587 127 0 255
0.0716243 -0.470294 0.401333 127 0 255
-0.390152 -0.24616 -0.0751276 127 0 255
-0.312827 -0.387311 -0.0125303 127 0 255
0.137173 -0.387285 -0.287547 127 0 255
-0.194398 -0.482428 0.125889 127 0 255
-0.234574 -0.472088 -0.129539 127 0 255
0.0389013 -0.436952 -0.315381 127 0 255
0.00230847 -0.44893 0.272381 127 0 255
-0.174789 -0.4643 -0.256887 127 0 255
-0.0511448 -0.0182617 -0.432294 127 0 255
0.0368348 -0.0721569 -0.435243 127 0 255
0.107386 -0.484348 -0.0265652 127 0 255
-0.355271 -0.454394 -0.110001 127 0 255
-0.39824 -0.0485314 -0.242773 127 0 255
-0.376268 -0.237124 -0.322468 127 0 255
-0.0322412 -0.361795 0.361737 127 0 255
-0.200327 -0.374812 -0.312529 127 0 255
0.216804 -0.389208 -0.427374 127 0 255
0.0951882 -0.47096 -0.373824 127 0 255
-0.411076 -0.139222 0.106575 127 0 255
0.0271481 -0.400366 0.204617 127 0 255
-0.390327 -0.0780348 0.196649 127 0 255
-0.282126 -0.484306 0.00791031 127 0 255
0.174503 -0.16956 -0.436433 127 0 255
-0.134518 -0.472729 0.0607174 127 0 255
-0.0590706 -0.48324 0.274883 127 0 255
0.182594 -0.480489 -0.338872 127 0 255
-0.00107383 -0.43075 0.370374 127 0 255
-0.271263 -0.116274 -0.431615 127 0 255
-0.0672102 -0.482771 -0.147088 127 0 255
0.157482 -0.485553 0.0480673 127 0 255
0.180329 -0.486469 0.209107 127 0 255
-0.333211 -0.449216 0.174166 127 0 255
-0.217474 -0.478145 -0.318797 127 0 255
-0.38588 -0.1435 -0.432642 127 0 255
-0.415974 -0.270564 0.211351 127 0 255
-0.387072 -0.377223 -0.275773 127 0 255
-0.385065 -0.308614 -0.0395143 127 0 255
0.0979836 -0.372262 0.386448 127 0 255
-0.399656 -0.138466 -0.213663 127 0 255
-0.0788785 -0.464917 -0.291059 127 0 255
0.120318 -0.257554 -0.436564 127 0 255
0.031843 -0.483228 -0.415915 127 0 255
0.142588 -0.403283 0.228194 127 0 255
-0.382667 -0.083082 -0.380327 127 0 255
-0.396434 -0.0811647 0.0618454 127 0 255
-0.389593 -0.21335 -0.129401 127 0 255
-0.402674 -0.437027 0.225582 127 0 255
-0.0898262 -0.483527 -0.0111196 127 0 255
0.288743 -0.486089 0.0900531 127 0 255
-0.0378271 -0.399802 -0.225036 127 0 255
-0.397136 -0.476428 -0.382948 127 0 255
-0.161683 -0.472723 -0.0869243 127 0 255
-0.407892 0.0432676 -0.396439 105 34 254
-0.370332 -0.483907 0.0774957 127 0 255
-0.134109 -0.486572 -0.340043 127 0 255
0.0558483 -0.481673 0.0468533 127 0 255
0.0753227 -0.485843 0.231681 127 0 255
-0.331876 -0.440605 -0.237343 127 0 255
0.139371 -0.358517 -0.40363 127 0 255
0.167274 -0.477307 -0.211201 127 0 255
0.249673 -0.224789 -0.437545 127 0 255
-0.220697 -0.478796 0.202509 127 0 255
-0.390543 -0.0674803 -0.052962 127 0 255
-0.362129 -0.323623 -0.43083 127 0 255
-0.401133 -0.0221585 -0.311735 127 0 255
-0.22418 -0.291977 -0.438303 127 0 255
0.217322 -0.486306 0.159264 127 0 255
-0.00730139 -0.486424 -0.248713 127 0 255
-0.411699 -0.346054 0.156296 127 0 255
-0.245463 -0.186294 -0.435435 127 0 255
0.0935777 -0.146097 -0.420791 127 0 255
0.209871 -0.483717 -0.11208 127 0 255
-0.367734 -0.487615 0.00285452 127 0 255
-0.3768 -0.308311 -0.298302 127 0 255
0.312173 -0.449786 -0.300047 127 0 255
-0.180372 -0.0472058 -0.430354 127 0 255
-0.329641 -0.0651596 -0.422737 127 0 255
-0.299468 -0.394556 -0.441669 127 0 255
-0.227745 -0.485893 0.289923 127 0 255
-0.325327 -0.387309 -0.0875317 127 0 255
0.0785114 -0.417479 -0.409731 127 0 255
-0.136467 -0.440932 0.250017 127 0 255
-0.0638517 -0.29574 -0.433469 127 0 255
-0.42532 -0.112313 0.24997 127 0 255
0.19012 -0.484602 -0.410003 127 0 255
-0.401943 -0.366173 0.0204184 127 0 255
0.0741632 -0.044771 -0.422817 127 0 255
-0.409604 -0.263731 0.0425763 127 0 255
0.0727163 -0.479976 -0.16688 127 0 255
-0.291527 -0.255777 -0.409305 127 0 255
0.15246 -0.447643 0.359106 127 0 255
0.202393 -0.484048 0.0857083 127 0 255
0.0290026 -0.206905 -0.43236 127 0 255
-0.38675 -0.111318 -0.289357 127 0 255
-0.394206 -0.204772 -0.42642 127 0 255
0.0613264 -0.478519 0.117696 127 0 255
0.174673 -0.362277 -0.250052 127 0 255
-0.0169263 -0.360508 0.293535 127 0 255
-0.402776 -0.0330908 0.088497 127 0 255
-0.0760533 -0.367838 -0.43035 127 0 255
-0.384459 -0.206084 -0.202246 127 0 255
-0.0787075 -0.483846 0.135649 127 0 255
-0.321073 -0.482335 -0.289968 127 0 255
-0.411399 -0.223201 0.135327 127 0 255
-0.406023 -0.370833 -0.187278 127 0 255
-0.384948 -0.0804187 -0.120824 127 0 255
0.203643 -0.484249 -0.29011 127 0 255
0.0490211 -0.483669 -0.317492 127 0 255
-0.312827 -0.399812 0.0749705 127 0 255
-0.208358 -0.483596 -0.0638066 127 0 255
-0.393002 -0.271594 -0.375498 127 0 255
-0.401972 -0.467469 -0.177424 127 0 255
-0.409284 -0.335627 0.0898674 127 0 255
0.0466353 -0.372233 0.388552 127 0 255
-0.149176 -0.264228 -0.426565 127 0 255
-0.404055 -0.148047 0.154514 127 0 255
-0.394361 -0.149108 -0.0189054 127 0 255
-0.040935 -0.32467 -0.371766 127 0 255
-0.0987399 -0.471951 -0.2036 127 0 255
0.0172418 -0.484237 0.208773 127 0 255
0.243419 -0.356566 0.330871 127 0 255
0.00699785 -0.484612 0.0106152 127 0 255
-0.284274 -0.482186 -0.201581 127 0 255
-0.258192 -0.458081 -0.44029 127 0 255
-0.41063 -0.443425 -0.291937 127 0 255
0.0368508 -0.353046 -0.432877 127 0 255
-0.203948 -0.482488 0.0668423 127 0 255
-0.169582 -0.431182 -0.437286 127 0 255
-0.388464 -0.324983 0.227738 127 0 255
-0.0754045 -0.186074 -0.429846 127 0 255
-0.325746 -0.471154 0.216031 127 0 255
0.170922 -0.486442 -0.00968246 127 0 255
-0.406946 0.00379757 -0.163512 127 0 255
0.290948 -0.484236 -0.040674 127 0 255
0.0253885 -0.485322 0.320133 127 0 255
-0.389094 -0.482244 -0.0951527 127 0 255
-0.0486323 -0.07373 -0.425476 127 0 255
-0.336895 -0.1438 -0.417024 127 0 255
0.163682 -0.40242 0.316211 127 0 255
0.203927 -0.446591 -0.440325 127 0 255
0.287173 -0.437274 0.237446 127 0 255
-0.05498 -0.477568 0.0706535 127 0 255
-0.0944151 -0.376452 0.295466 127 0 255
-0.0353736 -0.484016 -0.0582081 127 0 255
-0.161088 -0.482802 -0.141417 127 0 255
-0.00827014 -0.405343 0.198364 127 0 255
-0.376064 -0.479365 0.27334 127 0 255
-0.38562 -0.40174 0.175465 127 0 255
-0.12538 -0.0148981 -0.438082 127 0 255
-0.40807 0.0171703 -0.277173 119 12 254
-0.15581 -0.342324 -0.435264 127 0 255
0.120248 -0.467585 -0.279117 127 0 255
-0.0838833 -0.485261 -0.350872 127 0 255
-0.39682 -0.378583 -0.325034 127 0 255
0.152976 -0.209662 -0.421248 127 0 255
0.105942 -0.36904 0.27019 127 0 255
-0.374919 -0.377732 -0.0404439 127 0 255
-0.410057 -0.0383593 0.033321 127 0 255
-0.108205 -0.483904 0.200343 127 0 255
0.183692 -0.317546 -0.408088 127 0 255
-0.396806 -0.0539228 0.163756 127 0 255
-0.138311 -0.482311 -0.413272 127 0 255
0.101809 -0.450394 0.30259 127 0 255
-0.393049 -0.199191 -0.0555799 127 0 255
-0.272935 -0.470113 -0.0772316 127 0 255
-0.293709 0.0236535 -0.409143 115 18 254
0.185553 -0.406448 0.390994 127 0 255
-0.406994 -0.452033 -0.404757 127 0 255
0.257879 -0.484844 -0.250898 127 0 255
-0.407409 -0.29431 -0.155095 127 0 255
-0.247989 -0.0802114 -0.429835 127 0 255
0.117305 -0.411705 -0.428929 127 0 255
-0.0697058 -0.439845 0.352043 127 0 255
-0.162729 -0.146913 -0.435708 127 0 255
-0.018746 -0.400602 -0.430846 127 0 255
0.00336223 -0.484412 0.109281 127 0 255
0.303492 -0.485977 0.0343875 127 0 255
0.229588 -0.370119 0.278573 127 0 255
0.126118 -0.484702 0.140877 127 0 255
-0.200327 -0.38731 -0.23753 127 0 255
0.0982648 -0.477419 0.380214 127 0 255
-0.397383 -0.0545526 -0.42852 127 0 255
0.150638 -0.125804 -0.439459 127 0 255
-0.404067 -0.264434 -0.295349 127 0 255
0.243077 -0.484244 -0.352538 127 0 255
-0.404635 -0.148646 -0.341571 127 0 255
-0.413292 -0.215163 0.190097 127 0 255
0.324673 -0.487278 -0.200052 127 0 255
-0.0201223 -0.471027 -0.427948 127 0 255
0.212173 -0.374788 -0.337545 127 0 255
-0.226444 -0.483842 -0.213671 127 0 255
-0.41188 -0.358925 -0.409256 127 0 255
-0.255275 -0.351018 -0.414049 127 0 255
-0.0915452 -0.484139 -0.0636926 127 0 255
-0.390348 -0.373803 -0.112667 127 0 255
0.037173 -0.412292 -0.212543 127 0 255
-0.332668 -0.471743 0.117574 127 0 255
-0.255759 -0.481157 0.00886893 127 0 255
0.0338763 -0.479236 -0.140833 127 0 255
0.093581 -0.472076 -0.42846 127 0 255
-0.398876 -0.471588 0.0409687 127 0 255
-0.403377 -0.0957266 -0.231171 127 0 255
0.0142394 -0.249855 -0.41834 127 0 255
-0.300327 -0.0747907 -0.362542 127 0 255
-0.317191 -0.483322 -0.334708 127 0 255
-0.325174 -0.460815 -0.44234 127 0 255
-0.391586 -0.00919575 -0.349789 127 0 255
0.20895 -0.47839 -0.168356 127 0 255
0.228374 -0.485473 -0.0380574 127 0 255
-0.226092 -0.480829 0.148209 127 0 255
-0.138548 -0.484151 0.0232436 127 0 255
0.0123942 -0.028531 -0.434438 127 0 255
0.0405244 -0.361521 0.276822 127 0 255
-0.406406 -0.196834 0.0681301 127 0 255
-0.390785 -0.343491 -0.222677 127 0 255
-0.255669 -0.460269 0.23173 127 0 255
-0.378423 -0.375647 0.0619868 127 0 255
-0.367426 -0.245515 -0.428436 127 0 255
-0.0601913 -0.48701 -0.193431 127 0 255
-0.0898261 -0.484581 0.299517 127 0 255
-0.391157 -0.483197 0.204842 127 0 255
-0.300327 -0.399813 0.137471 127 0 255
0.246431 -0.443742 0.268268 127 0 255
-0.403876 -0.432396 -0.0480296 127 0 255
-0.125066 -0.0969307 -0.431885 127 0 255
-0.211092 -0.405244 -0.442181 127 0 255
-0.303134 -0.187657 -0.436147 127 0 255
0.0716472 -0.295547 -0.43084 127 0 255
-0.358644 -0.318809 -0.331858 127 0 255
-0.34242 -0.0220211 -0.433162 127 0 255
0.0886597 -0.404827 0.225678 127 0 255
0.084975 -0.484445 0.00582676 127 0 255
0.00921427 -0.36096 0.367341 127 0 255
-0.401335 -0.42471 -0.198761 127 0 255
-0.322951 -0.317819 -0.435214 127 0 255
-0.397548 -0.243246 -0.17273 127 0 255
