ply
format ascii 1.0
comment Created by Open3D
element vertex 1192
property double x
property double y
property double z
property uchar red
property uchar green
property uchar blue
end_header
0.196516 -0.153122 0.296804 92 163 255
0.099166 -0.353124 0.00158272 40 214 255
-0.329828 -0.429539 -0.170465 21 234 255
0.116881 -0.484755 0.288423 7 248 255
-0.0252075 -0.251568 -0.487493 67 188 255
0.0750626 -0.399922 -0.250454 29 226 255
0.201774 -0.12909 0.0616831 97 157 255
0.170002 -0.383279 -0.0644625 32 222 255
0.0275589 -0.104301 -0.485502 105 150 255
-0.224937 -0.487422 0.212046 7 248 255
-0.328194 -0.46485 0.0125962 12 243 255
-0.209188 -0.426629 -0.0744028 22 233 255
0.189338 -0.37685 -0.417952 35 220 255
-0.0139527 -0.484616 -0.468797 7 248 255
-0.171436 -0.485447 0.0967397 7 248 255
0.17964 -0.484643 0.356197 7 248 255
0.166469 -0.0886258 -0.266649 109 146 255
-0.0925762 -0.485544 -0.0540514 7 248 255
-0.102018 -0.407862 -0.481422 27 228 255
0.19008 -0.155356 -0.037385 92 163 255
0.190367 -0.205723 0.0892163 79 176 255
0.187055 -0.316177 0.125091 50 205 255
0.0750626 -0.324922 -0.237954 48 207 255
-0.137217 -0.483651 -0.49005 8 247 255
-0.299778 -0.417063 -0.0956646 25 230 255
-0.361223 -0.412024 0.0970227 26 229 255
0.182078 -0.334806 -0.118872 46 209 255
0.170149 -0.0894463 -0.0708217 108 147 255
0.161734 -0.0888315 -0.17409 109 146 255
0.118938 -0.42169 -0.0897066 23 232 255
-0.273594 -0.486357 0.117345 7 248 255
0.0736156 -0.484894 -0.124146 7 248 255
0.0918344 -0.161576 -0.486821 89 165 255
0.183545 -0.122431 0.201945 100 155 255
0.189993 -0.236243 -0.387702 71 184 255
-0.26543 -0.486149 -0.153412 7 248 255
-0.229359 -0.462237 0.0216721 13 242 255
0.183303 -0.270214 -0.192882 62 193 255
0.183689 -0.208051 0.308326 78 177 255
0.190528 -0.286674 -0.0527698 58 197 255
0.184364 -0.396091 0.2725 30 225 255
0.18676 -0.482649 -0.254345 8 247 255
-0.139597 -0.486207 -0.158031 7 248 255
0.0322088 -0.270955 -0.482772 62 193 255
0.190852 -0.40493 -0.121938 28 227 255
0.0150265 -0.485327 -0.092621 7 248 255
0.185416 -0.202539 -0.292782 79 176 255
0.0750626 -0.287422 -0.0379538 58 197 255
0.159759 -0.484753 0.0919594 7 248 255
0.190722 -0.132757 -0.398968 97 158 255
0.098402 -0.366286 -0.159934 38 217 255
0.195137 -0.298175 0.269831 55 200 255
0.0750626 -0.187422 -0.350454 83 172 255
0.137563 -0.0999224 0.312046 105 149 255
0.188663 -0.345291 -0.470142 43 211 255
0.187996 -0.481371 -0.326872 8 247 255
0.191971 -0.348995 -0.215582 42 213 255
0.190008 -0.304417 -0.369877 52 202 255
0.0750626 -0.374922 -0.325454 35 220 255
-0.295203 -0.476972 -0.0334511 9 246 255
0.0980837 -0.321467 -0.11481 48 206 255
-0.126964 -0.48559 0.0062555 7 248 255
0.00347002 -0.16442 -0.486085 89 166 255
0.179776 -0.151424 -0.183613 93 162 255
0.188272 -0.455064 0.336354 15 240 255
0.189484 -0.475671 0.0620957 10 245 255
-0.0683714 -0.21902 -0.494733 75 179 255
-0.385439 -0.451402 -0.0630888 16 239 255
0.189833 -0.226551 0.25912 73 182 255
0.177418 -0.427361 -0.195205 22 233 255
0.188446 -0.316271 -0.286237 50 205 255
0.123662 -0.111407 -0.30919 103 152 255
-0.187437 -0.399922 0.0495462 29 226 255
0.167374 -0.297796 -0.48384 55 200 255
0.190327 -0.120464 -0.244272 101 154 255
0.190353 -0.307789 0.0239788 52 202 255
0.0400752 -0.404269 -0.487377 28 227 255
0.179097 -0.482689 -0.47382 8 247 255
0.169252 -0.109565 0.108294 103 152 255
0.114298 -0.111138 -0.200426 103 152 255
0.181217 -0.241532 -0.118906 70 185 255
0.192264 -0.118738 -0.0865141 101 154 255
0.191634 -0.357448 0.212634 40 215 255
0.171382 -0.483435 0.0130736 8 247 255
0.130127 -0.335947 0.0327008 44 210 255
0.103992 -0.31677 0.292938 50 205 255
0.16768 -0.100825 0.0127856 105 149 255
0.181232 -0.427891 0.174204 22 233 255
0.126713 -0.472692 -0.0482513 10 245 255
0.182706 -0.191439 -0.44565 81 173 255
-0.253622 -0.458168 -0.0969565 14 241 255
0.135847 -0.484847 -0.215004 7 248 255
0.149298 -0.40802 -0.477869 27 228 255
-0.266066 -0.486182 0.0254493 7 248 255
0.174747 -0.0805854 -0.443761 111 144 255
0.189958 -0.193733 -0.0387529 81 173 255
0.0759176 -0.289643 -0.481404 56 198 255
-0.0607841 -0.485592 0.0867556 7 248 255
0.189627 -0.370841 -0.375286 36 219 255
0.185837 -0.234059 -0.341029 71 184 255
-0.40055 -0.487017 -0.025208 7 248 255
0.186788 -0.376382 0.0924521 35 220 255
0.186842 -0.485251 0.308267 7 248 255
0.0750626 -0.149922 -0.412954 93 162 255
0.188333 -0.444633 -0.0293223 18 237 255
0.0750626 -0.299922 -0.350454 55 200 255
0.128765 -0.103442 -0.0613668 105 150 255
0.181886 -0.208355 -0.213951 78 177 255
0.188938 -0.483523 -0.144336 8 247 255
0.192447 -0.27734 0.217221 60 195 255
0.175201 -0.200332 0.0275154 80 175 255
0.114993 -0.433789 -0.142921 20 235 255
-0.0660066 -0.155162 -0.49182 92 163 255
0.187276 -0.439395 -0.391802 19 236 255
0.106897 -0.479886 -0.487949 8 247 255
0.194123 -0.440162 0.24319 19 236 255
-0.166337 -0.486163 -0.46926 7 248 255
0.0903403 -0.484665 0.0162402 7 248 255
0.0750626 -0.362422 -0.412954 39 216 255
0.0643238 -0.143716 0.255659 95 160 255
-0.203601 -0.485762 0.0456117 7 248 255
0.162056 -0.166149 -0.481448 89 166 255
0.183321 -0.14956 -0.32633 93 162 255
0.188947 -0.298271 -0.422948 55 200 255
0.0250626 -0.0749224 -0.437954 112 143 255
0.191108 -0.310666 -0.0834059 52 203 255
0.189424 -0.483415 0.151501 8 247 255
0.189688 -0.204073 0.131429 79 176 255
0.17733 -0.141009 0.313895 95 160 255
0.184891 -0.100473 0.0504761 105 149 255
0.0750626 -0.437422 -0.400454 19 236 255
0.187663 -0.399027 0.0160438 29 226 255
0.194452 -0.189869 0.221474 83 172 255
0.125063 -0.399922 0.337046 29 226 255
0.190212 -0.284265 0.125681 59 195 255
0.188606 -0.291891 -0.245515 56 198 255
0.18285 -0.194257 -0.119839 81 173 255
-0.334153 -0.488319 -0.161088 6 249 255
0.100063 -0.0999224 0.212046 105 149 255
-0.29303 -0.461443 0.138529 13 242 255
0.19736 -0.250416 0.30264 67 188 255
0.182059 -0.362868 -0.142839 38 217 255
-0.00109122 -0.383577 -0.474623 32 222 255
-0.184678 -0.480883 -0.0149506 8 247 255
0.0750626 -0.437422 0.199546 19 236 255
0.187379 -0.125157 0.164188 99 156 255
-0.0274687 -0.485667 -0.0263681 7 248 255
0.180504 -0.263592 -0.0240833 64 191 255
-0.162437 -0.412422 -0.500454 26 229 255
0.112712 -0.41205 -0.0654891 26 229 255
0.0440579 -0.174307 -0.483428 87 168 255
0.0750626 -0.249922 -0.325454 67 188 255
0.168532 -0.458499 -0.279933 14 241 255
0.191139 -0.394138 0.144123 30 225 255
0.190504 -0.354034 -0.0469165 40 214 255
-0.364056 -0.448981 0.0679942 16 239 255
-0.349054 -0.468683 -0.0965461 11 244 255
0.168079 -0.111127 -0.100389 103 152 255
-0.121762 -0.486021 -0.177936 7 248 255
0.192029 -0.294805 -0.181237 56 199 255
0.194788 -0.363097 0.310558 38 217 255
0.185825 -0.446343 -0.441298 17 238 255
-0.129096 -0.485356 -0.0900426 7 248 255
0.184718 -0.14781 0.0378026 94 161 255
-0.00949751 -0.262858 -0.459011 64 191 255
0.181849 -0.103995 -0.190128 105 150 255
0.189517 -0.398146 -0.281718 29 226 255
0.0894012 -0.110627 -0.169008 103 152 255
0.00235596 -0.482336 -0.487527 8 247 255
-0.343221 -0.464815 -0.022021 12 243 255
0.186499 -0.113568 -0.362977 102 153 255
0.183109 -0.166669 -0.2658 89 166 255
0.111084 -0.484446 -0.0780051 7 248 255
0.189324 -0.265433 -0.467581 63 192 255
0.187132 -0.483425 -0.0901119 8 247 255
0.183146 -0.245452 0.081479 69 186 255
-0.230689 -0.485943 -0.061462 7 248 255
0.19041 -0.242898 -0.260023 69 186 255
0.197729 -0.428809 0.29723 22 233 255
-0.326185 -0.418185 -0.110062 24 231 255
0.0750626 -0.112422 -0.375454 103 152 255
0.124616 -0.116689 -0.484836 101 154 255
0.130289 -0.484524 0.0418651 7 248 255
0.196088 -0.14428 0.251885 94 161 255
0.190475 -0.189098 -0.36016 83 172 255
0.15924 -0.223356 -0.481656 73 181 255
0.152812 -0.455653 -0.199771 15 240 255
0.0875626 -0.0999224 0.112046 105 149 255
-0.0719848 -0.485864 -0.0758836 7 248 255
-0.10847 -0.397136 -0.49048 30 225 255
0.167501 -0.331791 -0.484576 46 209 255
0.128348 -0.484625 0.309164 7 248 255
-0.137437 -0.312422 -0.500454 51 204 255
-0.287412 -0.466285 0.0711209 12 243 255
0.189155 -0.481865 0.109416 8 247 255
0.190176 -0.143435 -0.435835 95 160 255
0.189594 -0.411198 -0.0750558 26 229 255
0.190827 -0.261743 -0.326408 64 191 255
0.191085 -0.40515 -0.187787 28 227 255
0.188497 -0.327065 0.0580668 48 207 255
-0.209183 -0.485848 0.0963288 7 248 255
0.17974 -0.478176 0.20501 9 246 255
0.0750626 -0.149922 0.324546 93 162 255
0.188258 -0.325783 0.164362 48 207 255
0.187318 -0.454029 0.357098 15 240 255
0.141301 -0.392476 -0.154535 31 224 255
0.0460721 -0.485241 -0.0890174 7 248 255
0.190512 -0.129248 0.11484 97 157 255
0.188604 -0.254674 0.198095 65 189 255
0.131865 -0.380337 -0.478225 34 221 255
0.192143 -0.208093 -0.0747872 78 177 255
0.0333772 -0.300771 -0.481618 54 201 255
0.184808 -0.395469 -0.473821 30 225 255
0.19276 -0.13657 -0.0141044 96 159 255
-0.0874374 -0.487422 0.387046 7 248 255
0.190231 -0.226186 0.0203453 73 182 255
0.19248 -0.161007 -0.188646 89 165 255
0.0984245 -0.371485 0.0200459 36 219 255
0.152933 -0.484169 -0.014593 7 248 255
-0.265499 -0.486315 -0.148946 7 248 255
0.195733 -0.32087 0.285699 48 206 255
0.0375626 -0.487422 0.387046 7 248 255
0.146901 -0.482791 -0.464521 8 247 255
-0.0137788 -0.118973 -0.475237 101 154 255
0.188042 -0.448352 -0.143926 17 238 255
0.188862 -0.334801 -0.419073 46 209 255
0.0750626 -0.274922 -0.262954 60 194 255
0.174321 -0.100769 -0.478819 105 149 255
0.186738 -0.457414 -0.366552 14 241 255
0.169829 -0.0964115 -0.297581 107 147 255
0.182769 -0.29059 -0.096702 56 198 255
0.0983822 -0.327801 -0.116413 47 208 255
-0.0142862 -0.1981 -0.487005 81 174 255
-0.156845 -0.48624 -0.146853 7 248 255
0.189889 -0.247205 -0.404565 68 187 255
0.0288941 -0.423612 -0.489109 23 232 255
0.180084 -0.369059 -0.000733715 36 218 255
0.190503 -0.348106 -0.344472 42 213 255
0.179431 -0.154297 -0.108674 92 163 255
0.0750626 -0.287422 0.0495462 58 197 255
0.187481 -0.452576 0.0361703 15 240 255
-0.187437 -0.399922 -0.100454 29 226 255
0.0603056 -0.14164 -0.485579 95 160 255
0.192119 -0.357917 -0.221194 40 215 255
0.18734 -0.45478 -0.24345 15 240 255
0.183959 -0.392988 0.242541 31 224 255
0.113413 -0.106551 -0.278598 104 151 255
-0.0212406 -0.287145 -0.487631 58 197 255
-0.267348 -0.485796 4.23174e-05 7 248 255
-0.356828 -0.412146 0.101821 26 229 255
0.191901 -0.174418 0.172324 87 168 255
0.192299 -0.255049 -0.157974 65 189 255
0.180834 -0.292776 -0.00676304 56 199 255
0.0216463 -0.358397 -0.479685 40 215 255
0.166925 -0.461823 -0.0848937 13 242 255
0.196829 -0.174552 0.281972 87 168 255
-0.112143 -0.48574 -0.0401284 7 248 255
0.171643 -0.454029 0.277613 15 240 255
-0.195163 -0.485798 -0.0980121 7 248 255
0.086202 -0.474281 -0.493004 10 245 255
-0.084285 -0.167311 -0.488909 89 166 255
0.186631 -0.404736 0.0748945 28 227 255
0.0750626 -0.0999224 0.174546 105 149 255
0.0750626 -0.399922 -0.350454 29 226 255
0.18474 -0.332132 -0.268504 46 209 255
0.189728 -0.106647 -0.261329 104 151 255
0.183223 -0.344921 0.123431 43 211 255
-0.35772 -0.485685 -0.0439946 7 248 255
0.168682 -0.107401 -0.0421984 104 151 255
-0.345471 -0.459906 0.035168 14 241 255
-0.239324 -0.430949 -0.0847551 21 234 255
0.155025 -0.48511 0.169191 7 248 255
0.0754324 -0.484327 -0.00903483 7 248 255
0.186934 -0.183735 -0.472518 84 171 255
0.189664 -0.175601 0.0915512 86 169 255
0.187955 -0.423016 -0.316211 23 232 255
0.112563 -0.237422 0.0870461 71 184 255
0.0750626 -0.0749224 -0.500454 112 143 255
0.102907 -0.384046 -0.0925424 32 222 255
-0.0901606 -0.372899 -0.484222 36 219 255
-0.323365 -0.460237 -0.172562 14 241 255
0.0651985 -0.149615 0.247631 93 162 255
0.117051 -0.0881441 -0.179086 109 146 255
0.179311 -0.406045 -0.130734 27 228 255
0.182687 -0.259319 -0.224613 65 190 255
0.179178 -0.482292 -0.422102 8 247 255
0.0750626 -0.237422 -0.387954 71 184 255
0.0653945 -0.484951 -0.123988 7 248 255
0.188389 -0.468601 0.179495 11 244 255
0.123903 -0.209614 -0.484916 78 177 255
0.112563 -0.199922 0.337046 80 175 255
-0.174937 -0.487422 0.299546 7 248 255
0.190732 -0.184585 -0.411083 84 171 255
0.147338 -0.0885868 -0.105448 109 146 255
-0.276666 -0.485659 -0.0600277 7 248 255
0.184804 -0.48419 -0.0300955 7 248 255
0.191411 -0.370255 -0.0832917 36 218 255
0.163421 -0.454158 -0.48803 15 240 255
0.0154865 -0.484532 -0.45479 7 248 255
0.182812 -0.229451 0.275498 73 182 255
0.188496 -0.282419 -0.381527 59 195 255
-0.254072 -0.463593 0.0728526 13 242 255
0.166072 -0.284389 -0.484417 59 195 255
0.190372 -0.185651 -0.28348 84 171 255
0.0750626 -0.424922 0.237046 23 232 255
0.189327 -0.319411 0.214199 50 205 255
0.18178 -0.138799 0.203891 96 159 255
0.0750626 -0.362422 -0.287954 39 216 255
-0.185248 -0.485729 0.00682645 7 248 255
0.102665 -0.399741 -0.166579 29 226 255
-0.124937 -0.237422 -0.500454 71 184 255
0.1727 -0.139539 0.312073 96 159 255
-0.0111169 -0.485586 -0.0418691 7 248 255
0.0750626 -0.387422 0.337046 32 223 255
0.109537 -0.484928 -0.206325 7 248 255
0.182155 -0.292467 0.0927498 56 199 255
-0.0374374 -0.487422 0.362046 7 248 255
0.181709 -0.391512 -0.241598 31 224 255
0.177608 -0.129147 -0.159004 97 157 255
0.0875626 -0.0749224 -0.312954 112 143 255
0.191148 -0.339837 -0.159151 44 211 255
0.182566 -0.237072 0.139383 71 184 255
0.139753 -0.484706 0.0583885 7 248 255
0.12352 -0.340872 0.0358375 44 211 255
0.188072 -0.480878 -0.326609 8 247 255
-0.0308738 -0.378064 -0.483057 35 220 255
0.183077 -0.223093 -0.1608 73 181 255
-0.175477 -0.485464 0.0824676 7 248 255
-0.212437 -0.487422 0.249546 7 248 255
0.13173 -0.484547 0.285652 7 248 255
0.165357 -0.104549 0.00368125 105 150 255
0.188066 -0.150869 -0.365238 93 162 255
0.175081 -0.0990181 0.111452 105 149 255
0.0669387 -0.413381 -0.485225 26 229 255
0.18183 -0.368512 0.176009 36 218 255
-0.336798 -0.421556 -0.0927378 23 232 255
0.187574 -0.402068 -0.441695 28 227 255
0.194363 -0.167534 0.0403012 88 167 255
0.186704 -0.0915644 -0.445835 108 147 255
-0.394981 -0.48703 -0.0201251 7 248 255
0.191004 -0.24104 -0.0195059 70 185 255
0.149381 -0.341787 -0.479608 44 211 255
0.171713 -0.454556 -0.201268 15 240 255
0.190258 -0.237949 -0.445526 70 185 255
0.188505 -0.431722 0.129018 21 234 255
0.193367 -0.229203 0.214833 73 182 255
-0.159002 -0.486187 -0.476807 7 248 255
0.0174185 -0.485302 -0.0793257 7 248 255
0.198153 -0.399108 0.295479 29 226 255
0.189932 -0.328035 0.0109762 47 208 255
-0.272046 -0.486355 0.110712 7 248 255
0.189997 -0.171377 -0.0582908 87 168 255
0.0767305 -0.183141 -0.485946 84 171 255
0.192249 -0.416234 0.206663 25 230 255
0.0750626 -0.312422 -0.412954 51 204 255
0.180159 -0.370476 0.0726533 36 219 255
0.104507 -0.371796 -0.00872459 36 219 255
-0.257856 -0.486403 -0.110144 7 248 255
0.185433 -0.216255 -0.332359 76 179 255
-0.346369 -0.410952 0.130422 26 229 255
0.186983 -0.430893 0.0154727 21 234 255
0.190164 -0.190711 -0.240653 83 172 255
0.190063 -0.317878 -0.311885 50 205 255
0.183691 -0.256992 0.0406385 65 189 255
0.170043 -0.392374 -0.0715083 31 224 255
0.0750626 -0.212422 0.0620462 77 178 255
0.168247 -0.0958925 -0.2518 107 147 255
0.170112 -0.459712 -0.274416 14 241 255
0.182818 -0.277081 -0.0729058 60 195 255
0.186068 -0.30741 0.282108 52 202 255
0.187091 -0.104855 -0.335719 104 151 255
0.189507 -0.370008 -0.37173 36 218 255
-0.19547 -0.485836 -0.046808 7 248 255
0.17917 -0.47746 0.357409 9 246 255
0.191184 -0.306986 -0.210965 52 202 255
0.162183 -0.151664 -0.481603 93 162 255
-0.00862528 -0.422157 -0.489066 23 232 255
0.182749 -0.126967 0.253226 99 156 255
0.105992 -0.340917 -0.149703 44 211 255
0.188915 -0.297619 -0.464799 55 200 255
-0.385804 -0.451826 -0.0492122 16 239 255
-0.0838194 -0.193498 -0.491356 81 173 255
-0.335824 -0.484951 -0.137684 7 248 255
-0.174937 -0.412422 -0.0129538 26 229 255
0.184495 -0.484488 0.074881 7 248 255
0.196981 -0.202656 0.298904 79 176 255
0.192413 -0.11293 -0.0259516 102 153 255
0.127138 -0.484648 -0.0929909 7 248 255
0.182592 -0.290305 0.155339 56 198 255
0.0750626 -0.162422 -0.362954 89 165 255
-0.0133813 -0.225994 -0.486269 73 182 255
0.188647 -0.443972 -0.0513338 18 237 255
0.178851 -0.473042 -0.388682 10 245 255
-0.0499374 -0.0749224 -0.500454 112 143 255
0.0750626 -0.424922 -0.275454 23 232 255
0.192311 -0.188867 -0.128596 83 172 255
0.18428 -0.485723 0.29885 7 248 255
0.0750626 -0.312422 -0.312954 51 204 255
0.00867776 -0.133568 -0.486958 97 158 255
-0.143331 -0.485271 -0.0901659 7 248 255
0.188081 -0.458274 -0.167267 14 241 255
-0.284315 -0.486267 0.039864 7 248 255
0.172838 -0.483278 0.130055 8 247 255
0.183174 -0.361851 -0.293243 39 216 255
0.189974 -0.178792 0.127585 86 169 255
0.139652 -0.103094 -0.484168 105 150 255
-0.121976 -0.48548 -0.021237 7 248 255
0.190561 -0.120315 -0.114232 101 154 255
0.0837092 -0.483098 -0.470948 8 247 255
0.185698 -0.286809 -0.283019 58 197 255
-0.362289 -0.448398 0.0765384 17 238 255
0.181178 -0.377411 -0.472029 35 220 255
0.184497 -0.352353 0.279467 40 214 255
0.0750626 -0.349922 -0.237954 42 213 255
0.189816 -0.187532 -0.0168965 83 172 255
0.189977 -0.119595 -0.389277 101 154 255
0.112563 -0.0874224 0.0870461 109 146 255
-0.349937 -0.399922 0.187046 29 226 255
0.191639 -0.169985 -0.204961 88 167 255
0.170472 -0.230823 -0.467001 72 183 255
-0.313097 -0.417497 -0.130014 24 231 255
0.190399 -0.317783 -0.0574961 50 205 255
0.188395 -0.298235 -0.355468 55 200 255
-0.0299768 -0.275021 -0.487942 60 194 255
0.197173 -0.250344 0.300204 67 188 255
0.192719 -0.10827 0.0582095 104 151 255
0.0947193 -0.098219 -0.18659 105 149 255
0.183646 -0.452563 -0.468879 15 240 255
0.181138 -0.387983 -0.171686 32 223 255
0.161294 -0.476012 -0.0122199 9 246 255
-0.29927 -0.481496 -0.0508395 8 247 255
0.19049 -0.228728 0.0688885 73 182 255
-0.199937 -0.399922 0.0745462 29 226 255
0.137417 -0.108834 -0.0624466 103 152 255
0.190963 -0.29286 -0.143724 56 199 255
-0.0951776 -0.402669 -0.482545 28 227 255
-0.0854134 -0.485971 -0.0836829 7 248 255
0.192674 -0.201851 0.187526 80 175 255
0.186798 -0.459666 0.215497 14 241 255
0.186972 -0.289104 0.239318 56 198 255
-0.0199839 -0.485528 -0.020669 7 248 255
0.176172 -0.108139 -0.19843 104 151 255
-0.0624374 -0.487422 0.274546 7 248 255
-0.239586 -0.486042 -0.0124861 7 248 255
0.181364 -0.389165 0.123458 32 223 255
0.113572 -0.408609 -0.0693276 27 228 255
-0.150564 -0.486203 -0.141874 7 248 255
-0.380637 -0.4535 -0.0906291 15 240 255
0.0242753 -0.300376 -0.483402 54 201 255
0.192412 -0.217916 -0.0948606 76 179 255
0.191264 -0.233416 -0.204401 72 183 255
0.137563 -0.0999224 0.249546 105 149 255
0.195622 -0.421428 0.266668 23 232 255
0.189069 -0.430869 -0.222031 21 234 255
0.188379 -0.399684 -0.0120472 29 226 255
-0.00942461 -0.484562 -0.469622 7 248 255
0.111062 -0.425969 -0.138432 22 233 255
0.189355 -0.370763 -0.404971 36 219 255
0.111786 -0.484924 -0.219562 7 248 255
0.0750626 -0.212422 -0.0629538 77 178 255
0.11988 -0.48464 0.310299 7 248 255
-0.19166 -0.485157 0.0333892 7 248 255
0.191033 -0.108269 -0.453116 104 151 255
0.187235 -0.482597 0.0190693 8 247 255
0.190193 -0.206928 -0.393929 78 177 255
0.063739 -0.14088 0.252149 95 160 255
0.180844 -0.147184 0.315576 94 161 255
0.184195 -0.164347 -0.313294 89 166 255
0.191394 -0.377456 -0.121693 35 220 255
0.134891 -0.0939596 -0.10978 107 147 255
0.119922 -0.104574 -0.277347 105 150 255
0.188318 -0.442176 -0.303075 18 237 255
-0.241036 -0.438323 -0.0858504 19 236 255
0.187906 -0.45056 0.0784647 16 239 255
0.155171 -0.454373 -0.473224 15 240 255
0.186735 -0.451235 -0.109644 16 239 255
0.189822 -0.23162 -0.276431 72 183 255
0.183511 -0.122227 0.187772 100 155 255
0.187751 -0.370158 0.0473718 36 218 255
0.184057 -0.362345 0.213643 39 216 255
0.0750626 -0.199922 -0.325454 80 175 255
-0.291681 -0.45777 0.113509 14 241 255
0.11316 -0.484568 -0.0593466 7 248 255
-0.00863534 -0.176538 -0.486877 86 169 255
-0.318176 -0.4655 0.00284718 12 243 255
0.186533 -0.320543 -0.440006 48 206 255
0.0750626 -0.224922 -0.425454 73 181 255
0.161804 -0.485178 0.195619 7 248 255
0.18315 -0.308601 0.0828857 52 203 255
0.104253 -0.324533 -0.123979 48 207 255
-0.196536 -0.485435 0.0960757 7 248 255
0.190956 -0.166526 -0.426228 89 166 255
0.0750626 -0.399922 -0.412954 29 226 255
0.170511 -0.101946 0.0254226 105 150 255
0.182917 -0.0951336 -0.0687889 107 147 255
0.137563 -0.187422 -0.112954 83 172 255
-0.331402 -0.450873 -0.171704 16 239 255
0.170371 -0.485035 0.267726 7 248 255
0.0440787 -0.128429 -0.481224 97 157 255
0.190591 -0.130455 -0.246279 97 157 255
0.0993635 -0.484106 0.00970974 7 248 255
0.186759 -0.45412 -0.383773 15 240 255
0.187142 -0.482907 -0.245266 8 247 255
0.157513 -0.27857 -0.479825 60 195 255
0.195373 -0.130263 0.251482 97 157 255
0.190822 -0.259233 -0.329588 65 190 255
0.182099 -0.320838 -0.110425 48 206 255
0.181085 -0.484278 0.344096 7 248 255
0.159767 -0.457824 -0.172526 14 241 255
0.0750626 -0.0874224 -0.362954 109 146 255
0.177174 -0.227502 0.025289 73 182 255
-0.112437 -0.487422 0.387046 7 248 255
0.159141 -0.484775 0.0797132 7 248 255
0.190074 -0.301994 0.00386858 54 201 255
0.191467 -0.109736 -0.320747 103 152 255
-0.0594664 -0.16855 -0.471203 88 167 255
0.100063 -0.112422 0.0370462 103 152 255
0.185413 -0.252401 0.152903 67 188 255
0.191686 -0.371386 -0.234503 36 219 255
0.101892 -0.374921 -0.108015 35 220 255
0.181273 -0.235697 -0.112239 71 184 255
0.0669182 -0.419979 -0.48115 24 231 255
0.191658 -0.402524 0.165466 28 227 255
0.173728 -0.437415 -0.0254023 19 236 255
0.189749 -0.369798 -0.350197 36 218 255
0.0750626 -0.262422 -0.275454 64 191 255
0.125063 -0.0874224 0.149546 109 146 255
-0.233838 -0.486027 0.063045 7 248 255
0.189348 -0.269941 -0.414528 62 193 255
-0.0372596 -0.393486 -0.482924 31 224 255
0.183201 -0.254604 0.275183 65 189 255
0.0875626 -0.112422 0.312046 103 152 255
0.0967563 -0.368494 0.0114844 36 218 255
-0.195736 -0.475865 -0.0958245 10 245 255
0.134337 -0.462932 -0.127385 13 242 255
0.191655 -0.293431 -0.20669 56 199 255
0.192608 -0.1698 -0.15178 88 167 255
0.189973 -0.17637 0.084019 86 169 255
0.0845015 -0.158775 -0.486846 91 163 255
0.190094 -0.23924 -0.0467824 70 185 255
0.0188612 -0.480682 -0.490421 8 247 255
0.180759 -0.355444 -0.0113562 40 215 255
0.0750626 -0.337422 -0.362954 44 210 255
6.26276e-05 -0.487422 0.374546 7 248 255
0.195296 -0.440023 0.323347 19 236 255
0.1746 -0.122831 -0.476937 100 155 255
0.179981 -0.159275 -0.0863684 91 163 255
0.192832 -0.157737 0.0144746 91 163 255
0.149972 -0.214986 -0.483382 76 179 255
0.131549 -0.0925751 -0.199441 108 147 255
0.112563 -0.287422 0.0620462 58 197 255
0.161373 -0.361995 -0.479756 39 216 255
0.172642 -0.42081 -0.0813061 24 231 255
-0.16418 -0.485665 0.00479316 7 248 255
0.193151 -0.298088 0.156713 55 200 255
-0.331537 -0.461313 0.0464005 13 242 255
-0.276637 -0.460359 -0.0899492 13 242 255
0.161419 -0.475905 -0.488391 10 245 255
0.190442 -0.191483 -0.344004 81 173 255
0.0750626 -0.424922 0.337046 23 232 255
0.189878 -0.445135 0.153611 17 238 255
0.0750626 -0.262422 -0.362954 64 191 255
-0.377522 -0.454639 -0.0197369 15 240 255
0.188783 -0.388713 -0.454829 32 223 255
0.183727 -0.233553 0.0994631 72 183 255
-0.112437 -0.149922 -0.500454 93 162 255
0.193568 -0.365471 0.259225 38 217 255
0.181702 -0.198893 -0.240752 80 175 255
0.189193 -0.389696 -0.288748 32 223 255
0.187102 -0.34561 0.12464 43 211 255
0.0750626 -0.399922 -0.237954 29 226 255
0.189447 -0.327232 -0.371984 48 207 255
0.193468 -0.249577 0.21976 67 188 255
-0.356997 -0.468099 -0.100686 12 243 255
0.189728 -0.220374 -0.45219 75 179 255
0.0750626 -0.412422 -0.350454 26 229 255
-0.149187 -0.485725 -0.0511748 7 248 255
0.0420776 -0.485156 -0.0901764 7 248 255
0.0750626 -0.212422 0.174546 77 178 255
-0.270385 -0.486271 0.115359 7 248 255
0.0750626 -0.287422 -0.0504539 58 197 255
0.180716 -0.42954 0.0909177 21 234 255
0.183076 -0.354272 -0.18799 40 214 255
0.191197 -0.351351 -0.0912888 40 214 255
-0.235432 -0.462154 0.0220013 13 242 255
0.188804 -0.159766 0.137053 89 165 255
0.0750626 -0.124922 -0.425454 99 156 255
0.133872 -0.425881 -0.164087 22 233 255
0.137563 -0.387422 0.337046 32 223 255
-0.0749374 -0.487422 -0.500454 7 248 255
0.170923 -0.108121 -0.291967 104 151 255
0.169861 -0.456951 -0.103134 14 241 255
0.0138433 -0.254113 -0.484048 65 189 255
0.189948 -0.177868 0.212842 86 169 255
0.104474 -0.478812 -0.488671 9 246 255
0.178953 -0.479932 -0.424655 8 247 255
0.0171401 -0.376775 -0.478008 35 220 255
0.183754 -0.120638 0.282707 100 155 255
0.18276 -0.228106 -0.180956 73 182 255
0.191113 -0.134237 -0.401457 97 158 255
0.115389 -0.484791 -0.222872 7 248 255
0.169254 -0.0922263 -0.0603128 108 147 255
0.189339 -0.275215 -0.466576 60 194 255
0.100063 -0.199922 0.337046 80 175 255
0.128098 -0.128629 -0.484628 97 157 255
-0.280663 -0.480723 -0.0168515 8 247 255
0.190117 -0.32101 0.197824 48 206 255
-0.272771 -0.487055 -0.127743 7 248 255
0.063338 -0.138545 0.251278 96 159 255
0.182094 -0.286963 -0.0484931 58 197 255
0.186501 -0.401627 0.0366734 29 226 255
0.18278 -0.107978 -0.13803 104 151 255
0.1899 -0.306701 0.0571401 52 202 255
0.129943 -0.472837 -0.0561976 10 245 255
0.188818 -0.426827 -0.17803 22 233 255
0.199096 -0.408054 0.302527 27 228 255
0.1907 -0.254039 -0.243534 65 189 255
0.145385 -0.484702 0.0540822 7 248 255
0.189244 -0.402366 -0.0438537 28 227 255
0.0750626 -0.412422 0.237046 26 229 255
0.181676 -0.264438 -0.128398 64 191 255
0.114248 -0.109261 -0.288919 103 152 255
0.190981 -0.138668 0.0929766 96 159 255
0.190129 -0.230046 -0.381941 72 183 255
-0.412437 -0.437422 0.0370462 19 236 255
-0.174937 -0.412422 0.0745462 26 229 255
0.0750626 -0.299922 -0.225454 55 200 255
0.19072 -0.124399 -0.225454 99 156 255
0.189632 -0.327643 -0.250609 47 208 255
-0.34994 -0.430327 -0.080345 21 234 255
0.18369 -0.107745 -0.008577 104 151 255
0.181247 -0.429636 0.197949 21 234 255
0.0250626 -0.0749224 -0.500454 112 143 255
0.100063 -0.199922 0.0870461 80 175 255
0.196386 -0.272049 0.291329 62 193 255
0.105592 -0.389353 -0.0765227 32 223 255
0.1711 -0.45644 -0.300432 14 241 255
0.189395 -0.19038 -0.0254594 83 172 255
0.0107725 -0.435599 -0.486149 20 235 255
-0.0800703 -0.196761 -0.492272 81 174 255
0.1909 -0.181304 0.278389 85 170 255
-0.371657 -0.485364 -0.050989 7 248 255
-0.374937 -0.399922 0.162046 29 226 255
-0.20284 -0.485689 -0.0405936 7 248 255
0.157812 -0.0907402 -0.112484 108 147 255
0.174494 -0.0837734 -0.470047 110 145 255
0.125063 -0.0999224 0.199546 105 149 255
0.185371 -0.448121 -0.454613 17 238 255
0.188783 -0.440153 -0.253635 19 236 255
-0.108356 -0.486017 -0.0840445 7 248 255
0.188896 -0.344678 -0.428313 43 211 255
0.0261156 -0.296125 -0.483112 56 199 255
0.186947 -0.451851 -0.00801251 16 239 255
-0.0499374 -0.487422 0.337046 7 248 255
0.187836 -0.265657 0.0318126 63 192 255
0.00425564 -0.171904 -0.485809 87 168 255
-0.224937 -0.487422 0.199546 7 248 255
0.185566 -0.302449 -0.16318 54 201 255
0.183234 -0.418537 0.257059 24 231 255
0.172078 -0.46903 -0.0608357 11 244 255
0.184877 -0.179485 -0.285673 85 170 255
0.189896 -0.281224 -0.337233 59 195 255
0.158278 -0.485178 0.175255 7 248 255
0.0992434 -0.355311 0.00508796 40 215 255
0.0875626 -0.0749224 -0.225454 112 143 255
-0.199937 -0.399922 -0.00045384 29 226 255
0.192053 -0.149077 -0.0912797 93 162 255
0.182432 -0.18366 0.0260517 84 171 255
-0.183536 -0.485639 0.089521 7 248 255
0.137626 -0.485007 0.287531 7 248 255
-0.0874374 -0.487422 -0.275454 7 248 255
0.19438 -0.29922 0.247433 55 200 255
-0.321692 -0.486097 -0.134515 7 248 255
0.18465 -0.204608 -0.471402 79 176 255
0.189465 -0.329777 -0.0316325 47 208 255
0.189689 -0.416143 -0.116115 25 230 255
0.19039 -0.255419 0.104837 65 189 255
0.186771 -0.47872 0.298274 9 246 255
0.191509 -0.11183 -0.336465 103 152 255
0.180638 -0.362758 0.0708835 38 217 255
0.0750626 -0.437422 -0.387954 19 236 255
-0.250372 -0.428446 -0.0723679 22 233 255
0.181825 -0.366194 0.147433 38 217 255
0.183368 -0.123169 0.166913 100 155 255
0.180515 -0.218688 -0.0728327 75 179 255
-0.28691 -0.46404 0.131912 13 242 255
0.192247 -0.194107 -0.160323 81 173 255
0.18947 -0.482034 0.129841 8 247 255
-0.0256187 -0.273608 -0.487818 60 194 255
0.189078 -0.335241 -0.322295 46 209 255
-0.0403764 -0.387327 -0.483969 32 223 255
0.1235 -0.456601 -0.48983 14 241 255
0.18968 -0.201799 0.125864 80 175 255
0.188554 -0.158171 -0.369746 91 163 255
0.0750626 -0.187422 -0.425454 83 172 255
0.166641 -0.354902 -0.472137 40 215 255
-0.328402 -0.427506 -0.159822 22 233 255
-0.303715 -0.486472 0.0363369 7 248 255
0.19568 -0.356805 0.282906 40 215 255
0.174556 -0.476204 0.0336315 9 246 255
0.0750626 -0.324922 -0.287954 48 207 255
-0.245368 -0.485558 -0.0987631 7 248 255
0.188845 -0.292559 -0.391396 56 199 255
0.19113 -0.340558 -0.155349 44 211 255
0.163329 -0.14693 -0.481208 94 161 255
0.18562 -0.227696 -0.340438 73 182 255
0.1411 -0.458722 -0.0886252 14 241 255
0.191758 -0.255531 0.20153 65 189 255
0.160537 -0.286186 -0.478449 58 197 255
-0.317474 -0.486012 -0.0378192 7 248 255
0.187584 -0.429812 -0.318586 21 234 255
0.178416 -0.132719 -0.186508 97 158 255
0.0750626 -0.0749224 -0.437954 112 143 255
0.190517 -0.410518 -0.205339 26 229 255
0.190829 -0.267249 -0.013478 63 192 255
0.192806 -0.132786 -0.05487 97 158 255
-0.0624374 -0.487422 0.262046 7 248 255
0.0291321 -0.119096 -0.485381 101 154 255
0.100034 -0.388044 -0.147658 32 223 255
0.183414 -0.232292 0.29485 72 183 255
0.100063 -0.137422 0.0870461 96 159 255
0.0750626 -0.437422 0.187046 19 236 255
0.189985 -0.137361 -0.442576 96 159 255
0.189704 -0.109517 -0.273825 103 152 255
-0.118526 -0.48596 -0.0433294 7 248 255
0.0750626 -0.212422 -0.0254538 77 178 255
0.187285 -0.263796 -0.281786 64 191 255
0.191374 -0.288818 -0.117478 56 198 255
0.0750626 -0.374922 0.337046 35 220 255
0.0750626 -0.0999224 0.187046 105 149 255
0.161912 -0.475849 -0.0199197 10 245 255
0.175 -0.473664 -0.410967 10 245 255
0.187232 -0.455756 -0.145491 15 240 255
0.144556 -0.0961242 -0.186369 107 147 255
0.0750626 -0.299922 -0.400454 55 200 255
0.192604 -0.183512 0.184111 84 171 255
-0.162437 -0.487422 0.324546 7 248 255
0.169458 -0.100934 0.0148876 105 149 255
0.188198 -0.30275 -0.469242 54 201 255
0.0750626 -0.237422 -0.325454 71 184 255
0.176721 -0.359513 -0.0587986 39 216 255
0.190392 -0.211566 0.056466 77 178 255
-0.252457 -0.486328 0.0995039 7 248 255
0.15218 -0.463585 -0.179983 13 242 255
0.19009 -0.371642 0.218139 36 219 255
0.186104 -0.30787 0.107471 52 202 255
0.180049 -0.393116 -0.472626 31 224 255
0.112563 -0.0999224 0.274546 105 149 255
0.0711578 -0.432504 -0.486939 21 234 255
0.182256 -0.164905 -0.250311 89 166 255
0.190323 -0.401212 0.13708 29 226 255
0.131545 -0.0929994 -0.102246 108 147 255
0.19496 -0.44043 0.324733 19 236 255
0.18474 -0.117354 0.0907927 101 154 255
0.187666 -0.457796 -0.0702999 14 241 255
0.0746899 -0.164952 -0.485779 89 166 255
0.189251 -0.345339 0.0195674 43 211 255
-0.229731 -0.463633 0.00282411 13 242 255
0.162711 -0.223148 -0.480157 73 181 255
-0.199937 -0.487422 0.262046 7 248 255
0.183264 -0.266915 -0.18793 63 192 255
0.0750626 -0.287422 0.0620462 58 197 255
0.190648 -0.208175 -0.407138 78 177 255
0.183928 -0.403953 -0.265028 28 227 255
0.185096 -0.135528 0.226849 97 158 255
-0.0836568 -0.167632 -0.489152 88 167 255
0.185313 -0.313915 0.277991 51 204 255
0.180366 -0.378077 -0.12308 35 220 255
-0.224937 -0.487422 -0.412954 7 248 255
-0.369153 -0.457513 -0.0146343 14 241 255
0.0875626 -0.0749224 -0.325454 112 143 255
0.165398 -0.481339 -0.483523 8 247 255
0.18995 -0.195035 -0.203029 81 174 255
0.189776 -0.323862 -0.235372 48 207 255
0.189897 -0.367667 -0.36848 36 218 255
0.189627 -0.480731 0.0781392 8 247 255
0.179137 -0.222374 -0.0375633 73 181 255
0.00216967 -0.233352 -0.483839 72 183 255
0.112163 -0.40392 -0.0696116 28 227 255
-0.33464 -0.422727 -0.106879 23 232 255
0.143587 -0.483704 0.0649814 8 247 255
0.155234 -0.103901 -0.486535 105 150 255
-0.206181 -0.48603 -0.0814036 7 248 255
-0.0499374 -0.487422 0.374546 7 248 255
0.183454 -0.137652 0.311361 96 159 255
0.0750626 -0.162422 -0.350454 89 165 255
0.184302 -0.27684 0.164676 60 195 255
0.190122 -0.122259 -0.152444 100 155 255
0.0750626 -0.374922 -0.312954 35 220 255
0.187293 -0.475674 0.273708 10 245 255
0.137563 -0.212422 0.337046 77 178 255
0.180038 -0.42838 0.0152153 22 233 255
0.19077 -0.238342 0.248001 70 185 255
0.187502 -0.449397 -0.214946 16 239 255
0.187845 -0.454755 0.152261 15 240 255
0.192875 -0.131338 0.0126158 97 157 255
0.137246 -0.465293 -0.125131 12 243 255
-0.180915 -0.485693 0.0133058 7 248 255
0.18999 -0.309748 -0.299718 52 203 255
-0.381473 -0.453249 -0.0862218 15 240 255
0.19033 -0.388105 -0.0540735 32 223 255
0.189677 -0.22649 -0.278625 73 182 255
-0.293063 -0.487193 -0.150622 7 248 255
0.146037 -0.104744 -0.293816 105 150 255
0.143272 -0.485015 0.295107 7 248 255
0.112563 -0.0874224 0.0995462 109 146 255
0.185599 -0.400233 0.0900106 29 226 255
0.182939 -0.0953612 -0.0615757 107 147 255
0.18867 -0.340897 0.183699 44 211 255
0.191195 -0.311089 -0.0911509 52 203 255
-0.0925055 -0.485949 -0.0676228 7 248 255
0.188784 -0.103495 -0.439057 105 150 255
0.0750626 -0.249922 -0.425454 67 188 255
0.110825 -0.481856 -0.474853 8 247 255
0.00569484 -0.38773 -0.487836 32 223 255
0.0343496 -0.163293 -0.483289 89 165 255
0.125063 -0.199922 -0.112954 80 175 255
-0.287234 -0.483313 -0.0582981 8 247 255
0.0750626 -0.374922 -0.387954 35 220 255
0.158663 -0.485234 0.184062 7 248 255
0.0750626 -0.424922 0.0995462 23 232 255
0.180974 -0.394053 -0.179693 30 225 255
0.190451 -0.274334 -0.398561 60 194 255
-0.280905 -0.486225 0.0258596 7 248 255
0.192468 -0.167013 -0.131991 89 166 255
0.150063 -0.424922 0.374546 23 232 255
0.188861 -0.182411 -0.338973 85 170 255
0.180865 -0.291711 -0.00381763 56 198 255
0.184095 -0.427549 -0.472181 22 233 255
0.182543 -0.484431 0.327616 7 248 255
0.18385 -0.392137 0.250949 31 224 255
0.136419 -0.468701 -0.203611 11 244 255
0.175073 -0.244007 -0.47746 69 186 255
0.0987617 -0.364624 0.012821 38 217 255
0.192423 -0.178545 0.0585486 86 169 255
0.19332 -0.205724 0.205518 79 176 255
0.192058 -0.231033 -0.0823809 72 183 255
0.183816 -0.122532 0.131134 100 155 255
0.188871 -0.356 -0.418005 40 215 255
0.1821 -0.271609 0.0733676 62 193 255
0.112563 -0.0874224 0.0370462 109 146 255
0.126716 -0.480881 -0.0750073 8 247 255
-0.0874374 -0.487422 -0.500454 7 248 255
0.190818 -0.167435 -0.416427 88 167 255
0.0750626 -0.299922 -0.0254538 55 200 255
0.0230134 -0.294137 -0.483659 56 199 255
0.197231 -0.391566 0.303973 31 224 255
0.183449 -0.121968 0.273204 100 155 255
0.0750626 -0.387422 -0.237954 32 223 255
0.185217 -0.233159 0.142052 72 183 255
0.100014 -0.386089 -0.147805 32 222 255
0.00549777 -0.109984 -0.474696 103 152 255
0.188738 -0.15733 -0.0485801 91 163 255
-0.212437 -0.399922 0.0870461 29 226 255
0.197197 -0.226527 0.294851 73 182 255
0.186578 -0.338025 0.0954167 44 210 255
0.181058 -0.426759 0.183566 22 233 255
0.190213 -0.372544 -0.00586105 36 219 255
-0.137437 -0.312422 -0.487954 51 204 255
-0.144646 -0.485455 -0.0240576 7 248 255
0.0750626 -0.262422 -0.250454 64 191 255
0.0875626 -0.149922 0.324546 93 162 255
0.186498 -0.28048 -0.236758 60 195 255
0.190182 -0.137602 -0.275835 96 159 255
0.0750626 -0.112422 -0.387954 103 152 255
-0.200312 -0.485639 0.0652581 7 248 255
-0.00740861 -0.178902 -0.48673 86 169 255
0.178045 -0.232882 0.0101355 72 183 255
0.189136 -0.427817 -0.287629 22 233 255
0.183041 -0.232788 -0.155578 72 183 255
0.0750626 -0.212422 0.162046 77 178 255
0.191972 -0.365171 -0.218264 38 217 255
0.181452 -0.16068 -0.473472 89 165 255
0.188718 -0.429523 -0.101745 21 234 255
0.187437 -0.128587 -0.365118 97 157 255
-0.162437 -0.424922 -0.500454 23 232 255
0.192953 -0.303696 0.228567 54 201 255
0.16724 -0.477175 -0.0270389 9 246 255
0.115622 -0.0967774 -0.203876 107 147 255
0.188816 -0.325758 -0.455159 48 207 255
-0.235808 -0.442311 -0.0822917 18 237 255
-0.0782736 -0.193642 -0.492691 81 173 255
0.0500626 -0.487422 0.387046 7 248 255
0.189539 -0.145595 0.180608 94 161 255
0.184499 -0.449414 -0.367015 16 239 255
-0.0376825 -0.386761 -0.483695 32 223 255
0.0750626 -0.337422 -0.425454 44 210 255
0.112563 -0.249922 0.0870461 67 188 255
0.188399 -0.464139 0.0342227 13 242 255
0.190616 -0.265109 -0.342752 63 192 255
0.183969 -0.12025 0.0602062 101 154 255
0.155519 -0.102346 -0.111848 105 150 255
-0.220723 -0.484913 -0.0341098 7 248 255
0.189457 -0.33268 -0.378032 46 209 255
-0.322158 -0.42122 -0.133998 24 231 255
0.180598 -0.39629 0.0467881 30 225 255
-0.354725 -0.462139 -0.013167 13 242 255
0.183608 -0.273255 -0.0913983 60 194 255
0.171542 -0.119256 -0.00698979 101 154 255
0.190191 -0.211129 -0.220836 77 178 255
0.190641 -0.354545 -0.284163 40 214 255
0.187759 -0.483246 0.106327 8 247 255
0.190848 -0.327448 -0.172459 48 207 255
0.100063 -0.0999224 0.237046 105 149 255
0.152963 -0.48451 -0.469597 7 248 255
0.0750626 -0.312422 -0.337954 51 204 255
0.190702 -0.126445 -0.223031 99 156 255
-0.0874374 -0.487422 0.262046 7 248 255
0.19123 -0.350622 -0.0983268 42 213 255
0.145537 -0.104727 -0.484502 105 150 255
0.177339 -0.45733 0.353328 14 241 255
0.0875626 -0.0999224 0.149546 105 149 255
0.190207 -0.183712 0.145747 84 171 255
0.168435 -0.350391 -0.477084 42 213 255
0.190634 -0.121107 -0.102672 100 155 255
-0.0228345 -0.269468 -0.487765 62 193 255
0.195108 -0.319175 0.278431 50 205 255
0.191424 -0.111227 -0.311549 103 152 255
0.188803 -0.460147 -0.254104 14 241 255
0.112717 -0.414143 -0.109166 25 230 255
0.0750626 -0.437422 0.224546 19 236 255
-0.307338 -0.465635 0.0360988 12 243 255
0.190368 -0.187984 -0.289344 83 172 255
0.0750626 -0.212422 -0.362954 77 178 255
0.190078 -0.23404 -0.39271 71 184 255
0.0875626 -0.249922 0.337046 67 188 255
0.188547 -0.453269 0.264941 15 240 255
0.0750626 -0.337422 -0.237954 44 210 255
-0.199937 -0.399922 0.0120461 29 226 255
-0.0999374 -0.487422 0.387046 7 248 255
0.182885 -0.479087 -0.41801 9 246 255
0.189721 -0.301336 0.0405643 54 201 255
0.0750626 -0.424922 -0.262954 23 232 255
0.187804 -0.323297 0.156223 48 206 255
0.186772 -0.453865 -0.131873 15 240 255
-0.0624374 -0.0874224 -0.500454 109 146 255
-0.383045 -0.451858 -0.0785148 16 239 255
0.189315 -0.208749 0.088707 78 177 255
0.18779 -0.249257 -0.468111 68 187 255
-0.279689 -0.486726 -0.106668 7 248 255
-0.324937 -0.399922 0.187046 29 226 255
0.190379 -0.389007 0.203454 32 223 255
0.165881 -0.437809 -0.471187 19 236 255
0.191367 -0.378268 -0.148462 35 220 255
0.174235 -0.395786 -0.0489276 30 225 255
-0.18585 -0.485837 -0.0737936 7 248 255
-0.317014 -0.461874 -0.164133 13 242 255
0.0750626 -0.0874224 -0.250454 109 146 255
-0.237816 -0.485298 0.0764311 7 248 255
0.175698 -0.110324 -0.170088 103 152 255
0.134047 -0.482091 -0.0229047 8 247 255
0.187454 -0.449971 -0.0297955 16 239 255
0.00884592 -0.479241 -0.486474 9 246 255
-0.285954 -0.4646 0.124844 12 243 255
0.192168 -0.257035 -0.183112 65 189 255
0.190962 -0.244573 -0.0213603 69 186 255
0.148186 -0.484741 0.0591847 7 248 255
0.190549 -0.127292 -0.392917 99 156 255
0.0750626 -0.212422 0.0370462 77 178 255
0.196761 -0.254381 0.296276 65 189 255
0.185704 -0.167259 0.0155799 89 166 255
0.191457 -0.438146 0.194464 19 236 255
0.166739 -0.104134 -0.0496799 105 150 255
0.189915 -0.311164 -0.0504007 52 203 255
0.191685 -0.203944 -0.103307 79 176 255
0.144679 -0.485031 0.291587 7 248 255
0.188344 -0.396662 -0.45681 30 225 255
0.185296 -0.422646 0.0903476 23 232 255
0.187464 -0.291847 -0.288604 56 198 255
0.0622856 -0.148102 -0.485205 93 162 255
0.0750626 -0.212422 -0.0754538 77 178 255
0.0875626 -0.0749224 -0.375454 112 143 255
0.190153 -0.184155 -0.454119 84 171 255
-0.174937 -0.424922 -0.100454 23 232 255
0.0750626 -0.124922 0.0995462 99 156 255
-0.224937 -0.487422 -0.375454 7 248 255
0.200063 -0.362422 0.362046 39 216 255
0.176938 -0.454761 -0.201381 15 240 255
0.171565 -0.0967933 -0.27301 107 147 255
0.188912 -0.298453 -0.424606 55 200 255
0.125063 -0.387422 0.337046 32 223 255
0.190533 -0.389869 -0.236691 32 223 255
-0.254805 -0.485916 -0.000253026 7 248 255
-0.362303 -0.485515 -0.0370012 7 248 255
0.190445 -0.219834 0.207378 75 179 255
0.180381 -0.345211 0.0017064 43 211 255
-0.102336 -0.48599 -0.0574803 7 248 255
0.183991 -0.125628 0.253982 99 156 255
-0.212437 -0.487422 0.237046 7 248 255
0.0750626 -0.262422 -0.300454 64 191 255
0.186711 -0.198946 -0.321524 80 175 255
0.186314 -0.412946 0.296576 26 229 255
0.189494 -0.297678 0.127375 55 200 255
0.189598 -0.288375 0.213728 58 197 255
0.183558 -0.179503 -0.188103 85 170 255
0.189873 -0.178888 -0.0335344 86 169 255
0.18156 -0.384267 0.16429 32 222 255
0.00913698 -0.399161 -0.476287 29 226 255
-0.149937 -0.374922 -0.500454 35 220 255
0.164586 -0.282977 -0.476692 59 195 255
0.0750626 -0.424922 -0.350454 23 232 255
0.188797 -0.48469 0.171648 7 248 255
0.104061 -0.36913 0.00789436 36 218 255
0.190428 -0.257292 0.0656411 65 190 255
0.17458 -0.11013 -0.478101 103 152 255
0.190623 -0.240262 -0.245136 70 185 255
-0.00963592 -0.238971 -0.485985 70 185 255
0.18961 -0.325316 -0.335063 48 207 255
0.135962 -0.463154 -0.117775 13 242 255
0.189613 -0.14067 0.0793508 95 160 255
0.11043 -0.473986 -0.476243 10 245 255
-0.0999374 -0.487422 -0.275454 7 248 255
0.190924 -0.340406 0.237219 44 211 255
0.0750626 -0.337422 0.0870461 44 210 255
0.18641 -0.455872 -0.32596 15 240 255
0.186636 -0.130421 0.181099 97 157 255
0.183777 -0.338195 -0.197858 44 210 255
0.0213802 -0.116552 -0.485837 102 153 255
-0.25791 -0.43744 -0.0842173 19 236 255
0.172712 -0.460807 -0.00298557 13 242 255
0.112563 -0.199922 0.0870461 80 175 255
0.178007 -0.134838 -0.111355 97 158 255
0.170993 -0.443956 -0.0953761 18 237 255
0.186358 -0.338914 0.0676798 44 210 255
0.156251 -0.47797 -0.190975 9 246 255
-0.291617 -0.480613 -0.0352108 8 247 255
0.100311 -0.386358 -0.139404 32 223 255
0.183487 -0.328769 -0.132135 47 208 255
0.190848 -0.169653 -0.374255 88 167 255
0.0750626 -0.237422 0.237046 71 184 255
-0.174937 -0.412422 -0.0254538 26 229 255
0.187814 -0.398253 0.0135836 29 226 255
0.170719 -0.104452 0.0237929 105 150 255
-0.220901 -0.477821 0.0504275 9 246 255
0.189804 -0.213245 -0.140567 77 178 255
0.182999 -0.274391 -0.0603567 60 194 255
0.184977 -0.453399 -0.411106 15 240 255
0.190305 -0.213558 0.0411533 77 178 255
0.0750626 -0.187422 -0.400454 83 172 255
0.125928 -0.481907 -0.0639849 8 247 255
0.0750626 -0.362422 0.337046 39 216 255
0.000755831 -0.182971 -0.485688 85 170 255
6.26276e-05 -0.487422 0.0995462 7 248 255
0.190495 -0.244454 -0.294721 69 186 255
0.171448 -0.204891 -0.469043 79 176 255
0.181368 -0.377948 0.118515 35 220 255
0.192601 -0.125332 -0.0280548 99 156 255
0.173442 -0.46714 -0.48687 12 243 255
0.187807 -0.441894 0.120001 18 237 255
-0.112437 -0.274922 -0.500454 60 194 255
-0.322358 -0.421291 -0.133784 23 232 255
0.186884 -0.109949 -0.338529 103 152 255
0.133101 -0.0958408 -0.0885271 107 147 255
0.180539 -0.39694 -0.138081 30 225 255
0.0750626 -0.199922 0.337046 80 175 255
0.183909 -0.121905 0.284995 100 155 255
0.166591 -0.484987 0.301473 7 248 255
-0.171339 -0.484644 -0.0363295 7 248 255
0.189757 -0.231016 -0.418886 72 183 255
0.189533 -0.206763 0.123102 78 177 255
0.0750626 -0.287422 0.0245461 58 197 255
-0.0715897 -0.173658 -0.492833 87 168 255
0.109989 -0.397047 -0.0824023 30 225 255
0.19059 -0.165445 -0.260875 89 166 255
0.183298 -0.125536 0.131626 99 156 255
0.181707 -0.367737 -0.472308 36 218 255
0.139184 -0.109231 -0.484128 103 152 255
0.194897 -0.433967 0.287175 20 235 255
0.192099 -0.283275 -0.18024 59 195 255
0.0750626 -0.199922 -0.300454 80 175 255
-0.0374374 -0.487422 0.349546 7 248 255
-0.300238 -0.486706 -0.152427 7 248 255
0.188767 -0.267655 0.15162 63 192 255
0.189181 -0.409689 -0.043947 26 229 255
0.100063 -0.112422 0.312046 103 152 255
-0.277233 -0.47493 0.0583879 10 245 255
0.189806 -0.151162 0.208224 93 162 255
0.189034 -0.280207 -0.368963 60 195 255
0.0750626 -0.412422 0.212046 26 229 255
0.188965 -0.448049 0.229627 17 238 255
0.0750626 -0.274922 -0.375454 60 194 255
0.19063 -0.344442 -0.265015 43 211 255
0.0750626 -0.437422 -0.300454 19 236 255
0.0750626 -0.124922 -0.350454 99 156 255
0.0750626 -0.399922 0.0995462 29 226 255
-0.23906 -0.485355 -0.0517767 7 248 255
0.18171 -0.473638 0.346981 10 245 255
0.169833 -0.153222 -0.469867 92 163 255
0.17732 -0.220362 -0.000837903 75 179 255
0.18894 -0.466474 -0.246268 12 243 255
0.189531 -0.480924 0.0652609 8 247 255
0.191117 -0.402158 -0.183827 28 227 255
-0.237437 -0.487422 0.187046 7 248 255
0.188917 -0.347295 -0.380987 42 213 255
0.189528 -0.33019 -0.0377055 47 208 255
0.0750626 -0.362422 -0.425454 39 216 255
0.0875626 -0.424922 0.337046 23 232 255
0.176555 -0.116723 -0.182174 101 154 255
0.086238 -0.456514 -0.489498 14 241 255
0.190674 -0.237075 0.226992 71 184 255
0.189927 -0.181889 -0.069685 85 170 255
0.00114267 -0.290235 -0.486116 56 198 255
-0.174937 -0.437422 -0.500454 19 236 255
-0.381587 -0.455869 -0.0816787 15 240 255
0.190433 -0.242033 -0.119401 69 186 255
0.181459 -0.283265 0.0243647 59 195 255
-0.139778 -0.485708 -0.0658912 7 248 255
0.169405 -0.309767 -0.474149 52 203 255
-0.362437 -0.399922 0.174546 29 226 255
0.167945 -0.474256 0.0571051 10 245 255
0.186465 -0.430908 -0.451065 21 234 255
-0.204868 -0.485799 0.0096108 7 248 255
-0.00394532 -0.386208 -0.488149 32 223 255
0.194236 -0.370226 0.263993 36 218 255
0.182591 -0.172617 -0.216 87 168 255
0.0750626 -0.362422 -0.300454 39 216 255
0.125063 -0.187422 -0.112954 83 172 255
0.190902 -0.154681 -0.419836 92 163 255
0.0875626 -0.0749224 -0.425454 112 143 255
-0.269035 -0.486926 -0.112744 7 248 255
0.171751 -0.485409 0.180035 7 248 255
0.174904 -0.467982 -0.0894157 12 243 255
0.164168 -0.244211 -0.478668 69 186 255
0.0750626 -0.287422 -0.237954 58 197 255
0.190485 -0.35938 0.188855 39 216 255
0.137563 -0.0999224 0.224546 105 149 255
0.185266 -0.452727 -0.34913 15 240 255
-0.212437 -0.412422 -0.112954 26 229 255
0.190297 -0.20527 -0.360754 79 176 255
0.129951 -0.382654 -0.151058 32 222 255
0.187305 -0.368905 0.0604817 36 218 255
0.193007 -0.125893 0.0327085 99 156 255
0.184696 -0.395101 -0.274991 30 225 255
0.0750626 -0.187422 -0.237954 83 172 255
0.0750626 -0.237422 0.174546 71 184 255
0.189324 -0.294294 0.0934888 56 199 255
0.153917 -0.456157 -0.472892 15 240 255
0.178509 -0.0978033 -0.270594 105 149 255
0.190964 -0.380072 -0.100603 34 221 255
-0.0999374 -0.487422 0.249546 7 248 255
-0.306983 -0.468376 0.0125277 11 244 255
0.191587 -0.274154 -0.212462 60 194 255
0.190807 -0.141229 -0.140599 95 160 255
0.186651 -0.427454 0.0226177 22 233 255
0.17592 -0.435469 -0.154054 20 235 255
0.190672 -0.168104 0.0792004 88 167 255
-0.199937 -0.399922 0.0370462 29 226 255
0.165377 -0.104304 -0.0536953 105 150 255
0.190388 -0.403142 0.139254 28 227 255
0.0750626 -0.424922 0.262046 23 232 255
0.190674 -0.179098 0.152674 85 170 255
0.188492 -0.435736 -0.0832487 20 235 255
0.0504324 -0.141006 -0.48486 95 160 255
0.188995 -0.284329 -0.426981 59 195 255
0.190631 -0.261651 -0.341439 64 191 255
0.194618 -0.306949 0.264458 52 202 255
0.100063 -0.462422 0.387046 13 242 255
0.173006 -0.469067 0.00296403 11 244 255
0.190285 -0.245188 -0.0608143 69 186 255
0.184378 -0.339796 -0.229389 44 211 255
0.181847 -0.339737 -0.086083 44 211 255
0.177418 -0.473746 -0.409283 10 245 255
0.0875626 -0.0749224 -0.500454 112 143 255
-0.377102 -0.455468 -0.0285114 15 240 255
0.192278 -0.191858 -0.159177 81 173 255
0.187533 -0.483748 0.139531 8 247 255
-0.257717 -0.48535 0.0877515 7 248 255
0.125063 -0.287422 0.0745462 58 197 255
0.18857 -0.337327 -0.430693 44 210 255
0.18946 -0.318244 0.180435 50 205 255
0.185712 -0.225667 -0.286741 73 181 255
0.0750626 -0.274922 -0.425454 60 194 255
0.0750626 -0.0874224 -0.162954 109 146 255
-0.224937 -0.487422 -0.350454 7 248 255
0.184504 -0.29215 -0.13319 56 198 255
0.190527 -0.246522 0.0909517 68 187 255
0.190926 -0.14096 -0.293923 95 160 255
0.193005 -0.416361 0.248277 25 230 255
0.188803 -0.308799 -0.322087 52 203 255
0.200063 -0.312422 0.349546 51 204 255
-0.0126701 -0.245916 -0.486909 68 187 255
0.0750626 -0.362422 -0.375454 39 216 255
0.0750626 -0.162422 -0.425454 89 165 255
0.192533 -0.121645 -0.0636294 100 155 255
0.178827 -0.378026 -0.0296034 35 220 255
-0.279244 -0.484815 -0.0644066 7 248 255
0.193002 -0.412569 0.319829 26 229 255
0.190162 -0.288819 -0.0307371 56 198 255
0.186792 -0.332792 0.116218 46 209 255
0.189494 -0.219547 -0.454911 75 179 255
0.0125626 -0.487422 0.374546 7 248 255
0.187726 -0.194045 0.19538 81 173 255
