ply
format ascii 1.0
comment Created by Open3D
element vertex 1194
property double x
property double y
property double z
property uchar red
property uchar green
property uchar blue
end_header
0.176912 -0.193509 0.0229296 75 179 255
0.141267 -0.487207 0.239641 0 255 255
-0.076375 -0.487433 0.185919 0 255 255
0.0935857 -0.388864 0.306841 25 230 255
0.126909 -0.487202 0.0339823 0 255 255
0.125989 -0.15127 0.302935 86 169 255
-0.322525 -0.342659 0.124351 36 218 255
-0.146574 -0.252767 0.31204 60 195 255
0.180846 -0.304092 -0.200008 47 208 255
0.137056 -0.0780657 -0.325785 105 150 255
0.00187182 -0.306606 -0.330614 46 209 255
0.120756 -0.484663 -0.289489 1 254 255
-0.0176716 -0.140328 0.308368 89 166 255
0.0371253 -0.487378 -0.173205 0 255 255
-0.000274883 -0.12718 -0.329501 92 163 255
-0.0554922 -0.200701 -0.330239 73 182 255
0.101103 -0.389932 -0.0684531 25 230 255
0.100651 -0.454795 0.307398 8 247 255
0.183736 -0.413812 0.183751 19 236 255
0.0348173 -0.487484 -0.0954565 0 255 255
-0.077073 -0.44815 -0.325573 10 245 255
0.177945 -0.19036 0.143961 76 179 255
0.179257 -0.298732 0.0230774 48 207 255
0.124986 -0.137492 -0.187532 89 165 255
0.0625906 -0.167855 -0.329283 81 173 255
0.152699 -0.254668 0.3023 60 195 255
0.178455 -0.288766 -0.255779 51 204 255
0.0680835 -0.335144 0.295883 39 216 255
0.176799 -0.240296 -0.0888779 63 192 255
0.177373 -0.36057 -0.305185 32 223 255
-0.037805 -0.330618 0.307206 40 215 255
-0.0927472 -0.290007 -0.324833 50 205 255
0.178784 -0.0802224 -0.185362 104 151 255
-0.163969 -0.460077 0.307921 7 248 255
0.167817 -0.436247 0.0797021 13 242 255
0.144009 -0.223774 -0.325798 67 188 255
0.0378379 -0.362867 -0.329935 32 223 255
0.176093 -0.134361 -0.0412303 89 165 255
-0.212201 -0.487731 0.219766 0 255 255
-0.152313 -0.433365 -0.318449 14 241 255
0.123435 -0.434499 -0.327189 13 242 255
0.180807 -0.351966 -0.207326 35 220 255
-0.393118 -0.357665 -0.167334 32 222 255
0.180054 -0.345399 -0.0850599 36 219 255
0.0913097 -0.355473 -0.125145 34 221 255
0.0506262 -0.263377 0.299103 56 198 255
0.182991 -0.289677 0.127618 51 204 255
0.178336 -0.114293 0.233083 95 160 255
-0.337514 -0.374992 0.174968 29 226 255
0.18151 -0.41732 -0.233804 18 237 255
-0.104606 -0.353255 -0.329516 34 221 255
0.176496 -0.120255 -0.311832 94 161 255
-0.141287 -0.358298 0.302315 32 222 255
0.168373 -0.376501 0.275926 28 227 255
0.00496666 -0.420701 -0.330265 17 238 255
0.0188894 -0.421405 0.299605 17 238 255
-0.237514 -0.324992 0.0624677 42 213 255
-0.0844544 -0.486874 0.290751 0 255 255
0.179519 -0.422511 -0.00300131 17 238 255
0.0972297 -0.355738 -0.212389 34 221 255
0.182414 -0.326869 -0.0235061 40 214 255
-0.0904707 -0.297172 0.308306 48 206 255
0.176096 -0.362359 0.0784656 32 223 255
0.179223 -0.278541 -0.137202 52 202 255
0.162084 -0.441189 0.250367 12 243 255
-0.104788 -0.150677 0.311304 86 169 255
0.0434164 -0.14329 0.305015 88 167 255
0.170694 -0.189695 0.25126 76 179 255
0.147664 -0.481821 -0.106429 1 254 255
-0.165626 -0.285169 0.304502 52 203 255
0.163411 -0.486091 0.0403954 0 255 255
0.172649 -0.105617 0.0659757 97 157 255
-0.022265 -0.487341 -0.283463 0 255 255
0.152846 -0.482989 0.303038 1 254 255
0.155448 -0.113613 0.291606 96 159 255
-0.423199 -0.342961 0.0955932 36 218 255
0.172448 -0.185258 -0.0995403 77 178 255
0.174833 -0.290091 0.203974 50 205 255
0.181452 -0.220995 -0.246322 68 187 255
0.177081 -0.20549 -0.0161892 72 183 255
0.180744 -0.127979 0.182151 92 163 255
-0.139496 -0.48728 -0.247677 0 255 255
0.133291 -0.379506 -0.326781 28 227 255
-0.144689 -0.284447 -0.32378 52 203 255
-0.225387 -0.487628 0.287662 0 255 255
0.164921 -0.297174 -0.32443 48 206 255
-0.0644271 -0.48745 -0.143832 0 255 255
-0.0222745 -0.233681 0.299848 65 190 255
0.182209 -0.12214 -0.191192 93 162 255
-0.212514 -0.324992 -0.262532 42 213 255
0.0621157 -0.287613 -0.329284 51 204 255
0.17999 -0.449061 -0.161093 10 245 255
0.0553847 -0.462679 0.300954 6 249 255
-0.0750145 -0.0874916 -0.337532 102 153 255
0.183838 -0.171958 -0.290481 81 174 255
-0.117504 -0.406592 0.30443 21 234 255
0.180494 -0.366451 -0.141053 31 224 255
0.0995781 -0.116254 -0.330314 95 160 255
0.0764854 -0.196265 0.300396 73 181 255
-0.40591 -0.337343 -0.111492 38 217 255
-0.087729 -0.184205 -0.32504 78 177 255
-0.0531358 -0.390031 -0.320552 25 230 255
0.177431 -0.245835 0.0256284 62 193 255
-0.209883 -0.487503 0.0471943 0 255 255
0.171019 -0.474454 -0.239537 3 252 255
-0.0879619 -0.487501 0.23168 0 255 255
0.00388812 -0.309075 0.306843 46 209 255
0.159907 -0.478527 -0.0207563 2 253 255
-0.252967 -0.487624 0.121821 0 255 255
0.178013 -0.0876371 -0.108441 102 153 255
0.17548 -0.0855391 -0.241981 103 152 255
-0.0496404 -0.271682 -0.330413 55 200 255
0.178553 -0.395217 0.123812 24 231 255
0.182623 -0.357889 -0.261649 32 222 255
0.071231 -0.434899 -0.319283 13 242 255
0.0345986 -0.215798 -0.329972 69 186 255
0.172264 -0.309688 0.266095 44 210 255
-0.078398 -0.487156 0.0847698 0 255 255
-0.242905 -0.486312 -0.0173811 0 255 255
0.184946 -0.159722 0.113125 84 171 255
0.0495828 -0.390036 0.305842 25 230 255
0.180322 -0.187675 -0.196005 77 178 255
-0.105225 -0.48733 -0.31619 0 255 255
0.184712 -0.334488 0.03434 39 216 255
0.0405826 -0.487485 -0.0646799 0 255 255
-0.057024 -0.435964 0.309463 13 242 255
0.114464 -0.18907 -0.326026 76 179 255
-0.0137607 -0.15643 -0.329474 85 170 255
0.117223 -0.23019 0.30287 65 189 255
-0.225014 -0.312492 0.124968 44 210 255
0.0499855 -0.437492 -0.175032 13 242 255
-0.0277933 -0.3238 -0.328495 42 213 255
-0.184035 -0.37569 0.302835 29 226 255
-0.180935 -0.487294 -0.0540079 0 255 255
0.0374855 -0.0874916 0.287468 102 153 255
0.181076 -0.412901 -0.0938219 19 236 255
-0.425014 -0.362492 0.162468 32 223 255
0.162347 -0.422477 -0.29295 17 238 255
0.177959 -0.296263 0.0842316 48 206 255
-0.0794505 -0.371219 0.308038 30 225 255
-0.212514 -0.337492 -0.200032 38 217 255
-0.100014 -0.0999916 0.312468 99 156 255
-0.353339 -0.33503 -0.160077 39 216 255
-0.156863 -0.34299 -0.329561 36 218 255
-0.109403 -0.201678 0.302842 73 182 255
0.180673 -0.296346 -0.0832751 48 206 255
0.176906 -0.425977 0.268982 16 239 255
-0.018076 -0.487484 -0.182731 0 255 255
0.182282 -0.141716 -0.000323524 88 167 255
-0.412583 -0.365603 0.0652078 31 224 255
0.184786 -0.0915582 0.0964202 101 154 255
-0.116531 -0.410496 -0.328255 20 235 255
0.116296 -0.330246 -0.238444 40 215 255
0.175208 -0.38114 0.204587 27 228 255
0.102392 -0.310786 0.302984 44 210 255
0.0112341 -0.461916 -0.327924 6 249 255
-0.312514 -0.374992 0.0124677 29 226 255
-0.0333929 -0.161936 0.300795 83 172 255
0.175223 -0.48308 -0.0152829 1 254 255
0.16847 -0.48665 -0.268853 0 255 255
0.115536 -0.324935 -0.326506 42 213 255
0.0986468 -0.487289 -0.0818439 0 255 255
0.0971762 -0.140322 0.30236 89 166 255
0.0410623 -0.105284 -0.329259 97 157 255
0.127692 -0.435547 0.30869 13 242 255
0.185298 -0.206195 0.0885195 72 183 255
-0.0739434 -0.487208 0.171861 0 255 255
0.171798 -0.216405 -0.322398 69 186 255
0.0192166 -0.487283 -0.261158 0 255 255
-0.0257556 -0.271965 0.308902 55 200 255
0.174948 -0.30367 0.158617 47 208 255
0.179432 -0.268029 -0.0373624 56 199 255
0.180926 -0.0956166 -0.278037 100 155 255
0.178889 -0.4097 0.0431581 20 235 255
0.172831 -0.110768 -0.0415368 96 159 255
0.179024 -0.171563 0.180718 81 174 255
0.0970328 -0.486525 -0.227118 0 255 255
0.162312 -0.307984 -0.204669 46 209 255
0.170527 -0.153451 -0.120077 85 170 255
-0.012192 -0.374424 -0.330227 29 226 255
0.155911 -0.481961 0.233179 1 254 255
0.079225 -0.372873 -0.154014 29 226 255
-0.105225 -0.227956 -0.329275 65 189 255
0.175169 -0.236063 0.266647 64 191 255
0.159455 -0.132463 0.303524 91 163 255
0.165972 -0.407602 -0.209092 20 235 255
0.10158 -0.38364 -0.0692473 27 228 255
-0.166106 -0.412907 0.307517 19 236 255
-0.141155 -0.230582 0.312233 65 189 255
0.117483 -0.259774 -0.326217 58 197 255
-0.0152023 -0.354934 0.301552 34 221 255
0.144338 -0.13472 -0.327227 89 165 255
0.179496 -0.155919 0.043579 85 170 255
0.168198 -0.387692 -0.045585 25 230 255
0.118133 -0.48598 -0.292506 0 255 255
-0.217473 -0.487655 0.201269 0 255 255
0.0137163 -0.265177 -0.323373 56 198 255
-0.120068 -0.314803 0.302177 44 211 255
0.0412434 -0.214923 0.301977 70 185 255
0.1775 -0.239594 0.154508 63 192 255
-0.11478 -0.461161 0.308984 7 248 255
-0.390997 -0.33644 0.105564 39 216 255
0.0999855 -0.312492 0.237468 44 210 255
0.172943 -0.228092 -0.143566 65 189 255
0.0499855 -0.424992 -0.237532 16 239 255
0.0542222 -0.369757 -0.329073 30 225 255
0.178691 -0.285395 -0.258335 52 203 255
0.176094 -0.168005 -0.0443789 81 173 255
0.177952 -0.451646 -0.090109 9 246 255
-0.0334676 -0.487431 -0.302487 0 255 255
0.176101 -0.345248 0.161044 36 219 255
0.169639 -0.181916 -0.223143 78 177 255
0.118097 -0.486817 0.292635 0 255 255
0.174986 -0.0624916 -0.325032 109 146 255
-0.0680767 -0.230857 0.304744 65 189 255
0.165953 -0.282549 -0.116013 52 203 255
0.0280302 -0.458841 0.302987 7 248 255
-0.16612 -0.487297 -0.289822 0 255 255
0.131059 -0.450009 -0.0939261 10 245 255
0.0499855 -0.324992 -0.200032 42 213 255
0.0979756 -0.40751 0.293655 20 235 255
-0.0893997 -0.345375 -0.320213 36 219 255
0.179957 -0.105969 0.201752 97 157 255
-0.237514 -0.412492 0.312468 19 236 255
0.166987 -0.330067 -0.0563423 40 215 255
0.17792 -0.244615 0.206973 62 193 255
0.0283583 -0.16699 -0.329989 81 173 255
0.180016 -0.392955 -0.302056 24 231 255
0.185255 -0.253228 0.0613162 60 195 255
-0.179005 -0.467955 0.304751 5 250 255
0.180517 -0.378282 -0.170482 28 227 255
0.183562 -0.437043 0.162803 13 242 255
0.0525006 -0.487305 -0.309342 0 255 255
0.140263 -0.269691 0.304798 56 199 255
0.0322647 -0.321642 -0.32176 42 213 255
0.0187557 -0.487362 -0.218328 0 255 255
0.0632765 -0.302354 0.297964 47 208 255
-0.171527 -0.374702 -0.323293 29 226 255
-0.287514 -0.487492 0.249968 0 255 255
0.172953 -0.33609 0.261953 39 216 255
0.170094 -0.119159 -0.149111 94 161 255
0.122268 -0.48726 0.0117445 0 255 255
0.182116 -0.320652 -0.302543 43 211 255
0.177813 -0.370231 0.0370645 30 225 255
-0.205177 -0.487457 0.0126116 0 255 255
-0.0163063 -0.194174 0.300438 75 179 255
-0.165209 -0.334768 0.30206 39 216 255
0.177777 -0.25888 -0.212588 58 197 255
-0.300014 -0.337492 0.174968 38 217 255
0.180923 -0.131101 0.137734 91 163 255
-0.0512422 -0.444762 -0.324838 11 244 255
0.0874855 -0.0749916 0.299968 105 149 255
0.178666 -0.215497 -0.0858702 70 185 255
0.165196 -0.207166 0.2944 72 183 255
-0.23941 -0.486456 0.12663 0 255 255
0.177387 -0.429484 0.0847814 15 240 255
0.0672144 -0.217851 -0.328919 69 186 255
-0.026393 -0.235602 -0.329187 64 191 255
0.124986 -0.387492 0.212468 26 229 255
0.179355 -0.459294 0.24856 7 248 255
0.0307414 -0.350023 0.299098 35 220 255
-0.105781 -0.15883 0.300714 84 171 255
0.187486 -0.0624916 0.0124677 109 146 255
0.167234 -0.272421 -0.308866 55 200 255
-0.116639 -0.293627 -0.330707 50 205 255
0.178876 -0.123846 0.255364 93 162 255
-0.133356 -0.457246 -0.330096 8 247 255
-0.381807 -0.347537 -0.171827 36 219 255
0.18228 -0.454533 -0.251163 8 247 255
-0.212514 -0.349992 0.174968 35 220 255
-0.00352542 -0.137673 0.300477 89 166 255
-0.0452912 -0.15264 -0.33083 86 169 255
0.0499855 -0.437492 -0.112532 13 242 255
0.182849 -0.150134 -0.272757 86 169 255
0.177339 -0.336808 0.112672 38 217 255
0.181433 -0.437392 -0.044305 13 242 255
0.142361 -0.078941 -0.325554 105 150 255
0.132718 -0.39897 -0.327438 23 232 255
-0.0502072 -0.391708 0.304545 24 231 255
-0.0961067 -0.266121 0.30374 56 198 255
0.180659 -0.425799 -0.138813 16 239 255
-0.0947467 -0.487158 0.228556 0 255 255
0.078408 -0.317504 -0.315425 43 211 255
0.0810298 -0.250989 0.295505 60 195 255
0.163024 -0.457601 0.201807 8 247 255
0.167323 -0.331419 -0.118657 40 215 255
0.063302 -0.140742 -0.331709 89 166 255
-0.0752677 -0.461677 0.309444 7 248 255
-0.0746176 -0.487393 0.098389 0 255 255
0.083054 -0.357702 0.307778 32 222 255
0.179951 -0.185575 -0.153567 77 178 255
0.179011 -0.267994 -0.013884 56 199 255
-0.0907647 -0.390246 -0.326941 25 230 255
0.169255 -0.47158 -0.198119 4 251 255
0.178441 -0.212957 0.0514301 70 185 255
-0.412143 -0.335904 0.0548248 39 216 255
-0.223844 -0.487609 0.289381 0 255 255
0.0776879 -0.357356 -0.209832 32 222 255
0.179968 -0.0905696 -0.213973 102 153 255
0.12721 -0.173304 0.302825 80 175 255
-0.173625 -0.487285 -0.056732 0 255 255
0.053449 -0.406239 -0.328246 21 234 255
-0.141421 -0.487287 -0.25562 0 255 255
0.183143 -0.195495 0.199128 75 179 255
0.177841 -0.123251 0.032739 93 162 255
-0.0603385 -0.487467 -0.15026 0 255 255
0.166464 -0.485056 -0.0431019 1 254 255
-0.0873755 -0.33839 0.305302 38 217 255
-0.312514 -0.324992 -0.0500323 42 213 255
0.177514 -0.44932 0.0362651 10 245 255
0.179773 -0.329467 -0.193165 40 215 255
0.171553 -0.27543 0.228499 54 201 255
0.178128 -0.393994 0.143694 24 231 255
0.180674 -0.359739 -0.0182835 32 222 255
-0.187514 -0.337492 -0.225032 38 217 255
0.186129 -0.307414 0.053141 46 209 255
0.159091 -0.165087 -0.327547 81 173 255
-0.0884251 -0.183014 -0.329357 78 177 255
0.176383 -0.394259 0.24182 24 231 255
0.0914007 -0.358879 -0.120391 32 222 255
0.146347 -0.482257 -0.103188 1 254 255
0.16892 -0.381665 -0.256552 27 228 255
-0.160561 -0.251857 0.304964 60 195 255
0.0355631 -0.48749 -0.0866791 0 255 255
0.0124855 -0.0874916 0.312468 102 153 255
0.181884 -0.27688 0.11556 54 201 255
0.185722 -0.116474 -0.099171 95 160 255
-0.217684 -0.487513 0.0508091 0 255 255
0.179834 -0.379609 -0.0954181 28 227 255
0.180295 -0.247097 -0.280819 60 194 255
0.179822 -0.199713 0.134101 73 181 255
0.181868 -0.33406 0.192094 39 216 255
0.101166 -0.438061 -0.326075 13 242 255
-0.0895061 -0.258269 -0.330155 59 195 255
0.146877 -0.357002 -0.322901 32 222 255
0.117856 -0.204379 -0.322543 72 183 255
-0.00869935 -0.25002 0.308842 60 194 255
0.020055 -0.487397 -0.191221 0 255 255
0.179817 -0.139662 -0.209063 89 166 255
0.170421 -0.277453 0.286633 54 201 255
0.0743274 -0.0979292 -0.325942 100 155 255
0.179997 -0.17703 0.241976 79 176 255
-0.0342935 -0.342588 -0.32696 36 218 255
0.0683557 -0.456254 0.298089 8 247 255
0.157745 -0.324723 -0.237636 42 213 255
0.043598 -0.150495 0.301178 86 169 255
0.173769 -0.0948148 0.0895957 100 155 255
0.141037 -0.367784 0.290551 31 224 255
0.176894 -0.210061 -0.000420959 71 184 255
-0.0213479 -0.434804 0.302618 13 242 255
0.129481 -0.487236 0.250116 0 255 255
0.102072 -0.487251 -0.0679316 0 255 255
-0.414942 -0.334706 -0.139904 39 216 255
0.124986 -0.162492 -0.137532 83 172 255
-0.00913182 -0.415359 -0.330313 18 237 255
-0.388526 -0.336696 0.114505 39 216 255
-0.21427 -0.487726 0.214942 0 255 255
-0.262514 -0.337492 -0.200032 38 217 255
0.00411919 -0.124867 -0.330532 93 162 255
-0.0516196 -0.299909 0.303834 48 207 255
0.174351 -0.232554 -0.216304 65 190 255
-0.212514 -0.324992 -0.300032 42 213 255
-0.174789 -0.450896 -0.323465 9 246 255
0.0576176 -0.487142 -0.289963 0 255 255
0.123525 -0.216288 0.292776 69 186 255
0.18078 -0.40204 -0.012979 22 233 255
-0.362514 -0.324992 -3.22518e-05 42 213 255
-0.0538977 -0.200244 0.300471 73 182 255
0.177457 -0.251048 -0.082804 60 195 255
0.0414218 -0.272707 -0.33026 55 200 255
0.177671 -0.179561 -0.0698602 79 176 255
0.117969 -0.291393 -0.326675 50 205 255
-0.175168 -0.377102 0.308302 28 227 255
0.0950821 -0.372129 -0.317487 29 226 255
-0.134244 -0.329633 -0.330537 40 215 255
0.175384 -0.381727 0.0913764 27 228 255
0.0306612 -0.297867 0.299986 48 207 255
0.178561 -0.270573 -0.14661 55 200 255
0.181446 -0.312503 -0.00952055 44 210 255
-0.0798292 -0.472696 -0.326057 4 251 255
-0.0749717 -0.487185 0.191216 0 255 255
-0.0867994 -0.487628 0.294115 0 255 255
0.154969 -0.349356 -0.0836183 35 220 255
0.172699 -0.467322 -0.250805 5 250 255
0.109813 -0.421927 0.30785 17 238 255
-0.11065 -0.389517 0.304016 25 230 255
-0.0239316 -0.186918 -0.329593 77 178 255
0.179496 -0.17672 0.0873842 79 176 255
0.180754 -0.108531 0.190019 97 158 255
0.187486 -0.0624916 -0.0375322 109 146 255
0.0244138 -0.392145 0.305066 24 231 255
0.10166 -0.281043 0.3029 52 202 255
0.0140071 -0.339949 -0.321609 38 217 255
0.048591 -0.487129 -0.229569 0 255 255
0.183785 -0.415281 0.180673 18 237 255
0.00738506 -0.462461 -0.324386 6 249 255
0.162895 -0.438014 0.296546 13 242 255
0.164335 -0.114382 0.300272 95 160 255
0.16753 -0.20227 -0.287972 73 182 255
0.166397 -0.476762 0.0361775 3 252 255
-0.312514 -0.374992 -0.0375322 29 226 255
-0.0229922 -0.266368 -0.323536 56 198 255
0.106343 -0.485553 -0.310029 0 255 255
0.124986 -0.137492 -0.237532 89 165 255
0.178853 -0.259591 0.17566 58 197 255
0.0759227 -0.371456 -0.171765 30 225 255
0.171333 -0.38275 -0.172661 27 228 255
-0.0855848 -0.145491 0.310696 87 168 255
0.179309 -0.438023 0.118679 13 242 255
0.169202 -0.321968 0.237908 42 213 255
-0.144218 -0.287857 -0.323702 51 204 255
-0.250014 -0.362492 0.0499678 32 223 255
-0.121361 -0.407443 -0.327915 20 235 255
-0.36751 -0.334535 -0.154384 39 216 255
0.171363 -0.308864 -0.320951 46 209 255
-0.248805 -0.487618 0.122678 0 255 255
0.119531 -0.113766 -0.326325 96 159 255
0.172758 -0.0941928 -0.119953 101 154 255
0.164834 -0.486658 -0.277998 0 255 255
0.086304 -0.248443 -0.327227 60 194 255
-0.214024 -0.487454 -0.000410178 0 255 255
-0.136208 -0.228462 0.312627 65 189 255
0.175998 -0.164617 -0.0103272 83 172 255
0.180877 -0.417799 -0.219832 18 237 255
0.160259 -0.16675 0.301647 81 173 255
-0.262514 -0.487492 0.312468 0 255 255
-0.109394 -0.205336 -0.328861 72 183 255
-0.119206 -0.487549 -0.31268 0 255 255
-0.071408 -0.487395 0.0966131 0 255 255
0.0735122 -0.150929 0.30013 86 169 255
0.0499855 -0.412492 -0.0750322 19 236 255
-0.172773 -0.366941 -0.321653 31 224 255
0.180165 -0.133068 -0.287034 91 163 255
0.180906 -0.135642 0.147801 89 165 255
-0.416702 -0.362793 0.0599817 32 223 255
-4.55193e-05 -0.487337 -0.259899 0 255 255
0.0462426 -0.194131 -0.324364 75 179 255
0.167395 -0.231629 -0.323309 65 190 255
-0.136796 -0.318464 0.301673 43 211 255
0.180913 -0.406133 -0.300328 21 234 255
0.16945 -0.153462 -0.179954 85 170 255
0.186388 -0.289063 0.0442457 51 204 255
0.1789 -0.338109 -0.147507 38 217 255
-0.057484 -0.337294 0.307575 38 217 255
-0.362514 -0.324992 0.174968 42 213 255
-0.212514 -0.312492 0.112468 44 210 255
0.107566 -0.334643 0.303841 39 216 255
0.112461 -0.331497 -0.215948 40 215 255
0.178501 -0.457681 0.244118 8 247 255
0.113169 -0.486375 -0.274442 0 255 255
0.154026 -0.480322 -0.0201757 2 253 255
0.179543 -0.364029 0.0419529 32 223 255
0.173718 -0.239701 -0.180576 63 192 255
-0.130615 -0.416476 0.307965 18 237 255
-0.144748 -0.487271 -0.254542 0 255 255
0.172745 -0.125799 0.0683211 93 162 255
0.180872 -0.36664 -0.251507 31 224 255
-0.0565375 -0.487477 -0.149601 0 255 255
0.169386 -0.374724 0.27074 29 226 255
-0.425014 -0.387492 -0.0250323 26 229 255
0.170844 -0.46178 -0.151918 7 248 255
0.17084 -0.206933 0.219663 72 183 255
-0.0270618 -0.146403 0.308371 87 168 255
-0.21292 -0.487551 0.289862 0 255 255
0.0343016 -0.238148 0.303182 64 191 255
0.183999 -0.302192 0.163305 47 208 255
0.0699796 -0.419978 0.296119 17 238 255
0.174801 -0.380971 0.176336 27 228 255
0.180672 -0.314482 -0.060666 44 211 255
0.167443 -0.403211 -0.103437 21 234 255
0.176317 -0.305596 -0.259387 46 209 255
0.178762 -0.0903004 -0.229738 102 153 255
-0.0500145 -0.0874916 -0.337532 102 153 255
-0.0326937 -0.388008 0.304157 25 230 255
-0.275014 -0.324992 0.162468 42 213 255
0.171154 -0.142634 0.219148 88 167 255
-0.0834611 -0.262233 0.303808 58 197 255
-0.200014 -0.287492 0.299968 51 204 255
-0.0730333 -0.416989 -0.321616 18 237 255
0.173378 -0.136821 -0.0792507 89 165 255
0.181286 -0.197856 -0.252813 73 181 255
-0.0281822 -0.318763 -0.324056 43 211 255
0.0411269 -0.402628 -0.329688 22 233 255
0.177344 -0.343234 0.113789 36 218 255
-0.0706589 -0.159984 -0.328388 84 171 255
0.0863009 -0.176517 -0.32725 80 175 255
0.0926292 -0.31966 -0.328197 43 211 255
0.0303457 -0.349106 0.299115 35 220 255
0.00502448 -0.48748 -0.185053 0 255 255
0.1792 -0.198551 -0.128874 73 181 255
0.0969459 -0.389325 -0.0753756 25 230 255
0.173615 -0.105439 0.00351614 97 157 255
-0.0910171 -0.189295 0.310242 76 179 255
-0.0618369 -0.475068 0.308002 3 252 255
0.124986 -0.274992 0.212468 54 201 255
0.112266 -0.486022 0.28476 0 255 255
0.177738 -0.231473 0.143408 65 190 255
0.133176 -0.457003 -0.323312 8 247 255
0.0845833 -0.189073 0.301043 76 179 255
0.178829 -0.289334 -0.169746 51 204 255
0.16054 -0.461159 -0.0934804 7 248 255
-0.102501 -0.334383 -0.320738 39 216 255
-0.209793 -0.487605 0.201728 0 255 255
0.184833 -0.0984261 -0.156621 100 155 255
-0.00131574 -0.213653 -0.329274 70 185 255
0.177341 -0.227293 0.00310391 67 188 255
-0.161432 -0.43232 -0.328556 14 241 255
-0.178067 -0.359964 0.307891 32 222 255
0.175674 -0.254562 0.270971 60 195 255
0.177653 -0.423781 0.0444754 16 239 255
0.0637915 -0.0989977 -0.326797 99 156 255
-0.396467 -0.336896 -0.126713 38 217 255
-0.0059846 -0.208913 0.300388 71 184 255
-0.275014 -0.312492 0.0874677 44 210 255
0.178095 -0.285168 0.0985024 52 203 255
0.182826 -0.442802 -0.257694 11 244 255
0.181242 -0.440519 -0.0364516 12 243 255
0.177786 -0.168464 0.0556835 81 173 255
-0.0787109 -0.487195 0.18764 0 255 255
-0.025759 -0.487362 -0.28762 0 255 255
-0.0756275 -0.256689 -0.330187 59 195 255
0.176949 -0.108117 0.132177 97 158 255
-0.00413878 -0.440827 0.302548 12 243 255
-0.219687 -0.487525 0.0464658 0 255 255
0.0881435 -0.357054 -0.142847 32 222 255
0.179702 -0.271724 -0.0446126 55 200 255
-0.0216868 -0.312211 0.307215 44 210 255
-0.412514 -0.349992 0.174968 35 220 255
0.182679 -0.329461 -0.296325 40 215 255
0.152908 -0.316892 0.294191 44 211 255
0.180029 -0.418752 -0.148123 18 237 255
-0.00625785 -0.37683 -0.328234 28 227 255
-0.166469 -0.487337 -0.302635 0 255 255
-0.0802492 -0.420013 0.307434 17 238 255
0.147972 -0.267918 -0.326029 56 199 255
0.177026 -0.400587 0.240058 22 233 255
0.174343 -0.353731 -0.0289098 34 221 255
0.180071 -0.355792 -0.196909 34 221 255
0.153348 -0.168071 -0.327157 81 173 255
0.049736 -0.472998 -0.326645 4 251 255
0.180284 -0.125943 -0.247849 92 163 255
-0.413828 -0.363022 0.0833345 32 223 255
0.0287128 -0.153544 0.30612 85 170 255
0.0358157 -0.283853 -0.322701 52 203 255
0.127535 -0.392074 -0.317041 24 231 255
0.176225 -0.117431 0.268738 95 160 255
0.0761071 -0.304554 0.306221 47 208 255
0.105772 -0.143894 0.303433 88 167 255
0.179001 -0.337955 -0.103581 38 217 255
-0.14278 -0.36941 -0.317257 30 225 255
0.178279 -0.44385 -0.0931995 11 244 255
0.162303 -0.478724 -0.232207 2 253 255
0.1678 -0.281243 -0.228246 52 202 255
-0.250014 -0.412492 0.299968 19 236 255
0.181034 -0.183033 0.168838 78 177 255
0.0970371 -0.382659 0.306847 27 228 255
0.0805193 -0.231517 0.29635 65 190 255
-0.237514 -0.324992 -0.237532 42 213 255
0.171755 -0.332827 0.209402 40 215 255
0.12002 -0.0937483 -0.331149 101 154 255
0.17567 -0.189267 -0.0783646 76 179 255
0.179422 -0.245499 0.055014 62 193 255
-0.167061 -0.408469 0.307124 20 235 255
-0.225014 -0.324992 0.162468 42 213 255
0.0499855 -0.424992 -0.225032 16 239 255
0.0627076 -0.349113 -0.318616 35 220 255
-0.0675 -0.216761 -0.32987 69 186 255
0.170038 -0.203118 -0.204774 73 182 255
-0.156765 -0.296267 0.301107 48 206 255
0.175943 -0.457205 0.170753 8 247 255
-0.0147809 -0.141382 -0.329416 89 166 255
0.178066 -0.456878 0.278654 8 247 255
0.18067 -0.290879 -0.0958717 50 205 255
0.170644 -0.484107 -0.0439442 1 254 255
0.180749 -0.401662 -0.0118068 22 233 255
-0.0171794 -0.465233 -0.325931 6 249 255
0.178954 -0.32843 0.0447432 40 214 255
-0.275014 -0.362492 -0.200032 32 223 255
0.162168 -0.309655 -0.179973 44 210 255
0.146511 -0.487024 0.240899 0 255 255
-0.0911758 -0.487335 0.292216 0 255 255
-0.0789641 -0.354785 -0.330357 34 221 255
0.184761 -0.144348 -0.112618 88 167 255
0.176297 -0.428822 0.111578 15 240 255
0.100495 -0.243428 -0.322255 62 193 255
0.175658 -0.111474 -0.0406837 96 159 255
-0.400014 -0.312492 -0.0250323 44 210 255
-0.0100692 -0.254066 0.308802 60 195 255
0.180236 -0.238677 -0.26036 64 191 255
0.161591 -0.376409 -0.0679336 28 227 255
0.129182 -0.224473 0.302643 67 188 255
0.10823 -0.338345 -0.20108 38 217 255
-0.361906 -0.334823 -0.161216 39 216 255
0.132242 -0.486386 -0.088273 0 255 255
0.175987 -0.451425 -0.19887 9 246 255
0.134041 -0.486697 0.00995511 0 255 255
0.176877 -0.438786 -0.308946 12 243 255
0.176708 -0.186123 -0.0226042 77 178 255
-0.275014 -0.362492 0.174968 32 223 255
0.178857 -0.084529 -0.186081 103 152 255
0.0256831 -0.451502 0.304253 9 246 255
0.176583 -0.128188 -0.311188 92 163 255
0.179215 -0.270991 0.203795 55 200 255
0.0336838 -0.244213 -0.330975 62 193 255
-0.0655428 -0.148037 0.307197 87 168 255
-0.217307 -0.487607 0.284576 0 255 255
-0.0954316 -0.300911 -0.32773 48 207 255
-0.0904587 -0.33558 0.305121 39 216 255
-0.103038 -0.243894 0.302027 62 193 255
0.177714 -0.381447 0.138134 27 228 255
0.0723274 -0.417427 -0.317912 18 237 255
0.0361845 -0.109155 -0.330516 97 158 255
0.151422 -0.164842 0.288614 83 172 255
0.16967 -0.251284 -0.123452 60 195 255
-0.187514 -0.337492 -0.262532 38 217 255
-0.410724 -0.334623 0.0999451 39 216 255
0.1798 -0.302564 -0.0113139 47 208 255
0.113275 -0.442734 0.308103 11 244 255
0.00344861 -0.487363 -0.247802 0 255 255
0.0224555 -0.306146 0.30754 46 209 255
0.187486 -0.0624916 0.124968 109 146 255
0.181686 -0.144043 0.203313 88 167 255
0.181513 -0.353619 -0.291083 34 221 255
0.0857815 -0.373686 -0.125163 29 226 255
-0.41823 -0.335144 -0.137325 39 216 255
0.179801 -0.215982 -0.309218 69 186 255
0.180386 -0.165237 -0.149619 81 173 255
0.00500139 -0.298301 -0.330714 48 207 255
0.0859113 -0.487138 -0.301329 0 255 255
-0.0190335 -0.417154 -0.320779 18 237 255
-0.0178135 -0.370454 0.303097 30 225 255
0.173686 -0.289278 0.267111 51 204 255
0.180545 -0.362491 -0.125363 32 223 255
0.177834 -0.445969 0.0206498 11 244 255
0.176851 -0.179108 0.0235488 79 176 255
-0.375014 -0.387492 0.174968 26 229 255
0.160168 -0.427093 0.273927 15 240 255
0.0749855 -0.287492 0.249968 51 204 255
0.178197 -0.344451 0.0886701 36 218 255
0.124986 -0.487492 -0.337532 0 255 255
0.0567659 -0.152983 -0.33083 86 169 255
0.178602 -0.284443 0.151568 52 203 255
0.171205 -0.110618 0.0780497 96 159 255
0.178539 -0.199946 0.142165 73 181 255
-0.0164558 -0.186657 0.308187 77 178 255
0.132776 -0.30044 -0.325562 48 207 255
-0.0696061 -0.286195 0.303677 51 204 255
-0.10388 -0.19608 -0.329054 75 179 255
-0.137326 -0.217235 0.304652 69 186 255
0.115215 -0.202251 -0.322394 73 182 255
-0.113866 -0.442837 -0.327066 11 244 255
0.0505648 -0.411521 0.305655 19 236 255
-0.14229 -0.369372 0.302875 30 225 255
0.14305 -0.333948 -0.2335 39 216 255
0.1758 -0.3972 0.080724 23 232 255
0.169257 -0.141541 -0.226588 88 167 255
0.158624 -0.393809 -0.323729 24 231 255
0.173757 -0.104702 -0.0932928 97 157 255
0.133007 -0.380671 0.301206 27 228 255
0.114599 -0.267319 0.303197 56 199 255
-0.300014 -0.324992 -0.200032 42 213 255
0.179411 -0.226336 0.207134 67 188 255
0.170974 -0.364533 0.225173 31 224 255
0.166235 -0.456275 -0.12898 8 247 255
0.181835 -0.457176 -0.271386 8 247 255
0.0708197 -0.336086 0.295532 39 216 255
0.175611 -0.095332 -0.281398 100 155 255
0.177745 -0.257385 0.0327296 59 195 255
-0.156985 -0.335597 -0.319159 39 216 255
-0.0396519 -0.286283 -0.325286 51 204 255
0.177234 -0.389585 -0.24617 25 230 255
0.176214 -0.260779 -0.308366 58 197 255
-0.214661 -0.48745 0.00975998 0 255 255
-0.0776057 -0.407009 -0.321242 21 234 255
-0.166793 -0.487256 -0.297596 0 255 255
0.173688 -0.123478 0.011111 93 162 255
-0.0343043 -0.151052 -0.325183 86 169 255
-0.130247 -0.278616 -0.324938 52 202 255
0.0754314 -0.305644 -0.328883 46 209 255
0.184004 -0.341955 0.00615491 36 218 255
-0.0724538 -0.381764 0.304016 27 228 255
0.180056 -0.412438 -0.0600998 19 236 255
0.111438 -0.477579 0.305554 2 253 255
0.0499855 -0.437492 -0.187532 13 242 255
0.10541 -0.356989 -0.317963 32 222 255
-0.0128084 -0.223693 -0.324354 67 188 255
-0.0596274 -0.454784 0.308821 8 247 255
0.0777895 -0.360239 -0.196862 32 223 255
0.179025 -0.416772 -0.198606 18 237 255
-0.362514 -0.324992 0.0124677 42 213 255
0.0296965 -0.147072 0.306201 87 168 255
0.0264126 -0.42671 -0.320556 15 240 255
0.129415 -0.0828147 -0.325567 104 151 255
0.156046 -0.337881 0.281364 38 217 255
-0.0791284 -0.187706 0.310303 77 178 255
-0.419682 -0.366666 -0.140703 31 224 255
0.166771 -0.179661 -0.283595 79 176 255
0.177469 -0.171581 0.257445 81 174 255
-0.0360754 -0.360284 -0.328663 32 223 255
0.179457 -0.208296 -0.134999 71 184 255
-0.312514 -0.324992 -0.0750322 42 213 255
0.14986 -0.46223 -0.102599 6 249 255
0.180403 -0.346745 -0.187438 36 219 255
0.0624855 -0.324992 -0.112532 42 213 255
-0.144077 -0.251438 0.312238 60 195 255
0.170739 -0.412534 0.195944 19 236 255
0.178542 -0.289863 -0.134961 51 204 255
0.180688 -0.139296 0.10923 89 166 255
-0.0125145 -0.0874916 0.312468 102 153 255
0.043395 -0.2541 0.300771 60 195 255
0.0999855 -0.0749916 0.299968 105 149 255
0.125615 -0.160499 -0.326179 84 171 255
0.177656 -0.238312 -0.226679 64 191 255
0.0267315 -0.487397 -0.310201 0 255 255
0.180838 -0.383218 0.0321466 27 228 255
-0.225014 -0.349992 0.299968 35 220 255
0.171972 -0.328085 -0.318084 40 214 255
0.184827 -0.106859 -0.159371 97 158 255
-0.160704 -0.42881 -0.326241 15 240 255
0.0298727 -0.362253 0.304939 32 223 255
-0.152255 -0.416404 0.308096 18 237 255
0.179718 -0.274079 -0.0459627 55 200 255
0.0966224 -0.486467 -0.277821 0 255 255
0.167414 -0.442395 0.146148 11 244 255
0.184121 -0.31063 0.16444 44 210 255
-0.0875145 -0.0874916 -0.325032 102 153 255
0.175617 -0.482637 -0.0270486 1 254 255
0.18082 -0.135992 0.163108 89 165 255
0.10292 -0.186351 0.302416 77 178 255
0.0361981 -0.341166 -0.32066 36 218 255
0.176422 -0.160597 -0.0293562 84 171 255
0.124986 -0.162492 -0.162532 83 172 255
0.16114 -0.484721 -0.286477 1 254 255
0.0282928 -0.487318 -0.22851 0 255 255
0.177636 -0.457914 0.243263 7 248 255
-0.141277 -0.333513 0.303302 39 216 255
0.180656 -0.410034 -0.147591 20 235 255
0.0499855 -0.424992 -0.125032 16 239 255
0.171542 -0.113013 0.274017 96 159 255
0.0630195 -0.226437 -0.324222 67 188 255
-0.0158292 -0.220576 0.309253 68 187 255
-0.0283479 -0.312508 0.307397 44 210 255
-0.106728 -0.151608 0.306871 86 169 255
0.17948 -0.190329 -0.229097 76 179 255
-0.410834 -0.334611 0.0992751 39 216 255
0.179819 -0.287423 -0.196569 51 204 255
0.0896223 -0.429942 -0.320574 15 240 255
0.17962 -0.314764 0.108116 44 211 255
0.173613 -0.306185 0.232663 46 209 255
-0.0928387 -0.242035 -0.329706 63 192 255
-0.275014 -0.449992 0.299968 10 245 255
0.161331 -0.343285 -0.0662463 36 218 255
0.181469 -0.232831 0.141157 65 190 255
-0.0666702 -0.463556 -0.322985 6 249 255
0.180054 -0.16811 0.0494159 81 173 255
0.109931 -0.33207 -0.229616 40 215 255
0.161927 -0.441386 -0.212022 12 243 255
0.0949121 -0.387035 -0.0834983 26 229 255
-0.0140552 -0.442112 0.30413 12 243 255
0.0699074 -0.100518 -0.332563 99 156 255
0.165802 -0.456443 0.296542 8 247 255
0.187486 -0.137492 -0.337532 89 165 255
0.162027 -0.205294 0.276579 72 183 255
-0.0237457 -0.151573 0.300761 86 169 255
0.178795 -0.259049 0.0606055 58 197 255
-0.0904664 -0.356615 -0.330023 32 222 255
0.17886 -0.278193 -0.259519 52 202 255
0.173069 -0.193686 -0.0922166 75 179 255
0.156426 -0.479608 -0.0205401 2 253 255
-0.108551 -0.285059 0.306552 52 203 255
-0.0390124 -0.197158 -0.324444 73 181 255
0.156794 -0.446462 -0.323964 10 245 255
-0.164517 -0.352385 -0.315585 35 220 255
0.182731 -0.129505 0.216998 92 163 255
0.0264649 -0.149873 -0.330543 86 169 255
-0.226111 -0.487477 0.0277772 0 255 255
0.0682676 -0.211867 0.300205 70 185 255
0.14398 -0.23124 -0.325963 65 189 255
0.0706571 -0.378435 0.29605 28 227 255
0.178459 -0.0925875 -0.239041 101 154 255
0.177237 -0.223594 0.00295664 67 188 255
0.171125 -0.243636 0.240044 62 193 255
0.175411 -0.351065 0.195085 35 220 255
0.178491 -0.413632 0.0799692 19 236 255
-0.212514 -0.312492 0.0999678 44 210 255
0.176458 -0.114181 -0.0724043 95 160 255
0.179524 -0.14894 -0.183174 87 168 255
0.0369453 -0.378634 -0.330343 28 227 255
0.178853 -0.388389 -0.0776346 25 230 255
0.177138 -0.326283 -0.224545 40 214 255
-0.177872 -0.357836 0.307743 32 222 255
-0.082924 -0.21952 0.302216 69 186 255
0.167976 -0.291785 -0.0928245 50 205 255
-0.146678 -0.487315 -0.309164 0 255 255
-0.0459698 -0.332115 -0.324851 40 215 255
-0.033466 -0.428019 -0.328437 15 240 255
-0.0588606 -0.405034 0.308472 21 234 255
0.124541 -0.314263 0.295991 44 211 255
0.173928 -0.247637 -0.186375 60 194 255
0.0705104 -0.454294 0.298259 8 247 255
0.155699 -0.479008 -0.0889377 2 253 255
0.0770539 -0.368552 -0.17065 30 225 255
0.178701 -0.440658 0.00853973 12 243 255
0.0852659 -0.151999 0.299065 86 169 255
0.135123 -0.359639 -0.323039 32 222 255
0.0754849 -0.274111 -0.321896 55 200 255
0.0400148 -0.284753 0.300374 52 203 255
0.166865 -0.371157 0.27394 30 225 255
0.178757 -0.420324 -0.266256 17 238 255
0.178275 -0.342782 0.125842 36 218 255
0.180947 -0.333454 -0.0323635 39 216 255
0.166083 -0.477718 -0.23633 2 253 255
0.175617 -0.202099 0.182207 73 182 255
-0.056256 -0.156879 -0.325827 85 170 255
-0.237514 -0.362492 0.0499678 32 223 255
0.182723 -0.149633 -0.27956 86 169 255
0.169369 -0.278084 0.28678 54 201 255
-0.112504 -0.409405 -0.321611 20 235 255
0.181784 -0.295882 -0.299732 48 206 255
0.00489741 -0.269689 -0.323555 56 199 255
-0.00233743 -0.394129 0.303401 24 231 255
0.0840819 -0.139766 -0.329157 89 166 255
0.18577 -0.103571 -0.113651 97 157 255
0.1805 -0.358059 -0.142252 32 222 255
-0.419377 -0.358049 0.0857449 32 222 255
0.0499855 -0.0874916 0.312468 102 153 255
0.181608 -0.0886666 -0.194401 102 153 255
0.173953 -0.436858 0.20358 13 242 255
-0.120118 -0.383096 0.304129 27 228 255
0.102489 -0.409995 0.306768 20 235 255
-0.00549691 -0.487404 -0.297526 0 255 255
0.175256 -0.453462 -0.10857 9 246 255
0.113959 -0.462435 -0.325417 6 249 255
-0.0859026 -0.282998 -0.324995 52 203 255
-0.425014 -0.387492 -0.0375322 26 229 255
0.181624 -0.318643 0.0745528 43 211 255
0.167233 -0.197558 -0.324079 73 181 255
-0.382023 -0.334078 -0.150008 39 216 255
0.0950911 -0.264386 0.295189 56 198 255
0.179259 -0.269037 -0.0219249 56 199 255
0.176941 -0.42447 0.265694 16 239 255
0.181242 -0.385869 -0.00361662 26 229 255
0.176692 -0.246031 -0.105668 62 193 255
0.179954 -0.128435 0.0551126 92 163 255
0.180858 -0.364137 -0.266179 31 224 255
0.141986 -0.151454 0.302534 86 169 255
-0.400014 -0.374992 0.174968 29 226 255
0.187486 -0.0624916 -3.22518e-05 109 146 255
-0.0751465 -0.348919 0.305819 35 220 255
0.174877 -0.40738 0.151191 20 235 255
0.178041 -0.123019 0.143066 93 162 255
-0.0953149 -0.468605 0.309111 5 250 255
-0.138685 -0.321414 -0.329738 42 213 255
0.128004 -0.0835852 -0.325487 103 152 255
-0.105025 -0.200503 -0.32903 73 182 255
-0.300014 -0.349992 0.174968 35 220 255
0.160899 -0.468417 0.263005 5 250 255
0.015517 -0.325571 -0.322115 40 214 255
-0.312514 -0.324992 -0.0375322 42 213 255
0.169306 -0.182844 -0.177437 78 177 255
-0.200014 -0.324992 0.149968 42 213 255
0.180551 -0.392092 -0.188683 24 231 255
0.177218 -0.165704 -0.0490251 81 173 255
0.0660921 -0.181726 -0.328953 78 177 255
0.0990858 -0.382592 -0.326776 27 228 255
0.176265 -0.29306 0.201693 50 205 255
0.00323595 -0.48735 -0.252503 0 255 255
0.00604418 -0.270711 0.301735 55 200 255
-0.0990573 -0.144416 0.307394 88 167 255
0.17176 -0.172669 0.235729 81 174 255
-0.16007 -0.272649 0.304249 55 200 255
0.165934 -0.458713 -0.162809 7 248 255
0.138275 -0.270422 -0.326118 55 200 255
-0.15406 -0.384172 -0.323987 26 229 255
0.062554 -0.487123 -0.29177 0 255 255
0.162444 -0.313947 -0.191843 44 211 255
0.139822 -0.207538 0.302058 72 183 255
0.154124 -0.141309 -0.327978 89 166 255
0.182318 -0.320801 0.00722438 43 211 255
0.181296 -0.195571 -0.252879 75 179 255
0.0908266 -0.361392 -0.120484 32 223 255
-0.0173785 -0.369368 -0.323369 30 225 255
0.181454 -0.198554 0.138678 73 181 255
0.17689 -0.190048 0.0223452 76 179 255
0.0489177 -0.167308 0.303303 81 173 255
-0.141784 -0.456196 -0.329606 8 247 255
0.181873 -0.397842 -0.112586 23 232 255
-0.0271685 -0.197143 0.300128 73 181 255
0.0945386 -0.320496 -0.328035 43 211 255
0.170006 -0.447536 0.130745 10 245 255
-0.0806817 -0.284815 0.303542 52 203 255
0.0298242 -0.226728 -0.324519 67 188 255
0.124986 -0.399992 0.212468 22 233 255
0.014648 -0.447406 0.303881 10 245 255
0.174232 -0.118079 -0.0324763 94 161 255
0.0499855 -0.437492 -0.0750322 13 242 255
0.137553 -0.478866 0.304341 2 253 255
0.173505 -0.463189 -0.0150299 6 249 255
0.182615 -0.374822 0.0859823 29 226 255
-0.0319065 -0.271352 -0.330076 55 200 255
0.184782 -0.142515 -0.113998 88 167 255
0.0240361 -0.338585 0.29917 38 217 255
0.166858 -0.322458 -0.107096 42 213 255
0.0339092 -0.425526 -0.320633 16 239 255
-0.399208 -0.355028 -0.162035 34 221 255
0.180451 -0.399939 -0.0355301 22 233 255
0.169409 -0.324157 -0.263266 42 213 255
0.124986 -0.124992 -0.262532 93 162 255
0.179139 -0.214222 -0.151728 70 185 255
0.178518 -0.289608 0.140033 51 204 255
0.15023 -0.428989 -0.316789 15 240 255
0.180467 -0.117543 0.187924 95 160 255
0.175376 -0.370116 0.240173 30 225 255
-0.070588 -0.436761 0.308639 13 242 255
0.019444 -0.125826 -0.330819 93 162 255
0.121455 -0.328784 -0.229503 40 214 255
0.175862 -0.47036 -0.265765 4 251 255
0.177421 -0.231034 0.191934 65 189 255
-0.0551239 -0.44093 -0.321245 12 243 255
-0.250014 -0.437492 0.312468 13 242 255
0.149985 -0.0749916 0.312468 105 149 255
-0.212514 -0.324992 -0.287532 42 213 255
-0.187514 -0.337492 0.0749677 38 217 255
0.173001 -0.431039 0.0548165 14 241 255
0.173767 -0.0889456 -0.157075 102 153 255
-0.14876 -0.311019 0.302316 44 210 255
-0.219565 -0.487474 0.0165175 0 255 255
0.179792 -0.240503 -0.257185 63 192 255
-0.134098 -0.218296 0.304377 69 186 255
0.180231 -0.134689 -0.237135 89 165 255
0.0986903 -0.399454 0.293806 22 233 255
0.178418 -0.260275 0.030824 58 197 255
0.181128 -0.35058 0.0417274 35 220 255
0.156455 -0.359782 -0.0760593 32 222 255
-0.0375145 -0.0874916 -0.337532 102 153 255
0.111725 -0.196971 -0.325944 73 181 255
-0.0342744 -0.329926 0.306969 40 215 255
0.17719 -0.454263 0.169559 8 247 255
0.0175055 -0.469145 -0.326495 5 250 255
0.165214 -0.29892 0.289623 48 207 255
0.180867 -0.406982 -0.291819 21 234 255
0.0763444 -0.369158 -0.180213 30 225 255
-0.312514 -0.374992 -0.187532 29 226 255
0.0261041 -0.487326 -0.231552 0 255 255
0.166085 -0.279791 -0.147998 52 202 255
-0.12641 -0.286549 -0.329656 51 204 255
0.163153 -0.142859 0.299921 88 167 255
0.0629543 -0.216612 0.300092 69 186 255
-0.0298583 -0.197804 -0.329669 73 181 255
0.0902609 -0.255562 -0.326938 59 195 255
0.177111 -0.376 -0.226842 28 227 255
0.180073 -0.435406 -0.0606872 13 242 255
0.17325 -0.460266 -0.19462 7 248 255
0.187486 -0.0624916 0.0624677 109 146 255
0.124162 -0.339956 0.293356 38 217 255
-0.250014 -0.312492 0.124968 44 210 255
0.176072 -0.102883 -0.274059 97 157 255
-0.0677021 -0.148694 0.307206 87 168 255
-0.156171 -0.487322 -0.306897 0 255 255
0.180841 -0.326416 -0.0620318 40 214 255
0.177631 -0.389406 0.175272 25 230 255
0.0272635 -0.418195 0.299342 18 237 255
0.0672599 -0.346628 -0.318656 36 219 255
0.178434 -0.327816 -0.173555 40 214 255
0.17803 -0.180437 -0.0890406 79 176 255
0.133348 -0.231429 0.291525 65 190 255
-0.087143 -0.320563 -0.328991 43 211 255
0.143209 -0.482379 -0.302588 1 254 255
0.182163 -0.296435 0.0849406 48 206 255
-0.153023 -0.390443 0.309735 25 230 255
-0.212514 -0.324992 -0.225032 42 213 255
0.18032 -0.202253 -0.199084 73 182 255
-0.103785 -0.316714 0.302658 44 211 255
0.163991 -0.475055 -0.0540184 3 252 255
0.0414295 -0.295866 -0.322241 48 206 255
-0.405049 -0.335937 -0.12657 39 216 255
0.181477 -0.198981 -0.303689 73 181 255
0.18008 -0.128914 0.00948454 92 163 255
0.178371 -0.113354 0.126629 96 159 255
0.111912 -0.476681 0.3062 3 252 255
-0.0166631 -0.159018 0.308181 84 171 255
0.118604 -0.113163 -0.326312 96 159 255
0.124986 -0.287492 0.212468 51 204 255
-0.411095 -0.334818 0.0787205 39 216 255
0.168189 -0.279142 -0.303375 52 202 255
-0.0798887 -0.180243 -0.329951 79 176 255
0.0611888 -0.290048 0.29902 50 205 255
0.181882 -0.448563 -0.249044 10 245 255
-0.0967705 -0.397755 -0.324325 23 232 255
0.157865 -0.388227 0.285439 25 230 255
0.169808 -0.135507 -0.170887 89 165 255
0.172776 -0.35346 -0.310105 34 221 255
-0.0907776 -0.383866 0.304429 26 229 255
0.179522 -0.181751 -0.0325555 78 177 255
0.182467 -0.321377 0.168267 42 213 255
0.061935 -0.363636 0.306317 32 223 255
0.179672 -0.186996 0.225264 77 178 255
-0.0183044 -0.147803 -0.329439 87 168 255
-0.0539455 -0.252906 -0.329264 60 195 255
0.179715 -0.455947 0.251663 8 247 255
0.10503 -0.420954 -0.325904 17 238 255
0.175877 -0.278043 -0.0539299 54 201 255
0.0832096 -0.148336 0.30142 87 168 255
0.179471 -0.37802 0.118599 28 227 255
0.00441023 -0.409573 -0.330087 20 235 255
-0.013799 -0.246306 0.308225 62 193 255
-0.148948 -0.359164 -0.330802 32 222 255
0.172508 -0.258076 0.235435 59 195 255
-0.0796662 -0.474013 0.309367 3 252 255
0.17038 -0.396384 -0.178201 23 232 255
-0.0150112 -0.369274 0.30327 30 225 255
0.180297 -0.39069 0.0388086 25 230 255
0.171514 -0.132997 0.221121 91 163 255
0.177343 -0.228479 0.0308148 65 189 255
0.178585 -0.437311 -0.119685 13 242 255
0.0499855 -0.424992 -0.250032 16 239 255
0.180058 -0.151654 0.0565061 86 169 255
0.167974 -0.323194 0.246306 42 213 255
0.163168 -0.462525 -0.316106 6 249 255
0.154898 -0.482804 0.00236866 1 254 255
0.149985 -0.0624916 -0.337532 109 146 255
0.174091 -0.24359 -0.193052 62 193 255
-0.0401819 -0.338208 -0.324653 38 217 255
-1.44898e-05 -0.0874916 0.312468 102 153 255
0.175629 -0.114849 -0.0746298 95 160 255
0.178085 -0.236936 0.158809 64 191 255
0.0488636 -0.200325 -0.32762 73 182 255
0.0821573 -0.351371 -0.201202 35 220 255
-0.156607 -0.348295 0.30104 36 219 255
0.158588 -0.248037 0.297484 60 194 255
0.179234 -0.215512 -0.117618 70 185 255
0.0760073 -0.0995805 -0.330785 99 156 255
0.163012 -0.465195 -0.105439 6 249 255
-0.0881704 -0.265555 0.303717 56 198 255
-0.0352258 -0.462387 -0.323425 6 249 255
0.122634 -0.419022 0.306825 17 238 255
0.151649 -0.333111 -0.231967 39 216 255
-0.108013 -0.440904 -0.325989 12 243 255
-0.237514 -0.387492 0.299968 26 229 255
-0.425014 -0.349992 0.162468 35 220 255
-0.0996676 -0.221739 -0.330993 68 187 255
0.172366 -0.371215 -0.124419 30 225 255
-0.0219233 -0.439838 0.303355 12 243 255
0.179464 -0.314547 0.0349965 44 211 255
0.089879 -0.365216 -0.121234 31 224 255
0.128308 -0.388908 -0.327187 25 230 255
0.0498448 -0.485765 -0.314069 0 255 255
0.040502 -0.383744 -0.318475 26 229 255
0.177251 -0.27264 -0.23987 55 200 255
-0.312514 -0.324992 -0.200032 42 213 255
0.132965 -0.178372 -0.323853 79 176 255
0.14637 -0.286101 -0.325725 51 204 255
0.0705988 -0.450639 0.297518 9 246 255
0.0365509 -0.151025 0.305533 86 169 255
0.124986 -0.137492 -0.225032 89 165 255
0.169502 -0.375879 -0.0450988 28 227 255
0.0134957 -0.307326 0.307196 46 209 255
0.166788 -0.201011 0.288388 73 182 255
0.124986 -0.149992 -0.137532 86 169 255
0.0917609 -0.267516 0.295774 56 199 255
-0.300014 -0.312492 0.0874677 44 210 255
0.187486 -0.0624916 -0.0250323 109 146 255
0.18288 -0.169439 -0.267751 81 174 255
0.176664 -0.417895 0.25768 18 237 255
-0.0052937 -0.217976 -0.328973 69 186 255
-0.0944782 -0.150935 0.30164 86 169 255
0.0499855 -0.424992 -0.137532 16 239 255
0.175515 -0.440689 0.0330466 12 243 255
-0.146619 -0.318244 -0.322413 43 211 255
-0.0101992 -0.217374 0.300247 69 186 255
-0.152797 -0.245503 0.304423 62 193 255
0.168754 -0.223418 -0.323017 68 187 255
0.0999855 -0.399992 -0.237532 22 233 255
0.173346 -0.394264 0.201977 24 231 255
0.179655 -0.276251 -0.099285 54 201 255
-0.0148469 -0.306615 -0.323791 46 209 255
0.15549 -0.136588 0.301896 89 165 255
0.167417 -0.371589 -0.277913 30 225 255
-0.275014 -0.362492 0.0499678 32 223 255
-0.225014 -0.349992 0.174968 35 220 255
0.167999 -0.46241 -0.203746 6 249 255
0.161992 -0.459804 0.237483 7 248 255
-0.375014 -0.324992 0.0124677 42 213 255
0.180293 -0.100238 -0.241835 99 156 255
0.0736665 -0.294538 -0.328782 48 206 255
-0.152198 -0.487092 -0.310093 0 255 255
0.0879729 -0.459485 -0.323067 7 248 255
0.180898 -0.126862 0.130956 92 163 255
0.00879951 -0.487313 -0.264184 0 255 255
0.168089 -0.346547 0.271945 36 219 255
0.183468 -0.303151 0.124567 47 208 255
0.179866 -0.306261 -0.0117323 46 209 255
0.0304364 -0.149605 -0.330754 86 169 255
-0.0466272 -0.369612 -0.328609 30 225 255
-0.0358717 -0.311498 0.303755 44 210 255
0.176999 -0.315516 0.20376 44 211 255
0.0630504 -0.329911 0.29711 40 215 255
-0.200014 -0.312492 0.312468 44 210 255
0.175277 -0.4693 -0.0568154 5 250 255
0.0499855 -0.324992 -0.250032 42 213 255
0.179717 -0.286699 -0.191907 51 204 255
-0.106467 -0.223835 0.311084 67 188 255
-0.171355 -0.390544 0.305418 25 230 255
0.178534 -0.198708 0.149986 73 181 255
0.172497 -0.154265 -0.0901638 85 170 255
0.182454 -0.318719 -0.297083 43 211 255
-0.099922 -0.267668 -0.329631 56 199 255
0.178304 -0.145144 -0.308702 88 167 255
0.184106 -0.124428 -0.0181822 93 162 255
-0.0378477 -0.407499 0.308557 20 235 255
0.175144 -0.326718 -0.115529 40 214 255
0.100336 -0.242786 -0.326227 63 192 255
0.183518 -0.352604 -0.00199887 34 221 255
0.179453 -0.256998 0.0546153 59 195 255
0.0901363 -0.367832 -0.318269 31 224 255
0.182815 -0.355339 0.0830114 34 221 255
-0.350014 -0.374992 0.174968 29 226 255
-0.109746 -0.358231 -0.324285 32 222 255
0.0492299 -0.405753 0.305452 21 234 255
0.119567 -0.293271 0.29803 50 205 255
-0.0875145 -0.0999916 0.312468 99 156 255
0.170266 -0.365737 -0.203377 31 224 255
0.150215 -0.0956055 -0.323773 100 155 255
0.163436 -0.435217 -0.27401 13 242 255
-0.312514 -0.324992 -0.0875323 42 213 255
-0.0502721 -0.158606 -0.32565 84 171 255
0.179453 -0.180923 -0.156171 78 177 255
0.154476 -0.458047 0.303243 7 248 255
-0.138276 -0.417737 -0.32487 18 237 255
0.174239 -0.237503 0.221938 64 191 255
0.100866 -0.184555 0.29682 77 178 255
0.175139 -0.413941 0.140361 19 236 255
-0.107187 -0.328909 0.304552 40 214 255
0.17832 -0.194817 0.0116567 75 179 255
0.179431 -0.130315 -0.20066 91 163 255
0.181777 -0.143995 0.23368 88 167 255
0.177433 -0.0954985 -0.122978 100 155 255
0.151716 -0.48134 -0.0831782 1 254 255
0.0499855 -0.437492 -0.200032 13 242 255
0.174986 -0.0624916 0.0374678 109 146 255
0.181013 -0.417848 -0.108684 18 237 255
-0.0221422 -0.482044 -0.311811 1 254 255
0.171898 -0.399651 -0.314469 22 233 255
-0.0975606 -0.464481 0.307639 6 249 255
0.0896003 -0.48705 -0.290253 0 255 255
0.17374 -0.223274 -0.242143 68 187 255
-0.0258996 -0.169099 0.300679 81 174 255
0.0026252 -0.258388 -0.323643 59 195 255
0.17869 -0.277171 0.174781 54 201 255
0.106732 -0.374758 0.305651 29 226 255
0.0422026 -0.111493 -0.331805 96 159 255
-0.312514 -0.374992 -0.137532 29 226 255
0.177421 -0.157749 0.0499113 84 171 255
0.17897 -0.423515 -0.206674 16 239 255
0.171092 -0.446962 0.204329 10 245 255
0.173922 -0.246875 -0.138423 62 193 255
0.105504 -0.333401 -0.218993 39 216 255
-0.0217074 -0.420637 -0.320785 17 238 255
0.169025 -0.402174 -0.0416615 22 233 255
0.175778 -0.278056 -0.31013 54 201 255
0.0124236 -0.263324 0.301871 56 198 255
0.113717 -0.335753 -0.319114 39 216 255
-0.0856986 -0.385175 0.304404 26 229 255
0.179505 -0.276852 -0.0214382 54 201 255
0.0261636 -0.330331 -0.325167 40 215 255
-0.287514 -0.324992 0.162468 42 213 255
0.178432 -0.171847 0.201644 81 174 255
-0.125757 -0.279063 0.302476 52 202 255
0.0875219 -0.359238 -0.140585 32 222 255
0.0911497 -0.192408 -0.326995 75 179 255
0.173409 -0.415771 0.0285903 18 237 255
0.179762 -0.346341 -0.162847 36 219 255
0.178808 -0.0887957 -0.184595 102 153 255
0.00907509 -0.387265 0.304299 26 229 255
0.0548598 -0.243545 -0.329641 62 193 255
0.176915 -0.327602 0.153327 40 214 255
0.178721 -0.347231 -0.0719669 36 219 255
-0.136299 -0.45412 -0.329468 8 247 255
0.170706 -0.45614 -0.133233 8 247 255
0.179529 -0.396674 0.0847436 23 232 255
-0.042594 -0.200338 0.309017 73 182 255
0.176342 -0.475402 -0.271952 3 252 255
0.178593 -0.200614 -0.098324 73 182 255
0.187486 -0.0874916 -0.325032 102 153 255
0.175127 -0.363273 0.234142 32 223 255
0.112953 -0.22034 0.301768 68 187 255
0.17383 -0.4832 -0.0256624 1 254 255
0.157747 -0.484331 0.270157 1 254 255
0.0639554 -0.411444 -0.317521 19 236 255
0.177452 -0.337323 -0.253667 38 217 255
-0.0674593 -0.412664 -0.324458 19 236 255
-0.124893 -0.396013 0.304887 23 232 255
0.180774 -0.1523 -0.24215 86 169 255
-0.0606303 -0.265395 -0.330236 56 198 255
