ply
format ascii 1.0
comment Created by Open3D
element vertex 1176
property double x
property double y
property double z
property uchar red
property uchar green
property uchar blue
end_header
-0.326871 -0.284716 -0.151499 52 203 255
-0.191202 -0.35001 -0.265806 35 220 255
-0.062922 -0.487464 0.0302121 0 255 255
-0.261893 -0.294344 0.308412 48 206 255
-0.127632 -0.0553621 -0.261401 110 145 255
-0.218011 -0.475781 -0.26755 3 252 255
-0.309998 0.0682758 0.284476 142 113 255
-0.0125145 0.0125084 0.299968 128 127 255
-0.328183 -0.471102 0.0202907 4 251 255
0.0636655 -0.351582 -0.264886 35 220 255
-0.333599 -0.0231851 0.0971352 119 136 255
0.0508375 -0.223476 -0.270111 67 188 255
-0.0891389 -0.461763 0.306737 6 249 255
-0.327905 -0.290983 -0.255477 50 205 255
-0.254189 -0.387783 0.309726 25 230 255
0.160077 -0.0113639 -0.264445 121 133 255
0.0289051 -0.487364 -0.240175 0 255 255
0.212006 -0.173652 -0.273137 80 175 255
0.137349 -0.376526 -0.0133444 28 227 255
-0.332967 -0.0089446 -0.173729 121 133 255
0.13875 -0.48035 -0.171611 2 253 255
-0.183389 -0.148663 0.307355 87 168 255
-0.0737175 -0.0139879 -0.264136 121 134 255
-0.252814 -0.487151 0.131128 0 255 255
0.118055 -0.130347 -0.268814 91 163 255
0.236061 -0.0616155 -0.273473 109 146 255
-0.330496 -0.0711399 0.235464 105 149 255
-0.318695 -0.486733 -0.23537 0 255 255
-0.332209 -0.128373 -0.0661114 92 163 255
-0.10244 -0.48739 0.0977867 0 255 255
-0.10064 -0.351398 0.304586 35 220 255
-0.137514 0.0750084 0.149968 144 111 255
-0.332053 -0.120044 0.0510824 94 161 255
0.158811 -0.248963 -0.273915 60 194 255
-0.325453 -0.141741 -0.174514 88 167 255
-0.0655568 -0.241092 -0.264672 63 192 255
-0.256463 -0.391284 -0.101802 24 231 255
-0.324388 0.0711868 -0.167256 143 112 255
-0.0237658 -0.258664 0.310955 58 197 255
0.06769 -0.371563 0.314061 30 225 255
-0.330159 -0.278272 0.0487392 52 202 255
-0.330677 -0.42887 0.162467 15 240 255
-0.285432 -0.199847 -0.270942 73 182 255
-0.325472 -0.34142 -0.219642 36 218 255
-0.329277 -0.374392 -0.0657654 29 226 255
0.0345433 -0.485 0.0680663 0 255 255
-0.0592308 -0.0315629 0.308361 117 138 255
-0.232743 -0.486208 0.0383858 0 255 255
-0.0472134 -0.445715 -0.269871 11 244 255
0.161123 -0.418973 -0.256354 17 238 255
-0.331639 0.00230337 0.162416 125 130 255
-0.24188 -0.487073 -0.0842071 0 255 255
-0.268073 -0.364863 0.275553 31 224 255
-0.327752 -0.225549 -0.0604308 67 188 255
-0.0201301 -0.372525 0.312754 29 226 255
0.217632 -0.452801 0.0733737 9 246 255
-0.330055 -0.163944 0.229107 83 172 255
-0.0870179 -0.100231 -0.271941 99 156 255
-0.249219 -0.0232809 0.309163 119 136 255
0.131475 -0.477164 -0.0665833 2 253 255
-0.325092 -0.45572 -0.0595238 8 247 255
-0.289548 -0.405712 -0.265873 21 234 255
-0.332362 -0.359152 0.167787 32 222 255
-0.154519 -0.0417696 0.309691 113 141 255
-0.152832 -0.487295 0.265169 0 255 255
0.0170827 -0.475896 0.312916 3 252 255
-0.332375 -0.00937549 -0.246972 121 133 255
-0.318689 -0.485941 0.306418 0 255 255
-0.327016 -0.215822 -0.199182 69 186 255
-0.0128763 -0.183802 -0.271991 78 177 255
0.254225 -0.486531 -0.224605 0 255 255
-0.287011 -0.0983206 -0.270429 99 156 255
-0.328603 -0.00439522 -0.0731747 123 131 255
0.035091 -0.13767 0.311951 89 166 255
0.113542 -0.426015 0.31119 16 239 255
-0.172108 -0.330811 0.308599 40 215 255
-0.0562406 -0.30684 -0.2675 46 209 255
-0.228965 -0.165795 -0.26324 81 173 255
-0.0820971 -0.0916043 0.306404 101 154 255
0.149802 -0.329856 -0.264744 40 215 255
-0.259708 0.071864 0.246445 143 112 255
-0.326745 -0.294083 0.266399 48 206 255
-0.235471 -0.309654 -0.264632 44 210 255
-0.328593 -0.276737 0.134739 54 201 255
-0.114248 0.0728124 -0.249444 143 112 255
0.0911295 -0.440443 -0.258335 12 243 255
0.244632 -0.435346 -0.266744 13 242 255
-0.330957 0.0416873 -0.00278926 135 120 255
0.0969532 -0.484849 0.105338 0 255 255
-0.316474 -0.485106 -0.161543 0 255 255
-0.32674 -0.10154 0.00418117 99 156 255
-0.00616243 -0.487305 0.0164806 0 255 255
-0.115847 -0.387697 -0.269844 25 230 255
-0.32776 0.0488972 0.0892074 137 118 255
-0.328031 -0.223183 0.214521 67 188 255
-0.202172 0.0720563 -0.254243 143 112 255
-0.123375 -0.399051 0.306366 22 233 255
-0.328635 -0.104805 0.175788 97 157 255
-0.327347 -0.07679 -0.160301 105 150 255
-0.151162 -0.193374 0.305007 75 179 255
-0.177786 -0.119135 -0.26154 94 161 255
0.124986 -0.324992 0.0624677 40 214 255
0.0176863 0.0345106 -0.266164 133 121 255
-0.305638 -0.486727 0.244245 0 255 255
-0.328924 -0.349308 0.0262774 35 220 255
0.299476 -0.436297 -0.194616 13 242 255
-0.332106 -0.190804 0.0620763 76 179 255
-0.189229 -0.486702 -0.03099 0 255 255
0.299986 -0.362492 -0.100032 32 223 255
-0.166196 -0.281316 -0.265013 52 202 255
-0.307896 -0.394989 0.308014 24 231 255
-0.229238 -0.476376 0.310038 3 252 255
0.0822888 -0.2873 -0.271511 51 204 255
0.17541 -0.47522 -0.208542 3 252 255
-0.309646 -0.229151 0.306726 65 189 255
0.0706092 -0.0392561 -0.26921 115 140 255
0.00182054 -0.486568 -0.0633471 0 255 255
0.133514 -0.395804 0.0710714 23 232 255
-0.176455 -0.486786 0.213745 0 255 255
-0.311135 -0.471502 0.117527 4 251 255
-0.332029 -0.403402 -0.121972 21 234 255
0.215677 -0.461192 -0.00469507 7 248 255
-0.154823 -0.20672 -0.262534 72 183 255
-0.0354419 -0.048299 -0.270781 112 143 255
-0.161565 0.00727707 -0.264761 126 129 255
-0.241395 -0.126422 0.306891 92 163 255
-0.334445 0.0187643 0.262073 129 126 255
-0.00141867 -0.485525 0.130876 0 255 255
0.200111 -0.108946 -0.270478 97 158 255
0.167712 -0.486608 -0.108773 0 255 255
0.0258328 -0.226321 0.311181 67 188 255
0.141467 -0.199582 -0.27076 73 181 255
-0.335204 -0.0729127 -0.222949 105 149 255
0.0101296 -0.387408 -0.269642 25 230 255
-0.0796748 -0.297402 0.306245 48 207 255
-0.0382328 -0.145509 0.307043 87 168 255
0.00213249 -0.413845 0.310864 19 236 255
-0.33285 -0.198603 -0.109316 73 181 255
-0.326944 -0.0508808 0.283088 112 143 255
-0.327239 -0.119708 0.101685 94 161 255
0.239176 -0.362405 -0.26835 32 223 255
-0.237006 -0.0603538 -0.265813 109 146 255
-0.327081 -0.306396 0.186205 46 209 255
-0.306842 -0.357078 -0.0492063 32 222 255
-0.0426932 0.0483008 -0.267544 137 118 255
-0.00905771 -0.333784 0.310762 39 216 255
0.137486 -0.0749916 0.299968 105 150 255
-0.141998 -0.0961079 0.311446 100 155 255
-0.230594 -0.479353 0.148808 2 253 255
0.24019 -0.48665 -0.149533 0 255 255
0.0261832 -0.469842 -0.270297 4 251 255
0.164941 -0.483367 0.0835812 1 254 255
-0.204188 -0.214047 0.310931 70 185 255
-0.331158 -0.323253 -0.161581 42 213 255
-0.268606 -0.481622 -0.25635 1 254 255
-0.163728 -0.487436 0.0384182 0 255 255
-0.255433 0.0391627 0.304698 135 120 255
-0.327162 -0.153956 -0.00229341 85 170 255
-0.331808 -0.0468354 0.0459574 113 142 255
-0.331471 -0.45508 0.131813 8 247 255
-0.127006 -0.454606 -0.271536 8 247 255
-0.306545 -0.251264 -0.256108 60 195 255
-0.331794 -0.0470657 -0.0529978 113 142 255
-0.217126 -0.386088 0.288303 26 229 255
0.240135 -0.408975 -0.0357979 20 235 255
-0.325894 -0.294947 -0.0163232 48 206 255
0.103542 0.0128868 -0.274098 128 127 255
-0.295231 -0.339591 0.310865 38 217 255
-0.0126311 -0.253765 -0.262749 60 195 255
0.131582 -0.397239 -0.27283 23 232 255
-0.302039 -0.154959 0.30669 85 170 255
0.212485 -0.0749916 0.299968 105 150 255
0.0700112 -0.114677 -0.270553 95 160 255
-0.124855 0.0105926 0.308864 127 128 255
0.0841864 -0.421445 0.0178606 17 238 255
-0.328305 -0.0582535 0.122908 110 145 255
0.221634 -0.258043 -0.27399 59 195 255
-0.327189 -0.402201 0.0353312 22 233 255
-0.213487 0.0155942 -0.268771 129 126 255
-0.280367 -0.481327 -0.0364746 1 254 255
-0.177103 -0.329851 -0.258942 40 215 255
-0.137812 -0.442325 0.278869 11 244 255
-0.331305 0.0477346 -0.0650713 137 118 255
-0.30523 0.0268125 -0.266843 131 124 255
0.146568 -0.057193 -0.268477 110 145 255
-0.0990255 -0.4875 0.00488576 0 255 255
0.224986 -0.349992 -0.162532 35 220 255
-0.325804 -0.388378 0.119968 25 230 255
-0.0873154 -0.22772 0.307884 65 189 255
-0.328261 -0.199916 0.164077 73 182 255
-0.332677 -0.130366 -0.102204 91 163 255
-0.101203 -0.276043 -0.262397 54 201 255
-0.32844 -0.0367014 0.202597 115 140 255
-0.106259 -0.129257 -0.272503 92 163 255
-0.213948 -0.415494 -0.101296 18 237 255
0.00399314 -0.485237 0.309434 0 255 255
-0.329983 -0.419516 -0.241198 17 238 255
-0.332012 -0.356379 0.225317 32 222 255
0.196844 -0.401307 0.0607694 22 233 255
-0.183855 -0.421136 -0.264655 17 238 255
0.0985825 -0.487577 0.153216 0 255 255
-0.0403035 -0.382334 -0.267363 27 228 255
-0.195047 -0.486894 -0.0953892 0 255 255
-0.331402 0.0579466 -0.174746 139 116 255
0.00289034 -0.153233 -0.267692 85 170 255
0.374986 -0.412492 -0.0875323 19 236 255
-0.191151 0.0435446 0.305896 136 119 255
-0.19768 -0.320018 0.304373 43 211 255
-0.06411 -0.466013 0.306446 5 250 255
0.00982514 -0.31592 -0.263583 44 211 255
0.15161 -0.386461 0.00320357 26 229 255
-0.331419 -0.29507 0.0863449 48 206 255
-0.331547 -0.168276 -0.238841 81 173 255
-0.204798 -0.0400457 0.308402 113 141 255
-0.332423 -0.253524 -0.0910063 60 195 255
-0.0168469 -0.0889827 0.308406 102 153 255
-0.101596 0.012038 -0.264885 128 127 255
-0.292797 -0.0277837 -0.270236 118 137 255
-0.274782 -0.373568 -0.267697 29 226 255
-0.259881 -0.422436 0.310729 16 239 255
0.217195 -0.199047 -0.274027 73 181 255
-0.263024 -0.482004 0.0519598 1 254 255
-0.32947 -0.135822 0.219157 89 165 255
-0.0859621 -0.473318 -0.263714 3 252 255
-0.325991 -0.015284 0.00404609 121 134 255
0.19523 -0.451503 -0.271333 9 246 255
-0.234307 -0.214721 -0.264493 70 185 255
-0.173762 -0.487127 -0.251991 0 255 255
-0.162514 0.0750084 0.212468 144 111 255
-0.329157 0.0136398 -0.113 128 127 255
-0.0619086 -0.48696 -0.0715114 0 255 255
-0.327433 -0.4591 -0.0825958 7 248 255
-0.33219 -0.444614 0.193253 11 244 255
-0.324731 0.0497438 0.177154 137 118 255
0.0158811 -0.0558719 -0.263845 110 145 255
-0.196745 -0.0544106 -0.262865 111 144 255
0.0374855 -0.424992 -0.0500323 16 239 255
0.122187 -0.481055 -0.0292108 1 254 255
-0.187204 -0.475773 0.303274 3 252 255
-0.325384 0.0291691 0.302421 131 123 255
-0.0561995 -0.487331 0.0902701 0 255 255
-0.331077 -0.233515 0.275918 65 190 255
-0.330882 -0.218956 0.00026818 69 186 255
0.337485 -0.362492 -0.175032 32 223 255
-0.266987 -0.486603 -0.188818 0 255 255
0.0165993 -0.173532 0.309988 80 175 255
-0.326629 -0.255009 -0.183765 59 195 255
0.0761461 -0.367142 -0.271025 31 224 255
-0.0573814 -0.171372 -0.271709 81 174 255
-0.242362 -0.265172 0.309613 56 198 255
-0.327963 -0.104109 -0.199945 97 157 255
-0.243827 0.0732629 -0.244984 143 112 255
0.18174 -0.461683 -0.137678 6 249 255
-0.331275 -0.191343 0.0968688 76 179 255
-0.0880826 -0.325419 -0.267808 40 214 255
-0.327667 -0.467669 0.302917 5 250 255
-0.288309 -0.0573684 0.301326 110 145 255
-0.325678 0.026028 0.101696 131 124 255
-0.330054 -0.432609 -0.157951 14 241 255
-0.0603548 -0.0764351 -0.261973 105 150 255
0.0740046 -0.412496 0.308828 19 236 255
-0.332863 -0.441929 0.0682915 11 244 255
0.0499855 -0.424992 0.112468 16 239 255
0.167957 -0.287228 -0.269659 51 204 255
0.0826377 -0.48407 -0.265745 1 254 255
0.216091 -0.0328272 -0.270549 116 139 255
-0.328845 -0.0371527 -0.160182 115 140 255
-0.325388 -0.177825 -0.162511 79 176 255
0.163673 -0.486733 0.0268383 0 255 255
-0.316627 0.0696121 0.239861 142 113 255
-0.048382 -0.177339 0.311276 79 176 255
0.05779 0.0279814 -0.270175 131 123 255
-0.173108 -0.48734 0.162308 0 255 255
0.237486 -0.362492 -0.0875323 32 223 255
0.112486 -0.0249916 0.0124677 118 137 255
-0.327415 -0.172577 -0.039364 80 175 255
-0.129017 -0.278278 0.305991 52 202 255
-0.156031 -0.158897 -0.265441 84 171 255
-0.309397 -0.350814 -0.0967799 35 220 255
-0.324583 -0.35952 -0.220579 32 222 255
-0.307084 -0.379447 0.149322 27 228 255
-0.216077 -0.182199 0.305971 78 177 255
0.115589 -0.395129 -0.0342913 23 232 255
-0.0244001 -0.274314 0.310749 54 201 255
0.201766 -0.359457 -0.254766 32 222 255
-0.328733 -0.274777 -0.254305 54 201 255
-0.235908 0.0685338 0.280737 142 113 255
-0.0429968 -0.48576 -0.016263 0 255 255
-0.201802 -0.268597 -0.266602 56 199 255
0.113859 -0.140754 -0.268912 89 166 255
-0.133379 -0.355318 0.304192 34 221 255
-0.330754 -0.147255 0.163524 87 168 255
0.0573818 -0.486581 0.120604 0 255 255
-0.126705 -0.0459523 -0.270511 113 142 255
-0.250014 -0.312492 0.249968 44 210 255
-0.329033 -0.062121 -0.101961 109 146 255
-0.150014 -0.412492 0.149968 19 236 255
-0.327722 -0.248463 0.210057 60 194 255
-0.195716 -0.0882735 0.307142 102 153 255
-0.232095 -0.111437 -0.266864 96 159 255
-0.0440011 -0.367489 0.313713 31 224 255
-0.323794 -0.399696 0.238198 22 233 255
-0.331634 -0.412218 -0.048449 19 236 255
0.0541859 -0.278103 -0.270649 52 202 255
-0.114652 -0.455742 0.309951 8 247 255
-0.0928081 -0.2091 -0.272085 71 184 255
-0.1957 -0.367298 -0.265722 31 224 255
0.134638 -0.483463 -0.107656 1 254 255
-0.329541 -0.242739 0.104475 62 193 255
-0.0642719 -0.422457 -0.270373 16 239 255
-0.0773898 -0.0312022 0.30748 117 138 255
-0.310937 -0.307787 0.30837 46 209 255
-0.313188 -0.485617 0.217987 0 255 255
-0.128313 -0.487593 -0.00647891 0 255 255
0.290097 -0.484228 -0.214169 1 254 255
-0.222755 -0.487179 -0.119042 0 255 255
0.014515 -0.213602 -0.271175 70 185 255
-0.259676 -0.486545 0.0139782 0 255 255
-0.328931 -0.127844 0.271377 92 163 255
-0.315211 -0.486601 -0.22749 0 255 255
-0.184232 -0.39826 0.302897 23 232 255
-0.329204 -0.355328 0.0540708 34 221 255
-0.0908014 0.0726366 -0.253347 143 112 255
0.207185 -0.103753 -0.269451 97 157 255
-0.331972 -0.288698 -0.10925 51 204 255
-0.106623 -0.129012 0.310375 92 163 255
-0.331542 -0.0592183 0.188033 109 146 255
-0.329076 0.0291357 -0.208519 131 123 255
0.238149 -0.4468 -0.270153 10 245 255
0.147816 -0.486721 -0.179739 0 255 255
0.200826 -0.463272 -0.0323795 6 249 255
-0.185149 -0.27293 0.305415 55 200 255
0.105968 -0.379454 0.0247518 27 228 255
-0.314968 0.0725731 -0.12362 143 112 255
0.125641 -0.35362 -0.265653 34 221 255
-0.326343 -0.265242 0.014178 56 198 255
-0.330234 -0.0550768 -0.257755 111 144 255
0.145683 -0.225285 -0.27213 67 188 255
-0.325523 -0.00583312 0.0577961 123 131 255
-0.314579 -0.486267 0.143392 0 255 255
-0.0758748 -0.485644 0.136912 0 255 255
-0.187617 0.0715702 -0.257165 143 112 255
0.140075 -0.464862 0.0954895 6 249 255
0.255831 -0.406811 -0.0625187 20 235 255
-0.114895 -0.366649 -0.268858 31 224 255
-0.245557 -0.341183 -0.26064 36 218 255
0.180673 -0.0103647 -0.271706 121 133 255
0.014332 -0.116963 -0.262453 95 160 255
-0.332042 -0.0943854 0.0445706 100 155 255
0.135911 -0.462861 -0.268145 6 249 255
-0.327064 -0.40803 0.294854 20 235 255
-0.151855 -0.419014 0.271124 17 238 255
-0.0348237 0.015412 -0.268556 129 126 255
-0.261127 -0.421544 -0.266877 17 238 255
-0.324863 -0.456308 -0.0254351 8 247 255
0.0569834 -0.373225 0.312117 29 226 255
-0.327052 -0.379247 -0.164683 28 227 255
-0.278818 -0.00103437 0.309009 124 131 255
-0.238538 -0.487369 0.0989199 0 255 255
0.0469623 -0.384911 -0.263876 26 229 255
-0.295749 -0.214315 -0.271926 70 185 255
0.227178 -0.444178 0.0712867 11 244 255
-0.330473 -0.342476 0.131698 36 218 255
-0.122455 -0.199322 0.304351 73 181 255
-0.280133 -0.215263 0.307758 70 185 255
-0.133204 -0.059407 0.310798 109 146 255
-0.0375145 0.0250083 0.312468 131 124 255
0.0198873 -0.482371 -0.268553 1 254 255
-0.332367 -0.0707456 -0.0182767 107 147 255
0.0582609 -0.187888 -0.269723 77 178 255
0.00127325 -0.423098 0.308585 16 239 255
-0.235559 -0.400596 -0.106678 22 233 255
-0.325528 -0.316698 0.25461 44 211 255
-0.330833 -0.318994 -0.0504391 43 211 255
0.00464216 -0.48486 0.032954 0 255 255
-0.326307 -0.117376 -0.12652 95 160 255
-0.156124 -0.487516 0.0519871 0 255 255
-0.246094 -0.10902 0.30441 97 158 255
-0.132215 -0.246249 -0.259809 62 193 255
-0.329618 0.0175272 -0.0372618 129 126 255
-0.0307851 -0.307251 -0.268004 46 209 255
-0.257965 -0.476376 0.282828 3 252 255
-0.328839 0.0507399 0.0645318 138 117 255
-0.266298 0.000513499 -0.269897 125 130 255
0.163996 -0.171731 -0.271406 81 174 255
-0.328573 -0.0803465 0.117242 104 151 255
-0.16125 -0.0907762 -0.271879 101 154 255
0.0204036 -0.107966 0.312215 97 158 255
-0.328078 -0.470711 -0.175051 4 251 255
0.249862 -0.405974 -0.26123 21 234 255
-0.330442 0.0544564 0.282412 139 116 255
-0.332253 -0.157161 0.0570559 84 171 255
-0.260509 0.0719197 0.246573 143 112 255
-0.145396 -0.481616 0.260738 1 254 255
-0.0433346 -0.471867 -0.264614 4 251 255
-0.331503 -0.292879 0.189269 50 205 255
-0.330496 -0.084646 0.241724 103 152 255
0.0160981 -0.224902 0.311294 67 188 255
-0.332737 -0.291962 -0.20611 50 205 255
0.0996533 -0.413368 0.314043 19 236 255
-0.220318 -0.486839 -0.0530522 0 255 255
-0.136905 0.0277111 -0.266421 131 123 255
-0.223052 -0.161832 -0.265403 83 172 255
0.0632255 -0.0403522 -0.269322 113 141 255
-0.319439 -0.412768 0.0818262 19 236 255
0.232284 -0.48636 -0.150235 0 255 255
-0.33121 -0.104593 -0.256544 97 157 255
-0.328009 0.000761146 0.168118 125 130 255
-0.327615 -0.216493 -0.132027 69 186 255
0.177519 -0.401223 -0.253297 22 233 255
-0.0532463 -0.487438 0.0416427 0 255 255
-0.0909768 -0.351553 0.305208 35 220 255
-0.258912 -0.263956 -0.26823 56 198 255
-0.0545005 -0.138901 -0.265111 89 166 255
-0.239574 -0.471259 -0.263745 4 251 255
-0.233122 -0.326679 0.307363 40 214 255
-0.155459 0.00790695 0.306279 127 128 255
-0.190163 -0.149964 0.307285 86 169 255
0.0908356 -0.324234 -0.272493 42 213 255
-0.298366 -0.348582 -0.266539 35 220 255
-0.305683 -0.0951969 0.309492 100 155 255
-0.327115 -0.117912 -0.0257756 94 161 255
-0.0150744 -0.0342671 -0.267393 116 139 255
0.0972212 -0.108352 -0.268561 97 158 255
-0.333177 -0.16363 0.260256 83 172 255
-0.229113 -0.00998517 0.309006 121 133 255
-0.156708 -0.385432 -0.256108 26 229 255
-0.0658137 -0.415838 0.30514 18 237 255
-0.254261 -0.453517 0.311759 9 246 255
0.0214573 -0.487277 0.119 0 255 255
0.123945 -0.482276 0.00879637 1 254 255
-0.322303 -0.424093 -0.096367 16 239 255
0.0967774 0.0170596 -0.267337 129 126 255
-0.33182 -0.39107 0.173377 25 230 255
0.162097 -0.0666348 -0.269007 108 147 255
0.216723 -0.205637 -0.270418 72 183 255
-0.328546 0.00141895 0.233961 125 130 255
-0.0294724 -0.220417 -0.262823 68 187 255
0.0983862 -0.481907 -0.245934 1 254 255
0.255646 -0.486505 -0.218999 0 255 255
-0.32652 -0.211124 0.176845 71 184 255
-0.0748479 -0.0723695 0.306973 105 149 255
-0.173298 -0.455552 0.309696 8 247 255
-0.320186 -0.423318 -0.265635 16 239 255
-0.331657 -0.18896 -0.210988 76 179 255
-0.166579 -0.487193 -0.263139 0 255 255
-0.326767 -0.172473 -0.0730856 80 175 255
0.164923 -0.394891 0.0691331 24 231 255
-0.330575 -0.417792 0.000959024 18 237 255
-0.325267 -0.263333 0.299095 56 198 255
0.138425 -0.397237 -0.0381182 23 232 255
0.108648 -0.4872 0.130192 0 255 255
-0.331702 -0.455782 0.237153 8 247 255
0.0124855 -0.412492 0.0124677 19 236 255
0.0695503 -0.479964 0.0611844 2 253 255
-0.310744 -0.349569 -0.154645 35 220 255
-0.24963 0.0472055 -0.269269 137 118 255
-0.334063 0.0134663 -0.152927 128 127 255
-0.0376114 -0.355611 -0.264249 34 221 255
-0.330439 -0.30879 0.0241512 46 209 255
-0.0582377 -0.294291 0.307673 48 206 255
0.163513 -0.322421 -0.272555 42 213 255
-0.140553 -0.321735 -0.265223 42 213 255
0.202936 -0.439613 0.00699959 12 243 255
0.137486 -0.0499916 0.299968 112 143 255
-0.192242 -0.00580166 -0.26393 123 131 255
-0.00981112 0.0391976 -0.266742 135 120 255
-0.287889 -0.342768 0.310447 36 218 255
0.124986 -0.274992 0.0624677 54 201 255
-0.330802 -0.0543745 -0.197553 111 144 255
-0.083926 -0.472911 0.305664 4 251 255
-0.0542078 -0.14984 0.306686 86 169 255
0.184337 -0.476751 -0.244187 3 252 255
-0.329417 -0.292109 0.12509 50 205 255
0.230695 -0.0834156 -0.273683 103 152 255
-0.17464 -0.486957 0.177692 0 255 255
-0.329501 -0.136482 0.12738 89 165 255
-0.0824478 -0.0447076 -0.271218 113 142 255
-0.166893 -0.486948 -0.0202823 0 255 255
-0.332365 -0.352673 0.256865 34 221 255
-0.267424 -0.0584957 -0.268074 110 145 255
0.0863308 -0.397796 -0.262673 23 232 255
-0.194679 -0.252535 -0.263172 60 195 255
-0.331872 -0.0537577 -0.0835581 111 144 255
-0.331581 -0.237108 -0.24747 64 191 255
-0.205668 -0.425594 -0.104203 16 239 255
-0.107028 -0.447055 -0.271987 10 245 255
-0.330345 -0.217477 0.0324792 69 186 255
-0.0255731 -0.220421 0.307778 68 187 255
-0.126749 -0.173467 -0.26532 80 175 255
-0.100978 -0.00756091 0.311441 123 131 255
-0.0951726 -0.487388 0.0835228 0 255 255
-0.145568 -0.220113 0.304485 68 187 255
-0.324888 0.00688241 0.120975 126 129 255
-0.268614 -0.487118 0.0892446 0 255 255
-0.32739 -0.243841 -0.0796619 62 193 255
-0.226511 -0.234034 0.30682 65 190 255
-0.012458 -0.487262 -0.0374019 0 255 255
-0.228797 -0.486 -0.12943 0 255 255
-0.00804987 -0.343246 0.310768 36 218 255
-0.00457596 -0.0916284 -0.270891 101 154 255
-0.325311 -0.147832 -0.15787 87 168 255
-0.331495 -0.0626908 0.0645454 109 146 255
0.0249855 8.36777e-06 0.312468 125 130 255
-0.220122 -0.416802 0.301529 18 237 255
-0.329748 -0.0371024 0.254721 115 140 255
0.169048 -0.133645 -0.274414 89 165 255
-0.168016 -0.305089 0.304802 47 208 255
-0.327263 -0.410195 -0.217458 20 235 255
-0.249133 -0.167053 0.306818 81 173 255
-0.327316 -0.481455 0.116359 1 254 255
0.230405 -0.34896 -0.269698 35 220 255
-0.00880667 -0.407621 -0.265668 20 235 255
-0.209303 -0.431529 -0.263806 14 241 255
-0.33224 -0.289604 -0.158083 50 205 255
-0.115678 -0.418616 0.31083 17 238 255
-0.331318 0.0426886 -0.0667056 136 119 255
0.155736 -0.270069 -0.264932 55 200 255
0.262486 -0.412492 0.0749677 19 236 255
0.141065 -0.485763 -0.143454 0 255 255
-0.328121 -0.467133 0.300586 5 250 255
-0.331924 -0.333162 0.0831427 39 216 255
-0.329765 -0.222371 0.240312 68 187 255
0.0468168 -0.174106 -0.263545 80 175 255
0.106404 -0.385975 0.0473271 26 229 255
-0.117836 0.0713273 -0.250899 143 112 255
-0.127494 -0.108692 -0.271988 97 158 255
0.0185812 -0.15432 0.309474 85 170 255
-0.308443 -0.486572 -0.199905 0 255 255
0.0999855 8.36777e-06 -3.22518e-05 125 130 255
-0.224068 -0.0864623 -0.265256 102 153 255
-0.126778 -0.103995 0.305501 97 157 255
0.151995 -0.00053895 -0.268913 124 131 255
-0.225054 -0.0681672 0.310257 107 147 255
0.125532 -0.480309 -0.0492945 2 253 255
0.172212 -0.469492 0.0887991 4 251 255
-0.329116 -0.162535 0.191503 83 172 255
-0.333649 -0.090423 -0.155951 101 154 255
-0.101903 -0.278746 -0.263862 52 202 255
-0.331018 -0.281219 -0.047097 52 202 255
0.028107 -0.399748 0.312617 22 233 255
-0.328166 0.00900057 0.00977378 127 128 255
-0.280684 -0.479073 0.035548 2 253 255
-0.330221 -0.239672 0.109742 63 192 255
0.0135257 -0.340654 -0.26436 36 218 255
-0.247889 -0.358923 -0.258666 32 222 255
0.28642 -0.453307 -0.192456 9 246 255
-0.313175 -0.377259 0.0457138 28 227 255
-0.321246 0.0301029 0.213877 131 123 255
-0.233486 0.0307572 0.305802 131 123 255
-0.332401 -0.396419 -0.113473 23 232 255
-0.332282 -0.141654 0.0308754 88 167 255
-0.151941 -0.417967 0.272281 18 237 255
-0.32965 -0.0906274 0.186892 101 154 255
-0.153595 -0.0455088 -0.261246 113 142 255
-0.319838 -0.170857 0.300784 81 174 255
-0.0457085 -0.0510253 0.307804 112 143 255
-0.331985 0.0040239 -0.244863 126 129 255
0.212059 -0.256188 -0.271595 59 195 255
-0.31026 -0.356251 -0.0316854 32 222 255
-0.324959 -0.352842 -0.247591 34 221 255
0.245455 -0.406453 -0.0642555 21 234 255
-0.0808256 -0.379287 -0.265153 28 227 255
0.0380586 -0.44397 -0.262062 11 244 255
-0.33188 -0.192558 -0.0295604 75 179 255
-0.321211 -0.464839 -0.263084 6 249 255
-0.219993 -0.486109 0.106614 0 255 255
-0.216932 -0.384595 0.288988 26 229 255
-0.327366 0.0698012 -0.140022 142 113 255
0.324986 -0.362492 -0.187532 32 223 255
-0.0156083 -0.449467 0.304814 10 245 255
0.180071 -0.475146 -0.271834 3 252 255
-0.232327 -0.486659 -0.0176517 0 255 255
-0.165706 -0.048759 0.307079 112 143 255
-0.331145 -0.101673 -0.0802047 99 156 255
-0.237884 -0.206793 -0.263998 72 183 255
-0.332926 -0.0423726 0.120412 113 141 255
-0.204593 -0.480874 0.291837 2 253 255
-0.127781 -0.155698 0.309327 85 170 255
0.187486 -0.0624916 0.287468 109 146 255
-0.327846 -0.40723 0.210002 20 235 255
-0.0294675 -0.116754 0.30784 95 160 255
0.199986 -0.362492 -0.150032 32 223 255
-0.11191 -0.271065 0.305183 55 200 255
-0.331843 -0.0279877 -0.0438664 117 138 255
-0.0480302 -0.487169 0.124878 0 255 255
-0.287606 -0.381322 0.308833 27 228 255
-0.0766641 0.00480747 -0.266545 126 129 255
-0.33152 -0.158164 -0.23779 84 171 255
-0.326486 -0.327746 0.20176 40 214 255
-0.324572 -0.411545 0.132237 19 236 255
-0.129676 -0.212924 -0.271798 70 185 255
0.0582967 0.0197629 -0.27438 130 125 255
-0.330305 -0.23289 -0.195337 65 190 255
-0.0346381 -0.249008 -0.266847 60 194 255
-0.330256 -0.273231 0.0422034 55 200 255
-0.330223 -0.173366 0.128783 80 175 255
-0.314783 -0.30066 -0.263764 48 207 255
0.199631 -0.486448 -0.149758 0 255 255
-0.332723 -0.445034 0.0642579 11 244 255
-0.0971928 -0.487494 0.0136482 0 255 255
0.175088 -0.482181 -0.037896 1 254 255
0.213523 -0.180365 -0.270507 78 177 255
-0.0725293 -0.0892485 -0.271898 102 153 255
0.0822145 -0.44425 0.0346956 11 244 255
0.245474 -0.38536 -0.247853 26 229 255
-0.205431 -0.134926 -0.261914 89 165 255
-0.138938 -0.431304 -0.271017 14 241 255
-0.186138 0.0357654 -0.268201 134 121 255
0.0813141 -0.319201 -0.266687 43 211 255
-0.327944 -0.0794681 0.284792 104 151 255
-0.321726 0.0670973 0.269885 142 113 255
0.04617 -0.11085 -0.269072 96 159 255
0.142468 -0.486759 0.0464197 0 255 255
-0.300311 -0.269366 0.308452 56 199 255
-0.325792 -0.484613 0.201211 1 254 255
0.230653 -0.05168 -0.273085 111 144 255
0.0270938 -0.215708 0.312263 69 186 255
-0.289286 -0.475757 0.312429 3 252 255
-0.330263 -0.324777 -0.10071 40 214 255
0.134508 -0.424859 -0.268866 16 239 255
-0.162514 0.0750084 0.262468 144 111 255
-0.323654 -0.455424 -0.0341052 8 247 255
0.215649 -0.41625 0.0749194 18 237 255
-0.202402 -0.289747 -0.26511 50 205 255
-0.329476 0.0337627 -0.203181 133 121 255
0.112091 -0.378693 -0.0140176 28 227 255
-0.235639 -0.487152 -0.0717026 0 255 255
-0.195372 -0.206844 0.311339 72 183 255
-0.328191 0.0490869 0.0797396 137 118 255
-0.0451978 -0.3226 0.310352 42 213 255
-0.231413 -0.486659 0.163714 0 255 255
0.046824 -0.486334 0.0905961 0 255 255
-0.326251 -0.171841 -0.0987967 81 174 255
0.0754153 -0.485122 -0.264701 0 255 255
0.0315397 -0.366124 0.312634 31 224 255
0.246473 -0.460519 -0.266993 7 248 255
-0.267745 -0.483299 -0.251468 1 254 255
-0.295389 -0.0787768 -0.271266 104 151 255
0.112888 -0.0158076 -0.267302 121 134 255
-0.230339 -0.0107374 -0.269685 121 133 255
-0.329129 -0.354038 -0.178659 34 221 255
0.0317774 -0.217473 -0.269191 69 186 255
0.112486 -0.412492 0.112468 19 236 255
0.147793 -0.214835 -0.271907 70 185 255
-0.231267 -0.309365 0.304813 44 210 255
-0.156314 -0.385636 0.303429 26 229 255
-0.331221 -0.266516 0.246374 56 199 255
-0.205284 -0.382483 -0.266589 27 228 255
-0.332842 -0.035727 -0.151768 115 140 255
-0.0605259 -0.178202 -0.271722 79 176 255
-0.325984 -0.464067 -0.135009 6 249 255
-0.328439 -0.0534259 0.0187272 111 144 255
-0.212514 0.0750084 -0.0250323 144 111 255
-0.260459 -0.0275882 0.308336 118 137 255
-0.00641227 -0.302161 -0.268532 47 208 255
-0.32988 -0.251702 0.164764 60 195 255
-0.327623 -0.236393 -0.141329 64 191 255
0.0161072 -0.0500976 -0.26432 112 143 255
-0.203238 -0.421751 -0.111544 17 238 255
-0.331445 -0.125141 0.0805287 93 162 255
-0.0760563 -0.406077 0.313126 21 234 255
0.0307453 -0.126676 0.312384 92 163 255
-0.0429757 0.0463669 -0.267483 136 119 255
-0.241329 0.0691998 0.278552 142 113 255
-0.329793 0.00470948 -0.086121 126 129 255
-0.321219 -0.414983 0.30307 18 237 255
-0.329818 -0.346383 0.0113475 36 219 255
-0.0236948 -0.267021 0.308843 56 199 255
-0.301175 -0.113771 0.30922 95 160 255
-0.0200231 -0.444762 -0.259106 11 244 255
0.158904 -0.368708 -0.268533 30 225 255
-0.333759 -0.162661 -0.175409 83 172 255
0.0981318 -0.487223 0.142968 0 255 255
0.136965 -0.479276 -0.251513 2 253 255
0.00860078 -0.485582 0.0245839 0 255 255
-0.114653 -0.319093 0.305969 43 211 255
-0.287114 -0.209492 -0.271323 71 184 255
0.11361 -0.137629 -0.268875 89 166 255
-0.0785029 -0.183254 0.308752 78 177 255
-0.328756 -0.385212 -0.0619109 26 229 255
-0.162814 -0.487457 -0.0159907 0 255 255
-0.318975 -0.346498 0.151526 36 219 255
0.157002 -0.063872 -0.268871 108 147 255
-0.135326 0.00358182 0.309128 126 129 255
-0.152054 -0.455376 0.309807 8 247 255
-0.330864 -0.26522 -0.0157635 56 198 255
-0.332034 -0.136989 -0.00490509 89 165 255
-0.16459 -0.372817 -0.255641 29 226 255
0.217551 -0.459118 0.0562265 7 248 255
-0.23087 -0.118565 0.306843 94 161 255
-0.125014 -0.412492 0.174968 19 236 255
-0.30242 0.0201433 -0.268382 130 125 255
0.387486 -0.399992 -0.125032 22 233 255
-0.2808 -0.419897 -0.261208 17 238 255
-0.3258 -0.486433 0.269122 0 255 255
-0.326372 -0.0116369 0.27739 121 133 255
0.136703 -0.307706 -0.273523 46 209 255
-0.329713 -0.21602 0.0734526 69 186 255
-0.313554 -0.209235 0.305669 71 184 255
-0.0816365 -0.332396 -0.263437 40 215 255
-0.329251 -0.115474 0.225376 95 160 255
-0.128172 -0.00423533 -0.269678 124 131 255
-0.316641 -0.485656 0.153635 0 255 255
-0.15396 -0.140704 -0.271159 89 166 255
-0.328622 -0.0636666 0.167691 108 147 255
0.234845 -0.486371 -0.146031 0 255 255
0.124986 -0.487492 0.237468 0 255 255
0.215201 -0.334929 -0.270166 39 216 255
-0.24124 -0.39546 0.309426 23 232 255
-0.321024 -0.429974 0.00868323 15 240 255
-0.331728 -0.0927424 -0.192426 101 154 255
-0.0830096 -0.468865 -0.269013 5 250 255
-0.116033 -0.440711 0.292478 12 243 255
0.0978329 -0.438823 0.311646 12 243 255
-0.2592 -0.271676 -0.268282 55 200 255
-0.183189 -0.486 -0.255668 0 255 255
0.0124506 0.0259204 -0.268766 131 124 255
-0.309518 -0.48658 -0.169451 0 255 255
-0.320784 -0.319883 0.30616 43 211 255
-0.329499 0.0384024 0.0266205 134 121 255
0.140042 -0.396922 -0.0368615 23 232 255
-0.0924122 -0.487439 0.0843662 0 255 255
0.0248319 -0.373556 -0.263244 29 226 255
-0.26828 0.0413057 0.304483 135 120 255
-0.242121 -0.48606 -0.142563 0 255 255
0.000366957 -0.409423 0.31126 20 235 255
-0.329979 0.0110528 0.125489 127 128 255
-0.326102 -0.288326 -0.208832 51 204 255
0.0749855 -0.0249916 0.299968 118 137 255
0.162174 -0.485491 -0.0975714 0 255 255
-0.154262 -0.132888 0.308907 91 163 255
0.265071 -0.486624 -0.220576 0 255 255
-0.219636 -0.266335 0.310096 56 199 255
-0.0832704 -0.235259 -0.264694 64 191 255
0.209172 -0.425757 -0.266922 16 239 255
-0.330876 -0.0251103 -0.239543 118 137 255
0.210658 -0.462058 -0.00557667 6 249 255
-0.294298 -0.477381 0.11233 2 253 255
-0.207182 0.00276394 0.306842 125 130 255
0.190224 -0.128982 -0.271514 92 163 255
-0.328227 -0.200874 0.210675 73 182 255
-0.33161 -0.423906 -0.135724 16 239 255
-0.327986 -0.208446 -0.0429405 71 184 255
-0.19283 -0.482764 0.219888 1 254 255
0.00759593 -0.181079 -0.263474 78 177 255
-0.330662 -0.2922 0.0784344 50 205 255
0.0374855 -0.424992 0.112468 16 239 255
-0.158864 -0.221208 -0.26287 68 187 255
0.132315 -0.423653 0.0606852 16 239 255
-0.332591 -0.0189413 0.0598625 120 135 255
0.0249855 -0.412492 -0.0250323 19 236 255
-0.114587 -0.24666 0.307561 60 194 255
-0.247032 -0.095233 -0.266775 100 155 255
-0.321567 0.0441892 0.189924 136 119 255
-0.188402 -0.32832 0.308118 40 214 255
-0.318232 -0.344006 0.224517 36 218 255
-0.332051 -0.12134 -0.047791 94 161 255
-0.325534 -0.381351 -0.208581 27 228 255
-0.0338225 -0.3691 0.308221 30 225 255
-0.135844 -0.0599366 0.310801 109 146 255
-0.307406 -0.373766 0.0912897 29 226 255
0.175792 -0.00969596 -0.272104 121 133 255
-0.325218 -0.305555 -0.122928 46 209 255
-0.0584923 -0.02642 -0.270762 118 137 255
-0.030475 -0.177531 0.306535 79 176 255
0.0873351 -0.42348 -0.264618 16 239 255
-0.0773926 -0.420704 -0.27152 17 238 255
-0.328361 -0.0265975 0.209126 118 137 255
-0.226709 -0.462988 0.310163 6 249 255
-0.113592 0.0711445 -0.252855 143 112 255
-0.23995 -0.170777 -0.265399 81 174 255
-0.152557 -0.32655 -0.266095 40 214 255
0.183931 -0.47194 -0.188461 4 251 255
0.137486 -0.312492 0.0624677 44 210 255
-0.330995 0.0476636 -0.190826 137 118 255
-0.218464 0.0470488 -0.255119 137 118 255
-0.327385 -0.188282 -0.248848 76 179 255
-0.0527762 -0.0535014 0.307493 111 144 255
-0.113761 -0.127698 -0.262032 92 163 255
-0.33283 -0.088769 -0.118203 102 153 255
-0.17826 -0.035319 -0.269736 116 139 255
0.0479259 -0.0396748 -0.26941 113 141 255
-0.327455 -0.461657 -0.221446 6 249 255
-0.328939 -0.105107 0.127446 97 157 255
-0.3243 -0.414992 0.255605 18 237 255
-0.33237 -0.0571365 -0.0202449 110 145 255
-0.329845 0.0210327 -0.116892 130 125 255
-0.181612 -0.487365 0.151989 0 255 255
-0.0480715 -0.295639 -0.264328 48 206 255
-0.0355462 -0.485882 0.0142534 0 255 255
0.125083 -0.484802 0.0364728 1 254 255
-0.334216 -0.189426 -0.140411 76 179 255
-0.0442468 -0.45838 0.309164 7 248 255
-0.327375 -0.275504 0.195503 54 201 255
-0.321041 0.0678468 0.251907 142 113 255
0.349986 -0.362492 -0.112532 32 223 255
-0.329553 0.0198795 -0.0253397 130 125 255
0.00475275 -0.11849 -0.267285 94 161 255
-0.317581 -0.383759 -0.262465 26 229 255
-0.23247 -0.173605 0.306621 80 175 255
0.199639 -0.243144 -0.273624 62 193 255
-0.2668 -0.48336 -0.0821464 1 254 255
-0.332106 -0.188789 0.0593112 76 179 255
-0.0950594 -0.351746 0.305373 35 220 255
-0.324045 -0.127298 -0.219008 92 163 255
-0.121306 -0.4864 -0.000666105 0 255 255
-0.257001 -0.0301783 -0.267134 117 138 255
0.179577 -0.407516 -0.254117 20 235 255
-0.200014 -0.399992 0.112468 22 233 255
-0.255384 -0.445656 -0.267229 11 244 255
-0.328643 -0.211396 0.142822 71 184 255
-0.08275 -0.110176 0.309696 96 159 255
0.0788874 0.0164048 -0.265274 129 126 255
-0.150014 -0.374992 0.199968 29 226 255
0.0844048 -0.416255 0.0214866 18 237 255
-0.220093 -0.0552961 0.305401 110 145 255
-0.331742 -0.389258 0.169136 25 230 255
-0.168045 -0.42394 -0.258717 16 239 255
-0.0520973 -0.487512 0.104842 0 255 255
-0.331065 -0.299535 -0.0314095 48 207 255
-0.331716 -0.441579 -0.0998793 12 243 255
0.0724317 -0.330144 -0.267525 40 215 255
0.0958503 -0.486286 0.105379 0 255 255
-0.127596 -0.282715 -0.264095 52 203 255
-0.244217 -0.345611 -0.260618 36 219 255
-0.319424 -0.427127 0.0801111 15 240 255
-0.331255 -0.134431 0.1721 89 165 255
0.0127532 -0.467226 -0.268056 5 250 255
-0.328239 -0.236235 -0.258575 64 191 255
-0.041243 -0.257176 0.309628 59 195 255
-0.331192 -0.47136 0.20059 4 251 255
-0.251081 -0.349711 0.308323 35 220 255
-0.311425 -0.347249 -0.121444 36 219 255
-0.0706427 -0.0934998 -0.26253 101 154 255
-0.155547 -0.484932 0.281976 0 255 255
-0.328979 -0.173125 0.241245 80 175 255
-0.331806 -0.0902768 0.0537021 102 153 255
0.212485 -0.0624916 0.299968 109 146 255
-0.318363 0.0720594 -0.144983 143 112 255
-0.156705 -0.25519 0.306151 59 195 255
-0.261163 -0.23396 0.305925 65 190 255
0.0902425 -0.140182 -0.269015 89 166 255
0.249986 -0.362492 -0.0875323 32 223 255
-0.331011 -0.291757 0.139964 50 205 255
-0.262168 0.0281587 -0.267881 131 123 255
-0.292392 -0.0652398 0.298613 108 147 255
0.0126358 -0.187947 0.31178 77 178 255
0.19537 -0.405793 0.0700912 21 234 255
0.226881 -0.475494 -0.124801 3 252 255
-0.0444424 -0.199066 -0.26405 73 181 255
-0.319542 -0.365576 0.306314 31 224 255
-0.289819 0.0153158 0.308334 129 126 255
-0.168081 -0.0986533 -0.261262 99 156 255
0.106882 -0.486524 -0.253762 0 255 255
-0.331892 -0.0289683 -0.102296 117 138 255
0.211338 -0.180061 -0.270853 79 176 255
0.249986 -0.312492 -0.225032 44 210 255
0.0267199 -0.118133 0.310589 94 161 255
-0.291469 -0.443818 0.312902 11 244 255
-0.122931 -0.478664 -0.267982 2 253 255
-0.334689 -0.0656472 -0.228146 108 147 255
-0.300458 -0.312358 -0.26291 44 210 255
-0.288667 -0.161752 0.306183 83 172 255
-0.331854 -0.201774 0.0159215 73 182 255
-0.0875145 0.0750084 0.0124677 144 111 255
-0.32156 -0.403124 -0.0587755 21 234 255
-0.0340049 -0.364073 -0.268365 31 224 255
-0.326121 -0.138682 -0.0830251 89 166 255
-0.327436 -0.295177 0.247702 48 206 255
-0.267584 -0.484551 0.0144734 1 254 255
-0.269184 0.0726123 0.267958 143 112 255
0.125903 -0.479895 -0.0238933 2 253 255
0.148397 -0.260741 -0.270292 58 197 255
-0.170345 -0.164179 0.307445 83 172 255
-0.191134 -0.256205 -0.264649 59 195 255
-0.33037 -0.0472111 0.107039 113 142 255
-0.328626 -0.249846 -0.0962185 60 194 255
0.0998467 -0.391234 -0.26294 24 231 255
0.0696436 -0.414324 0.31402 19 236 255
-0.153283 0.0303768 -0.264972 131 123 255
-0.325458 -0.317241 -0.192867 43 211 255
0.0297759 -0.485518 0.123634 0 255 255
-0.327711 -0.390398 0.0279887 25 230 255
0.205047 -0.104177 -0.271391 97 157 255
-0.0233471 -0.0387098 -0.266444 115 140 255
-0.295174 -0.486493 -0.189289 0 255 255
-0.0887939 -0.0230931 0.310246 119 136 255
-0.253705 -0.484255 0.152465 1 254 255
-0.160335 -0.345036 0.304206 36 219 255
-0.200571 -0.439006 0.311433 12 243 255
-0.175227 -0.0725603 0.308808 105 149 255
0.156263 -0.486673 -0.167426 0 255 255
-0.329283 -0.108319 0.246685 97 158 255
0.141796 -0.384594 0.0507861 26 229 255
-0.331053 -0.470047 0.135549 4 251 255
-0.198699 -0.486735 -0.0239954 0 255 255
-0.331008 -0.230748 0.270089 65 189 255
-0.323137 -0.446968 -0.2625 10 245 255
0.24352 -0.414186 -0.261473 19 236 255
-0.330245 -0.337437 0.115394 38 217 255
-0.317741 -0.449314 0.0177739 10 245 255
-0.179735 0.015218 0.30629 129 126 255
-0.334547 -0.0519742 -0.16025 111 144 255
-0.146889 -0.181695 -0.264938 78 177 255
-0.106593 -0.487439 0.0387235 0 255 255
0.0999855 8.36777e-06 0.0124677 125 130 255
-0.0451061 -0.411893 0.306724 19 236 255
-0.119136 -0.214227 0.304492 70 185 255
-0.196794 -0.333762 -0.263946 39 216 255
0.166153 -0.332365 -0.265266 40 215 255
-0.32946 -0.478652 0.265259 2 253 255
-0.128198 -0.0569628 -0.270453 110 145 255
-0.330381 -0.332979 -0.00146113 39 216 255
-0.326554 -0.253757 -0.195364 60 195 255
0.0520134 -0.147209 -0.270928 87 168 255
-0.331515 -0.370047 -0.144486 30 225 255
0.149351 -0.209797 -0.270512 71 184 255
-0.330663 -0.000852426 0.257461 124 131 255
-0.327671 -0.0724996 -0.0578753 105 149 255
-0.241354 -0.48425 0.0796885 1 254 255
-0.214721 -0.151525 -0.264275 86 169 255
0.158042 -0.0587615 -0.268867 110 145 255
-0.331816 -0.363763 0.242184 31 224 255
-0.220361 -0.473042 -0.266802 4 251 255
-0.0285322 -0.454342 -0.265863 8 247 255
-0.329324 -0.181386 0.112748 78 177 255
-0.143295 -0.396327 -0.269281 23 232 255
0.108884 0.010509 -0.274059 127 128 255
0.221595 -0.448391 -0.0287061 10 245 255
0.349986 -0.362492 -0.162532 32 223 255
-0.329452 0.0374335 0.0230076 134 121 255
-0.323656 -0.454392 -0.0594614 8 247 255
-0.331411 -0.00428348 0.150058 124 131 255
-0.0734782 -0.275787 0.309273 54 201 255
-0.332152 -0.210772 -0.0681248 71 184 255
-0.0557983 -0.125682 0.310047 92 163 255
0.073982 -0.465894 0.0433566 5 250 255
-0.272652 -0.257647 -0.266177 59 195 255
-0.0793666 -0.149071 -0.265069 86 169 255
-0.332101 -0.0964612 0.00337932 100 155 255
-0.225014 -0.399992 -0.187532 22 233 255
-0.119008 -0.442454 0.291288 11 244 255
-0.0973009 0.0140748 -0.265154 128 127 255
-0.330832 0.038301 -0.0735683 134 121 255
-0.244671 -0.277507 0.307877 54 201 255
0.225183 -0.0525067 -0.268394 111 144 255
0.237486 -0.349992 -0.175032 35 220 255
0.141029 -0.380333 -0.00332298 27 228 255
-0.325913 -0.12929 -0.140028 92 163 255
0.186857 -0.469126 0.0773728 5 250 255
-0.00787969 -0.348481 0.310629 35 220 255
0.0123686 -0.450463 0.308696 9 246 255
-0.329842 -0.289083 0.0702456 51 204 255
-0.000806758 -0.0874191 -0.262332 102 153 255
-0.0796942 -0.341448 -0.263294 36 218 255
0.211348 -0.453664 -0.271814 8 247 255
-0.219194 -0.487153 -0.113772 0 255 255
-0.262275 -0.390837 -0.266679 25 230 255
-0.212514 0.0750084 -0.0125322 144 111 255
-0.331089 -0.237829 0.00472895 64 191 255
-0.330124 0.0552953 0.276409 139 116 255
-0.186388 -0.205379 0.306251 72 183 255
-0.316231 -0.0404512 -0.266582 113 141 255
-0.328607 -0.0528365 0.207008 111 144 255
-0.325688 0.0341045 0.0971484 133 121 255
-0.0248198 -0.219723 -0.262648 68 187 255
-0.309318 -0.37809 0.173033 28 227 255
-0.245241 -0.0982119 0.304303 99 156 255
-0.217417 -0.385194 0.308111 26 229 255
-0.320301 -0.13624 -0.248501 89 165 255
-0.3292 -0.296597 -0.0814755 48 206 255
-0.150014 0.0750084 0.162468 144 111 255
0.0251961 0.0189854 -0.265233 129 126 255
0.0587027 -0.384804 0.312386 26 229 255
-0.291448 -0.48177 0.291058 1 254 255
-0.0612418 -0.487468 0.124387 0 255 255
-0.227779 0.0435225 -0.270083 136 119 255
-0.333782 0.0195602 -0.16292 130 125 255
0.140443 -0.478864 -0.0660744 2 253 255
0.268773 -0.486334 -0.206739 0 255 255
0.211371 -0.349721 -0.271807 35 220 255
0.15061 -0.153048 -0.267483 85 170 255
0.0497458 -0.37444 -0.26435 29 226 255
-0.243018 0.0684984 0.274323 142 113 255
0.312486 -0.362492 -0.212532 32 223 255
-0.244452 -0.212342 -0.266027 70 185 255
-0.153163 -0.481866 -0.255763 1 254 255
-0.329218 -0.120143 0.0884764 94 161 255
-0.133924 0.00178661 0.309181 125 130 255
-0.0109531 -0.219112 0.310939 69 186 255
-0.0682736 -0.442662 0.313063 11 244 255
-0.134141 -0.0950126 0.305957 100 155 255
-0.210321 -0.484321 0.169738 1 254 255
0.0872866 -0.486636 -0.254302 0 255 255
-0.328549 -0.173834 0.194124 80 175 255
-0.332015 -0.0187339 0.0380477 120 135 255
-0.319823 -0.468071 0.0796498 5 250 255
-0.328114 -0.23405 -0.156812 65 190 255
-0.112224 -0.274608 -0.266752 54 201 255
-0.325457 -0.304871 0.29781 47 208 255
0.162486 -0.0499916 0.299968 112 143 255
-0.327116 -0.458446 -0.19736 7 248 255
-0.0271729 -0.485923 0.00564984 0 255 255
-0.330822 -0.15591 0.00536338 85 170 255
-0.0397199 0.0190754 -0.268902 130 125 255
-0.311337 -0.354388 -0.0642778 34 221 255
-0.311684 -0.10361 0.307308 97 157 255
0.111231 -0.479089 0.101 2 253 255
0.224986 -0.412492 0.112468 19 236 255
-0.329538 0.0350197 0.204713 134 121 255
0.0960909 -0.389804 -0.00123471 25 230 255
0.173685 -0.486581 -0.124524 0 255 255
-0.287047 -0.188474 0.307731 76 179 255
-0.152925 -0.487476 -0.0103753 0 255 255
-0.328921 -0.238032 0.139057 64 191 255
-0.331815 -0.44005 0.217843 12 243 255
-0.183064 -0.458079 0.309743 7 248 255
-0.331465 0.0132993 -0.242334 128 127 255
-0.329812 -0.313923 0.175575 44 211 255
-0.098694 -0.172647 0.309082 80 175 255
-0.159184 -0.314411 0.308214 44 211 255
0.142815 -0.434729 -0.268099 13 242 255
0.0773008 -0.0236833 -0.269314 119 136 255
-0.327589 -0.385784 -0.222098 26 229 255
-0.32742 -0.374881 0.0897423 29 226 255
-0.203964 -0.0153899 -0.269298 121 134 255
-0.0847956 -0.408884 -0.264116 20 235 255
-0.225337 -0.286656 -0.264287 51 204 255
0.129909 -0.358388 -0.264625 32 222 255
-0.112208 -0.393424 0.305902 24 231 255
0.0809307 -0.114633 -0.268925 95 160 255
-0.331724 -0.178895 -0.206622 79 176 255
-0.0232907 -0.314914 -0.26431 44 211 255
-0.331946 -0.0156886 -0.0328374 121 134 255
-0.233832 -0.487166 -0.0481704 0 255 255
-0.203576 -0.0988419 -0.264953 99 156 255
-0.0670262 -0.487454 0.0592194 0 255 255
-0.206706 -0.382098 -0.266628 27 228 255
-0.327323 -0.425287 0.140419 16 239 255
0.202485 -0.247836 -0.272626 60 194 255
-0.322737 -0.395883 0.301094 23 232 255
-0.240431 -0.0259994 0.309165 118 137 255
0.0146938 -0.440313 -0.261886 12 243 255
-0.331245 -0.101807 0.168693 99 156 255
0.0288294 -0.20058 -0.268978 73 182 255
-0.0965424 -0.0736728 -0.271217 105 149 255
-0.0653164 -0.0623636 0.307322 109 146 255
0.299986 -0.362492 -0.112532 32 223 255
0.00161251 -0.116069 0.309148 95 160 255
-0.329223 -0.0524559 0.256232 111 144 255
-0.049346 -0.33411 0.310475 39 216 255
-0.332357 -0.280947 -0.149684 52 202 255
-0.327874 -0.24014 0.224012 63 192 255
0.20486 -0.463449 0.00661823 6 249 255
-0.247914 -0.48732 0.0772671 0 255 255
-0.318055 -0.435487 -0.148095 13 242 255
-0.192847 -0.25185 0.307114 60 195 255
-0.325773 -0.154424 -0.122901 85 170 255
-0.310845 -0.338845 -0.26209 38 217 255
-0.326571 -0.449082 -0.0119769 10 245 255
-0.0776579 -0.236014 -0.266772 64 191 255
0.193297 -0.479857 -0.254937 2 253 255
-0.318858 -0.24695 0.303014 60 194 255
0.0124855 8.36777e-06 0.299968 125 130 255
-0.331294 -0.283412 0.0294568 52 203 255
-0.174096 -0.479714 0.249691 2 253 255
-0.332488 -0.0456619 -0.115612 113 142 255
0.124986 -0.474992 0.287468 3 252 255
-0.309145 -0.486134 -0.240609 0 255 255
-0.329456 -0.367324 -0.0202627 31 224 255
-0.329497 -0.162136 0.280324 83 172 255
-0.331191 -0.039243 0.0775312 115 140 255
0.172997 -0.113714 -0.273515 96 159 255
-0.125014 0.0750084 0.0874677 144 111 255
-0.0631566 -0.465788 -0.267142 5 250 255
-0.21164 0.0148362 0.307725 128 127 255
0.00362593 -0.354171 -0.262942 34 221 255
0.166996 -0.482425 -0.201441 1 254 255
-0.299169 -0.00729627 0.303772 123 131 255
0.124986 -0.299992 0.0624677 48 207 255
-0.271491 -0.0248039 -0.266635 118 137 255
-0.321075 -0.283055 -0.262598 52 203 255
-0.256488 -0.310296 0.304915 44 210 255
-0.326115 -0.160675 0.0467215 83 172 255
-0.0856441 -0.177758 -0.271591 79 176 255
-0.0151973 -0.0694255 -0.271923 107 147 255
-0.111909 -0.332373 -0.267919 40 215 255
0.0999855 -0.0749916 0.287468 105 150 255
0.150303 -0.305339 -0.273671 46 209 255
-0.315477 -0.375517 0.257564 28 227 255
-0.331149 -0.055456 -0.212022 110 145 255
-0.317055 -0.474521 0.221024 3 252 255
0.065507 -0.486556 0.100466 0 255 255
-0.330346 0.0552623 -0.107511 139 116 255
-0.330345 -0.351784 -0.0943995 35 220 255
-0.22037 -0.436359 0.299207 13 242 255
0.028567 -0.401866 0.312658 22 233 255
-0.125295 0.0479469 -0.266785 137 118 255
-0.178239 -0.252019 -0.264162 60 195 255
-0.0324705 -0.168339 0.306591 81 173 255
0.231098 -0.38812 -0.267153 25 230 255
-0.182443 -0.160367 0.307209 84 171 255
-0.331351 -0.16895 -0.0322 81 174 255
-0.272338 -0.472918 -0.250856 4 251 255
-0.330285 -0.214999 -0.248716 70 185 255
0.152759 -0.479345 0.0931328 2 253 255
-0.328332 -0.0577255 0.125795 110 145 255
0.177284 -0.0182002 -0.268996 120 135 255
-0.329853 -0.161287 0.143096 83 172 255
0.127913 -0.382129 0.0479702 27 228 255
-0.0268369 -0.249248 0.309905 60 194 255
-0.267647 -0.48243 -0.0180234 1 254 255
-0.124744 -0.449495 0.30914 10 245 255
-0.168586 -0.0420825 -0.269957 113 141 255
-0.1068 -0.288574 0.305221 51 204 255
-0.329455 0.0230167 -0.0169614 131 124 255
-0.327269 -0.459864 -0.116315 7 248 255
-0.163177 -0.129301 -0.261993 92 163 255
-0.125461 -0.03519 0.310681 116 139 255
-0.125197 -0.486493 0.0345741 0 255 255
-0.307864 -0.381787 0.124548 27 228 255
-0.237801 -0.37212 0.290261 29 226 255
-0.328849 0.0274416 -0.196693 131 123 255
0.0186178 -0.161665 -0.268384 83 172 255
-0.330847 -0.326297 -0.160277 40 214 255
-0.329702 -0.479481 0.14423 2 253 255
-0.333603 -0.190074 -0.128099 76 179 255
-0.102488 -0.0182351 -0.263289 120 135 255
-0.319726 -0.392687 0.0331134 24 231 255
-0.317759 -0.103502 -0.260683 97 157 255
0.0721689 -0.344999 -0.264899 36 219 255
0.145564 -0.39346 -0.024499 24 231 255
-0.180692 -0.487034 0.158598 0 255 255
-0.172863 -0.3898 -0.257328 25 230 255
0.0624855 -0.412492 0.0999678 19 236 255
-0.331922 -0.0755985 -0.0640084 105 150 255
0.198758 -0.409023 0.073386 20 235 255
-0.329495 -0.213729 0.0849322 70 185 255
-0.0665486 -0.460222 0.30611 7 248 255
-0.16657 -0.48632 -0.254684 0 255 255
0.139496 -0.477214 0.00837341 2 253 255
0.0687435 -0.466596 -0.268271 5 250 255
-0.331197 -0.257883 -0.07325 59 195 255
-0.191175 -0.0554237 0.307632 110 145 255
-0.119089 -0.136568 0.309764 89 165 255
-0.0851878 -0.487327 0.107959 0 255 255
-0.321102 0.0346065 0.202217 133 121 255
-0.331461 -0.100329 -0.156441 99 156 255
-0.327329 -0.300854 0.238384 48 207 255
-0.327707 -0.102444 0.24029 97 157 255
0.0397853 0.0237868 -0.265339 131 124 255
-0.328305 -0.0557495 0.00842147 110 145 255
-0.261014 -0.40771 -0.266716 20 235 255
-0.330328 -0.316333 0.0565426 44 211 255
0.147614 -0.24393 -0.270391 62 193 255
-0.0798664 -0.373077 0.304753 29 226 255
-0.285459 -0.122067 0.308641 93 162 255
-0.177259 0.0470139 -0.266257 137 118 255
-0.237485 -0.2046 -0.265198 72 183 255
-0.212514 -0.399992 0.0874677 22 233 255
-0.293237 0.0664133 0.281284 142 113 255
-0.127215 -0.218617 -0.271795 69 186 255
-0.329119 0.0394209 0.0394608 135 120 255
-0.266442 -0.440903 0.31112 12 243 255
-0.268744 0.0250995 -0.265904 131 124 255
-0.330569 -0.354603 0.192136 34 221 255
-0.326281 -0.153792 -0.193651 85 170 255
0.141776 -0.484749 -0.0759256 1 254 255
-0.23942 -0.232562 0.30718 65 190 255
-0.330331 -0.24214 0.17213 63 192 255
-0.0365346 -0.168637 -0.266441 81 174 255
0.031296 -0.0976324 -0.268213 100 155 255
-0.32076 -0.377456 -0.258966 28 227 255
-0.0734197 -0.295774 -0.264216 48 206 255
0.146277 -0.479253 -0.164307 2 253 255
