ply
format ascii 1.0
comment Created by Open3D
element vertex 1214
property double x
property double y
property double z
property uchar red
property uchar green
property uchar blue
end_header
0.281156 -0.369758 0.152345 30 225 255
-0.136735 -0.488605 0.305877 0 255 255
-0.143574 -0.257417 0.314007 59 195 255
0.264656 -0.487092 0.275679 0 255 255
-0.0163794 -0.414823 0.187408 19 236 255
0.134925 -0.321101 0.184016 43 211 255
-0.111901 -0.2484 0.127988 60 194 255
0.00100438 -0.463479 0.222728 6 249 255
-0.109747 -0.408612 0.447129 20 235 255
-0.124 -0.489481 0.384476 0 255 255
0.0908094 -0.379787 0.400275 28 227 255
0.0331704 -0.468658 0.127571 5 250 255
0.250069 -0.275185 0.212818 54 201 255
-0.0941841 -0.360174 0.181164 32 222 255
-0.05634 -0.281558 0.167173 52 202 255
6.16498e-05 -0.302052 0.239871 47 208 255
0.126511 -0.469217 0.420271 5 250 255
-0.0508605 -0.361309 0.232722 32 223 255
0.0811871 -0.392707 0.212199 24 231 255
-0.133433 -0.315809 0.170843 44 211 255
0.125069 -0.225185 0.200318 67 188 255
0.193406 -0.421993 0.13062 17 238 255
-0.157166 -0.307301 0.232427 46 209 255
0.165451 -0.486938 0.301795 0 255 255
-0.157641 -0.281938 0.426534 52 202 255
0.0931459 -0.487222 0.346519 0 255 255
0.199277 -0.362375 0.233373 32 223 255
-0.0593933 -0.226317 0.136081 67 188 255
-0.14091 -0.471955 0.127237 4 251 255
0.0784224 -0.356242 0.151135 34 221 255
-0.154948 -0.372033 0.311133 30 225 255
-0.141627 -0.4198 0.209615 17 238 255
0.0235814 -0.285506 0.178676 52 203 255
-0.0411106 -0.340802 0.330072 38 217 255
-0.047585 -0.438096 0.267741 13 242 255
0.0297895 -0.438005 0.167534 13 242 255
-0.054131 -0.487488 0.445158 0 255 255
0.157069 -0.270712 0.15886 56 199 255
-0.144281 -0.233043 0.26049 65 190 255
0.252328 -0.406231 0.130345 21 234 255
0.0819619 -0.48819 0.403117 0 255 255
0.120152 -0.440948 0.129313 12 243 255
0.0335176 -0.347422 0.262226 36 219 255
0.04986 -0.347116 0.372021 36 219 255
0.338282 -0.482196 0.135228 1 254 255
-0.0928533 -0.48782 0.203527 0 255 255
0.128431 -0.315784 0.241881 44 211 255
0.162569 -0.350185 0.325318 35 220 255
-0.0116819 -0.403788 0.41697 21 234 255
0.039175 -0.487747 0.169951 0 255 255
-0.087148 -0.400128 0.142078 22 233 255
-0.0922999 -0.261716 0.151436 58 197 255
-0.0947653 -0.488144 0.364247 0 255 255
-0.0029898 -0.403839 0.249921 21 234 255
-0.151666 -0.37745 0.251708 28 227 255
0.131559 -0.449705 0.162136 10 245 255
-0.155005 -0.274755 0.16538 54 201 255
0.325069 -0.350185 0.137818 35 220 255
-0.156935 -0.295347 0.31704 48 206 255
0.0108492 -0.488629 0.288404 0 255 255
-0.157465 -0.432378 0.250139 14 241 255
-0.16045 -0.25013 0.232631 60 194 255
-0.0928796 -0.415364 0.188371 18 237 255
0.22222 -0.399526 0.191169 23 232 255
-0.00706657 -0.326521 0.197958 40 214 255
-0.162249 -0.460053 0.377944 7 248 255
-0.15249 -0.332413 0.483568 40 215 255
0.127112 -0.421925 0.362909 17 238 255
0.062104 -0.393284 0.432017 24 231 255
0.280064 -0.291567 0.129977 50 205 255
0.148474 -0.398794 0.190211 23 232 255
-0.156532 -0.3883 0.367829 25 230 255
-0.0413492 -0.329149 0.283112 40 214 255
-0.00346966 -0.233137 0.137157 65 190 255
-0.0684365 -0.404468 0.463991 21 234 255
-0.110662 -0.222147 0.145734 68 187 255
-0.0399198 -0.455397 0.127605 8 247 255
0.139006 -0.487471 0.234998 0 255 255
0.00133908 -0.374557 0.322123 29 226 255
0.0503868 -0.331996 0.129856 40 215 255
0.162569 -0.300185 0.325318 48 207 255
-0.045242 -0.372307 0.150896 29 226 255
0.2333 -0.270361 0.12779 56 199 255
0.117532 -0.386928 0.276271 26 229 255
-0.165558 -0.486653 0.162487 0 255 255
0.28872 -0.420112 0.151225 17 238 255
0.142789 -0.389071 0.13242 25 230 255
0.223367 -0.362138 0.158361 32 223 255
0.0139022 -0.363391 0.177657 32 223 255
0.0808715 -0.457771 0.184761 8 247 255
0.0052747 -0.488009 0.399284 0 255 255
-0.019944 -0.488389 0.160996 0 255 255
-0.055666 -0.32373 0.184949 42 213 255
-0.155002 -0.34541 0.378943 36 219 255
0.0450339 -0.488019 0.253834 0 255 255
-0.138479 -0.412967 0.276535 19 236 255
-0.12267 -0.369447 0.154587 30 225 255
-0.111951 -0.45325 0.164058 9 246 255
0.237847 -0.446388 0.128851 11 244 255
-0.159105 -0.392556 0.48479 24 231 255
-0.153312 -0.48745 0.276062 0 255 255
0.193386 -0.29703 0.178171 48 206 255
-0.158921 -0.315817 0.441535 44 211 255
-0.16143 -0.458118 0.435499 8 247 255
-0.00721395 -0.413799 0.125466 19 236 255
0.136923 -0.487595 0.165375 0 255 255
0.195159 -0.33245 0.131184 40 215 255
-0.0815231 -0.307876 0.259018 46 209 255
-0.023019 -0.441162 0.452123 12 243 255
-0.121748 -0.30658 0.125935 46 209 255
0.0705717 -0.224492 0.151647 67 188 255
0.0266776 -0.411435 0.390575 19 236 255
0.173078 -0.487562 0.39265 0 255 255
0.205853 -0.485592 0.290783 0 255 255
0.0511308 -0.296055 0.151409 48 206 255
-0.122236 -0.415628 0.420425 18 237 255
-0.154008 -0.330489 0.185406 40 215 255
-0.11951 -0.363198 0.251235 32 223 255
-0.143876 -0.451892 0.343788 9 246 255
0.0784929 -0.332776 0.193269 40 215 255
-0.04541 -0.488747 0.405963 0 255 255
-0.0303568 -0.37448 0.192208 29 226 255
0.0650275 -0.460619 0.446015 7 248 255
-0.041701 -0.488491 0.262192 0 255 255
0.180949 -0.451169 0.129418 9 246 255
0.0808392 -0.487711 0.308947 0 255 255
0.00979776 -0.340414 0.131304 38 217 255
0.225598 -0.458305 0.1778 7 248 255
0.0140712 -0.341201 0.369747 36 218 255
-0.109204 -0.357856 0.453854 32 222 255
0.219395 -0.336503 0.214075 39 216 255
0.159483 -0.36034 0.226827 32 222 255
-0.0277763 -0.488348 0.345089 0 255 255
0.300069 -0.312685 0.162818 44 210 255
-0.111417 -0.440869 0.126886 12 243 255
0.161816 -0.237826 0.131495 64 191 255
0.159249 -0.415998 0.270839 18 237 255
-0.141689 -0.293012 0.212526 50 205 255
0.104809 -0.323774 0.136839 42 213 255
0.175809 -0.361051 0.171413 32 223 255
-0.101359 -0.460115 0.276824 7 248 255
0.0110475 -0.28653 0.133132 51 204 255
-0.154556 -0.322765 0.292556 42 213 255
0.0583345 -0.402564 0.154117 22 233 255
0.000563957 -0.488116 0.442279 0 255 255
0.0375687 -0.300185 0.312818 48 207 255
-0.0533489 -0.334995 0.149375 39 216 255
-0.159377 -0.225442 0.31252 67 188 255
-0.131779 -0.412193 0.319862 19 236 255
-0.0841489 -0.272419 0.128797 55 200 255
0.103781 -0.266596 0.157663 56 198 255
0.320962 -0.449137 0.150577 10 245 255
0.0849192 -0.296644 0.21447 48 206 255
-0.0499313 -0.225185 0.187818 67 188 255
-0.00521174 -0.361128 0.282445 32 223 255
-0.0593727 -0.361031 0.426905 32 223 255
-0.0715063 -0.46417 0.227451 6 249 255
0.0300174 -0.413807 0.199358 19 236 255
-0.141634 -0.454041 0.23278 9 246 255
0.301658 -0.485828 0.192446 0 255 255
0.154937 -0.4846 0.1256 1 254 255
0.0660676 -0.361073 0.308677 32 223 255
-0.0712699 -0.394929 0.286023 24 231 255
-0.1349 -0.390976 0.481522 25 230 255
-0.033162 -0.295595 0.207928 48 206 255
-0.162431 -0.225185 0.387818 67 188 255
0.217133 -0.391789 0.132065 25 230 255
0.00916791 -0.488122 0.126781 0 255 255
0.128919 -0.375396 0.317573 29 226 255
0.0159758 -0.487813 0.205462 0 255 255
-0.145334 -0.305111 0.360701 47 208 255
0.192314 -0.437985 0.191587 13 242 255
0.16998 -0.487456 0.332965 0 255 255
0.076215 -0.437501 0.23485 13 242 255
0.264255 -0.488041 0.146796 0 255 255
0.237048 -0.487241 0.203078 0 255 255
-0.0785394 -0.366042 0.129552 31 224 255
0.0642424 -0.436888 0.128538 13 242 255
-0.0198962 -0.452467 0.188531 9 246 255
-0.0900522 -0.40831 0.387112 20 235 255
-0.142317 -0.301622 0.460289 48 207 255
-0.0603443 -0.453369 0.314808 9 246 255
0.144486 -0.450849 0.343492 9 246 255
-0.119671 -0.384747 0.214973 26 229 255
0.193172 -0.487744 0.152736 0 255 255
-0.156681 -0.420111 0.210692 17 238 255
-0.126046 -0.488824 0.1816 0 255 255
0.0976339 -0.461616 0.150308 7 248 255
0.00974114 -0.400339 0.162406 22 233 255
0.168833 -0.486583 0.207173 0 255 255
0.134793 -0.342177 0.170704 36 218 255
-0.0695223 -0.488248 0.13601 0 255 255
0.000222569 -0.366478 0.225009 31 224 255
-0.153347 -0.35546 0.438738 34 221 255
0.147133 -0.291158 0.12511 50 205 255
-0.046826 -0.364248 0.373425 32 223 255
-0.0721255 -0.487113 0.337406 0 255 255
0.167546 -0.412823 0.159511 19 236 255
0.262569 -0.312685 0.212818 44 210 255
-0.120363 -0.350247 0.127368 35 220 255
6.86822e-05 -0.400185 0.487818 22 233 255
-0.15331 -0.28578 0.124672 52 203 255
-0.145313 -0.250118 0.408272 60 194 255
0.0712396 -0.347075 0.349598 36 219 255
-0.147181 -0.405761 0.432677 21 234 255
0.0448793 -0.487572 0.326575 0 255 255
0.0108748 -0.439574 0.24736 12 243 255
0.0793474 -0.487218 0.210828 0 255 255
-0.0604855 -0.454946 0.162422 8 247 255
-0.115529 -0.357082 0.295228 32 222 255
0.0476964 -0.358869 0.42688 32 222 255
0.0995076 -0.380731 0.156944 27 228 255
-0.15406 -0.234968 0.1719 65 190 255
0.0423181 -0.402973 0.128122 22 233 255
0.19033 -0.311948 0.222692 44 210 255
0.0997516 -0.433234 0.351566 14 241 255
0.12228 -0.487262 0.425863 0 255 255
-0.0799691 -0.334689 0.349602 39 216 255
-0.119753 -0.318727 0.197047 43 211 255
-0.154791 -0.312707 0.155496 44 210 255
-0.143487 -0.271203 0.344152 55 200 255
0.0963093 -0.35715 0.217592 32 222 255
-0.155449 -0.353662 0.337498 34 221 255
0.121847 -0.487438 0.280668 0 255 255
0.125069 -0.300185 0.287818 48 207 255
0.00635636 -0.320465 0.266747 43 211 255
0.29869 -0.357578 0.129401 32 222 255
-0.162308 -0.44056 0.133248 12 243 255
0.121441 -0.296499 0.214471 48 206 255
-0.0653135 -0.390358 0.24192 25 230 255
0.139053 -0.3543 0.263522 34 221 255
-0.141498 -0.246334 0.215744 62 193 255
0.17046 -0.294406 0.150774 48 206 255
-0.0162939 -0.301469 0.155549 48 207 255
0.0385794 -0.438929 0.444316 12 243 255
0.318375 -0.414453 0.130338 19 236 255
-0.14179 -0.234944 0.296252 65 190 255
0.250493 -0.262901 0.144669 58 197 255
-0.155808 -0.487483 0.37603 0 255 255
-0.00670205 -0.406047 0.337154 21 234 255
-0.102591 -0.472571 0.433895 4 251 255
-0.106998 -0.358718 0.395083 32 222 255
0.149292 -0.355161 0.134235 34 221 255
0.157724 -0.427734 0.215744 15 240 255
-0.0956534 -0.401147 0.128171 22 233 255
0.175891 -0.230143 0.150305 65 189 255
0.0655764 -0.471917 0.127662 4 251 255
0.0486627 -0.488317 0.417121 0 255 255
-0.11152 -0.4887 0.255532 0 255 255
0.258912 -0.332996 0.131239 40 215 255
0.0838926 -0.355502 0.272159 34 221 255
0.234911 -0.487281 0.302176 0 255 255
-0.158906 -0.275898 0.288498 54 201 255
-0.138277 -0.419592 0.166317 17 238 255
-0.161527 -0.413808 0.38617 19 236 255
0.0332804 -0.255446 0.130741 59 195 255
0.0554832 -0.357896 0.178021 32 222 255
0.250069 -0.237685 0.200318 64 191 255
0.0774201 -0.370787 0.129374 30 225 255
-0.153862 -0.371214 0.28368 30 225 255
0.236723 -0.367717 0.202935 31 224 255
-0.156422 -0.310747 0.402763 44 210 255
0.106851 -0.465864 0.255935 6 249 255
0.124447 -0.434544 0.388915 14 241 255
0.199234 -0.326445 0.159369 40 214 255
0.260424 -0.486191 0.233773 0 255 255
0.300069 -0.400185 0.187818 22 233 255
0.0358662 -0.297997 0.24082 48 206 255
0.0246351 -0.467989 0.287675 5 250 255
-0.117915 -0.417224 0.255601 18 237 255
-0.124342 -0.488195 0.414319 0 255 255
-0.0625748 -0.488426 0.215717 0 255 255
-0.150195 -0.266393 0.441002 56 198 255
-0.160245 -0.460094 0.284573 7 248 255
0.0398867 -0.392913 0.312231 24 231 255
-0.00537829 -0.393805 0.142086 24 231 255
-0.133553 -0.361916 0.478188 32 223 255
-0.135305 -0.4623 0.356445 6 249 255
-0.154417 -0.347273 0.227198 36 219 255
-0.112467 -0.338469 0.429856 38 217 255
0.11259 -0.487223 0.371957 0 255 255
0.121708 -0.487471 0.201358 0 255 255
-0.0585061 -0.292182 0.129366 50 205 255
-0.0403404 -0.226242 0.148119 67 188 255
-0.0414721 -0.330837 0.2309 40 215 255
0.207926 -0.419003 0.213523 18 237 255
0.102895 -0.382273 0.381367 27 228 255
0.0463681 -0.460062 0.196092 7 248 255
0.186444 -0.450901 0.153374 9 246 255
-0.0358359 -0.464518 0.259041 6 249 255
0.00456275 -0.488295 0.363665 0 255 255
-0.150357 -0.392739 0.147464 24 231 255
-0.159373 -0.229862 0.129316 65 189 255
0.0142362 -0.348606 0.393757 36 219 255
-0.151173 -0.487519 0.236111 0 255 255
-0.0496502 -0.382481 0.437943 27 228 255
0.0993596 -0.22841 0.149881 65 189 255
-0.0151074 -0.455153 0.127906 8 247 255
-0.0681634 -0.384119 0.193515 26 229 255
0.252681 -0.376915 0.150561 28 227 255
-0.135141 -0.460846 0.27055 7 248 255
-0.160665 -0.426858 0.471077 16 239 255
0.0330019 -0.45623 0.154377 8 247 255
-0.139438 -0.313407 0.27635 44 210 255
0.255616 -0.431545 0.1882 14 241 255
-0.004021 -0.455452 0.32501 8 247 255
0.0932414 -0.431018 0.43051 14 241 255
-0.157592 -0.266728 0.376457 56 198 255
0.176879 -0.389628 0.132288 25 230 255
-0.0610005 -0.488439 0.304609 0 255 255
-0.157636 -0.269807 0.215516 56 199 255
-0.0999313 -0.300185 0.487818 48 207 255
0.273822 -0.447391 0.128426 10 245 255
0.126869 -0.309146 0.154872 46 209 255
0.0821923 -0.273198 0.134484 55 200 255
0.187585 -0.487354 0.252243 0 255 255
-0.0874313 -0.275185 0.200318 54 201 255
-0.154548 -0.386865 0.229611 26 229 255
0.0456935 -0.389073 0.249926 25 230 255
-0.0348623 -0.267777 0.159891 56 199 255
-0.127086 -0.321474 0.38011 43 211 255
0.0080835 -0.488015 0.171994 0 255 255
0.234912 -0.487592 0.158505 0 255 255
-0.0226992 -0.332142 0.309822 40 215 255
-0.0683224 -0.454586 0.344714 8 247 255
0.0507618 -0.289145 0.174208 51 204 255
0.219843 -0.309086 0.131122 46 209 255
0.138166 -0.433208 0.13044 14 241 255
-0.123202 -0.488986 0.332508 0 255 255
-0.07591 -0.488945 0.404191 0 255 255
-0.143411 -0.451716 0.417289 9 246 255
0.0562459 -0.319247 0.269905 43 211 255
0.0116892 -0.237775 0.155572 64 191 255
0.208486 -0.466259 0.127831 5 250 255
-0.108494 -0.472879 0.153891 4 251 255
-0.0036392 -0.488326 0.246633 0 255 255
-0.00965547 -0.361873 0.156339 32 223 255
-0.117084 -0.458938 0.213701 7 248 255
-0.0918391 -0.408362 0.157045 20 235 255
0.0685732 -0.40488 0.35983 21 234 255
-0.142524 -0.411537 0.365112 19 236 255
0.215968 -0.487335 0.326565 0 255 255
0.0610287 -0.487492 0.366395 0 255 255
-0.160126 -0.441538 0.335424 12 243 255
0.114597 -0.399437 0.186096 23 232 255
-0.0595836 -0.42433 0.224522 16 239 255
-0.0914915 -0.349744 0.274485 35 220 255
0.130692 -0.323101 0.125677 42 213 255
0.0714634 -0.487975 0.157862 0 255 255
-0.130805 -0.263633 0.125628 56 198 255
-0.0839016 -0.223786 0.14666 68 187 255
0.136965 -0.278269 0.181973 54 201 255
-0.0864398 -0.313277 0.152768 44 210 255
0.0512642 -0.32597 0.151695 40 214 255
-0.16005 -0.356135 0.467564 34 221 255
0.154431 -0.327249 0.241178 40 214 255
0.130911 -0.487976 0.130137 0 255 255
0.227602 -0.468388 0.230982 5 250 255
0.00735476 -0.293151 0.203824 50 205 255
-0.097343 -0.472363 0.126582 4 251 255
0.127762 -0.455347 0.188857 8 247 255
0.0630713 -0.487732 0.233098 0 255 255
-0.134756 -0.359917 0.339335 32 222 255
0.257994 -0.348482 0.17729 36 219 255
-0.141706 -0.379023 0.417769 28 227 255
-0.0907212 -0.358183 0.210187 32 222 255
-0.151136 -0.373242 0.127394 29 226 255
-0.158872 -0.254313 0.331838 60 195 255
-0.0471217 -0.402994 0.139535 22 233 255
0.285216 -0.445661 0.154264 11 244 255
-0.04272 -0.33935 0.392805 38 217 255
0.0348324 -0.358215 0.129254 32 222 255
0.112569 -0.437685 0.325318 13 242 255
0.162569 -0.225185 0.200318 67 188 255
-0.00550198 -0.469193 0.451482 5 250 255
0.31518 -0.383551 0.125505 27 228 255
-0.140269 -0.354903 0.184095 34 221 255
0.288684 -0.486972 0.220028 0 255 255
0.140171 -0.48752 0.333658 0 255 255
0.0921471 -0.473622 0.441505 4 251 255
0.26642 -0.242183 0.132958 63 192 255
0.151147 -0.467363 0.24809 5 250 255
-0.106541 -0.314382 0.247985 44 211 255
-0.137968 -0.453468 0.154067 9 246 255
0.113596 -0.39109 0.130333 25 230 255
-0.0317151 -0.259269 0.132683 58 197 255
0.264344 -0.306278 0.150227 46 209 255
-0.0144756 -0.369038 0.352535 30 225 255
0.196685 -0.273125 0.151431 55 200 255
0.195076 -0.359 0.18525 32 222 255
0.124234 -0.243649 0.131428 62 193 255
0.330916 -0.461892 0.129503 7 248 255
0.0412417 -0.381927 0.437401 27 228 255
-0.0860402 -0.332174 0.129583 40 215 255
-0.136964 -0.299719 0.314766 48 207 255
0.0625687 -0.237685 0.187818 64 191 255
-0.0566169 -0.41486 0.441196 19 236 255
0.0369771 -0.355459 0.30399 34 221 255
-0.0292181 -0.487529 0.130556 0 255 255
-0.00394028 -0.48836 0.306469 0 255 255
0.0938291 -0.310994 0.24749 44 210 255
-0.0983292 -0.38984 0.294635 25 230 255
-0.143146 -0.240256 0.369021 63 192 255
0.0537517 -0.391491 0.211007 25 230 255
-0.140972 -0.282452 0.250046 52 203 255
-0.155464 -0.398478 0.326521 23 232 255
-0.15854 -0.486634 0.337236 0 255 255
-0.0967439 -0.378695 0.45606 28 227 255
0.187775 -0.487371 0.188205 0 255 255
0.231169 -0.402511 0.150924 22 233 255
-0.139232 -0.417451 0.233089 18 237 255
0.264069 -0.487097 0.274756 0 255 255
-0.162431 -0.225185 0.425318 67 188 255
-0.0370653 -0.322243 0.132261 42 213 255
0.208742 -0.242142 0.134665 63 192 255
-0.031637 -0.441667 0.153591 12 243 255
0.196906 -0.354707 0.13149 34 221 255
-0.138445 -0.24118 0.154746 63 192 255
0.135752 -0.417191 0.15484 18 237 255
0.212569 -0.225185 0.200318 67 188 255
0.0953251 -0.33947 0.159979 38 217 255
-0.0324662 -0.368592 0.310835 30 225 255
0.0958415 -0.348465 0.325106 36 219 255
0.0713369 -0.361536 0.412533 32 223 255
-0.14875 -0.297143 0.475231 48 206 255
0.287688 -0.487374 0.1605 0 255 255
0.300069 -0.350185 0.175318 35 220 255
-0.125999 -0.436111 0.407306 13 242 255
0.175144 -0.487468 0.368509 0 255 255
0.0279139 -0.449311 0.128358 10 245 255
-0.142615 -0.332612 0.23462 40 215 255
0.134323 -0.465742 0.388884 6 249 255
0.0440103 -0.353725 0.240778 34 221 255
-0.130238 -0.434887 0.30556 13 242 255
-0.0499313 -0.300185 0.325318 48 207 255
-0.0788496 -0.488696 0.188463 0 255 255
0.0778142 -0.487683 0.273699 0 255 255
-0.140478 -0.48803 0.140482 0 255 255
0.0799603 -0.434361 0.153857 14 241 255
0.0834902 -0.336844 0.128956 39 216 255
-0.160772 -0.367039 0.40408 31 224 255
-0.118683 -0.300051 0.150864 48 207 255
-0.150695 -0.230418 0.256851 65 189 255
-0.110819 -0.415261 0.206781 19 236 255
-0.0727625 -0.488147 0.244488 0 255 255
-0.152012 -0.393727 0.193714 24 231 255
-0.0143842 -0.370735 0.127887 30 225 255
0.150749 -0.386938 0.256804 26 229 255
-0.114197 -0.488879 0.298012 0 255 255
6.86822e-05 -0.225185 0.200318 67 188 255
0.0303284 -0.29403 0.133282 50 205 255
-0.158045 -0.421421 0.436839 17 238 255
0.100069 -0.225185 0.212818 67 188 255
-0.0973033 -0.361083 0.154292 32 223 255
0.293753 -0.317236 0.129418 44 211 255
-0.155379 -0.311778 0.345291 44 210 255
-0.0481519 -0.428885 0.12763 15 240 255
0.294524 -0.486515 0.125802 0 255 255
0.158632 -0.302081 0.224774 47 208 255
-0.0234576 -0.487657 0.196185 0 255 255
-0.13026 -0.376427 0.369311 28 227 255
0.0202382 -0.328838 0.200285 40 214 255
-0.0299051 -0.404678 0.197186 21 234 255
-0.150992 -0.460585 0.200903 7 248 255
0.0091072 -0.380853 0.256435 27 228 255
-0.0227174 -0.299535 0.23547 48 207 255
0.262985 -0.459133 0.182591 7 248 255
-0.0826677 -0.258569 0.129075 59 195 255
0.268498 -0.407736 0.129749 20 235 255
0.114749 -0.362066 0.188694 32 223 255
0.226915 -0.316216 0.193387 44 211 255
-0.156686 -0.316274 0.132468 44 211 255
-0.0279612 -0.48831 0.388593 0 255 255
-0.106511 -0.337536 0.317094 38 217 255
0.220044 -0.431793 0.129432 14 241 255
0.12029 -0.392854 0.326 24 231 255
-0.159005 -0.462925 0.441865 6 249 255
0.139341 -0.228063 0.150542 65 189 255
0.103922 -0.48758 0.323753 0 255 255
-0.00832871 -0.329781 0.154751 40 215 255
-0.0374313 -0.400185 0.487818 22 233 255
0.0343041 -0.488041 0.430502 0 255 255
-0.153496 -0.422589 0.292471 17 238 255
0.0875687 -0.300185 0.325318 48 207 255
0.00504225 -0.45177 0.177352 9 246 255
0.231771 -0.481023 0.126595 2 253 255
-0.126538 -0.222338 0.133567 68 187 255
-0.157693 -0.310104 0.242083 44 210 255
-0.0811803 -0.443624 0.159813 11 244 255
-0.0749214 -0.388202 0.388548 25 230 255
-0.00184395 -0.437049 0.451289 13 242 255
-0.111759 -0.417583 0.127119 18 237 255
-0.0738159 -0.313018 0.210716 44 210 255
0.000843878 -0.335917 0.351733 39 216 255
0.0887084 -0.452224 0.254492 9 246 255
-0.123763 -0.481471 0.373302 2 253 255
-0.0844135 -0.444399 0.311127 11 244 255
-0.0560506 -0.487724 0.439854 0 255 255
-0.141988 -0.338237 0.413533 38 217 255
0.00592467 -0.270758 0.157482 55 200 255
0.0297412 -0.372568 0.163557 29 226 255
0.15449 -0.453035 0.152967 9 246 255
0.0065818 -0.384668 0.395177 26 229 255
0.253697 -0.35934 0.131122 32 222 255
0.0322324 -0.48848 0.145227 0 255 255
-0.16313 -0.451687 0.383261 9 246 255
0.210171 -0.487287 0.263561 0 255 255
0.17052 -0.333718 0.185187 39 216 255
-0.160562 -0.249548 0.274291 60 194 255
0.0380285 -0.488354 0.283926 0 255 255
0.0742254 -0.379338 0.294728 28 227 255
-0.153864 -0.346799 0.277488 36 219 255
0.0983194 -0.469999 0.127381 4 251 255
-0.142748 -0.272295 0.399681 55 200 255
0.162569 -0.412685 0.325318 19 236 255
0.0578023 -0.296028 0.223427 48 206 255
-0.160139 -0.463469 0.25696 6 249 255
0.130727 -0.358047 0.293814 32 222 255
-0.0939114 -0.426605 0.260781 16 239 255
-0.142899 -0.399438 0.460461 23 232 255
-0.167668 -0.480978 0.132004 2 253 255
0.0171843 -0.421403 0.142846 17 238 255
0.166752 -0.410528 0.188633 20 235 255
-0.154288 -0.294243 0.18257 48 206 255
0.218794 -0.377225 0.218034 28 227 255
-0.121024 -0.489014 0.205978 0 255 255
0.167369 -0.486891 0.293284 0 255 255
-0.146391 -0.334556 0.484106 39 216 255
0.085657 -0.412554 0.195788 19 236 255
0.0509352 -0.233333 0.144767 65 190 255
0.140038 -0.264865 0.154023 56 198 255
0.362569 -0.487685 0.137818 0 255 255
-0.0606574 -0.329514 0.275989 40 215 255
0.0902235 -0.487325 0.400827 0 255 255
-0.0381356 -0.341563 0.18096 36 218 255
-0.143925 -0.347675 0.154478 36 219 255
0.107992 -0.358201 0.245137 32 222 255
-0.102593 -0.293929 0.127356 50 205 255
0.0881995 -0.460438 0.172313 7 248 255
0.173165 -0.348955 0.150541 35 220 255
0.194246 -0.338032 0.234158 38 217 255
0.046606 -0.415562 0.381906 18 237 255
-0.142439 -0.258884 0.194747 59 195 255
0.0267768 -0.488257 0.366728 0 255 255
0.0716938 -0.410215 0.132605 20 235 255
0.216477 -0.487346 0.218867 0 255 255
-0.131842 -0.389331 0.299136 25 230 255
-0.136408 -0.488897 0.358627 0 255 255
0.10616 -0.404268 0.398267 21 234 255
0.0357582 -0.487819 0.196539 0 255 255
-0.0596883 -0.488413 0.362244 0 255 255
0.240751 -0.445653 0.15621 11 244 255
0.237863 -0.286437 0.131518 51 204 255
-0.036342 -0.488396 0.291419 0 255 255
0.0742512 -0.474882 0.301655 3 252 255
0.0875208 -0.28504 0.186345 52 203 255
-0.00802389 -0.344424 0.24633 36 218 255
-0.126811 -0.408661 0.354566 20 235 255
0.138429 -0.447862 0.21551 10 245 255
-0.0183509 -0.406579 0.428769 21 234 255
0.155192 -0.313009 0.125814 44 210 255
-0.049451 -0.334361 0.363864 39 216 255
0.160718 -0.487679 0.163796 0 255 255
0.0313762 -0.366655 0.342784 31 224 255
-0.0780801 -0.452316 0.127545 9 246 255
-0.0310978 -0.434222 0.249523 14 241 255
0.312561 -0.399697 0.140288 22 233 255
-0.160153 -0.487627 0.172628 0 255 255
-0.13828 -0.378459 0.237879 28 227 255
0.261254 -0.487167 0.180197 0 255 255
0.154988 -0.487858 0.402058 0 255 255
0.062809 -0.426328 0.242616 16 239 255
-0.00947624 -0.27352 0.132321 55 200 255
-0.141892 -0.233802 0.337378 65 190 255
-0.1204 -0.344925 0.197588 36 218 255
-0.15132 -0.423707 0.160283 16 239 255
-0.0668886 -0.382709 0.129232 27 228 255
0.119842 -0.48748 0.249213 0 255 255
-0.0692794 -0.30017 0.173237 48 207 255
0.258388 -0.405154 0.177901 21 234 255
-0.139132 -0.448457 0.442584 10 245 255
0.187684 -0.459019 0.195992 7 248 255
0.126285 -0.371195 0.134361 30 225 255
0.162569 -0.325185 0.300318 42 213 255
0.161603 -0.38186 0.227567 27 228 255
0.024324 -0.328089 0.286773 40 214 255
-0.159541 -0.302005 0.45331 47 208 255
-0.00728786 -0.22617 0.148274 67 188 255
0.0222584 -0.48813 0.237909 0 255 255
-0.117148 -0.324887 0.359675 42 213 255
0.202255 -0.425364 0.156724 16 239 255
0.238948 -0.242745 0.127635 63 192 255
-0.13128 -0.489049 0.281224 0 255 255
0.318074 -0.484738 0.170343 1 254 255
-0.118783 -0.402743 0.158214 22 233 255
-0.157888 -0.402881 0.483868 22 233 255
-0.110083 -0.343173 0.46569 36 218 255
0.236758 -0.305917 0.163798 46 209 255
0.0798084 -0.340626 0.224436 38 217 255
0.135472 -0.423032 0.338409 17 238 255
0.0669875 -0.486288 0.44259 0 255 255
-0.0912347 -0.259901 0.151207 58 197 255
0.178813 -0.292359 0.176969 50 205 255
-0.112707 -0.400348 0.467437 22 233 255
0.183914 -0.280967 0.133894 52 202 255
-0.0517468 -0.430441 0.185925 15 240 255
-0.0505951 -0.48852 0.175615 0 255 255
0.110739 -0.487171 0.156941 0 255 255
0.0927059 -0.295359 0.137287 48 206 255
-0.159454 -0.226982 0.303301 67 188 255
-0.150435 -0.362915 0.373707 32 223 255
-0.141307 -0.447198 0.314835 10 245 255
-0.13508 -0.312602 0.220763 44 210 255
-0.158879 -0.24608 0.211355 62 193 255
-0.129739 -0.394509 0.128513 24 231 255
-0.0970483 -0.393973 0.234785 24 231 255
-0.0295812 -0.458497 0.338461 7 248 255
-0.00246396 -0.314753 0.131831 44 211 255
-0.0904476 -0.488732 0.340186 0 255 255
0.163952 -0.486707 0.228893 0 255 255
0.0778614 -0.236294 0.13455 64 191 255
-0.138647 -0.335817 0.293624 39 216 255
0.202133 -0.487384 0.336669 0 255 255
-0.11519 -0.485461 0.426679 1 254 255
0.0308738 -0.464651 0.213849 6 249 255
-0.157707 -0.481869 0.401778 1 254 255
0.0625825 -0.488064 0.129741 0 255 255
-0.144361 -0.279614 0.298362 52 202 255
-0.0124313 -0.375185 0.487818 29 226 255
0.163389 -0.420124 0.130936 17 238 255
0.297737 -0.430779 0.128154 15 240 255
-0.111126 -0.489012 0.236445 0 255 255
-0.00391573 -0.488078 0.423784 0 255 255
-0.1563 -0.403462 0.250262 22 233 255
-0.0552517 -0.359338 0.155303 32 222 255
-0.155124 -0.252479 0.154966 60 195 255
0.0271527 -0.310323 0.153054 44 210 255
0.12248 -0.452463 0.410132 9 246 255
0.157937 -0.390819 0.164719 25 230 255
-0.151218 -0.340912 0.125336 38 217 255
-0.162877 -0.429676 0.404251 15 240 255
0.0553583 -0.379004 0.153771 28 227 255
-0.0386862 -0.487893 0.239693 0 255 255
0.134067 -0.335845 0.20198 39 216 255
0.227413 -0.354899 0.154006 34 221 255
-0.0435466 -0.387449 0.248429 26 229 255
-0.122964 -0.393814 0.415744 24 231 255
-0.156877 -0.293158 0.361167 50 205 255
0.0197639 -0.488286 0.323319 0 255 255
-0.131186 -0.454956 0.127381 8 247 255
-0.0999313 -0.300185 0.425318 48 207 255
0.0625687 -0.425185 0.325318 16 239 255
0.0651436 -0.345166 0.34861 36 219 255
-0.152755 -0.48749 0.31099 0 255 255
0.00359918 -0.405399 0.223088 21 234 255
-0.0920824 -0.454107 0.220448 9 246 255
0.243023 -0.463931 0.203104 6 249 255
-0.157353 -0.340188 0.429125 38 217 255
0.283074 -0.294774 0.132262 48 206 255
-0.0670911 -0.336782 0.402218 39 216 255
-0.0874216 -0.332533 0.239466 40 215 255
0.0778668 -0.404987 0.429683 21 234 255
-0.156017 -0.360272 0.318161 32 222 255
0.0887392 -0.335051 0.280665 39 216 255
-0.153619 -0.345101 0.186935 36 219 255
0.170048 -0.468915 0.12767 5 250 255
0.235334 -0.487255 0.268539 0 255 255
-0.109024 -0.488601 0.157346 0 255 255
0.0437987 -0.453003 0.445824 9 246 255
0.102225 -0.372021 0.371565 30 225 255
-0.0464047 -0.359235 0.342767 32 222 255
-0.0760586 -0.488374 0.285507 0 255 255
-0.143204 -0.43567 0.370841 13 242 255
-0.104812 -0.337347 0.128126 38 217 255
0.0126306 -0.386306 0.127616 26 229 255
-0.0124313 -0.412685 0.325318 19 236 255
0.125062 -0.261041 0.130815 58 197 255
0.195859 -0.315975 0.131615 44 211 255
-0.0814379 -0.445156 0.144125 11 244 255
0.113868 -0.313569 0.172996 44 210 255
-0.141453 -0.238148 0.236703 64 191 255
0.123113 -0.487321 0.297837 0 255 255
0.0115986 -0.469104 0.266679 5 250 255
0.282962 -0.336834 0.146969 39 216 255
0.100975 -0.426987 0.131107 15 240 255
0.212569 -0.262685 0.200318 58 197 255
-0.0259921 -0.293686 0.186339 50 205 255
-0.151016 -0.373451 0.487388 29 226 255
0.0577001 -0.414157 0.193591 19 236 255
-0.0715361 -0.224423 0.137773 67 188 255
-0.140684 -0.456079 0.189447 8 247 255
0.0962344 -0.487406 0.220068 0 255 255
-0.116123 -0.458579 0.295569 7 248 255
-0.0606509 -0.294811 0.144002 48 206 255
-0.0015294 -0.34513 0.198442 36 219 255
0.0751965 -0.487349 0.346927 0 255 255
0.20521 -0.487778 0.150846 0 255 255
0.0107371 -0.48825 0.133679 0 255 255
0.21848 -0.2397 0.148963 63 192 255
-0.141083 -0.440172 0.248111 12 243 255
-0.0412355 -0.463078 0.200874 6 249 255
0.221946 -0.414622 0.191884 19 236 255
0.0580416 -0.32202 0.17431 42 213 255
-0.129497 -0.378541 0.190164 28 227 255
-0.025303 -0.392686 0.15543 24 231 255
0.299708 -0.439792 0.160726 12 243 255
0.215479 -0.370707 0.131432 30 225 255
0.0292637 -0.333048 0.325663 40 215 255
-0.151364 -0.279652 0.124797 52 202 255
-0.0282639 -0.472588 0.451419 4 251 255
0.259858 -0.487361 0.12611 0 255 255
0.0511386 -0.443752 0.1536 11 244 255
-0.03439 -0.488375 0.322676 0 255 255
-0.0783045 -0.364813 0.299306 31 224 255
-0.15674 -0.421484 0.209901 17 238 255
0.0604929 -0.312027 0.135204 44 210 255
0.13343 -0.487109 0.188734 0 255 255
0.123749 -0.485813 0.429165 0 255 255
-0.0168262 -0.325254 0.27928 42 213 255
-0.157753 -0.285754 0.427194 52 203 255
-0.140268 -0.391262 0.271242 25 230 255
0.0397166 -0.292276 0.20493 50 205 255
0.0400979 -0.385387 0.372605 26 229 255
0.30505 -0.488007 0.147076 0 255 255
0.282567 -0.384456 0.152509 26 229 255
-0.154534 -0.417706 0.12948 18 237 255
-0.0886218 -0.351186 0.440782 35 220 255
0.117583 -0.350022 0.13552 35 220 255
0.350069 -0.437685 0.137818 13 242 255
0.180342 -0.487036 0.317794 0 255 255
-0.156422 -0.319023 0.322128 43 211 255
0.134412 -0.388254 0.283952 25 230 255
0.0278282 -0.259226 0.130552 58 197 255
0.19382 -0.304788 0.210194 47 208 255
-0.119426 -0.274334 0.150178 55 200 255
0.0597642 -0.373819 0.129254 29 226 255
-0.0240746 -0.488488 0.156571 0 255 255
-0.0658491 -0.3416 0.13008 36 218 255
-0.122343 -0.320998 0.267285 43 211 255
0.14475 -0.470587 0.359173 4 251 255
-0.0299034 -0.365229 0.387704 31 224 255
-0.159608 -0.417417 0.363873 18 237 255
-0.0990684 -0.34841 0.371624 36 219 255
0.0428938 -0.488247 0.393254 0 255 255
0.11521 -0.426578 0.172891 16 239 255
-0.158473 -0.273532 0.230071 55 200 255
0.0276512 -0.383215 0.186976 27 228 255
-0.155214 -0.33592 0.386703 39 216 255
0.0224355 -0.418838 0.12774 18 237 255
-0.126096 -0.489352 0.390238 0 255 255
-0.0267672 -0.238133 0.1347 64 191 255
0.154818 -0.311301 0.150572 44 210 255
0.0973546 -0.429623 0.351427 15 240 255
-0.0874313 -0.225185 0.187818 67 188 255
0.169014 -0.253171 0.15006 60 195 255
0.177855 -0.45417 0.170476 9 246 255
0.0686418 -0.281669 0.154453 52 202 255
-0.0624313 -0.437685 0.387818 13 242 255
0.0996255 -0.309184 0.233649 46 209 255
-0.0565334 -0.361064 0.1964 32 223 255
-0.0390373 -0.414226 0.127322 19 236 255
0.169461 -0.377232 0.133214 28 227 255
0.301878 -0.35412 0.130777 34 221 255
-0.0602778 -0.488086 0.134938 0 255 255
-0.114064 -0.325134 0.156498 42 213 255
-0.0730305 -0.487553 0.429637 0 255 255
-0.156535 -0.323914 0.220148 42 213 255
0.269587 -0.260963 0.132994 58 197 255
0.125069 -0.300185 0.325318 48 207 255
0.0895017 -0.364635 0.185961 31 224 255
-0.142631 -0.235372 0.270841 65 190 255
-0.153954 -0.378888 0.43821 28 227 255
-0.147238 -0.231104 0.191844 65 189 255
0.007295 -0.399108 0.323505 23 232 255
0.0106241 -0.302216 0.241424 47 208 255
-0.120374 -0.41728 0.188808 18 237 255
-0.00124247 -0.42009 0.156077 17 238 255
-0.158512 -0.227706 0.332063 67 188 255
0.152054 -0.295354 0.212375 48 206 255
-0.129513 -0.327468 0.463551 40 214 255
0.243627 -0.356655 0.193352 34 221 255
-0.100453 -0.45835 0.25922 7 248 255
0.200141 -0.409446 0.131041 20 235 255
-0.162529 -0.454453 0.338917 8 247 255
-0.0175413 -0.48827 0.366722 0 255 255
-0.158729 -0.276089 0.30312 54 201 255
-0.0124313 -0.300185 0.325318 48 207 255
0.0608397 -0.487597 0.173505 0 255 255
-0.135197 -0.22188 0.134104 68 187 255
-0.0596192 -0.344924 0.241395 36 218 255
0.0327132 -0.448989 0.243588 10 245 255
0.0328432 -0.347095 0.381709 36 219 255
-0.141212 -0.338519 0.352316 38 217 255
-0.0878331 -0.422878 0.128519 17 238 255
-0.16004 -0.328482 0.46898 40 214 255
0.247961 -0.427261 0.129215 15 240 255
0.144624 -0.4503 0.129366 10 245 255
0.241966 -0.276641 0.149424 54 201 255
0.070035 -0.367267 0.254812 31 224 255
0.0322735 -0.348135 0.130195 36 219 255
0.19503 -0.374577 0.158662 29 226 255
0.236114 -0.328746 0.130739 40 214 255
-0.136666 -0.390014 0.317659 25 230 255
-0.054245 -0.380118 0.441332 27 228 255
0.102227 -0.487269 0.376668 0 255 255
-0.0856632 -0.339046 0.321069 38 217 255
0.239553 -0.487233 0.184402 0 255 255
0.000226608 -0.488659 0.266436 0 255 255
0.0763012 -0.367392 0.408394 31 224 255
0.204955 -0.487569 0.129582 0 255 255
0.148081 -0.487415 0.26737 0 255 255
0.0833468 -0.488291 0.137685 0 255 255
0.197233 -0.357307 0.233832 32 222 255
-0.14003 -0.488361 0.224294 0 255 255
-0.0595241 -0.264216 0.129777 56 198 255
-0.00706538 -0.359193 0.284794 32 222 255
-0.13008 -0.459392 0.399478 7 248 255
-0.143683 -0.264895 0.357736 56 198 255
0.09713 -0.27309 0.176619 55 200 255
-0.0217984 -0.468061 0.302345 5 250 255
0.0727467 -0.262938 0.133114 56 198 255
0.081146 -0.487639 0.246979 0 255 255
0.298407 -0.486859 0.191977 0 255 255
-0.160717 -0.405991 0.412478 21 234 255
-0.0884589 -0.4693 0.161807 5 250 255
-0.0915859 -0.392386 0.388964 24 231 255
-0.152864 -0.294216 0.153143 48 206 255
0.00034889 -0.448078 0.142094 10 245 255
0.0550603 -0.488065 0.31577 0 255 255
-0.0750936 -0.396758 0.27495 23 232 255
-0.152892 -0.379978 0.208171 28 227 255
0.148678 -0.355078 0.175369 34 221 255
-0.155745 -0.390924 0.28394 25 230 255
0.103723 -0.370042 0.322699 30 225 255
-0.0674556 -0.488528 0.393763 0 255 255
0.0638494 -0.307422 0.248942 46 209 255
0.226524 -0.487313 0.306859 0 255 255
0.248103 -0.380596 0.131341 27 228 255
-0.105809 -0.310296 0.225531 44 210 255
-0.14298 -0.450851 0.279723 9 246 255
-0.0392606 -0.275731 0.164189 54 201 255
0.192255 -0.410817 0.210429 20 235 255
-0.155317 -0.377432 0.127669 28 227 255
-0.142313 -0.308137 0.420561 46 209 255
0.100547 -0.414978 0.152009 19 236 255
0.0502093 -0.455122 0.181052 8 247 255
-0.0252981 -0.332895 0.13407 40 215 255
-0.153557 -0.28729 0.264523 51 204 255
0.120769 -0.3 0.13623 48 207 255
-0.155626 -0.375581 0.343097 29 226 255
-0.159896 -0.46501 0.432107 6 249 255
-0.0651695 -0.415684 0.157493 18 237 255
0.260163 -0.486442 0.221803 0 255 255
0.0182522 -0.488292 0.443319 0 255 255
-0.0165023 -0.384196 0.36369 26 229 255
0.0995355 -0.42211 0.42072 17 238 255
0.0902839 -0.453144 0.228446 9 246 255
0.175724 -0.487465 0.365473 0 255 255
0.0733254 -0.233795 0.154972 65 190 255
0.079864 -0.443544 0.129018 11 244 255
-0.161391 -0.441327 0.133186 12 243 255
0.0322434 -0.339283 0.236597 38 217 255
0.262565 -0.323132 0.16674 42 213 255
-0.130877 -0.350626 0.271021 35 220 255
-0.00334428 -0.488133 0.197984 0 255 255
-0.00511841 -0.403815 0.250273 21 234 255
-0.107465 -0.407783 0.449896 20 235 255
-0.118786 -0.445261 0.153057 11 244 255
-0.142058 -0.399664 0.392253 22 233 255
-0.14198 -0.29901 0.200355 48 207 255
-0.0782989 -0.338359 0.153609 38 217 255
0.0143907 -0.339561 0.176005 38 217 255
-0.159603 -0.475074 0.29498 3 252 255
-0.0906728 -0.488718 0.315174 0 255 255
0.0528568 -0.332355 0.318488 40 215 255
-0.0152018 -0.338455 0.371936 38 217 255
-0.151023 -0.371521 0.165845 30 225 255
-0.150614 -0.284566 0.462039 52 203 255
0.114993 -0.398445 0.374411 23 232 255
-0.145892 -0.488391 0.181611 0 255 255
0.334401 -0.481993 0.134589 1 254 255
-0.136036 -0.301343 0.322601 48 207 255
-0.131751 -0.352065 0.400241 35 220 255
-0.00653048 -0.432113 0.451709 14 241 255
-0.130572 -0.45766 0.201594 8 247 255
0.103756 -0.487472 0.180968 0 255 255
0.145234 -0.487944 0.127484 0 255 255
-0.0145773 -0.466413 0.248413 5 250 255
-0.0991126 -0.239445 0.129964 64 191 255
-0.111111 -0.479531 0.128855 2 253 255
0.179836 -0.238242 0.136349 64 191 255
-0.0865998 -0.376433 0.224297 28 227 255
-0.0243823 -0.451754 0.128337 9 246 255
0.243822 -0.487886 0.145511 0 255 255
-0.126642 -0.419964 0.280961 17 238 255
0.0335608 -0.273556 0.155476 55 200 255
0.0739582 -0.488174 0.419121 0 255 255
0.316144 -0.423031 0.145623 17 238 255
-0.0871024 -0.487623 0.238646 0 255 255
0.122463 -0.445432 0.152188 11 244 255
0.0527152 -0.348491 0.152439 36 219 255
0.162569 -0.300185 0.325318 48 207 255
-0.0497991 -0.454761 0.349434 8 247 255
-0.0098621 -0.391783 0.202462 25 230 255
0.203802 -0.487367 0.222426 0 255 255
0.250069 -0.262685 0.200318 58 197 255
0.154324 -0.342929 0.235022 36 218 255
-0.113716 -0.376623 0.128817 28 227 255
0.0717828 -0.378246 0.212441 28 227 255
0.284178 -0.461278 0.127459 7 248 255
0.214781 -0.297055 0.159054 48 206 255
-0.143949 -0.290941 0.380821 50 205 255
-0.0375594 -0.370324 0.129985 30 225 255
0.206875 -0.447431 0.153225 10 245 255
-0.161225 -0.397854 0.471581 23 232 255
0.0137585 -0.487585 0.40193 0 255 255
0.101455 -0.321558 0.263823 42 213 255
-0.127763 -0.304394 0.125574 47 208 255
0.111155 -0.386651 0.169487 26 229 255
-0.0633669 -0.304837 0.129148 47 208 255
0.143395 -0.487524 0.337089 0 255 255
0.156168 -0.288065 0.186194 51 204 255
0.221951 -0.329037 0.207754 40 214 255
0.182422 -0.487364 0.291897 0 255 255
0.150562 -0.342753 0.134459 36 218 255
-0.143321 -0.350217 0.483986 35 220 255
-0.132589 -0.367109 0.22351 31 224 255
-0.135715 -0.488879 0.350907 0 255 255
-0.0698672 -0.332771 0.295622 40 215 255
-0.147354 -0.255583 0.420511 59 195 255
-0.0803742 -0.463393 0.284787 6 249 255
0.288098 -0.390281 0.129232 25 230 255
0.165841 -0.469953 0.194455 4 251 255
0.119795 -0.235757 0.133678 64 191 255
-0.0935217 -0.28847 0.159038 51 204 255
-0.0285006 -0.316999 0.165352 44 211 255
0.0303417 -0.232631 0.143389 65 190 255
0.245174 -0.382424 0.167743 27 228 255
0.0340049 -0.467108 0.127601 5 250 255
-0.0295594 -0.297719 0.21698 48 206 255
-0.154973 -0.40975 0.318444 20 235 255
-0.1404 -0.416852 0.442216 18 237 255
-0.143548 -0.235786 0.300753 64 191 255
-0.0956457 -0.48893 0.191632 0 255 255
0.137932 -0.399308 0.13196 23 232 255
0.0904945 -0.487748 0.293603 0 255 255
-0.128827 -0.415614 0.354797 18 237 255
-0.154998 -0.311395 0.28769 44 210 255
0.0242051 -0.415105 0.201021 19 236 255
-0.0667786 -0.395041 0.179795 24 231 255
0.205185 -0.28859 0.132424 51 204 255
-0.054957 -0.405002 0.457896 21 234 255
0.0605667 -0.454098 0.44598 9 246 255
0.286266 -0.424834 0.167703 16 239 255
-0.154686 -0.487732 0.394 0 255 255
-0.132294 -0.487055 0.25799 0 255 255
0.115344 -0.456364 0.196056 8 247 255
0.0781697 -0.326355 0.158413 40 214 255
0.103313 -0.372321 0.281554 29 226 255
0.0286034 -0.313798 0.132619 44 211 255
0.259613 -0.487121 0.271016 0 255 255
-0.164009 -0.487303 0.160741 0 255 255
0.0246863 -0.374147 0.312797 29 226 255
0.00195206 -0.464873 0.322389 6 249 255
0.0518215 -0.480096 0.252136 2 253 255
-0.119526 -0.348103 0.152908 36 219 255
-0.0241287 -0.488246 0.417451 0 255 255
-0.154627 -0.231336 0.128906 65 189 255
0.155415 -0.38073 0.228278 27 228 255
-0.047008 -0.231581 0.150675 65 189 255
0.00206688 -0.386943 0.398542 26 229 255
0.143872 -0.487902 0.400794 0 255 255
-0.0464145 -0.488432 0.208708 0 255 255
0.228864 -0.425326 0.203274 16 239 255
-0.147232 -0.476139 0.428094 3 252 255
0.125054 -0.269587 0.157951 56 199 255
-0.0435665 -0.451729 0.158167 9 246 255
-0.140978 -0.282078 0.249895 52 202 255
0.000227279 -0.358949 0.156172 32 222 255
-0.111919 -0.387023 0.472294 26 229 255
0.0640036 -0.310746 0.200498 44 210 255
-0.0103588 -0.280512 0.132548 52 202 255
0.0534561 -0.487751 0.213447 0 255 255
-0.0744295 -0.469695 0.126856 5 250 255
-0.0515702 -0.427671 0.253189 15 240 255
0.101941 -0.383004 0.130426 27 228 255
-0.128429 -0.407441 0.225425 21 234 255
-0.154942 -0.255487 0.166729 59 195 255
0.211395 -0.332543 0.153752 40 215 255
-0.137033 -0.341078 0.316942 36 218 255
-0.153412 -0.367628 0.265504 31 224 255
-0.033324 -0.317747 0.256991 43 211 255
-0.0354119 -0.488589 0.267262 0 255 255
0.140098 -0.409796 0.189839 20 235 255
-0.157862 -0.250188 0.355989 60 194 255
-0.11351 -0.390724 0.15625 25 230 255
0.00861853 -0.460908 0.169251 7 248 255
0.209592 -0.48732 0.186276 0 255 255
0.126041 -0.434552 0.384626 14 241 255
-0.107473 -0.489022 0.365337 0 255 255
0.106255 -0.487981 0.426255 0 255 255
0.163334 -0.48803 0.142125 0 255 255
0.101733 -0.336652 0.20595 39 216 255
-0.00676656 -0.413973 0.127052 19 236 255
0.0387029 -0.397696 0.237036 23 232 255
0.137569 -0.225185 0.200318 67 188 255
0.208247 -0.387458 0.191811 26 229 255
-0.0941117 -0.314935 0.201186 44 211 255
0.246944 -0.451742 0.128564 9 246 255
0.0585798 -0.405804 0.14448 21 234 255
-0.078413 -0.366923 0.391843 31 224 255
0.183574 -0.431506 0.130218 14 241 255
-0.154637 -0.443713 0.210442 11 244 255
0.283568 -0.295536 0.132219 48 206 255
0.0311058 -0.321642 0.274373 42 213 255
-0.0285631 -0.337445 0.317624 38 217 255
0.277111 -0.487487 0.158368 0 255 255
-0.144309 -0.388641 0.488436 25 230 255
-0.0125595 -0.488324 0.331416 0 255 255
-0.111416 -0.245781 0.149995 62 193 255
0.167651 -0.48712 0.245642 0 255 255
0.113992 -0.488276 0.137022 0 255 255
-0.126873 -0.449216 0.245451 10 245 255
-0.0344208 -0.483953 0.131114 1 254 255
0.230053 -0.244861 0.149124 62 193 255
-0.159366 -0.430891 0.451957 14 241 255
0.0929761 -0.40917 0.346938 20 235 255
-0.131252 -0.489111 0.31398 0 255 255
0.162569 -0.300185 0.287818 48 207 255
0.160664 -0.431523 0.214442 14 241 255
-0.151367 -0.408086 0.179585 20 235 255
0.0480915 -0.350526 0.188834 35 220 255
0.10826 -0.487181 0.343201 0 255 255
0.110699 -0.288431 0.198211 51 204 255
-0.096313 -0.364302 0.176758 32 223 255
-0.121167 -0.329119 0.397648 40 214 255
0.173083 -0.317696 0.160019 43 211 255
-0.0924688 -0.487082 0.438655 0 255 255
0.0305006 -0.488344 0.150242 0 255 255
-0.157249 -0.327992 0.423326 40 214 255
-0.153088 -0.447852 0.252402 10 245 255
0.162569 -0.350185 0.325318 35 220 255
0.13245 -0.270874 0.128554 55 200 255
0.116371 -0.339167 0.154095 38 217 255
-0.139594 -0.262575 0.12546 58 197 255
-0.073587 -0.463425 0.21012 6 249 255
-0.124318 -0.425837 0.411874 16 239 255
-0.154227 -0.328682 0.254221 40 214 255
0.187569 -0.225185 0.200318 67 188 255
0.246641 -0.428123 0.151769 15 240 255
0.149588 -0.388612 0.259416 25 230 255
-0.15469 -0.325051 0.363022 42 213 255
0.0535195 -0.487529 0.35209 0 255 255
-0.155001 -0.390494 0.386814 25 230 255
-0.142992 -0.43708 0.342477 13 242 255
-0.0593276 -0.488139 0.35574 0 255 255
0.0673896 -0.379661 0.424773 28 227 255
0.139731 -0.487252 0.212704 0 255 255
0.208785 -0.345298 0.130638 36 219 255
-0.145856 -0.303169 0.47781 47 208 255
-0.0690085 -0.311177 0.235386 44 210 255
0.179507 -0.40942 0.153189 20 235 255
-0.116331 -0.32939 0.328534 40 215 255
-0.146167 -0.232145 0.200978 65 190 255
0.00222007 -0.231442 0.139194 65 189 255
0.270533 -0.252785 0.132581 60 195 255
-0.00138622 -0.297218 0.189675 48 206 255
0.134309 -0.321969 0.125592 42 213 255
0.0290755 -0.335932 0.347114 39 216 255
0.0248335 -0.395952 0.156562 23 232 255
-0.146573 -0.341753 0.125636 36 218 255
-0.141476 -0.468617 0.127647 5 250 255
-0.0945213 -0.286477 0.128175 51 204 255
-0.154892 -0.323221 0.203637 42 213 255
-0.143564 -0.26185 0.31798 58 197 255
0.208759 -0.465496 0.203672 6 249 255
-0.0915319 -0.488752 0.263561 0 255 255
0.271614 -0.352997 0.131301 34 221 255
-0.0892542 -0.397553 0.259756 23 232 255
0.0479964 -0.380726 0.366701 27 228 255
-0.102673 -0.444233 0.165074 11 244 255
0.0622125 -0.332087 0.295895 40 215 255
-0.0536598 -0.407418 0.127926 21 234 255
0.129733 -0.319213 0.243153 43 211 255
0.311631 -0.448568 0.128595 10 245 255
0.0619217 -0.448266 0.208592 10 245 255
0.0882107 -0.226377 0.149784 67 188 255
0.0362894 -0.488018 0.275415 0 255 255
-0.0240732 -0.454256 0.452336 9 246 255
-0.000185883 -0.372841 0.233244 29 226 255
6.86822e-05 -0.225185 0.200318 67 188 255
0.0862279 -0.464704 0.258211 6 249 255
-0.0699297 -0.339466 0.339545 38 217 255
0.0795039 -0.388093 0.177072 25 230 255
-0.0131487 -0.471956 0.203598 4 251 255
0.274748 -0.487054 0.216472 0 255 255
-0.108099 -0.341429 0.439417 36 218 255
0.0620992 -0.350795 0.128891 35 220 255
0.287569 -0.300185 0.175318 48 207 255
-0.10474 -0.48911 0.408014 0 255 255
-0.0660519 -0.488444 0.156072 0 255 255
-0.158899 -0.352882 0.453154 34 221 255
0.237569 -0.225185 0.200318 67 188 255
-0.159115 -0.266169 0.234623 56 198 255
-0.0467551 -0.339443 0.199202 38 217 255
-0.160917 -0.475164 0.350452 3 252 255
-0.120616 -0.376684 0.29791 28 227 255
-0.00913878 -0.372036 0.129118 30 225 255
-0.152553 -0.435313 0.29079 13 242 255
-0.00705829 -0.488244 0.160911 0 255 255
-0.0593379 -0.269186 0.155721 56 199 255
0.0786295 -0.346866 0.340632 36 219 255
0.11646 -0.443182 0.129397 11 244 255
-0.0921587 -0.369539 0.129856 30 225 255
-0.135387 -0.297664 0.162652 48 206 255
0.310745 -0.469842 0.164587 5 250 255
0.206249 -0.487311 0.282014 0 255 255
-0.122659 -0.488645 0.1554 0 255 255
0.207304 -0.303188 0.193329 47 208 255
0.163938 -0.487416 0.17856 0 255 255
-0.14423 -0.449181 0.385649 10 245 255
0.0431547 -0.282574 0.170287 52 203 255
-0.143752 -0.250543 0.373535 60 194 255
0.287569 -0.387685 0.200318 26 229 255
0.309465 -0.369866 0.13103 30 225 255
0.0566966 -0.457673 0.128842 8 247 255
-0.0785422 -0.458977 0.325138 7 248 255
0.251223 -0.293743 0.131126 50 205 255
-0.142487 -0.263715 0.268658 56 198 255
-0.123904 -0.338974 0.22895 38 217 255
-0.130809 -0.376441 0.366139 28 227 255
-0.00903659 -0.433522 0.241806 14 241 255
0.175893 -0.262429 0.135338 58 197 255
0.0593968 -0.256397 0.132122 59 195 255
0.119214 -0.392331 0.34216 24 231 255
0.13568 -0.48745 0.289821 0 255 255
-0.0319325 -0.349822 0.251503 35 220 255
-0.149588 -0.439524 0.157976 12 243 255
0.228424 -0.391531 0.150583 25 230 255
-0.155851 -0.279841 0.39457 52 202 255
-0.155298 -0.397868 0.223427 23 232 255
-0.0392069 -0.303404 0.14869 47 208 255
-0.101281 -0.324958 0.272844 42 213 255
0.0250687 -0.300185 0.325318 48 207 255
-0.150389 -0.339555 0.151049 38 217 255
0.00719647 -0.488279 0.370922 0 255 255
0.217761 -0.358735 0.219635 32 222 255
0.13152 -0.487594 0.373245 0 255 255
-0.0391611 -0.433172 0.18274 14 241 255
0.147226 -0.382207 0.1653 27 228 255
0.162569 -0.437685 0.300318 13 242 255
0.228492 -0.487843 0.13522 0 255 255
0.100069 -0.225185 0.212818 67 188 255
0.0858133 -0.449295 0.153744 10 245 255
0.0244131 -0.293889 0.218968 50 205 255
0.293812 -0.323665 0.130849 42 213 255
0.130516 -0.351245 0.266891 35 220 255
-0.139278 -0.44977 0.442367 10 245 255
0.0881892 -0.321658 0.137314 42 213 255
-0.163 -0.43557 0.397796 13 242 255
0.249432 -0.337965 0.182842 38 217 255
-0.0913178 -0.424724 0.128406 16 239 255
0.00675316 -0.314956 0.16042 44 211 255
0.0702358 -0.487532 0.388775 0 255 255
-0.0668879 -0.38706 0.155058 26 229 255
-0.147284 -0.227072 0.150729 67 188 255
0.152299 -0.316324 0.185833 44 211 255
0.0229498 -0.488012 0.228118 0 255 255
-0.147342 -0.487979 0.264967 0 255 255
-0.152871 -0.292624 0.124669 50 205 255
0.278405 -0.419718 0.129191 17 238 255
0.175143 -0.370242 0.133224 30 225 255
-0.0824276 -0.385191 0.46368 26 229 255
-0.154156 -0.356442 0.231938 34 221 255
-0.011529 -0.364265 0.185702 32 223 255
0.19948 -0.45701 0.12882 8 247 255
-0.00551934 -0.386743 0.333652 26 229 255
0.233322 -0.480718 0.236597 2 253 255
0.0684618 -0.340225 0.233588 38 217 255
0.0683908 -0.486974 0.443361 0 255 255
0.245214 -0.454236 0.167437 9 246 255
-0.141563 -0.28109 0.215695 52 202 255
0.307182 -0.47897 0.126787 2 253 255
-0.0595047 -0.255375 0.130016 59 195 255
0.0282533 -0.386724 0.127892 26 229 255
0.114414 -0.48739 0.23584 0 255 255
0.101739 -0.258787 0.149054 59 195 255
-0.0636293 -0.464069 0.24193 6 249 255
0.126593 -0.457594 0.407396 8 247 255
-0.0487332 -0.487522 0.412679 0 255 255
0.0122587 -0.468972 0.127088 5 250 255
0.161845 -0.276033 0.164398 54 201 255
0.203811 -0.48737 0.328911 0 255 255
-0.00533755 -0.488702 0.293909 0 255 255
-0.125395 -0.33539 0.472753 39 216 255
-0.0751959 -0.396574 0.218702 23 232 255
0.158411 -0.440279 0.150406 12 243 255
-0.130387 -0.387184 0.264562 26 229 255
0.187401 -0.234897 0.149678 65 190 255
0.127047 -0.384579 0.297497 26 229 255
0.18336 -0.345523 0.23787 36 219 255
0.182496 -0.328375 0.132205 40 214 255
-0.102642 -0.488884 0.29175 0 255 255
-0.159511 -0.424914 0.353307 16 239 255
-0.0626556 -0.437046 0.140854 13 242 255
-0.154315 -0.340454 0.290477 38 217 255
-0.104328 -0.223346 0.136288 68 187 255
0.0362185 -0.276405 0.132742 54 201 255
0.0279584 -0.371294 0.254384 30 225 255
-0.124645 -0.376548 0.406655 28 227 255
-0.0361087 -0.355237 0.296462 34 221 255
0.187995 -0.352189 0.173675 35 220 255
-0.130313 -0.434805 0.204198 13 242 255
0.085735 -0.371776 0.150485 30 225 255
