ply
format ascii 1.0
comment Created by Open3D
element vertex 1191
property double x
property double y
property double z
property uchar red
property uchar green
property uchar blue
end_header
-0.283308 -0.416111 0.103174 127 0 255
0.0286431 -0.383539 -0.313295 127 0 255
-0.0604013 -0.456299 -0.245375 127 0 255
-0.198155 -0.14514 0.117578 127 0 255
-0.335356 -0.216622 0.0997963 127 0 255
0.00589309 -0.23647 0.0536687 127 0 255
-0.233077 -0.483314 0.120846 127 0 255
0.0282462 -0.230803 -0.289886 127 0 255
-0.270961 -0.183156 0.0975292 127 0 255
-0.112827 0.0502132 0.137454 103 37 254
-0.103868 -0.2462 0.121845 127 0 255
0.0312797 -0.325544 -0.147298 127 0 255
-0.209293 -0.425009 0.102266 127 0 255
0.00855139 -0.113647 -0.215406 127 0 255
-0.123831 -0.462938 0.0435543 127 0 255
0.012406 -0.121937 -0.109382 127 0 255
0.0256262 0.0471771 0.0581892 103 37 254
-0.0316825 -0.269508 -0.013827 127 0 255
0.0251532 -0.0228467 -0.0737743 127 0 255
0.0153216 -0.223588 -0.154998 127 0 255
-0.205557 -0.204745 0.119443 127 0 255
-0.0368936 -0.376978 0.119475 127 0 255
0.0260128 -0.143034 -0.331047 127 0 255
-0.0745871 -0.450909 -0.0622586 127 0 255
-0.231244 -0.482556 0.0686675 127 0 255
-0.0328993 -0.302648 0.0710896 127 0 255
-0.0394437 -1.42157e-05 0.109809 127 0 255
-0.0202377 -0.482695 0.0129081 127 0 255
-0.0547971 -0.343789 -0.0128 127 0 255
-0.115542 -0.475757 0.128301 127 0 255
-0.0487911 -0.240346 0.0351873 127 0 255
-0.119082 -0.389309 0.116654 127 0 255
-0.0557752 -0.151552 0.127998 127 0 255
-0.291486 -0.325706 0.124484 127 0 255
-0.237827 0.0252069 0.137458 115 18 254
-0.0164202 -0.322373 -0.124816 127 0 255
-0.00543165 -0.480477 0.135726 127 0 255
-0.000233826 -0.423067 -0.0173913 127 0 255
-0.0184772 -0.370546 0.0637249 127 0 255
-0.0436338 -0.351216 -0.318994 127 0 255
0.0154472 -0.172767 -0.00781966 127 0 255
0.0239234 -0.482491 -0.281085 127 0 255
-0.138365 -0.138913 0.123313 127 0 255
-0.241336 -0.034412 0.124787 127 0 255
-0.0878269 -0.374774 -0.0875543 127 0 255
-0.16416 -0.483945 0.0597044 127 0 255
0.0189279 -0.483629 -0.2107 127 0 255
-0.28581 -0.138443 0.0987281 127 0 255
0.0268814 -0.189422 0.0525874 127 0 255
-0.0420287 -0.278061 0.122569 127 0 255
-0.318327 -0.0707315 0.0958551 127 0 255
-0.0900795 -0.393924 -0.295019 127 0 255
0.012039 -0.24157 -0.24662 127 0 255
-0.245762 -0.482494 0.0042943 127 0 255
0.0238103 -0.294697 0.0433136 127 0 255
-0.330289 -0.268652 0.0988833 127 0 255
0.0158424 -0.253448 -0.372122 127 0 255
0.020196 -0.30461 -0.0969325 127 0 255
-0.098939 -0.38335 0.0464981 127 0 255
0.00927108 0.0616928 0.118538 97 46 253
-0.00197079 -0.333932 -0.343712 127 0 255
-0.255219 -0.0939453 0.125619 127 0 255
-0.0408744 -0.429345 -0.191781 127 0 255
-0.174209 -0.482273 0.00333114 127 0 255
-0.0921795 -0.466913 0.010888 127 0 255
0.011924 -0.222805 -0.0774636 127 0 255
-0.0391704 -0.35318 -0.166508 127 0 255
0.0173027 -0.00351616 -0.0236583 127 0 255
0.011703 -0.10321 0.0425087 127 0 255
-0.0532109 -0.219152 0.121719 127 0 255
0.00760963 -0.282365 -0.208184 127 0 255
-0.0640905 0.039913 0.119972 107 31 254
-0.154185 -0.0985361 0.0930222 127 0 255
-0.171437 -0.263174 0.118962 127 0 255
0.0258547 -0.10177 -0.296756 127 0 255
0.0210346 -0.413837 -0.0953759 127 0 255
-0.0891278 -0.439406 0.123368 127 0 255
-0.227749 -0.394387 0.120257 127 0 255
-0.137827 -0.337286 0.0374535 127 0 255
-0.0952 -0.324769 0.118797 127 0 255
0.0323944 -0.388179 -0.0402753 127 0 255
-0.0788803 -0.22891 0.0741032 127 0 255
-0.0793993 -0.423475 -0.0138518 127 0 255
-0.102566 -0.474431 -0.106103 127 0 255
0.0274105 -0.203453 -0.348209 127 0 255
-0.349192 -0.476416 0.112928 127 0 255
-0.0504772 -0.0988723 0.100797 127 0 255
0.0148877 -0.0571934 -0.0832112 127 0 255
-0.00686784 -0.452649 -0.362378 127 0 255
-0.0915913 -0.481436 -0.199705 127 0 255
-0.169447 -0.437431 0.122563 127 0 255
0.0155487 -0.449435 0.121205 127 0 255
0.0285058 -0.203549 -0.229956 127 0 255
0.0190903 -0.478898 -0.0629395 127 0 255
-0.335688 -0.416769 0.0985543 127 0 255
0.0102725 0.0193471 -0.0880598 119 12 254
-0.105462 -0.199712 0.12519 127 0 255
0.0371731 0.0252256 0.137446 115 18 254
0.0288287 -0.417302 -0.242855 127 0 255
-0.0421337 -0.484586 -0.136799 127 0 255
-0.0649406 -0.0507875 0.127328 127 0 255
0.0119143 -0.162476 -0.141442 127 0 255
0.0149555 -0.0184211 -0.178059 127 0 255
-0.180384 -0.340916 0.118264 127 0 255
-0.0711492 -0.416405 -0.250255 127 0 255
-0.0186397 -0.31414 -0.0714462 127 0 255
0.0254268 -0.0319283 0.068816 127 0 255
-0.0413854 -0.391459 -0.0749316 127 0 255
0.00536108 -0.143487 -0.366015 127 0 255
-0.0441219 -0.483498 0.0968867 127 0 255
0.0301937 -0.0961252 0.112341 127 0 255
-0.241297 -0.304214 0.115289 127 0 255
-0.172537 0.0142415 0.120174 121 9 254
-0.203377 -0.10088 0.12352 127 0 255
-0.256377 -0.431706 0.124408 127 0 255
-0.025466 -0.407527 0.0718282 127 0 255
-0.0986468 -0.286922 0.0903265 127 0 255
0.0283515 -0.385243 0.0184819 127 0 255
-0.0878269 -0.324774 -0.137554 127 0 255
0.0274741 -0.320126 0.103312 127 0 255
-0.150327 -0.262281 -0.01255 127 0 255
-0.0190124 -0.482376 -0.310856 127 0 255
-0.0837353 -0.485879 -0.0428439 127 0 255
0.0300466 -0.362208 -0.275087 127 0 255
0.0224581 -0.369562 -0.119518 127 0 255
0.0247305 -0.460696 -0.153381 127 0 255
-0.337547 -0.166182 0.100138 127 0 255
0.00354632 -0.285158 -0.348107 127 0 255
0.00343034 -0.38439 -0.383541 127 0 255
0.00866619 -0.332874 -0.211385 127 0 255
-0.328497 -0.345576 0.122362 127 0 255
-0.0878269 -0.324774 -0.225054 127 0 255
0.0236246 -0.271136 0.0181076 127 0 255
0.00571976 -0.406192 -0.290668 127 0 255
-0.331478 -0.0450106 0.119375 127 0 255
-0.0332332 -0.482352 -0.209091 127 0 255
-0.0222433 -0.48303 -0.0381909 127 0 255
-0.0595599 -0.337045 0.0735123 127 0 255
0.0179548 -0.0696 -0.317932 127 0 255
0.0305424 -0.388275 -0.193044 127 0 255
0.0319532 -0.200149 -0.102611 127 0 255
0.0239864 -0.143723 -0.204586 127 0 255
0.027379 -0.451925 -0.0138701 127 0 255
0.0042508 -0.29503 -0.275011 127 0 255
0.0273269 -0.446091 -0.31632 127 0 255
0.0227619 0.00563765 0.0130135 125 3 254
-0.00790735 -0.211962 0.0982236 127 0 255
-0.173881 -0.203789 0.126428 127 0 255
-0.150327 -0.324784 -0.025048 127 0 255
0.0120223 0.0111286 -0.141733 123 6 254
0.0115192 -0.226842 -0.19489 127 0 255
-0.0215874 0.0344002 0.128388 111 25 254
0.0114916 -0.0799313 -0.228893 127 0 255
0.027949 -0.433736 0.0811842 127 0 255
0.00329931 -0.361349 -0.0251186 127 0 255
0.033978 -0.179437 -0.0416773 127 0 255
-0.308948 -0.378495 0.0967315 127 0 255
-0.14774 -0.406643 0.11445 127 0 255
0.0267742 -0.361638 -0.344598 127 0 255
0.023192 -0.151198 0.0909237 127 0 255
-0.131871 -0.481799 -0.131488 127 0 255
-0.166901 -0.068604 0.12323 127 0 255
-0.0238649 -0.482404 -0.258858 127 0 255
-0.0155592 -0.347441 -0.275548 127 0 255
-0.00974548 -0.275819 -0.0391646 127 0 255
0.011841 -0.0843391 -0.145395 127 0 255
-0.106173 -0.439012 0.0394647 127 0 255
-0.0119057 -0.394577 -0.147942 127 0 255
-0.202107 -0.482281 -0.0339693 127 0 255
-0.234335 -0.211784 0.0959862 127 0 255
0.0203542 -0.483197 -0.111074 127 0 255
0.024823 -0.270389 0.114405 127 0 255
0.0149192 0.0495358 0.0340571 103 37 254
0.0266405 -0.368507 0.109468 127 0 255
-0.140197 -0.272632 0.0770015 127 0 255
-0.270843 -0.011636 0.103009 127 0 255
-0.0781663 -0.455465 -0.12386 127 0 255
-0.0577487 -0.36592 0.0201812 127 0 255
0.0294256 -0.0638149 -0.0542186 127 0 255
-0.147705 -0.483446 -0.0731427 127 0 255
0.0189866 -0.233833 -0.0257415 127 0 255
0.0246731 -0.0247744 -0.350054 127 0 255
-0.193104 -0.48472 0.0827853 127 0 255
-0.0527726 -0.376775 -0.214484 127 0 255
-0.113034 -0.0812395 0.101837 127 0 255
-0.0262342 -0.418487 -0.389465 127 0 255
-0.316795 -0.25312 0.121097 127 0 255
-0.0910055 -0.147898 0.103235 127 0 255
-0.130449 0.0238449 0.122137 115 18 254
-0.23347 -0.145063 0.0964256 127 0 255
0.0110386 -0.110864 -0.030385 127 0 255
-0.0477399 -0.301913 0.0252174 127 0 255
0.0243544 -0.143409 -0.288427 127 0 255
-0.281093 -0.0577391 0.125121 127 0 255
-0.00878072 -0.299224 -0.158094 127 0 255
-0.102166 -0.359863 0.118419 127 0 255
-0.0024829 -0.338809 0.0345485 127 0 255
-0.300846 -0.194456 0.0992137 127 0 255
-0.0503996 -0.36936 -0.143919 127 0 255
0.0371731 -0.212274 0.137446 127 0 255
-0.0369996 -0.483405 -0.0897624 127 0 255
-0.0292776 -0.163035 0.126012 127 0 255
-0.282013 -0.480552 0.127764 127 0 255
-0.122629 -0.383073 0.0669732 127 0 255
0.0272161 -0.222534 0.0416757 127 0 255
-0.140265 -0.307324 0.11923 127 0 255
-0.318934 -0.317534 0.0970805 127 0 255
-0.0683361 -0.26579 0.125187 127 0 255
-0.0155235 -0.344583 0.120372 127 0 255
0.02872 -0.14675 0.0339595 127 0 255
0.0256741 -0.110795 -0.347004 127 0 255
-0.0878269 -0.287274 -0.0250543 127 0 255
-0.0753305 -0.375473 -0.320247 127 0 255
0.0273703 0.0572265 0.0975011 99 43 254
0.0296086 -0.0392892 0.0363214 127 0 255
-0.321264 -0.137007 0.120297 127 0 255
0.028531 -0.272169 -0.260067 127 0 255
0.00874214 -0.187266 -0.266525 127 0 255
-0.0936318 -0.484055 0.065493 127 0 255
-0.0385563 -0.343568 -0.07182 127 0 255
-0.0515749 -0.484581 -0.0145063 127 0 255
-0.143666 -0.0224012 0.124634 127 0 255
-0.0419004 -0.448956 0.123746 127 0 255
-0.0448614 -0.370537 -0.381613 127 0 255
0.011949 -0.0585747 0.119756 127 0 255
-0.0139993 -0.439405 -0.243616 127 0 255
-0.232219 -0.267316 0.120578 127 0 255
0.0290431 -0.455331 0.0485939 127 0 255
0.0308468 -0.323076 -0.0297492 127 0 255
-0.137827 -0.299784 0.0249518 127 0 255
0.0371731 -0.149774 0.137446 127 0 255
-0.0890127 -0.00547114 0.107716 127 0 255
0.0311666 -0.431107 -0.37834 127 0 255
-0.223232 0.00150361 0.122002 127 0 255
0.0191857 -0.253698 0.0757272 127 0 255
0.00529293 -0.202576 -0.314989 127 0 255
0.000489504 -0.410421 0.0245551 127 0 255
0.011786 -0.194356 -0.167812 127 0 255
0.0223715 -0.266413 -0.0794376 127 0 255
-0.207234 -0.483211 0.117941 127 0 255
0.0206157 -0.441023 -0.109548 127 0 255
-0.1281 -0.444989 0.115194 127 0 255
-0.113285 -0.481762 -0.174663 127 0 255
0.03178 -0.147633 -0.133068 127 0 255
-0.182722 -0.484816 -0.0879992 127 0 255
-0.250336 -0.343684 0.118929 127 0 255
0.00665784 -0.106725 -0.264675 127 0 255
0.010082 -0.262116 -0.149443 127 0 255
0.0121789 -0.0495066 -0.113119 127 0 255
-0.128164 -0.151398 0.10411 127 0 255
-0.216674 -0.482421 0.00278177 127 0 255
0.0307695 -0.354237 -0.23334 127 0 255
0.025341 -0.306516 -0.338716 127 0 255
-0.221812 -0.0624713 0.127374 127 0 255
-0.0281877 -0.116666 0.124183 127 0 255
-0.121296 -0.485354 -0.0351097 127 0 255
0.00493001 0.00528689 0.121221 125 3 254
0.0148417 -0.15321 -0.0726252 127 0 255
-0.157555 -0.215455 0.104159 127 0 255
-0.00294848 -0.484683 0.0959857 127 0 255
-0.107532 -0.306662 0.0643197 127 0 255
0.0245165 -0.442414 -0.176514 127 0 255
-0.326977 -0.453404 0.126116 127 0 255
0.0110503 -0.184969 -0.369934 127 0 255
-0.177542 -0.38989 0.0993029 127 0 255
0.0257147 -0.3228 0.0506624 127 0 255
-0.200107 -0.316818 0.105506 127 0 255
-0.299812 -0.0974783 0.122118 127 0 255
0.0133607 -0.0515477 -0.171962 127 0 255
-0.0765676 -0.419879 0.106185 127 0 255
0.0217885 -0.337039 -0.38629 127 0 255
-0.0705096 -0.484196 -0.163781 127 0 255
-0.018384 -0.331076 -0.227184 127 0 255
0.0126423 -0.0833693 0.067858 127 0 255
0.0204866 -0.0421148 -0.256709 127 0 255
-0.0671161 -0.373822 -0.277284 127 0 255
-0.28238 -0.237713 0.102996 127 0 255
-0.00572229 -0.394493 -0.194267 127 0 255
-0.0623185 -0.400037 -0.0971207 127 0 255
-0.247255 -0.482196 0.0639891 127 0 255
0.0275164 -0.253093 -0.339467 127 0 255
-0.256109 -0.17533 0.121174 127 0 255
-0.0300682 -0.0295049 0.129562 127 0 255
-0.046653 -0.482548 0.0576689 127 0 255
-0.0506302 -0.298416 -0.0141327 127 0 255
0.0275906 -0.113511 -0.0944342 127 0 255
-0.118281 -0.252251 0.122614 127 0 255
0.00397011 -0.382028 -0.341595 127 0 255
-0.287827 0.012711 0.137455 121 9 254
0.01014 -0.161486 -0.217501 127 0 255
-0.0287862 -0.25446 0.106968 127 0 255
0.0193938 0.0129013 -0.0460434 121 9 254
0.023291 -0.304639 -0.174222 127 0 255
-0.0989305 -0.19292 0.0977395 127 0 255
-0.112827 -0.399781 -0.0250502 127 0 255
-0.00477984 -0.48377 -0.16907 127 0 255
-0.19011 -0.167112 0.118901 127 0 255
-0.0515848 -0.393752 -0.00260996 127 0 255
-0.0834283 -0.0561585 0.102728 127 0 255
-0.0554902 -0.433174 -0.167318 127 0 255
-0.18745 -0.103493 0.0948949 127 0 255
0.0142423 -0.377081 -0.0814563 127 0 255
0.0171144 -0.143174 -0.0101241 127 0 255
0.00520892 -0.150942 -0.315696 127 0 255
-0.083673 -0.262479 0.0565247 127 0 255
-0.201285 -0.484314 0.0460455 127 0 255
0.0275694 -0.471806 -0.248602 127 0 255
-0.19199 -0.0249805 0.109542 127 0 255
-0.00875134 -0.48282 -0.00459959 127 0 255
-0.0526671 -0.408003 -0.372484 127 0 255
0.0290348 -0.284343 -0.302265 127 0 255
-0.165623 -0.260664 0.0893149 127 0 255
-0.00975952 -0.21951 0.0381096 127 0 255
-0.0733781 -0.352075 0.119725 127 0 255
0.0240672 -0.0152805 -0.108853 127 0 255
0.0276005 -0.0268224 -0.0196127 127 0 255
0.0233775 -0.407102 0.10958 127 0 255
-0.0835241 -0.483124 0.120106 127 0 255
-0.0277771 -0.279662 0.0450845 127 0 255
0.0309691 -0.419368 -0.0399505 127 0 255
-0.270585 -0.2882 0.107508 127 0 255
-0.160881 -0.434554 0.0838694 127 0 255
-0.248623 -0.0775528 0.100424 127 0 255
-0.0212262 -0.463807 -0.105407 127 0 255
0.00172406 -0.293202 0.121705 127 0 255
-0.0391285 -0.345764 -0.341144 127 0 255
0.02858 -0.0782585 0.0157312 127 0 255
-0.0687195 -0.408502 -0.220661 127 0 255
0.0246731 -0.0122744 -0.300054 127 0 255
-0.303461 -0.453457 0.0965581 127 0 255
-0.257668 -0.383653 0.109774 127 0 255
0.030351 -0.212071 -0.125323 127 0 255
-0.13716 -0.353363 0.102951 127 0 255
0.0285576 0.00631858 0.0825622 125 3 254
0.0284072 -0.453318 -0.340207 127 0 255
-0.0537627 -0.437183 -0.0408472 127 0 255
-0.147951 -0.47734 -0.00300614 127 0 255
-0.268698 -0.471963 0.0140597 127 0 255
0.0229698 -0.263622 -0.211949 127 0 255
-0.301497 -0.0350596 0.102666 127 0 255
-0.350327 -0.187284 0.0749518 127 0 255
-0.350327 -0.287295 0.137459 127 0 255
0.0246731 0.000225605 -0.225054 127 0 255
0.00675887 -0.235882 -0.298592 127 0 255
0.0112279 0.0352054 -0.010008 109 28 254
0.0205058 -0.335464 -0.0705641 127 0 255
-0.0205681 -0.338117 -0.172616 127 0 255
-0.0733777 -0.350977 0.0346801 127 0 255
-0.335925 -0.108356 0.102609 127 0 255
-0.0527565 -0.46693 -0.212358 127 0 255
-0.0817348 -0.0971251 0.124685 127 0 255
-0.152214 -0.484139 0.110595 127 0 255
0.0214304 -0.289446 0.00207907 127 0 255
-0.0197785 -0.375386 0.11703 127 0 255
-0.103148 -0.485067 -0.0840158 127 0 255
-0.0169092 -0.161944 0.101645 127 0 255
0.0234971 -0.309947 -0.127979 127 0 255
-0.0707527 -0.482282 0.0192973 127 0 255
0.0120876 -0.129197 0.0469449 127 0 255
0.0286399 -0.393036 0.0654485 127 0 255
-0.148885 -0.052623 0.10535 127 0 255
0.0269181 -0.102521 -0.216301 127 0 255
0.025132 -0.189522 0.02087 127 0 255
-0.055762 -0.302399 0.0903095 127 0 255
-0.146751 -0.485073 0.0429054 127 0 255
-0.0434585 -0.362327 -0.0158043 127 0 255
-0.306945 -0.396996 0.1277 127 0 255
-0.137768 -0.481657 -0.160915 127 0 255
-0.192162 -0.23298 0.107409 127 0 255
0.028635 -0.350807 -0.316018 127 0 255
0.0086726 -0.0423416 0.0855099 127 0 255
-0.0515567 0.0405605 0.11776 107 31 254
-0.0217279 -0.326843 -0.110036 127 0 255
0.022796 -0.222125 0.116541 127 0 255
-0.0250219 -0.361603 -0.263842 127 0 255
-0.0532081 -0.408428 -0.140807 127 0 255
-0.137827 -0.249782 0.0374505 127 0 255
-0.337368 -0.231043 0.101853 127 0 255
0.0297219 -0.174509 -0.193797 127 0 255
-0.270469 -0.133197 0.122985 127 0 255
0.0222172 -0.38287 -0.146865 127 0 255
-0.209948 -0.348692 0.107353 127 0 255
0.0284126 -0.388393 -0.27587 127 0 255
0.00386915 -0.34142 0.00453881 127 0 255
0.0138891 0.0198651 0.0443744 117 15 254
-0.170488 -0.482665 -0.0328238 127 0 255
-0.268749 -0.44826 0.126318 127 0 255
-0.137827 -0.424787 -4.63117e-05 127 0 255
0.028398 -0.421692 0.0112498 127 0 255
0.00963206 -0.140224 -0.242126 127 0 255
0.0126359 -0.482953 -0.207006 127 0 255
-0.285492 -0.34692 0.103284 127 0 255
0.0371731 -0.0247744 0.137446 127 0 255
-0.0408036 -0.245474 0.0636701 127 0 255
-0.0123783 -0.4837 0.0467284 127 0 255
0.0144963 -0.184082 -0.0881084 127 0 255
-0.279492 -0.482624 0.047567 127 0 255
-0.0670731 -0.229644 0.120754 127 0 255
-0.00319848 -0.463953 -0.305842 127 0 255
-0.25646 -0.22886 0.118888 127 0 255
-0.0898785 -0.30687 0.121072 127 0 255
-0.0890252 -0.00319065 0.127428 127 0 255
-0.0274147 -0.0712937 0.127179 127 0 255
0.0168581 -0.036876 -0.212317 127 0 255
-0.00898358 0.051311 0.107612 101 40 254
-0.311082 -0.172978 0.11828 127 0 255
0.0337457 -0.234338 -0.183653 127 0 255
-0.00888973 -0.295318 -0.0647605 127 0 255
-0.00794912 -0.42388 -0.140675 127 0 255
0.00692863 -0.471567 0.133557 127 0 255
-0.12015 -0.484436 0.0714179 127 0 255
0.0251156 -0.178449 -0.306738 127 0 255
0.0165453 -0.221866 -0.0254871 127 0 255
-0.119889 -0.107887 0.102472 127 0 255
0.0191542 -0.479949 -0.0288639 127 0 255
-0.112827 -0.249774 -0.0250543 127 0 255
0.0168068 -0.267109 -0.372236 127 0 255
0.0301846 -0.273102 -0.118077 127 0 255
0.0249612 -0.0718283 -0.311926 127 0 255
-0.0672599 -0.457653 0.0442118 127 0 255
-0.125327 -0.399774 -0.325054 127 0 255
0.0288925 -0.310653 -0.27973 127 0 255
0.0320816 -0.125233 -0.140377 127 0 255
0.0276325 -0.40468 -0.329919 127 0 255
-0.0587567 -0.447896 -0.0969699 127 0 255
-0.0698894 -0.157243 0.105067 127 0 255
0.0279809 -0.0956845 0.118437 127 0 255
-0.0609357 -0.382386 -0.195595 127 0 255
-0.0633291 -0.484719 -0.0500517 127 0 255
-0.00961586 -0.416181 -0.243911 127 0 255
-0.0410357 -0.48381 0.125711 127 0 255
0.0255058 -0.0889965 -0.0503799 127 0 255
-0.223125 -0.450452 0.119008 127 0 255
-0.109316 -0.41832 0.0384016 127 0 255
0.015574 -0.182084 0.120151 127 0 255
0.0252534 -0.296415 0.0771069 127 0 255
-0.168283 -0.130574 0.120368 127 0 255
0.023496 -0.436984 -0.0693566 127 0 255
-0.338426 -0.281474 0.107386 127 0 255
-0.181924 -0.294662 0.11929 127 0 255
-0.0503269 -0.249774 -0.0250543 127 0 255
0.00634457 -0.118461 -0.310005 127 0 255
-0.337018 -0.368798 0.110674 127 0 255
0.0285051 -0.387438 -0.380494 127 0 255
-0.0598126 -0.461054 -0.246945 127 0 255
-0.0424357 -0.328273 -0.037609 127 0 255
0.0250064 -0.22162 -0.251925 127 0 255
-0.0393843 -0.367864 -0.100629 127 0 255
0.013877 -0.0210123 0.0336437 127 0 255
0.0162497 -0.335165 -0.175465 127 0 255
-0.0571015 -0.429144 -0.0107725 127 0 255
-0.0174976 -0.409739 0.116817 127 0 255
-0.0109156 -0.483101 -0.133789 127 0 255
0.0265824 -0.357114 0.052771 127 0 255
-0.112827 -0.337276 -0.0250531 127 0 255
0.0104003 0.0166578 -0.0929132 119 12 254
0.022808 -0.0240621 -0.152375 127 0 255
-0.332826 -0.418532 0.123073 127 0 255
-0.0149064 -0.223011 0.12271 127 0 255
-0.219969 -0.193538 0.120122 127 0 255
0.0229708 -0.412658 -0.208517 127 0 255
-0.0338575 -0.00357753 0.130146 127 0 255
-0.166616 -0.381031 0.118591 127 0 255
-0.00140389 -0.402835 0.00291713 127 0 255
-0.119098 -0.175256 0.125141 127 0 255
-0.130622 -0.304142 0.0990578 127 0 255
-0.0758507 -0.385367 -0.248988 127 0 255
-0.0407995 -0.332321 0.120764 127 0 255
0.0134345 -0.154797 0.0698022 127 0 255
-0.207975 -0.1383 0.100319 127 0 255
-0.322778 -0.484073 0.120448 127 0 255
-0.108279 -0.429131 0.121603 127 0 255
0.0274045 -0.216845 -0.348946 127 0 255
-0.102187 -0.369655 0.0712615 127 0 255
-0.262286 -0.48525 0.10573 127 0 255
0.0167405 -0.0316295 -0.0587933 127 0 255
-0.230488 -0.40898 0.108073 127 0 255
-0.0878269 -0.349774 -0.100054 127 0 255
-0.00950541 -0.337426 -0.285515 127 0 255
0.014164 -0.0863703 -0.0969744 127 0 255
-0.123904 -0.0329406 0.125593 127 0 255
-0.0201091 -0.464893 0.0789462 127 0 255
-0.0349622 -0.340411 -0.367365 127 0 255
0.0251188 -0.0949942 -0.345964 127 0 255
0.0263508 -0.264236 0.0460762 127 0 255
0.0206001 -0.452462 -0.274746 127 0 255
-0.0296216 -0.335984 0.0305372 127 0 255
0.0132025 -0.0858635 -0.181807 127 0 255
-0.221532 -0.0648796 0.0981071 127 0 255
-0.30851 -0.0579176 0.125128 127 0 255
-0.142071 -0.48186 -0.0952136 127 0 255
0.00610873 -0.206397 0.0741845 127 0 255
0.0269263 -0.466277 0.00662365 127 0 255
-0.262827 -0.16229 0.0749585 127 0 255
0.0197022 -0.265361 -0.0615468 127 0 255
-0.155771 0.0142381 0.12256 121 9 254
-0.0753269 -0.324774 -0.162554 127 0 255
0.0299262 -0.0759456 0.0591092 127 0 255
-0.0852953 -0.484397 -0.0204104 127 0 255
-0.233279 -0.0031076 0.112913 127 0 255
-0.0273179 -0.102075 0.102791 127 0 255
0.00708688 -0.262819 -0.254384 127 0 255
-0.0246551 -0.415638 -0.193393 127 0 255
-0.268136 -0.322087 0.121321 127 0 255
-0.0554716 -0.407086 0.107285 127 0 255
0.0246731 0.0752256 0.137446 89 59 253
-0.193798 -0.483842 -0.0529612 127 0 255
-0.0830493 -0.468901 -0.179088 127 0 255
-0.138542 -0.214908 0.103126 127 0 255
-0.0473603 -0.357264 -0.302549 127 0 255
-0.297019 -0.221527 0.120021 127 0 255
-0.106897 -0.47518 0.128506 127 0 255
-0.00929365 -0.338563 -0.0464763 127 0 255
-0.0503269 -0.424774 -0.325054 127 0 255
-0.0313116 -0.357315 -0.210951 127 0 255
0.0276324 -0.327271 0.104531 127 0 255
0.0216953 -0.231612 0.00705944 127 0 255
0.00566175 -0.141447 -0.362068 127 0 255
-0.191632 -0.482363 0.0266471 127 0 255
0.0140371 -0.14446 -0.0306042 127 0 255
-0.00796829 -0.372512 0.0584775 127 0 255
0.0313024 -0.392759 -0.0196375 127 0 255
-0.23339 -0.28845 0.103826 127 0 255
0.0232987 -0.275126 -0.186989 127 0 255
-0.0103127 -0.356314 -0.12281 127 0 255
0.0113642 -0.483145 -0.0914823 127 0 255
0.0272198 -0.0614875 -0.0199178 127 0 255
-0.0162786 -0.482483 -0.270201 127 0 255
-0.302507 -0.131092 0.0972733 127 0 255
0.012813 -0.233614 -0.101441 127 0 255
-0.00738633 -0.313769 -0.248667 127 0 255
0.0267034 -0.0726084 -0.264418 127 0 255
-0.0753237 -0.300485 0.0523622 127 0 255
-0.0455663 -0.175298 0.126145 127 0 255
0.019879 -0.318545 -0.375171 127 0 255
-0.0378315 -0.460397 -0.0153608 127 0 255
-0.0123432 -0.308668 0.0618789 127 0 255
-0.085339 -0.0668723 0.126049 127 0 255
0.0326544 -0.168138 -0.107527 127 0 255
-0.0759418 -0.235399 0.0809643 127 0 255
-0.179733 -0.483718 0.118075 127 0 255
0.00614521 -0.422555 0.0690275 127 0 255
0.0139866 -0.460481 -0.358796 127 0 255
-0.0290803 -0.28127 0.119021 127 0 255
-0.330231 -0.326762 0.121251 127 0 255
0.0221444 -0.431898 -0.152848 127 0 255
-0.167667 -0.0903272 0.122024 127 0 255
-0.0923531 -0.484867 -0.121688 127 0 255
0.00755881 0.0402242 0.062851 107 31 254
0.0314229 -0.210801 -0.151872 127 0 255
-0.0136005 -0.291427 -0.00237273 127 0 255
-0.045344 -0.482301 -0.170631 127 0 255
0.0100738 -0.358794 -0.246471 127 0 255
0.020631 -0.401438 -0.0947872 127 0 255
-0.125227 -0.484881 0.00666475 127 0 255
-0.25797 -0.106145 0.124609 127 0 255
0.0285108 -0.127962 0.0212323 127 0 255
-0.086511 0.0234128 0.12614 117 15 254
0.0260658 -0.127031 -0.198415 127 0 255
0.00537447 -0.253406 -0.311361 127 0 255
-0.313193 -0.279902 0.122803 127 0 255
-0.188197 -0.254575 0.119504 127 0 255
0.0163634 -0.193307 -0.0563112 127 0 255
0.00924717 -0.172038 -0.255425 127 0 255
-0.2905 -0.482671 0.0736695 127 0 255
0.0104796 -0.429142 -0.321945 127 0 255
-0.137827 -0.362285 -4.7427e-05 127 0 255
-0.0878269 -0.387274 -0.137554 127 0 255
-0.0852444 -0.144386 0.125501 127 0 255
0.0154649 -0.449188 0.121276 127 0 255
-0.269844 -0.0357709 0.100556 127 0 255
-0.350327 -0.149784 0.0749516 127 0 255
-0.362827 -0.44979 0.137456 127 0 255
0.0228078 -0.124919 0.0823723 127 0 255
0.0236698 -0.323534 0.00210504 127 0 255
0.0113598 -0.481078 0.0653393 127 0 255
-0.0145942 -0.0123454 0.106324 127 0 255
0.000593082 -0.322783 -0.322193 127 0 255
-0.120324 -0.256451 0.122236 127 0 255
-0.137827 -0.287279 -0.025051 127 0 255
-0.082704 -0.38332 -0.310858 127 0 255
-0.204089 -0.384977 0.102904 127 0 255
0.0188707 -0.47702 -0.180885 127 0 255
0.0230714 -0.319726 -0.207893 127 0 255
-0.112262 -0.387384 0.116727 127 0 255
-0.0909252 -0.483942 0.084373 127 0 255
-0.287315 -0.363713 0.125334 127 0 255
-0.0878269 -0.324774 -0.237554 127 0 255
0.0116293 -0.0820072 -0.134664 127 0 255
0.0371731 0.0377256 -0.0500543 109 28 254
-0.195595 0.0069641 0.113831 125 3 254
-0.331033 -0.0645607 0.105775 127 0 255
0.0309287 -0.428596 -0.380617 127 0 255
-0.170895 -0.170074 0.106401 127 0 255
-0.0688186 -0.383819 -0.00382775 127 0 255
-0.291391 -0.424717 0.101998 127 0 255
0.00511701 -0.393187 -0.284846 127 0 255
0.0153762 0.0464964 0.0182057 105 34 254
-0.0609798 -0.482247 -0.0895226 127 0 255
-0.0171151 -0.475755 -0.229024 127 0 255
-0.175806 -0.324475 0.118934 127 0 255
-0.162333 -0.485003 0.0761458 127 0 255
0.0309778 -0.14465 -0.159897 127 0 255
0.0314659 -0.327734 -0.13949 127 0 255
-0.00381402 -0.482551 -0.32698 127 0 255
-0.0628269 -0.399774 -0.400054 127 0 255
-0.0605494 -0.0916965 0.101238 127 0 255
-0.251475 -0.240502 0.0988358 127 0 255
0.0259325 -0.376153 0.109049 127 0 255
0.0108833 -0.210647 -0.227944 127 0 255
0.0129877 -0.134809 -0.07946 127 0 255
0.0371731 -0.0122744 -0.325054 127 0 255
-0.227354 -0.482459 0.00488253 127 0 255
0.0287889 -0.252479 0.102919 127 0 255
-0.081404 -0.193468 0.125892 127 0 255
0.00296413 -0.445477 -0.030495 127 0 255
-0.296778 -0.0131333 0.121137 127 0 255
-0.196621 -0.426132 0.114815 127 0 255
0.021871 -0.277927 -0.0262014 127 0 255
0.0134183 -0.212589 -0.366171 127 0 255
0.0258731 0.0111072 0.109839 123 6 254
-0.27565 -0.192373 0.121282 127 0 255
0.0280353 -0.0587273 -0.219414 127 0 255
0.0192897 -0.317389 -0.0885757 127 0 255
-0.0674473 -0.451763 0.103212 127 0 255
-0.00631412 -0.375295 -0.178844 127 0 255
-0.122582 -0.340423 0.118736 127 0 255
0.026959 -0.191057 0.0614354 127 0 255
-0.230863 -0.482809 0.120739 127 0 255
-0.117292 -0.485378 -0.0557615 127 0 255
-0.339561 -0.195022 0.102854 127 0 255
-0.0878269 -0.437276 -0.200054 127 0 255
-0.0496223 -0.265976 0.0320029 127 0 255
-0.206942 -0.100556 0.0962834 127 0 255
0.0286343 -0.422919 0.0420592 127 0 255
-0.136335 -0.0674254 0.103567 127 0 255
-0.054054 -0.0432432 0.108001 127 0 255
-0.0597778 -0.370303 0.119287 127 0 255
-0.0744968 -0.453505 -0.0563528 127 0 255
0.00626757 -0.115033 -0.263534 127 0 255
-0.334438 -0.432349 0.0982094 127 0 255
0.0232708 -0.448369 -0.0994322 127 0 255
0.0262125 -0.0407674 0.109416 127 0 255
-0.053591 -0.359874 -0.336661 127 0 255
-0.0367556 -0.352629 -0.0517252 127 0 255
0.00847808 0.00794372 -0.117857 123 6 254
-0.000756802 -0.443621 -0.194753 127 0 255
0.0284621 -0.0955635 0.0141114 127 0 255
0.0268085 0.0570494 0.104555 99 43 254
-0.135332 -0.125675 0.10453 127 0 255
-0.0694907 -0.481636 -0.208013 127 0 255
0.0194256 -0.0274908 -0.00189246 127 0 255
0.0217536 -0.34716 -0.0513308 127 0 255
0.0274475 -0.0572645 -0.293234 127 0 255
-0.233542 -0.147736 0.121982 127 0 255
-0.0319147 -0.125896 0.1246 127 0 255
0.00391361 -0.16813 -0.365464 127 0 255
-0.0319058 -0.482979 0.0155029 127 0 255
-0.0452906 -0.372635 -0.241733 127 0 255
0.0146081 -0.0181663 -0.174262 127 0 255
0.0269837 -0.471868 -0.290836 127 0 255
-0.0735606 -0.340244 0.0891242 127 0 255
-0.147605 -0.447771 0.115286 127 0 255
-0.237545 -0.482525 0.0568348 127 0 255
0.0236538 -0.348973 -0.387082 127 0 255
-0.0360308 -0.242388 0.123414 127 0 255
-0.0272827 -0.482135 -0.0484687 127 0 255
-0.240815 -0.325492 0.106568 127 0 255
-0.0374535 -0.34916 -0.155787 127 0 255
-0.127894 -0.481804 -0.133188 127 0 255
0.0120181 -0.196339 -0.179593 127 0 255
0.0172139 -0.167079 -0.00330837 127 0 255
-0.0183991 -0.227457 0.0409213 127 0 255
-0.0131195 -0.324199 0.119902 127 0 255
0.0224485 -0.360248 0.00786324 127 0 255
-0.0576584 -0.334969 0.0378787 127 0 255
-0.157898 -0.215589 0.126748 127 0 255
0.0115013 -0.253017 -0.167211 127 0 255
-0.112827 -0.249774 0.0249457 127 0 255
-0.24464 -0.0605772 0.126689 127 0 255
0.0231637 -0.0400241 -0.119095 127 0 255
-0.0463186 -0.39216 -0.103219 127 0 255
-0.150884 -0.373974 0.101255 127 0 255
0.0261767 -0.172583 -0.323693 127 0 255
0.0129333 -0.0546824 0.0430526 127 0 255
-0.122668 0.00895318 0.125758 123 6 254
0.0021966 -0.3893 -0.229495 127 0 255
-0.0840035 -0.289402 0.121235 127 0 255
-0.0348781 0.0316235 0.129101 111 25 254
0.0225322 -0.337594 -0.270711 127 0 255
0.0265888 -0.278056 -0.342851 127 0 255
-0.0493855 -0.484806 -0.141854 127 0 255
-0.345848 -0.474636 0.126446 127 0 255
-0.149981 -0.478683 -0.0298771 127 0 255
0.0280566 -0.466372 -0.236524 127 0 255
-0.189492 -0.0350281 0.108339 127 0 255
-0.0353279 -0.274849 -0.0162771 127 0 255
0.0285823 -0.264734 -0.268798 127 0 255
0.00352897 -0.383229 -0.352892 127 0 255
-0.257996 -0.428756 0.124373 127 0 255
0.0208447 -0.368544 -0.123054 127 0 255
0.0268296 -0.420155 -0.290037 127 0 255
0.019442 -0.163044 0.116369 127 0 255
-0.0581849 -0.482562 0.0835566 127 0 255
-0.289333 -0.292964 0.108531 127 0 255
0.0121043 -0.152615 -0.119719 127 0 255
0.0257141 -0.0100407 0.0626336 127 0 255
-0.10777 -0.201477 0.100192 127 0 255
-0.00838094 -0.322297 -0.199467 127 0 255
-0.110557 -0.378928 0.0555499 127 0 255
0.0117682 0.0328084 -0.0138277 111 25 254
-0.337357 -0.138402 0.101785 127 0 255
-0.0490026 -0.397548 -0.151294 127 0 255
0.0274251 -0.451559 0.0316191 127 0 255
-0.0984185 -0.48323 0.0196918 127 0 255
0.0219571 -0.191372 -0.27973 127 0 255
0.0322958 -0.402816 -0.0513096 127 0 255
0.0109857 -0.266418 -0.119888 127 0 255
0.0244109 -0.0755037 -0.34364 127 0 255
0.0296997 -0.0826535 0.11124 127 0 255
-0.178788 -0.481931 -0.0843679 127 0 255
-0.0124937 -0.454031 -0.151451 127 0 255
-0.0196806 -0.437869 0.10936 127 0 255
0.00471366 -0.337136 0.079404 127 0 255
0.0163116 -0.0130702 -0.0571181 127 0 255
-0.228945 -0.36893 0.115811 127 0 255
0.0276802 -0.34314 -0.331503 127 0 255
-0.267323 -0.1223 0.0990575 127 0 255
-0.287827 -0.199788 0.0749571 127 0 255
0.0136927 -0.110727 -0.0642336 127 0 255
-0.00407674 -0.454963 -0.0737278 127 0 255
-0.269463 -0.471986 0.0222185 127 0 255
-0.0628269 -0.324774 -0.112554 127 0 255
-0.137827 -0.412286 -0.0250466 127 0 255
-0.0421529 -0.383178 -0.379775 127 0 255
0.025583 -0.104577 -0.239985 127 0 255
-0.165175 -0.485504 0.0392429 127 0 255
-0.287946 -0.484406 0.118398 127 0 255
-0.225327 -0.187293 0.0749612 127 0 255
0.0185465 -0.240044 -0.0389379 127 0 255
-0.0503519 -0.0140598 0.130689 127 0 255
-0.0715162 -0.406973 -0.231051 127 0 255
0.00650968 -0.42244 -0.384432 127 0 255
-0.336165 -0.241294 0.101582 127 0 255
-0.102455 -0.12425 0.12379 127 0 255
-0.0974384 -0.473197 -0.155809 127 0 255
0.0129251 -0.47919 0.107867 127 0 255
-0.0838868 -0.271042 0.0527441 127 0 255
0.00937048 -0.249293 0.0822367 127 0 255
-0.138371 -0.269895 0.12097 127 0 255
0.0310126 -0.224422 -0.112172 127 0 255
0.024252 -0.300501 -0.24287 127 0 255
-0.00973559 -0.315352 -0.116719 127 0 255
0.0154025 -0.102725 -0.162909 127 0 255
-0.29459 -0.0792625 0.0988915 127 0 255
-0.133595 -0.484043 0.102796 127 0 255
-0.215923 -0.248458 0.119273 127 0 255
-0.0773064 -0.364155 0.00762307 127 0 255
-0.0442469 -0.210568 0.122218 127 0 255
0.0234468 -0.299602 0.0180085 127 0 255
0.0108711 -0.186832 0.0262111 127 0 255
-0.0863244 -0.397612 0.116948 127 0 255
-0.0183727 -0.296477 -0.0436576 127 0 255
-0.193658 -0.0787648 0.124891 127 0 255
0.0137693 -0.234857 -0.220793 127 0 255
0.0257594 -0.224804 -0.318736 127 0 255
-0.335852 -0.375482 0.111727 127 0 255
0.00578592 -0.125633 -0.313271 127 0 255
-0.253311 -0.00752181 0.12191 127 0 255
-0.00465264 -0.0598075 0.120853 127 0 255
0.0194976 -0.106119 -0.0138191 127 0 255
0.0298763 -0.389667 0.0453192 127 0 255
-0.100327 -0.312274 -0.0125543 127 0 255
-0.0680675 -0.372425 -0.283634 127 0 255
-0.0980604 -0.0242784 0.126789 127 0 255
-0.000706825 -0.41949 -0.0273955 127 0 255
-0.188378 -0.484432 0.0771764 127 0 255
0.0216606 -0.0565883 -0.171021 127 0 255
0.0232778 -0.0541534 -0.0857824 127 0 255
-0.0194036 -0.33794 -0.337307 127 0 255
0.016462 -0.357494 -0.191636 127 0 255
-0.272526 -0.160316 0.12245 127 0 255
0.022915 -0.472437 -0.0432345 127 0 255
-0.0878269 -0.324774 -0.187554 127 0 255
0.0133018 -0.110498 0.0772968 127 0 255
-0.282048 -0.391779 0.125619 127 0 255
-0.313946 -0.0263548 0.109514 127 0 255
0.0190509 -0.479878 -0.130017 127 0 255
-0.144471 -0.180098 0.122898 127 0 255
-0.0821674 -0.254571 0.120362 127 0 255
-0.0568433 -0.417619 -0.0077055 127 0 255
0.0110677 -0.407631 0.120224 127 0 255
-0.0525242 -0.466396 -0.246265 127 0 255
0.00491871 -0.417836 -0.11096 127 0 255
0.00291862 -0.366343 -0.0200425 127 0 255
0.0204015 -0.0423665 -0.246059 127 0 255
-0.0735215 -0.469777 0.129083 127 0 255
-0.149608 -0.410573 0.11373 127 0 255
-0.0173807 -0.482426 -0.289504 127 0 255
0.0262436 -0.234554 0.0347371 127 0 255
-0.219233 -0.196987 0.119947 127 0 255
0.0290613 -0.369132 -0.306396 127 0 255
0.0126167 -0.169657 -0.176056 127 0 255
-0.0175212 -0.47458 0.133445 127 0 255
0.0254328 -0.29404 -0.36717 127 0 255
-0.150699 -0.322084 0.118379 127 0 255
-0.0631024 -0.414646 -0.195229 127 0 255
-0.0286011 -0.48248 -0.105597 127 0 255
0.00824033 0.0513795 0.0759184 101 40 254
0.0254639 -0.202828 0.0959495 127 0 255
-0.0501052 -0.484031 0.0308205 127 0 255
0.0305288 -0.373193 -0.247974 127 0 255
-0.273267 -0.257268 0.118401 127 0 255
0.0157173 -0.188608 -0.0201098 127 0 255
0.0101579 -0.174794 -0.23451 127 0 255
-0.0131583 -0.136125 0.101279 127 0 255
-0.243952 -0.482648 0.0834507 127 0 255
-0.025846 -0.362179 0.119623 127 0 255
-0.0737899 -0.459525 -0.0928263 127 0 255
0.00170584 -0.310637 -0.294226 127 0 255
0.023826 -0.286919 -0.151486 127 0 255
0.0126239 -0.362743 -0.088346 127 0 255
-0.204271 -0.295253 0.117862 127 0 255
-0.0508686 -0.342544 -0.0171002 127 0 255
-0.145085 -0.0972492 0.123109 127 0 255
-0.0578125 -0.316617 0.12038 127 0 255
-0.226713 -0.115304 0.120742 127 0 255
-0.0852557 -0.471042 -0.00990494 127 0 255
0.00938353 -0.273401 0.120134 127 0 255
0.0371731 0.0252256 -0.137554 115 18 254
0.0228565 -0.415634 -0.211577 127 0 255
-0.337727 -0.294982 0.108671 127 0 255
0.0198176 0.0109747 0.0132199 123 6 254
-0.0203981 -0.264623 0.0373545 127 0 255
0.00156465 -0.426502 0.0221544 127 0 255
-0.117623 -0.483534 0.050761 127 0 255
-0.0628269 0.0627255 0.137446 95 49 253
-0.322704 -0.411957 0.0962321 127 0 255
-0.332711 -0.114545 0.113472 127 0 255
-0.170108 -0.481445 -0.00194412 127 0 255
-0.0378044 -0.482341 -0.190977 127 0 255
0.0211437 -0.300696 -0.0484687 127 0 255
-0.197234 -0.453876 0.114853 127 0 255
0.0101477 -0.0922675 -0.281389 127 0 255
-0.157064 0.0130797 0.116832 121 9 254
-0.100413 -0.440009 0.10744 127 0 255
-0.122967 -0.484071 -0.0845759 127 0 255
-0.0687253 -0.100958 0.125048 127 0 255
0.0258009 -0.363114 0.0850783 127 0 255
-0.00515946 0.0578686 0.123363 99 43 254
0.0221963 -0.384405 -0.157248 127 0 255
0.00751421 -0.149047 -0.275782 127 0 255
0.0269019 -0.0703459 -0.0238054 127 0 255
0.0269429 -0.398463 -0.386685 127 0 255
0.0189099 -0.483322 -0.257346 127 0 255
-0.0945069 -0.280903 0.0878165 127 0 255
-0.00126435 -0.370571 0.0305108 127 0 255
0.0123785 -0.155131 0.0425038 127 0 255
0.0371731 -0.124774 0.137446 127 0 255
-0.02462 -0.372773 -0.137813 127 0 255
-0.290471 -0.32688 0.12438 127 0 255
0.026648 -0.149505 -0.338954 127 0 255
-0.00176711 -0.482933 -0.00887571 127 0 255
-0.0450827 -0.310609 0.0352802 127 0 255
-0.0370758 -0.337687 -0.07315 127 0 255
-0.320259 -0.219744 0.118592 127 0 255
-0.0425533 -0.347658 -0.368815 127 0 255
-0.137827 -0.349787 0.0374537 127 0 255
-0.179461 -0.352318 0.117976 127 0 255
-0.00513091 -0.305676 -0.179703 127 0 255
0.0136878 -0.246021 -0.0684373 127 0 255
-0.0556373 -0.379785 -0.190044 127 0 255
0.0113361 0.0182176 -0.0650747 119 12 254
0.011084 -0.0835354 -0.221915 127 0 255
0.0154381 -0.450075 0.0835291 127 0 255
0.018915 -0.317324 0.115528 127 0 255
0.0131843 -0.110515 -0.0996539 127 0 255
-0.103807 -0.0733857 0.125603 127 0 255
0.0114144 -0.418404 -0.342141 127 0 255
-0.218462 -0.0235601 0.108473 127 0 255
0.0242234 -0.324898 0.0483984 127 0 255
0.0213678 -0.258275 -0.00794784 127 0 255
0.0124811 -0.207861 -0.129283 127 0 255
-0.184962 -0.133584 0.119984 127 0 255
-0.113694 -0.312587 0.120342 127 0 255
-0.158313 -0.0449955 0.124368 127 0 255
-0.284208 -0.436869 0.127513 127 0 255
-0.0256716 -0.185729 0.109974 127 0 255
-0.0387321 -0.0654069 0.105362 127 0 255
-0.191984 -0.482163 -0.0498103 127 0 255
-0.161724 -0.243766 0.118801 127 0 255
-0.0357338 -0.358045 -0.283557 127 0 255
0.0305219 0.0266988 0.0848465 115 18 254
0.0164525 -0.181832 -0.0673938 127 0 255
-0.0941718 -0.234818 0.0904034 127 0 255
-0.120318 -0.158602 0.103483 127 0 255
0.0205322 -0.213936 -0.266608 127 0 255
0.0213475 -0.430684 -0.26582 127 0 255
0.0262148 -0.237551 -0.35427 127 0 255
0.0224175 -0.433189 -0.163653 127 0 255
0.00653373 -0.483155 0.0520582 127 0 255
-0.21883 -0.484087 0.0125411 127 0 255
0.00739775 -0.295517 -0.224928 127 0 255
-0.300031 -0.16659 0.118421 127 0 255
-0.0531519 -0.297661 0.0774668 127 0 255
0.0129345 -0.102676 -0.356695 127 0 255
-0.0431061 -0.483196 -0.0570118 127 0 255
-0.242344 -0.415093 0.108218 127 0 255
-0.296389 -0.0889193 0.12261 127 0 255
0.0287831 -0.0533148 0.0212793 127 0 255
-0.0743632 0.021481 0.112977 117 15 254
-0.251728 -0.200596 0.0971265 127 0 255
-0.0327224 -0.406068 0.106284 127 0 255
-0.0455355 -0.405819 -0.377662 127 0 255
-0.107057 -0.363208 0.0760775 127 0 255
0.0136912 -0.00821953 0.120822 127 0 255
-0.0825801 -0.48197 -0.200292 127 0 255
-0.310383 -0.267123 0.0997955 127 0 255
-0.0628269 -0.324774 -0.250054 127 0 255
0.0255201 -0.264888 -0.302906 127 0 255
-0.110873 -0.477257 -0.0331746 127 0 255
0.0228967 -0.138607 -0.229209 127 0 255
-0.0878269 -0.399774 -0.0875543 127 0 255
-0.0677365 -0.138937 0.126234 127 0 255
-0.137827 -0.299783 0.0124513 127 0 255
-0.00437934 -0.482545 -0.325589 127 0 255
0.00952882 -0.237302 0.122986 127 0 255
0.0115552 -0.0437815 0.0656756 127 0 255
-0.240269 -0.276383 0.1029 127 0 255
-0.0107652 -0.0977511 0.122632 127 0 255
0.0149045 0.0479404 0.0345898 103 37 254
-0.243183 -0.0642168 0.100929 127 0 255
0.0265403 -0.129112 -0.0204857 127 0 255
-0.0394765 -0.307523 -0.0307188 127 0 255
-0.30338 -0.481785 0.105439 127 0 255
-0.106463 -0.203925 0.125116 127 0 255
-0.0218999 -0.411779 -0.170565 127 0 255
0.0198747 -0.0476453 -0.277476 127 0 255
0.00743276 -0.382977 -0.315855 127 0 255
0.0124936 0.00257051 -0.141989 127 0 255
-0.0783434 -0.383564 -0.265102 127 0 255
0.0123203 -0.0714598 -0.115821 127 0 255
0.0103021 -0.28725 -0.0916503 127 0 255
-0.310337 -0.353703 0.100198 127 0 255
-0.150595 -0.459501 0.0888535 127 0 255
-0.0155746 -0.331038 -0.153002 127 0 255
-0.128189 -0.481847 -0.161912 127 0 255
0.025236 -0.184942 -0.354811 127 0 255
0.027629 -0.0262629 -0.018993 127 0 255
0.0033461 -0.480117 -0.191801 127 0 255
0.0113221 -0.250305 -0.208226 127 0 255
0.00978035 -0.483007 -0.083237 127 0 255
-0.0343598 -0.462071 0.0968018 127 0 255
0.0265994 -0.355523 -0.380742 127 0 255
0.031721 -0.174315 -0.118626 127 0 255
-0.213745 -0.334645 0.115822 127 0 255
0.0275429 -0.471069 -0.000517975 127 0 255
0.0291487 -0.131533 0.0511549 127 0 255
-0.100006 -0.359427 0.118152 127 0 255
-0.0276545 -0.356501 -0.228471 127 0 255
-0.0401114 -0.290833 0.120461 127 0 255
0.0270756 -0.454879 -0.334941 127 0 255
-0.248929 -0.478251 0.124164 127 0 255
-0.160424 -0.481861 -0.0953299 127 0 255
-0.0878269 -0.412274 -0.150054 127 0 255
-0.205198 -0.482458 0.0543806 127 0 255
-0.0416924 -0.269015 0.00240836 127 0 255
-0.175645 -0.182111 0.106769 127 0 255
0.0222939 -0.416952 -0.0760962 127 0 255
0.0155775 -0.0349372 -0.195288 127 0 255
0.0121292 -0.125453 -0.160266 127 0 255
0.0175817 -0.268988 0.0701978 127 0 255
0.00613976 -0.174641 -0.308705 127 0 255
-0.137827 -0.374785 -0.0250476 127 0 255
0.0243387 -0.407646 0.0965452 127 0 255
-0.0671679 -0.242936 0.0699359 127 0 255
-0.189799 -0.0136812 0.124258 127 0 255
-0.109137 -0.105478 0.102093 127 0 255
-0.25079 -0.375412 0.109837 127 0 255
-0.120929 -0.00573033 0.111229 127 0 255
-0.225327 -0.149793 0.0749607 127 0 255
-0.122474 -0.483625 0.114521 127 0 255
-0.069156 -0.483786 0.068008 127 0 255
0.00569627 -0.325082 -0.354936 127 0 255
-0.0172171 -0.343676 0.0301694 127 0 255
-0.0600685 -0.440501 -0.0140311 127 0 255
-0.0775296 -0.379153 0.0161108 127 0 255
0.0292542 -0.399027 0.0116739 127 0 255
-0.00725611 -0.416751 -0.23429 127 0 255
-0.0529069 -0.0429835 0.128376 127 0 255
-0.33476 -0.474853 0.131056 127 0 255
-0.337827 -0.0997846 0.0749524 127 0 255
-0.246274 -0.109761 0.098329 127 0 255
-0.200327 -0.399802 0.137466 127 0 255
-0.0193963 0.00861724 0.108441 123 6 254
0.0175235 -0.0674574 -0.339336 127 0 255
-0.0539934 -0.482267 -0.132489 127 0 255
-0.0390441 -0.479609 -0.232786 127 0 255
-0.272148 -0.00774508 0.121736 127 0 255
0.0133531 -0.22847 0.001552 127 0 255
-0.337827 -0.149792 0.137457 127 0 255
0.0107132 -0.176444 0.0894696 127 0 255
-0.112827 -0.412274 -0.325054 127 0 255
0.00494117 -0.255879 -0.332808 127 0 255
0.0129737 -0.083585 0.0446539 127 0 255
0.0259583 -0.100028 -0.296486 127 0 255
-0.0476476 -0.377939 -0.100596 127 0 255
0.0294429 -0.192939 -0.162596 127 0 255
-0.0930827 -0.484657 -0.0816276 127 0 255
0.021771 -0.344594 -0.0342032 127 0 255
0.0281132 -0.0921419 -0.201539 127 0 255
-0.0092751 -0.297542 0.0346295 127 0 255
-0.126891 -0.406051 0.10851 127 0 255
-0.159902 -0.290198 0.118073 127 0 255
-0.284074 -0.0531621 0.100103 127 0 255
-0.0280467 -0.462815 -0.169098 127 0 255
-0.132128 -0.485285 -0.000954579 127 0 255
-0.268948 -0.48259 0.030537 127 0 255
-0.00380465 -0.36208 0.118635 127 0 255
0.0149643 -0.0907063 -0.0610138 127 0 255
-0.0710292 -0.482851 0.124017 127 0 255
-0.337027 -0.200064 0.100018 127 0 255
-0.0144792 -0.159326 0.124818 127 0 255
0.005801 -0.139651 -0.361486 127 0 255
-0.188098 -0.228614 0.118678 127 0 255
-0.0151196 -0.348395 -0.303609 127 0 255
0.0174269 0.0174168 -0.0387966 119 12 254
0.017693 -0.247484 -0.146036 127 0 255
-0.124786 -0.233991 0.123592 127 0 255
0.01281 -0.0262585 -0.10797 127 0 255
-0.0798463 -0.426428 0.105728 127 0 255
-0.073322 -0.371054 -0.30849 127 0 255
-0.332079 -0.423439 0.123252 127 0 255
0.0230779 -0.148069 -0.0661264 127 0 255
0.0145691 -0.204229 -0.206037 127 0 255
-0.22505 -0.164492 0.120711 127 0 255
-0.0181614 -0.482803 0.037667 127 0 255
-0.204585 -0.483755 0.113067 127 0 255
-0.0753269 -0.324774 -0.0750543 127 0 255
0.017572 -0.348357 -0.165751 127 0 255
0.017552 -0.21039 -0.0571226 127 0 255
0.0295593 -0.102991 0.110373 127 0 255
0.0188643 -0.333308 -0.0953669 127 0 255
0.0204231 -0.448649 -0.112741 127 0 255
-0.100327 -0.262274 -0.0250543 127 0 255
-0.0735707 -0.00965697 0.109257 127 0 255
0.0119696 -0.243247 -0.258836 127 0 255
-0.0480388 -0.412049 -0.143011 127 0 255
0.00405184 -0.48275 -0.244853 127 0 255
0.0250513 -0.304951 0.0806679 127 0 255
0.0142759 -0.00931099 0.0350937 127 0 255
-0.326833 -0.079516 0.116581 127 0 255
0.0306524 -0.370109 -0.245042 127 0 255
-0.0658737 -0.321512 0.0456605 127 0 255
-0.280478 -0.458256 0.0958269 127 0 255
-0.318387 -0.320414 0.123418 127 0 255
0.027511 -0.147052 0.0071659 127 0 255
-0.0586618 -0.382008 0.118595 127 0 255
-0.0431042 -0.241739 0.107662 127 0 255
0.0371731 -0.0122744 -0.275054 127 0 255
-0.040276 0.0434939 0.117223 105 34 254
0.0141492 -0.453751 0.123586 127 0 255
0.0124548 -0.142589 -0.191094 127 0 255
0.0243512 -0.46123 -0.184355 127 0 255
-0.146308 -0.154181 0.105655 127 0 255
0.0284581 -0.10677 -0.118584 127 0 255
0.0232475 -0.276394 -0.189934 127 0 255
-0.202032 -0.379606 0.102876 127 0 255
0.0235801 -0.0572271 0.0953816 127 0 255
0.0232287 -0.306952 -0.314123 127 0 255
0.0230322 -0.0378162 -0.0538986 127 0 255
-0.295512 -0.139566 0.0983362 127 0 255
-0.0790582 -0.0639058 0.102904 127 0 255
-0.27994 -0.212248 0.120005 127 0 255
-0.180032 -0.0703636 0.124327 127 0 255
0.0247484 -0.442633 -0.0282756 127 0 255
-0.111037 -0.481894 -0.134624 127 0 255
-0.260964 -0.308774 0.110308 127 0 255
0.0287162 -0.448504 0.0487961 127 0 255
0.0278085 -0.401256 -0.346648 127 0 255
-0.066217 -0.166808 0.126819 127 0 255
-0.0736165 -0.387111 -0.236487 127 0 255
0.0201273 -0.40046 -0.126945 127 0 255
-0.0503093 -0.461106 0.023546 127 0 255
0.0272746 -0.220795 0.0421476 127 0 255
0.0115101 -0.274844 -0.365391 127 0 255
0.00252157 -0.385481 0.0802333 127 0 255
0.023067 -0.39656 -0.195828 127 0 255
0.0244085 -0.146291 -0.290306 127 0 255
0.0149571 -0.38584 -0.0723804 127 0 255
-0.0534306 -0.398962 -0.00870263 127 0 255
-0.137827 -0.424787 0.0124538 127 0 255
-0.121246 -0.484453 0.0716983 127 0 255
-0.0422346 -0.364091 -0.175719 127 0 255
-0.296017 -0.388461 0.127779 127 0 255
-0.0291921 -0.336133 -0.10378 127 0 255
0.0225859 -0.203738 0.115892 127 0 255
0.00800372 -0.482924 -0.13445 127 0 255
-0.0103949 -0.321212 -0.224129 127 0 255
-0.126448 -0.0342897 0.12545 127 0 255
-0.193075 -0.275915 0.105756 127 0 255
-0.196142 -0.429643 0.114334 127 0 255
-0.0785732 -0.34067 0.093061 127 0 255
0.0225446 -0.323018 -0.0017154 127 0 255
-0.175327 0.0377029 0.137461 109 28 254
-0.122605 -0.284722 0.099328 127 0 255
-0.0523302 -0.483111 -0.0201218 127 0 255
0.0223041 -0.0751113 -0.161406 127 0 255
-0.0230479 -0.30542 0.108971 127 0 255
-0.013328 -0.483825 0.107118 127 0 255
0.0129857 0.0135225 -0.0935432 121 9 254
-0.338479 -0.266237 0.105316 127 0 255
0.0139937 -0.0138965 -0.16333 127 0 255
-0.178298 -0.482312 0.0176884 127 0 255
-0.256975 -0.085998 0.126136 127 0 255
0.0108792 -0.214765 -0.36406 127 0 255
-0.0230707 -0.0331625 0.128947 127 0 255
0.0236552 -0.300129 -0.122592 127 0 255
-0.0517917 -0.462161 -0.0956066 127 0 255
0.0137265 0.0590143 0.0866443 97 46 253
0.00636914 -0.394722 -0.270191 127 0 255
0.0138362 -0.221701 -0.0899444 127 0 255
-0.332303 -0.454137 0.101413 127 0 255
-0.167937 -0.480438 0.119445 127 0 255
-0.14599 -0.3516 0.117964 127 0 255
0.0286708 -0.28336 -0.279539 127 0 255
-0.169829 -0.482877 -0.0667788 127 0 255
0.00933375 -0.482779 -0.290896 127 0 255
-0.0345436 -0.340307 -0.365404 127 0 255
-0.252665 -0.0315929 0.124363 127 0 255
0.0260633 -0.0224356 0.081066 127 0 255
-0.350327 -0.362296 0.137459 127 0 255
-0.0503269 -0.412274 -0.325054 127 0 255
-0.0878269 -0.337274 -0.150054 127 0 255
-0.0100428 -0.483936 -0.0722724 127 0 255
0.0314772 -0.402474 -0.0291107 127 0 255
-0.137827 -0.249778 -5.19796e-05 127 0 255
0.0232777 -0.144542 0.1066 127 0 255
-0.0028923 -0.272572 -0.0468122 127 0 255
-0.0942682 -0.484219 -0.183558 127 0 255
0.0156238 -0.441366 -0.218695 127 0 255
0.0134561 -0.462286 -0.353046 127 0 255
0.0112716 -0.0794663 -0.252689 127 0 255
-0.0403732 -0.435595 0.11491 127 0 255
-0.0903844 -0.480715 0.0320603 127 0 255
-0.199266 0.0076247 0.120304 125 3 254
-0.0757121 -0.235118 0.120211 127 0 255
0.007181 -0.228381 -0.308925 127 0 255
0.00490639 0.0227917 0.119911 117 15 254
0.0219196 -0.273147 0.0339047 127 0 255
0.0187806 -0.060046 -0.302788 127 0 255
-0.100327 0.0502168 0.137451 103 37 254
0.0176575 0.00933709 -0.00180064 123 6 254
-0.337105 -0.148469 0.101055 127 0 255
-0.24383 -0.482428 0.0725439 127 0 255
-0.112032 -0.143636 0.124373 127 0 255
0.0371731 0.000225605 -0.212554 127 0 255
0.025388 -0.351345 0.0471106 127 0 255
0.0160301 -0.187287 -0.0191006 127 0 255
0.0283571 -0.237471 -0.22971 127 0 255
0.00242395 -0.369973 -0.0127353 127 0 255
0.0260289 -0.125463 -0.337013 127 0 255
-0.17326 -0.114068 0.121092 127 0 255
0.0272805 -0.35334 -0.33839 127 0 255
-0.0597657 -0.478901 -0.228153 127 0 255
-0.128378 -0.428601 0.11697 127 0 255
-0.257656 -0.357008 0.12049 127 0 255
0.0150885 -0.10881 0.0238371 127 0 255
0.00161411 -0.425956 0.0238435 127 0 255
-0.316858 -0.0336749 0.108371 127 0 255
-0.00838018 -0.422671 -0.142333 127 0 255
-0.0317907 -0.367068 -0.249214 127 0 255
-0.0238328 -0.0971289 0.102679 127 0 255
-0.136933 -0.484943 0.0342046 127 0 255
-0.137827 -0.287284 0.037452 127 0 255
-0.116152 -0.0763356 0.10293 127 0 255
-0.224319 -0.253573 0.118912 127 0 255
-0.0459977 -0.352858 -0.314624 127 0 255
0.0199135 -0.149996 -0.25196 127 0 255
0.0319701 -0.128761 -0.140702 127 0 255
-0.0106181 -0.202499 0.120208 127 0 255
0.0132179 -0.440438 -0.296475 127 0 255
-0.0124007 -0.376936 -0.199967 127 0 255
0.0252928 -0.275474 0.102106 127 0 255
0.0158789 -0.329861 -0.259863 127 0 255
0.0204682 -0.304985 -0.0579686 127 0 255
-0.121784 0.0173849 0.118398 119 12 254
-0.0650444 -0.337167 0.120504 127 0 255
-0.0499475 -0.3985 -0.374941 127 0 255
-0.230022 -0.44857 0.110786 127 0 255
-0.100327 -0.362275 -0.0250538 127 0 255
