ply
format ascii 1.0
comment Created by Open3D
element vertex 1203
property double x
property double y
property double z
property uchar red
property uchar green
property uchar blue
end_header
0.0348502 -0.464649 -0.459073 127 0 255
0.0415662 -0.186973 0.326444 127 0 255
0.0429952 -0.274809 0.0819083 127 0 255
-0.322088 -0.482129 -0.108769 127 0 255
0.0609635 -0.144986 -0.431541 127 0 255
-0.10669 -0.48329 0.355534 127 0 255
0.0553301 -0.178888 -0.346437 127 0 255
-0.348508 -0.382963 -0.197237 127 0 255
0.0789026 -0.255947 0.292734 127 0 255
0.0604935 -0.482838 0.31997 127 0 255
0.0269559 -0.309462 0.379447 127 0 255
-0.309472 -0.440829 -0.0322045 127 0 255
0.0894917 -0.301064 -0.293417 127 0 255
-0.0753274 -0.149832 0.312483 127 0 255
-0.096114 -0.462161 -0.186581 127 0 255
-0.248452 -0.483139 0.264326 127 0 255
0.0999908 -0.420628 0.181005 127 0 255
-0.029599 -0.490057 -0.227685 127 0 255
0.0582931 -0.129331 0.0853824 127 0 255
-0.0291263 -0.432165 0.3948 127 0 255
-0.0561518 -0.461434 -0.0506602 127 0 255
-0.29228 -0.429553 -0.191531 127 0 255
-0.0362501 -0.484227 0.334911 127 0 255
-0.230821 -0.483201 0.172635 127 0 255
0.0798968 -0.303956 -0.188709 127 0 255
0.0706218 -0.0933156 -0.489165 127 0 255
0.0124035 -0.236257 0.246058 127 0 255
0.0423748 -0.393199 -0.149552 127 0 255
0.0511436 -0.295049 -0.371304 127 0 255
0.0769368 -0.146289 0.274781 127 0 255
-0.226191 -0.484966 0.101946 127 0 255
0.0819023 -0.359911 0.250647 127 0 255
0.0624535 -0.0736903 -0.281969 127 0 255
-0.426093 -0.37133 -0.118847 127 0 255
-0.040287 -0.477887 -0.459773 127 0 255
0.0832289 -0.41836 0.0605623 127 0 255
0.081831 -0.168918 -0.109352 127 0 255
-0.0753274 -0.237329 0.299981 127 0 255
0.0590412 -0.233124 -0.28236 127 0 255
0.00542317 -0.463932 0.0249506 127 0 255
0.0853822 -0.468337 0.127623 127 0 255
-0.121961 -0.381449 0.323527 127 0 255
0.0539926 -0.359657 -0.322844 127 0 255
0.0469767 -0.325975 0.16102 127 0 255
0.0805902 -0.289286 0.361508 127 0 255
0.060899 -0.118613 -0.194974 127 0 255
-0.186371 -0.481953 -0.394495 127 0 255
0.0609222 -0.275316 0.0239243 127 0 255
-0.132821 -0.490804 -0.0626876 127 0 255
-0.151038 -0.467677 -0.14344 127 0 255
-0.252207 -0.360792 -0.222233 127 0 255
-0.246582 -0.486952 -0.208411 127 0 255
0.015796 -0.332142 0.236523 127 0 255
-0.204836 -0.483197 0.30409 127 0 255
-0.0116578 -0.386484 0.301094 127 0 255
0.0509382 -0.48334 0.203109 127 0 255
-0.427863 -0.356699 -0.0419019 127 0 255
0.0481791 -0.301447 -0.485373 127 0 255
0.0586202 -0.161888 -0.0387251 127 0 255
0.0728419 -0.450772 -0.17994 127 0 255
-0.201885 -0.48642 -0.0606922 127 0 255
0.0616167 -0.115966 0.181561 127 0 255
-0.000173373 -0.376975 0.386766 127 0 255
-0.0383586 -0.431445 -0.158576 127 0 255
0.0324046 -0.424495 -0.310498 127 0 255
0.0867633 -0.300453 0.219052 127 0 255
0.0735843 -0.150153 -0.245044 127 0 255
-0.230429 -0.393785 -0.104697 127 0 255
-0.323774 -0.331253 -0.108124 127 0 255
-0.0337242 -0.450955 -0.390459 127 0 255
0.0587422 -0.197459 0.0779517 127 0 255
0.063577 -0.0598271 0.285911 127 0 255
0.0857735 -0.377709 -0.39023 127 0 255
-0.0478562 -0.486116 0.277533 127 0 255
0.0748539 -0.118159 0.3667 127 0 255
0.0258455 -0.310383 0.287751 127 0 255
-0.0377264 -0.483537 0.180651 127 0 255
-0.129406 -0.498837 -0.298989 127 0 255
0.0888188 -0.444798 -0.0806145 127 0 255
0.0455517 -0.386058 0.127385 127 0 255
0.0855409 -0.382556 -0.200721 127 0 255
-0.0144179 -0.233082 0.337272 127 0 255
0.0230767 -0.424232 0.354208 127 0 255
-0.116503 -0.479421 -0.480441 127 0 255
0.0718853 -0.268515 -0.0796327 127 0 255
-0.232664 -0.486791 -0.113439 127 0 255
0.0715515 -0.437863 -0.250883 127 0 255
-0.400048 -0.430236 -0.0564824 127 0 255
0.0234893 -0.483481 0.261405 127 0 255
0.0767206 -0.444523 -0.367046 127 0 255
0.0826221 -0.43455 0.274027 127 0 255
0.0775418 -0.0896256 -0.0479627 127 0 255
0.0423758 -0.227559 0.157907 127 0 255
0.0451324 -0.290572 -0.318086 127 0 255
0.0768011 -0.297954 -0.138785 127 0 255
-0.0199347 -0.310186 0.342441 127 0 255
0.0774523 -0.383522 0.351375 127 0 255
-0.254851 -0.478232 -0.34859 127 0 255
-0.348514 -0.339423 -0.192075 127 0 255
-0.256218 -0.444705 -0.249582 127 0 255
-0.0859755 -0.497136 -0.0853328 127 0 255
-0.325955 -0.356221 -0.0430657 127 0 255
-0.171512 -0.47569 0.0892963 127 0 255
-0.301331 -0.482475 -0.0620814 127 0 255
0.0520938 -0.490647 0.00276128 127 0 255
0.0180114 -0.481652 -0.0853328 127 0 255
-0.0677439 -0.497992 -0.248509 127 0 255
0.0245546 -0.464475 0.113656 127 0 255
0.079195 -0.0632303 0.196778 127 0 255
0.0747497 -0.433772 -0.439487 127 0 255
0.0509562 -0.242181 0.371953 127 0 255
0.0692902 -0.222591 -0.370998 127 0 255
0.0186399 -0.482347 -0.413037 127 0 255
0.0455614 -0.361498 0.0418312 127 0 255
0.0611821 -0.0707303 0.0296537 127 0 255
-0.127413 -0.48985 0.175272 127 0 255
0.0926852 -0.223584 0.124585 127 0 255
0.0588309 -0.260987 -0.454593 127 0 255
0.0653942 -0.0623506 -0.434474 127 0 255
0.0777991 -0.329981 0.309757 127 0 255
-0.225597 -0.396894 -0.158013 127 0 255
-0.244837 -0.467143 0.0254799 127 0 255
-0.0485322 -0.410629 0.277878 127 0 255
0.043888 -0.380209 -0.49056 127 0 255
0.09236 -0.294572 0.0949629 127 0 255
0.0778913 -0.179349 0.356043 127 0 255
0.0984819 -0.389739 0.136157 127 0 255
-0.173063 -0.456776 -0.223353 127 0 255
0.0799238 -0.183736 0.23672 127 0 255
0.0932597 -0.39073 0.213536 127 0 255
0.0885212 -0.159811 0.153224 127 0 255
-0.077846 -0.483073 -0.000669725 127 0 255
-0.335401 -0.413241 -0.0987566 127 0 255
-0.286306 -0.482721 0.101703 127 0 255
-0.286818 -0.340003 -0.160788 127 0 255
-0.104788 -0.378609 0.280799 127 0 255
0.071967 -0.315105 -0.235447 127 0 255
0.0682267 -0.0456559 -0.0986056 127 0 255
0.0121728 -0.487312 0.42497 127 0 255
0.0871641 -0.388057 -0.0131177 127 0 255
0.0142238 -0.47965 -0.240594 127 0 255
0.0827436 -0.483766 0.0739345 127 0 255
0.0769874 -0.161057 -0.183661 127 0 255
-0.100326 -0.477727 -0.341645 127 0 255
-0.162358 -0.484581 0.036681 127 0 255
-0.215471 -0.481448 -0.278996 127 0 255
-0.110017 -0.437442 0.334761 127 0 255
-0.184725 -0.494353 -0.169598 127 0 255
0.0731307 -0.443574 -0.509765 127 0 255
-0.252669 -0.467352 -0.0377059 127 0 255
0.00668129 -0.445718 -0.0131761 127 0 255
0.0742967 -0.0706948 -0.342238 127 0 255
-0.110525 -0.484569 0.262217 127 0 255
-0.283938 -0.459066 -0.14283 127 0 255
0.0793276 -0.0870614 0.107885 127 0 255
-0.0781658 -0.494453 -0.186468 127 0 255
0.052092 -0.352349 -0.156127 127 0 255
0.087173 -0.18728 -0.50005 127 0 255
-0.0277679 -0.267202 0.294319 127 0 255
-0.383631 -0.334992 -0.0697486 127 0 255
0.083014 -0.13422 0.00192542 127 0 255
0.0121728 -0.124811 0.29997 127 0 255
0.083723 -0.227014 -0.0409981 127 0 255
-0.234065 -0.44239 -0.201276 127 0 255
-0.00308712 -0.370834 0.250152 127 0 255
-0.225153 -0.485393 0.215419 127 0 255
0.0888533 -0.382119 0.0823008 127 0 255
0.0778331 -0.254203 -0.167375 127 0 255
-0.0513287 -0.474763 -0.292431 127 0 255
-0.369199 -0.415976 -0.175124 127 0 255
0.0790698 -0.337608 -0.401322 127 0 255
0.0457081 -0.321188 -0.0713487 127 0 255
0.03825 -0.441574 -0.116081 127 0 255
0.0843245 -0.372605 -0.285519 127 0 255
0.0745358 -0.481061 0.351472 127 0 255
0.0903385 -0.244276 0.194327 127 0 255
-0.0399908 -0.483039 0.378256 127 0 255
-0.0412386 -0.137317 0.347876 127 0 255
0.0581734 -0.11049 0.228929 127 0 255
0.0450027 -0.484006 0.157283 127 0 255
0.0130208 -0.202187 0.261421 127 0 255
0.0352444 -0.0769264 0.357932 127 0 255
-0.170752 -0.481847 -0.449689 127 0 255
0.0850225 -0.280299 -0.0109441 127 0 255
-0.0496034 -0.483945 -0.126944 127 0 255
0.0782821 -0.482904 -0.178008 127 0 255
0.0276685 -0.470995 -0.492525 127 0 255
-0.0720211 -0.400767 0.343469 127 0 255
0.042256 -0.283544 0.225346 127 0 255
0.0888563 -0.24764 0.0730771 127 0 255
0.0659511 -0.482848 -0.385364 127 0 255
-0.225327 -0.337294 -0.20004 127 0 255
0.0713613 -0.0578374 -0.189484 127 0 255
-0.27152 -0.497715 -0.252985 127 0 255
0.0606891 -0.423697 0.376648 127 0 255
-0.015721 -0.462529 0.254714 127 0 255
0.0744621 -0.156356 -0.367845 127 0 255
-0.139653 -0.497773 -0.256703 127 0 255
-0.316619 -0.485459 0.0385516 127 0 255
0.0865008 -0.391596 -0.16041 127 0 255
0.0963228 -0.456796 0.0290223 127 0 255
0.0496266 -0.3873 -0.0466753 127 0 255
0.0366472 -0.497363 0.0647412 127 0 255
0.0110791 -0.481085 -0.315018 127 0 255
0.0593574 -0.345948 0.381694 127 0 255
0.042485 -0.397446 -0.368765 127 0 255
0.0602633 -0.314304 0.0427242 127 0 255
0.02034 -0.483366 0.334499 127 0 255
0.0232042 -0.143585 0.355506 127 0 255
0.0463325 -0.409578 0.21008 127 0 255
0.0653 -0.337316 -0.495542 127 0 255
0.0676368 -0.100822 -0.13029 127 0 255
-0.157254 -0.48497 0.234123 127 0 255
-0.0960731 -0.483963 0.111098 127 0 255
0.06427 -0.213519 0.0162361 127 0 255
-0.0442697 -0.262773 0.352481 127 0 255
0.0379436 -0.385887 0.31282 127 0 255
0.078114 -0.0921318 0.32746 127 0 255
-0.179561 -0.442548 -0.097589 127 0 255
0.0477738 -0.285742 0.149922 127 0 255
0.0528337 -0.112613 -0.272143 127 0 255
0.0748186 -0.482601 -0.31553 127 0 255
0.0837811 -0.297885 -0.331738 127 0 255
0.0479304 -0.426691 0.108019 127 0 255
0.090038 -0.463905 0.227654 127 0 255
0.0509278 -0.403416 -0.244681 127 0 255
-0.145373 -0.485038 0.317448 127 0 255
-0.0340953 -0.485907 0.0316721 127 0 255
0.0758436 -0.482727 -0.455692 127 0 255
0.0787563 -0.210982 0.30706 127 0 255
-0.286242 -0.400164 -0.238843 127 0 255
-0.0600575 -0.323636 0.339916 127 0 255
-0.0721417 -0.483836 0.194555 127 0 255
0.0727733 -0.483207 -0.104096 127 0 255
-0.08072 -0.481584 -0.387267 127 0 255
0.0103853 -0.225177 0.372018 127 0 255
-0.348811 -0.365901 -0.136116 127 0 255
-0.177059 -0.498232 -0.297943 127 0 255
0.0577524 -0.222544 -0.189628 127 0 255
0.0740176 -0.112357 -0.415318 127 0 255
-0.122828 -0.482763 -0.113766 127 0 255
0.0784876 -0.283715 0.324619 127 0 255
0.0864932 -0.173649 0.0651882 127 0 255
-0.0167957 -0.446933 -0.0453026 127 0 255
0.0566362 -0.221881 -0.428654 127 0 255
-0.270832 -0.476698 -0.316173 127 0 255
0.0703074 -0.209724 -0.330863 127 0 255
-0.218628 -0.471775 0.0639541 127 0 255
0.0681394 -0.204478 -0.250604 127 0 255
-0.278664 -0.383175 -0.0521242 127 0 255
0.0434038 -0.341322 0.124707 127 0 255
0.0777237 -0.482648 -0.255879 127 0 255
-0.350327 -0.437296 0.0124601 127 0 255
0.0631116 -0.199832 -0.117798 127 0 255
-0.438045 -0.357981 -0.0876619 127 0 255
0.00607191 -0.483293 -0.156564 127 0 255
0.0967749 -0.354515 0.183216 127 0 255
0.0497928 -0.288718 -0.412539 127 0 255
-0.318945 -0.47844 -0.182958 127 0 255
0.0394812 -0.174726 0.20509 127 0 255
0.0496603 -0.272278 -0.223155 127 0 255
-0.149081 -0.481437 -0.340814 127 0 255
-0.062145 -0.455928 -0.195247 127 0 255
0.0717868 -0.130392 -0.494021 127 0 255
0.0680731 -0.0525236 -0.0423731 127 0 255
0.0830683 -0.346912 -0.0921741 127 0 255
-0.012815 -0.483079 0.100412 127 0 255
-0.0561986 -0.476247 -0.482964 127 0 255
-0.394659 -0.412092 -0.132283 127 0 255
-0.151873 -0.453372 -0.0341068 127 0 255
-0.350327 -0.337303 0.0124645 127 0 255
0.00760858 -0.483605 0.187653 127 0 255
-0.111485 -0.481242 0.0460194 127 0 255
0.0533288 -0.118877 -0.337535 127 0 255
-0.261188 -0.483149 0.174063 127 0 255
-0.302517 -0.345051 -0.203564 127 0 255
-0.0322224 -0.354803 0.303798 127 0 255
0.0393717 -0.431749 -0.203343 127 0 255
0.0455868 -0.409872 -0.449519 127 0 255
0.0389538 -0.349448 0.273792 127 0 255
0.0894309 -0.44614 -0.0338582 127 0 255
-0.373022 -0.333834 -0.158914 127 0 255
-0.02964 -0.493804 -0.341754 127 0 255
0.0428037 -0.28775 4.77454e-06 127 0 255
-0.286706 -0.344563 -0.104558 127 0 255
0.0901806 -0.338355 0.085916 127 0 255
-0.0753274 -0.187329 0.299981 127 0 255
0.0623945 -0.061353 0.116073 127 0 255
0.0599166 -0.146087 0.133891 127 0 255
0.0851591 -0.409557 -0.0977802 127 0 255
0.0743661 -0.425146 -0.317356 127 0 255
0.0117116 -0.274328 0.292322 127 0 255
-0.228282 -0.488908 -0.157784 127 0 255
0.0572152 -0.119054 0.0401441 127 0 255
0.087173 -0.249783 -0.500048 127 0 255
0.0864301 -0.357436 -0.223819 127 0 255
0.02981 -0.247039 0.20297 127 0 255
-0.13915 -0.48246 -0.399694 127 0 255
-0.166821 -0.484896 0.150681 127 0 255
0.0793 -0.404464 0.302854 127 0 255
-0.276632 -0.4826 -0.00243486 127 0 255
-0.257289 -0.406857 -0.197245 127 0 255
0.0605633 -0.1817 -0.0723835 127 0 255
0.0195883 -0.354064 0.360926 127 0 255
-0.305763 -0.455936 -0.239901 127 0 255
0.056014 -0.106888 -0.0544548 127 0 255
0.0776871 -0.095093 0.257878 127 0 255
-0.015305 -0.484154 -0.438271 127 0 255
-0.12753 -0.497278 -0.195287 127 0 255
0.0259719 -0.44522 -0.334005 127 0 255
0.0960058 -0.298405 0.158603 127 0 255
0.0333748 -0.483568 -0.0508503 127 0 255
0.0381333 -0.432352 0.0182391 127 0 255
0.0896934 -0.436537 0.150269 127 0 255
-0.0601733 -0.486436 0.315938 127 0 255
-0.275419 -0.482676 -0.113179 127 0 255
0.0805642 -0.337268 -0.0225512 127 0 255
-0.38783 -0.358744 -0.0334071 127 0 255
-0.244801 -0.344419 -0.171186 127 0 255
-0.0253274 -0.0748269 0.33748 127 0 255
0.0306311 -0.444618 0.270642 127 0 255
-0.346735 -0.45042 -0.118552 127 0 255
0.0543419 -0.152027 -0.267508 127 0 255
-0.113569 -0.343956 0.30792 127 0 255
0.0829959 -0.13653 -0.123817 127 0 255
-0.194354 -0.487413 0.0116129 127 0 255
-0.0292794 -0.498159 -0.0743808 127 0 255
0.0598068 -0.24698 0.259 127 0 255
-0.0505413 -0.189202 0.344695 127 0 255
-0.256686 -0.483194 0.24936 127 0 255
-0.204795 -0.430792 -0.0676608 127 0 255
0.0532817 -0.0980766 -0.179382 127 0 255
-0.205574 -0.430553 -0.224855 127 0 255
-0.0278546 -0.454011 0.398118 127 0 255
-0.0816945 -0.462852 -0.0924456 127 0 255
-0.0849601 -0.426765 0.280226 127 0 255
0.0610269 -0.198216 -0.492189 127 0 255
0.0729607 -0.0655629 -0.295922 127 0 255
0.0194292 -0.187951 0.332826 127 0 255
0.0816525 -0.480683 0.311657 127 0 255
0.0762328 -0.398565 -0.50384 127 0 255
-0.242108 -0.488631 0.130999 127 0 255
0.0745033 -0.333331 -0.291751 127 0 255
-0.383133 -0.438498 -0.044611 127 0 255
-0.0535064 -0.485565 0.142024 127 0 255
-0.11453 -0.48113 -0.460533 127 0 255
-0.0120437 -0.329902 0.262448 127 0 255
0.0821394 -0.330097 0.246524 127 0 255
0.0516212 -0.263625 -0.275232 127 0 255
0.0666661 -0.351013 -0.436507 127 0 255
0.0587831 -0.155494 0.281611 127 0 255
-0.300125 -0.413056 -0.107699 127 0 255
0.049137 -0.261289 -0.380623 127 0 255
0.081974 -0.0852148 0.174627 127 0 255
0.049186 -0.31138 -0.186959 127 0 255
-0.0135733 -0.392644 0.389549 127 0 255
-0.226637 -0.480096 -0.360918 127 0 255
0.0581024 -0.168755 -0.425054 127 0 255
0.0725076 -0.247052 -0.102903 127 0 255
-0.00919047 -0.409972 0.311321 127 0 255
0.0145532 -0.483675 -0.363344 127 0 255
0.0617503 -0.0651858 -0.374098 127 0 255
0.0694614 -0.0583507 -0.134065 127 0 255
0.0831876 -0.0944272 0.000820464 127 0 255
0.0837846 -0.161962 0.198903 127 0 255
0.0577473 -0.277283 0.373144 127 0 255
0.0840491 -0.347102 -0.354561 127 0 255
0.0673019 -0.0623415 -0.452671 127 0 255
-0.204969 -0.483205 0.303943 127 0 255
-0.315096 -0.340946 -0.0670751 127 0 255
0.0660638 -0.204868 0.37164 127 0 255
-0.30885 -0.37453 -0.16156 127 0 255
-0.17092 -0.496039 -0.21879 127 0 255
-0.203622 -0.46681 -0.310165 127 0 255
-0.129734 -0.447493 -0.103685 127 0 255
0.084926 -0.481639 0.167444 127 0 255
-0.000750909 -0.435063 -0.0828396 127 0 255
0.0936227 -0.226649 0.156955 127 0 255
-0.382307 -0.356117 -0.0968896 127 0 255
0.0469097 -0.405319 0.0897202 127 0 255
0.0480525 -0.369546 0.200425 127 0 255
-0.125777 -0.490114 -0.0312526 127 0 255
0.0439834 -0.273142 0.113381 127 0 255
-0.0928623 -0.473643 -0.252525 127 0 255
-0.0665732 -0.481324 -0.427642 127 0 255
0.0846689 -0.132028 0.0906717 127 0 255
0.0711849 -0.0718306 -0.240891 127 0 255
-0.269605 -0.489699 -0.189794 127 0 255
0.0577605 -0.170574 -0.171462 127 0 255
-0.0856277 -0.486221 0.244751 127 0 255
-0.0272056 -0.458202 -0.147126 127 0 255
-0.178376 -0.490433 -0.129477 127 0 255
0.0639844 -0.17708 -2.52558e-05 127 0 255
-0.012164 -0.293397 0.377557 127 0 255
-0.0685893 -0.483781 0.0751482 127 0 255
0.0486833 -0.447513 0.391483 127 0 255
0.0422866 -0.483191 -0.154531 127 0 255
-0.312321 -0.48231 -0.0337879 127 0 255
0.0361012 -0.46148 -0.246231 127 0 255
0.0594289 -0.481145 0.238713 127 0 255
-0.235544 -0.373661 -0.127039 127 0 255
-0.164034 -0.494289 0.0934873 127 0 255
0.0607474 -0.370593 -0.000243472 127 0 255
0.0528312 -0.268079 -0.487599 127 0 255
-0.199607 -0.440976 -0.162464 127 0 255
-0.0385128 -0.463773 -0.00726451 127 0 255
0.0696162 -0.0659628 0.0511441 127 0 255
-0.219669 -0.48415 -0.0368957 127 0 255
0.0912095 -0.445856 0.0894087 127 0 255
0.0593541 -0.228614 0.0488741 127 0 255
0.0762098 -0.444906 -0.396427 127 0 255
-0.34604 -0.427433 -0.20167 127 0 255
0.0607524 -0.247478 -0.0568487 127 0 255
0.0632892 -0.482745 -0.487091 127 0 255
0.0293536 -0.438742 0.162033 127 0 255
-0.0590855 -0.427283 0.36474 127 0 255
0.0420314 -0.295711 0.189276 127 0 255
0.081193 -0.483458 -0.0397691 127 0 255
0.0812475 -0.34184 -0.148928 127 0 255
-0.011985 -0.483687 -0.19755 127 0 255
-0.400327 -0.399791 -4.35985e-05 127 0 255
0.0495366 -0.365056 -0.210884 127 0 255
-0.263867 -0.453782 -0.0800921 127 0 255
0.0700633 -0.163337 -0.320977 127 0 255
0.0688896 -0.151624 0.366003 127 0 255
-0.418316 -0.359757 -0.132422 127 0 255
0.0854259 -0.216279 0.217339 127 0 255
-0.199661 -0.485207 0.21042 127 0 255
0.0838216 -0.399155 -0.266895 127 0 255
-0.0683004 -0.496203 -0.043983 127 0 255
-0.0640486 -0.289137 0.315497 127 0 255
-0.328711 -0.379207 -0.0478412 127 0 255
-0.107755 -0.484998 0.340576 127 0 255
0.0814642 -0.397884 0.256716 127 0 255
-0.0753274 -0.0873347 0.324985 127 0 255
-0.130402 -0.470268 -0.158026 127 0 255
-0.00800405 -0.462659 0.354597 127 0 255
-0.281748 -0.361813 -0.238958 127 0 255
-0.0824244 -0.372024 0.336738 127 0 255
0.0752345 -0.146079 -0.456236 127 0 255
0.0237006 -0.483304 0.0233364 127 0 255
0.0604484 -0.0631747 0.30673 127 0 255
0.0477792 -0.324703 0.314308 127 0 255
-0.0538399 -0.478839 -0.3197 127 0 255
0.0463661 -0.251411 -0.139922 127 0 255
0.0121727 -0.349815 0.412472 127 0 255
0.0695998 -0.246059 -0.316765 127 0 255
0.0491538 -0.380025 -0.326404 127 0 255
0.0621599 -0.1994 0.128241 127 0 255
-0.150327 -0.424834 0.349985 127 0 255
-0.330814 -0.48196 -0.117686 127 0 255
0.0581242 -0.41883 -0.0290872 127 0 255
0.0840398 -0.395654 -0.39325 127 0 255
-0.286855 -0.482673 0.0871084 127 0 255
0.0756245 -0.42245 -0.168611 127 0 255
0.0472538 -0.324446 -0.105452 127 0 255
-0.32387 -0.435305 -0.0662064 127 0 255
-0.243518 -0.486887 -0.262249 127 0 255
0.0845613 -0.314804 0.0206553 127 0 255
-0.0288598 -0.483131 0.216314 127 0 255
0.054464 -0.16225 -0.214489 127 0 255
0.0586562 -0.22996 0.312903 127 0 255
-0.197308 -0.481518 -0.381975 127 0 255
-0.426814 -0.395153 -0.0488606 127 0 255
-0.111294 -0.483933 0.172184 127 0 255
0.0230466 -0.483534 0.302372 127 0 255
-0.164304 -0.482149 0.336749 127 0 255
-0.346601 -0.459861 -0.0111202 127 0 255
0.0300769 -0.465835 -0.426256 127 0 255
0.0864905 -0.133933 -0.0436298 127 0 255
0.0775248 -0.477516 -0.360001 127 0 255
0.0732896 -0.395963 0.371548 127 0 255
0.051719 -0.321404 -0.249888 127 0 255
-0.295327 -0.419954 -0.181609 127 0 255
0.0488221 -0.323009 -0.349754 127 0 255
-0.160262 -0.484796 -0.0704508 127 0 255
0.0595901 -0.0661938 0.243431 127 0 255
0.0788449 -0.124131 0.317295 127 0 255
-0.225327 -0.3123 -0.137535 127 0 255
-0.0033772 -0.465314 0.081931 127 0 255
0.0379432 -0.483477 0.396811 127 0 255
0.0808729 -0.409833 0.0470554 127 0 255
0.0960235 -0.380867 0.158337 127 0 255
-0.0255854 -0.359405 0.349799 127 0 255
-0.045416 -0.481923 -0.38598 127 0 255
-0.425327 -0.34979 0.012456 127 0 255
-0.000272427 -0.290686 0.318088 127 0 255
0.0119882 -0.100291 0.351944 127 0 255
0.0799667 -0.289999 0.259265 127 0 255
-0.370874 -0.373262 -0.178324 127 0 255
0.0345297 -0.209804 0.199047 127 0 255
0.0815701 -0.460376 -0.115744 127 0 255
-0.0130219 -0.483895 -0.260186 127 0 255
-0.253588 -0.42143 -0.246351 127 0 255
0.0655205 -0.30696 -0.445312 127 0 255
-0.0622881 -0.380341 0.287335 127 0 255
0.0782561 -0.482815 -0.206951 127 0 255
-0.149062 -0.485007 0.257497 127 0 255
-0.00486491 -0.249402 0.266056 127 0 255
-0.0137275 -0.200074 0.358899 127 0 255
0.056054 -0.37351 -0.115929 127 0 255
-0.0941993 -0.500009 -0.167957 127 0 255
0.00948307 -0.482834 0.140162 127 0 255
0.0862583 -0.264934 0.0306123 127 0 255
0.080521 -0.429962 0.321982 127 0 255
-0.247375 -0.490142 0.0273134 127 0 255
-0.378572 -0.428622 -0.0971403 127 0 255
0.0957689 -0.314986 0.133102 127 0 255
0.0601762 -0.0628325 0.176586 127 0 255
-0.0143079 -0.486203 -0.0318321 127 0 255
0.0918371 -0.242455 0.105215 127 0 255
-0.0624714 -0.247007 0.330652 127 0 255
0.0584152 -0.125248 -0.396514 127 0 255
0.0767992 -0.483847 0.11749 127 0 255
0.0609894 -0.109293 -0.490151 127 0 255
0.0620553 -0.0527787 -0.010057 127 0 255
0.0721838 -0.231414 -0.412884 127 0 255
-0.332563 -0.362124 -0.0994603 127 0 255
-0.0137631 -0.397847 0.252088 127 0 255
0.0737162 -0.429026 -0.463377 127 0 255
-0.141675 -0.471328 -0.274477 127 0 255
-0.0916239 -0.483944 0.0170739 127 0 255
0.0636695 -0.322437 0.0776119 127 0 255
0.0584226 -0.167481 0.0875344 127 0 255
0.076152 -0.329716 -0.493954 127 0 255
-0.214659 -0.493113 0.139374 127 0 255
0.0702979 -0.229972 -0.245909 127 0 255
0.0577387 -0.0800919 -0.100102 127 0 255
-0.214324 -0.483678 -0.100402 127 0 255
0.0531658 -0.065975 0.358154 127 0 255
0.09017 -0.269948 0.200349 127 0 255
0.0798417 -0.17625 0.308787 127 0 255
0.0453249 -0.352341 0.149104 127 0 255
-0.00782072 -0.482624 -0.111609 127 0 255
-0.233508 -0.385305 -0.204991 127 0 255
0.0868128 -0.400456 -0.0554732 127 0 255
-0.0362006 -0.474301 -0.482826 127 0 255
-0.0467562 -0.461413 -0.214931 127 0 255
0.0491852 -0.329132 -0.397601 127 0 255
-0.0381546 -0.485997 0.274276 127 0 255
0.0858962 -0.120296 0.158993 127 0 255
-0.113975 -0.487946 -0.321992 127 0 255
-0.272916 -0.47581 -0.300829 127 0 255
0.00985472 -0.420391 0.392157 127 0 255
0.071568 -0.114707 -0.286154 127 0 255
-0.211481 -0.485505 0.257699 127 0 255
0.0854434 -0.192641 -0.0313164 127 0 255
0.0570381 -0.439427 0.202117 127 0 255
-0.186843 -0.435534 -0.0505913 127 0 255
0.0762194 -0.275967 -0.199135 127 0 255
0.0645948 -0.285161 -0.049702 127 0 255
-0.0719808 -0.498679 -0.107295 127 0 255
0.0249962 -0.188254 0.241646 127 0 255
0.0609397 -0.141353 -0.0991518 127 0 255
0.0150037 -0.29878 0.235723 127 0 255
-0.0730993 -0.484606 0.348669 127 0 255
0.0760714 -0.292652 -0.114001 127 0 255
0.077584 -0.482228 0.0172455 127 0 255
-0.140641 -0.484524 0.0622534 127 0 255
0.0800903 -0.258626 0.358133 127 0 255
-0.0400663 -0.1365 0.347908 127 0 255
0.0511299 -0.104958 -0.215665 127 0 255
-0.0914255 -0.321658 0.327493 127 0 255
0.0455115 -0.420385 -0.113201 127 0 255
0.0851076 -0.158587 0.0300985 127 0 255
-0.231789 -0.393682 -0.103871 127 0 255
0.0434869 -0.411073 -0.271344 127 0 255
-0.209487 -0.486901 -0.208815 127 0 255
-0.315244 -0.331706 -0.136662 127 0 255
0.0579002 -0.0960746 0.106633 127 0 255
-0.122376 -0.401853 0.326729 127 0 255
0.0793688 -0.127265 0.245158 127 0 255
0.0315293 -0.440308 0.334038 127 0 255
0.0531248 -0.218548 -0.366339 127 0 255
-0.264594 -0.483018 0.204508 127 0 255
-0.236279 -0.493648 0.0717254 127 0 255
-0.145678 -0.484705 0.200526 127 0 255
-0.340298 -0.447883 -0.173358 127 0 255
0.0778045 -0.193806 -0.141548 127 0 255
0.0785757 -0.364884 0.285424 127 0 255
0.0566631 -0.197863 -0.292249 127 0 255
0.0327139 -0.312142 0.353089 127 0 255
-0.334155 -0.353882 -0.205172 127 0 255
0.0122745 -0.479717 -0.485373 127 0 255
0.04809 -0.355922 -0.0651095 127 0 255
0.0165218 -0.47981 -0.297901 127 0 255
0.0450051 -0.355971 0.0476268 127 0 255
-0.439033 -0.358334 -0.0678677 127 0 255
0.0729969 -0.106621 -0.352221 127 0 255
-0.0157472 -0.483859 0.387617 127 0 255
0.0835737 -0.389015 -0.349712 127 0 255
-0.00277861 -0.446221 -0.16296 127 0 255
-0.162168 -0.481636 -0.374273 127 0 255
-0.0253273 -0.137318 0.287474 127 0 255
0.0717719 -0.421918 -0.511316 127 0 255
-0.12044 -0.484211 0.115002 127 0 255
0.0511834 -0.480274 -0.0786779 127 0 255
-0.0988795 -0.498738 -0.267497 127 0 255
0.0885848 -0.332871 0.219104 127 0 255
-0.147268 -0.470245 -0.199702 127 0 255
0.0778651 -0.48254 -0.412976 127 0 255
0.0653988 -0.384782 -0.435261 127 0 255
0.0829907 -0.451265 0.282417 127 0 255
0.0738161 -0.214333 -0.191736 127 0 255
-0.148461 -0.48431 0.00447744 127 0 255
0.0367111 -0.497617 0.0712147 127 0 255
-0.314536 -0.437498 -0.0261894 127 0 255
0.0783292 -0.417251 -0.229347 127 0 255
-0.0445574 -0.314221 0.290288 127 0 255
-0.319494 -0.42568 -0.24152 127 0 255
-0.184993 -0.467605 -0.27131 127 0 255
0.0765229 -0.446447 -0.324219 127 0 255
0.0436752 -0.25484 0.0923709 127 0 255
0.00539115 -0.153432 0.355367 127 0 255
-0.0998819 -0.481473 -0.389903 127 0 255
0.0848768 -0.422314 0.0127648 127 0 255
-0.0406764 -0.481509 0.0596703 127 0 255
0.0204008 -0.391422 0.332027 127 0 255
0.0492579 -0.233844 -0.443283 127 0 255
0.0808441 -0.226119 0.252771 127 0 255
0.0825732 -0.319343 0.347749 127 0 255
0.0362143 -0.434897 -0.384795 127 0 255
0.0866184 -0.227463 -0.00500024 127 0 255
0.0461046 -0.400204 0.150522 127 0 255
-0.270142 -0.376687 -0.138368 127 0 255
-0.0808163 -0.466849 -0.0552438 127 0 255
-0.24649 -0.490315 -0.0502635 127 0 255
-0.270675 -0.483003 0.1527 127 0 255
-0.106311 -0.484669 0.289891 127 0 255
0.030824 -0.48359 0.232351 127 0 255
-0.303026 -0.481981 -0.15095 127 0 255
0.0641654 -0.0672902 -0.41423 127 0 255
-0.109605 -0.381905 0.284974 127 0 255
0.0944012 -0.374841 0.114576 127 0 255
-0.384416 -0.388592 -0.0653835 127 0 255
-0.048724 -0.390864 0.366388 127 0 255
0.0490594 -0.0720573 -0.293133 127 0 255
-0.306986 -0.4857 0.0204702 127 0 255
-0.0448304 -0.314976 0.359765 127 0 255
0.0685071 -0.174751 -0.393765 127 0 255
0.0876435 -0.207882 0.0740362 127 0 255
-0.278693 -0.380015 -0.0510367 127 0 255
0.027448 -0.44445 -0.0176376 127 0 255
0.0910334 -0.183693 0.158289 127 0 255
0.0232003 -0.247804 0.34225 127 0 255
0.0679181 -0.277889 -0.379581 127 0 255
-0.00492448 -0.484911 -0.372394 127 0 255
-0.409151 -0.392058 -0.130226 127 0 255
0.0816595 -0.483345 0.200775 127 0 255
0.0946712 -0.395365 0.198326 127 0 255
0.00489501 -0.210153 0.270996 127 0 255
-0.0576411 -0.485439 0.12382 127 0 255
-0.296265 -0.481222 -0.225717 127 0 255
0.0820369 -0.334788 -0.194462 127 0 255
0.0563173 -0.321732 -0.31094 127 0 255
0.0290451 -0.426045 0.222397 127 0 255
-0.225327 -0.287296 -0.175037 127 0 255
0.0511521 -0.258456 0.147476 127 0 255
-0.199893 -0.483269 0.172199 127 0 255
0.0638118 -0.180088 -0.488229 127 0 255
0.0799847 -0.458127 -0.156575 127 0 255
0.0720774 -0.0596708 -0.226429 127 0 255
-0.100164 -0.435047 0.318687 127 0 255
0.0776291 -0.36312 -0.501365 127 0 255
-0.0872159 -0.483632 0.208756 127 0 255
0.0601186 -0.481389 0.361351 127 0 255
-0.372698 -0.330142 -0.14271 127 0 255
-0.350327 -0.312302 0.012464 127 0 255
0.0556353 -0.108454 -0.157726 127 0 255
0.0267969 -0.483163 -0.230371 127 0 255
0.05725 -0.138767 -0.00478979 127 0 255
0.0780324 -0.285281 0.305703 127 0 255
0.0852097 -0.370283 0.0575061 127 0 255
-0.297015 -0.482521 -0.0808037 127 0 255
0.0812519 -0.0969282 0.213986 127 0 255
0.0527659 -0.359497 -0.260197 127 0 255
-0.173026 -0.483818 0.286253 127 0 255
0.0602914 -0.204093 -0.0637185 127 0 255
0.0758809 -0.0950647 0.352609 127 0 255
-0.0619895 -0.478787 -0.27849 127 0 255
0.0432259 -0.401301 0.276208 127 0 255
-0.0535263 -0.482987 -0.173447 127 0 255
-0.206428 -0.483096 0.0262577 127 0 255
0.046425 -0.320065 0.202524 127 0 255
-0.156175 -0.495143 0.125934 127 0 255
0.0602362 -0.0655773 0.0798124 127 0 255
-0.0112473 -0.483829 0.177236 127 0 255
-0.018905 -0.484066 0.314934 127 0 255
-0.367201 -0.447449 -0.0676233 127 0 255
-0.00654461 -0.486067 0.00839182 127 0 255
0.014412 -0.483344 -0.448705 127 0 255
0.0774164 -0.249427 -0.151517 127 0 255
0.0708499 -0.482709 -0.258634 127 0 255
-0.317349 -0.431606 -0.128877 127 0 255
0.0732404 -0.176994 -0.265787 127 0 255
0.0451837 -0.417135 -0.162089 127 0 255
0.0614152 -0.147649 0.171223 127 0 255
-0.174245 -0.481218 -0.335153 127 0 255
-0.261592 -0.357526 -0.228226 127 0 255
-0.0452784 -0.22781 0.346577 127 0 255
-0.199887 -0.437368 -0.237956 127 0 255
0.0768405 -0.482562 -0.486079 127 0 255
0.0789949 -0.164791 0.251426 127 0 255
0.0843151 -0.105995 -0.060935 127 0 255
0.0519314 -0.355083 0.38189 127 0 255
-0.2179 -0.486411 -0.141381 127 0 255
-0.231762 -0.483049 0.281895 127 0 255
0.0593529 -0.0640291 -0.354854 127 0 255
0.0611007 -0.115623 -0.443449 127 0 255
-0.0129595 -0.343539 0.309979 127 0 255
0.085484 -0.121524 0.0703261 127 0 255
-0.121458 -0.492601 -0.0742044 127 0 255
-0.333494 -0.391044 -0.207117 127 0 255
0.0585071 -0.305779 -0.153241 127 0 255
0.0853228 -0.278243 0.0749714 127 0 255
0.061527 -0.0623356 0.146119 127 0 255
-0.0185413 -0.331258 0.383646 127 0 255
0.0496154 -0.362417 -0.368501 127 0 255
-0.358457 -0.357362 -0.0366612 127 0 255
0.0729494 -0.482938 0.281469 127 0 255
0.061948 -0.0541176 0.0114657 127 0 255
0.0503487 -0.273544 -0.241301 127 0 255
0.0832595 -0.341281 0.00865378 127 0 255
0.081251 -0.483755 0.0634062 127 0 255
-0.251265 -0.396773 -0.165487 127 0 255
-0.0753274 -0.124831 0.299983 127 0 255
-0.0364651 -0.470171 0.239699 127 0 255
0.0731903 -0.147135 -0.221996 127 0 255
0.095948 -0.449292 0.171055 127 0 255
-0.192872 -0.486672 -0.0294106 127 0 255
-0.0161533 -0.285333 0.268197 127 0 255
0.0633152 -0.0602739 0.290845 127 0 255
0.0498599 -0.348156 -0.466603 127 0 255
0.0824955 -0.299112 -0.336217 127 0 255
0.042857 -0.492476 -0.00154369 127 0 255
0.0542823 -0.152509 -0.349919 127 0 255
0.0774532 -0.345189 -0.0514864 127 0 255
0.0540839 -0.254464 -0.488809 127 0 255
-0.175816 -0.456993 -0.160034 127 0 255
-0.380779 -0.400655 -0.166604 127 0 255
0.0952909 -0.409784 0.0889511 127 0 255
-0.0423859 -0.481555 -0.431811 127 0 255
0.0752911 -0.367679 0.338255 127 0 255
0.081538 -0.164111 -0.14322 127 0 255
-0.243607 -0.492021 -0.188839 127 0 255
0.0272912 -0.163062 0.33045 127 0 255
-0.357827 -0.328386 -0.0852852 127 0 255
-0.0911862 -0.487924 -0.341568 127 0 255
0.0317192 -0.48331 -0.187821 127 0 255
0.0825059 -0.276329 -0.0337581 127 0 255
0.0429575 -0.197065 0.166442 127 0 255
-0.179399 -0.482183 -0.402185 127 0 255
0.0797619 -0.416562 -0.430749 127 0 255
0.0479209 -0.446763 0.132918 127 0 255
-0.427379 -0.358082 -0.0375802 127 0 255
0.0588899 -0.482816 -0.307957 127 0 255
0.0589883 -0.201927 0.042816 127 0 255
0.0862672 -0.398228 -0.202978 127 0 255
0.0400251 -0.336579 0.261487 127 0 255
0.0942832 -0.265576 0.142105 127 0 255
0.0819403 -0.478517 -0.0774842 127 0 255
0.0264177 -0.258593 0.214308 127 0 255
0.057487 -0.122424 0.289959 127 0 255
-0.222478 -0.422888 -0.0817175 127 0 255
0.038902 -0.452261 -0.493421 127 0 255
-0.271026 -0.348083 -0.126755 127 0 255
0.0381363 -0.497915 0.102181 127 0 255
0.0339801 -0.254992 0.374691 127 0 255
0.0492126 -0.408309 -0.0642875 127 0 255
-0.0918876 -0.484071 0.0780649 127 0 255
0.0565407 -0.0717884 -0.182923 127 0 255
-0.0238661 -0.43722 0.354293 127 0 255
-0.074523 -0.422577 0.284057 127 0 255
-0.0345652 -0.471696 -0.0747338 127 0 255
-0.113352 -0.486085 -0.139537 127 0 255
0.0688871 -0.251303 -0.295491 127 0 255
0.0834086 -0.236539 0.331973 127 0 255
0.0855333 -0.480608 0.328189 127 0 255
0.0579039 -0.0674912 -0.0681798 127 0 255
-0.0653822 -0.494675 -0.242207 127 0 255
0.0668503 -0.285256 -0.446637 127 0 255
0.0326702 -0.483407 -0.375239 127 0 255
0.0897854 -0.166451 0.113591 127 0 255
0.0700467 -0.0938894 -0.485989 127 0 255
-0.429138 -0.383564 -0.0980395 127 0 255
-0.282226 -0.48273 0.102992 127 0 255
-0.0250541 -0.484228 -0.307844 127 0 255
-0.0632951 -0.483774 0.175255 127 0 255
-0.24799 -0.478365 -0.338701 127 0 255
0.0894251 -0.444189 0.23604 127 0 255
0.097064 -0.348374 0.163973 127 0 255
-0.0107453 -0.235516 0.303694 127 0 255
-0.0378273 -0.0748248 0.299979 127 0 255
0.055632 -0.44665 0.0531706 127 0 255
-0.0644163 -0.482117 0.0174678 127 0 255
0.0427735 -0.405358 -0.351394 127 0 255
-0.289473 -0.342085 -0.181452 127 0 255
-0.22123 -0.48307 0.106494 127 0 255
0.0506659 -0.35363 -0.171064 127 0 255
-0.235456 -0.48719 -0.247033 127 0 255
0.0841512 -0.0983094 0.0230008 127 0 255
-0.100327 -0.487337 0.387487 127 0 255
-0.255715 -0.469914 -0.114645 127 0 255
-0.274854 -0.482701 -0.021395 127 0 255
0.0474357 -0.483273 -0.129873 127 0 255
-0.160609 -0.489973 -0.100095 127 0 255
-0.356004 -0.331495 -0.177665 127 0 255
0.0308486 -0.400303 0.388213 127 0 255
0.0605639 -0.183793 -0.447168 127 0 255
-0.0584836 -0.471178 -0.127435 127 0 255
0.0481672 -0.0862067 -0.261189 127 0 255
0.0893673 -0.4109 -0.00890857 127 0 255
-0.0337306 -0.27039 0.359269 127 0 255
-0.139204 -0.471935 0.306651 127 0 255
0.0765321 -0.154193 0.359045 127 0 255
-0.332235 -0.382576 -0.118363 127 0 255
0.0833508 -0.276159 0.238615 127 0 255
-0.00159492 -0.4798 0.398253 127 0 255
0.0744696 -0.227389 -0.338778 127 0 255
-0.129674 -0.486779 0.232581 127 0 255
0.078431 -0.164834 -0.0703641 127 0 255
-0.12453 -0.486682 -0.21896 127 0 255
0.0389006 -0.440535 -0.303906 127 0 255
0.0487145 -0.374823 0.232401 127 0 255
0.00226734 -0.482725 0.268423 127 0 255
-0.415965 -0.414578 -0.0558147 127 0 255
-0.117217 -0.364788 0.323061 127 0 255
-0.179121 -0.495482 0.0576803 127 0 255
0.0825953 -0.310381 -0.112687 127 0 255
0.077449 -0.239778 -0.0801653 127 0 255
0.0127061 -0.481034 -0.056808 127 0 255
-0.0753829 -0.48425 0.269133 127 0 255
-0.288781 -0.461421 -0.206936 127 0 255
0.078343 -0.460206 -0.211194 127 0 255
-0.0154395 -0.482941 0.119354 127 0 255
0.0742599 -0.306778 -0.259923 127 0 255
-0.0277461 -0.469459 -0.368894 127 0 255
0.0865052 -0.204262 0.20714 127 0 255
0.0788582 -0.333981 -0.394688 127 0 255
-0.115999 -0.483121 -0.01561 127 0 255
0.0309146 -0.483989 0.172105 127 0 255
-0.160352 -0.496684 -0.167783 127 0 255
0.044358 -0.295138 0.122909 127 0 255
0.0549052 -0.145201 -0.302666 127 0 255
-0.237668 -0.428634 -0.249208 127 0 255
-0.0659155 -0.353359 0.290799 127 0 255
0.0757549 -0.383031 -0.140681 127 0 255
0.0944118 -0.457204 0.00970008 127 0 255
0.0753674 -0.0687099 0.249412 127 0 255
-0.243722 -0.344628 -0.175998 127 0 255
0.0757992 -0.44076 0.352964 127 0 255
0.0670815 -0.0624721 -0.450809 127 0 255
0.0786637 -0.214755 0.281467 127 0 255
0.0437287 -0.407664 -0.432283 127 0 255
0.0560993 -0.207128 -0.23523 127 0 255
-0.285027 -0.482608 0.0522539 127 0 255
0.0737076 -0.358931 -0.317436 127 0 255
0.0270957 -0.267183 0.258871 127 0 255
-0.153028 -0.484158 0.174042 127 0 255
-0.0464244 -0.188495 0.346013 127 0 255
0.036967 -0.442403 -0.0945879 127 0 255
0.0450211 -0.212367 0.3691 127 0 255
-0.288881 -0.36772 -0.0866485 127 0 255
0.0471023 -0.384446 0.185701 127 0 255
-0.18611 -0.446374 -0.124623 127 0 255
-0.277316 -0.478475 -0.281217 127 0 255
0.01646 -0.0972055 0.353678 127 0 255
-0.250327 -0.487323 0.324977 127 0 255
0.0596664 -0.228646 -0.0259727 127 0 255
0.0883454 -0.339996 0.0528761 127 0 255
-0.173338 -0.485285 -0.262296 127 0 255
0.0600526 -0.149364 0.226056 127 0 255
-0.0952552 -0.481328 -0.408915 127 0 255
0.0958646 -0.304116 0.172903 127 0 255
-0.0149994 -0.486161 0.0434846 127 0 255
-0.330502 -0.472596 -0.178038 127 0 255
-0.37129 -0.449142 -0.0359887 127 0 255
-0.275766 -0.442053 -0.0895975 127 0 255
0.0772958 -0.327128 0.296385 127 0 255
0.0575255 -0.136962 0.0444034 127 0 255
-0.0784959 -0.443537 0.352875 127 0 255
0.0579218 -0.37272 0.10107 127 0 255
-0.367331 -0.434755 -0.131321 127 0 255
-0.290843 -0.384536 -0.238655 127 0 255
-0.249246 -0.483023 0.246704 127 0 255
-0.350327 -0.3998 0.0124621 127 0 255
0.0181723 -0.318309 0.379698 127 0 255
0.0497168 -0.380455 -0.491635 127 0 255
0.0750905 -0.0953021 -0.400391 127 0 255
0.0835271 -0.346865 -0.234357 127 0 255
0.0324325 -0.422364 0.277067 127 0 255
0.0601766 -0.11656 0.129732 127 0 255
0.0882084 -0.43781 -0.0497664 127 0 255
0.0585184 -0.205041 -0.165976 127 0 255
-0.198039 -0.447095 -0.194699 127 0 255
0.0254511 -0.484095 0.35273 127 0 255
0.0691317 -0.0572061 -0.100375 127 0 255
0.0727025 -0.482814 -0.449853 127 0 255
-0.102421 -0.483883 0.142235 127 0 255
0.0572161 -0.0842947 -0.0255001 127 0 255
-0.18765 -0.486861 0.228109 127 0 255
0.085904 -0.268269 0.0181156 127 0 255
0.0495437 -0.304902 -0.205871 127 0 255
0.0615812 -0.220986 -0.490541 127 0 255
-0.0125401 -0.473952 -0.243564 127 0 255
0.0612052 -0.0597376 0.34848 127 0 255
-0.217992 -0.478177 -0.311255 127 0 255
0.0466788 -0.431868 -0.26239 127 0 255
-0.0365637 -0.400277 0.275735 127 0 255
0.0576113 -0.0806106 0.204262 127 0 255
0.0597405 -0.367128 -0.0122459 127 0 255
0.077438 -0.317548 -0.494298 127 0 255
0.0123837 -0.317157 0.315555 127 0 255
0.0858486 -0.192673 0.0311751 127 0 255
-0.0821531 -0.31114 0.330604 127 0 255
-0.129634 -0.487933 -0.354674 127 0 255
0.0897809 -0.425511 0.132544 127 0 255
0.0728195 -0.067648 -0.307187 127 0 255
-0.40763 -0.360235 -0.143092 127 0 255
-0.00945322 -0.483759 -0.126757 127 0 255
0.0524104 -0.28414 -0.304458 127 0 255
0.00196557 -0.383156 0.344563 127 0 255
0.0718461 -0.48263 -0.347639 127 0 255
0.0720351 -0.250289 -0.375623 127 0 255
0.0751235 -0.293542 0.369075 127 0 255
0.0579947 -0.152415 -0.0300272 127 0 255
0.0417639 -0.426673 -0.190592 127 0 255
-0.183509 -0.436525 -0.0551409 127 0 255
-0.475327 -0.337274 -0.0875543 127 0 255
0.0463664 -0.255458 -0.138926 127 0 255
-0.0568069 -0.483081 0.366524 127 0 255
0.0168756 -0.179889 0.365816 127 0 255
-0.0525044 -0.486082 -0.206031 127 0 255
-0.334921 -0.334504 -0.0613008 127 0 255
0.0816774 -0.179032 0.323908 127 0 255
-0.217396 -0.471959 0.0651116 127 0 255
0.0828753 -0.343675 -0.0909942 127 0 255
-0.120297 -0.472607 -0.282638 127 0 255
0.0911782 -0.211298 0.110111 127 0 255
0.000180114 -0.323851 0.251065 127 0 255
-0.213775 -0.483878 -0.0787515 127 0 255
0.0937198 -0.332972 0.113209 127 0 255
0.0365932 -0.232079 0.184042 127 0 255
-0.136065 -0.484626 0.0368522 127 0 255
0.0852824 -0.473779 0.111688 127 0 255
0.0612773 -0.299102 0.0558199 127 0 255
-0.0509948 -0.36408 0.361159 127 0 255
0.0715298 -0.194714 -0.382127 127 0 255
-0.346995 -0.417645 -0.0856232 127 0 255
0.0633383 -0.16079 -0.491317 127 0 255
-0.275554 -0.486146 -0.147205 127 0 255
0.0532732 -0.480228 0.39241 127 0 255
0.0746434 -0.401539 -0.30436 127 0 255
0.060094 -0.0673895 -0.14483 127 0 255
0.0591983 -0.30244 -0.0306344 127 0 255
0.0530177 -0.278152 0.312923 127 0 255
-0.054094 -0.498199 -0.0708338 127 0 255
0.00293125 -0.469637 -0.439748 127 0 255
-0.378292 -0.331358 -0.109735 127 0 255
0.0472071 -0.331966 0.164485 127 0 255
0.0721831 -0.453147 -0.505744 127 0 255
-0.00722082 -0.451799 -0.0154023 127 0 255
-0.0563638 -0.475398 0.093601 127 0 255
0.0914325 -0.404371 0.221553 127 0 255
-0.043361 -0.149915 0.347262 127 0 255
-0.32627 -0.425134 -0.158305 127 0 255
0.0321033 -0.483948 0.280033 127 0 255
0.0340416 -0.367033 0.299919 127 0 255
0.0570034 -0.145048 -0.16529 127 0 255
0.0726489 -0.399991 0.37307 127 0 255
-0.224024 -0.485346 0.189609 127 0 255
0.0928904 -0.241307 0.175265 127 0 255
0.0434322 -0.20665 0.258267 127 0 255
0.0607865 -0.406118 0.0423653 127 0 255
0.0597772 -0.133049 -0.0932451 127 0 255
0.0799425 -0.0768205 0.138685 127 0 255
-0.387827 -0.337297 0.0124604 127 0 255
-0.0521325 -0.478298 -0.464875 127 0 255
-0.237266 -0.469408 0.0165383 127 0 255
0.0559916 -0.189944 -0.322686 127 0 255
-0.23008 -0.397758 -0.221787 127 0 255
0.0492269 -0.371671 -0.41761 127 0 255
-0.104639 -0.400186 0.2786 127 0 255
0.0752394 -0.204177 -0.115645 127 0 255
-0.190537 -0.485027 0.11488 127 0 255
0.0754346 -0.138646 -0.390966 127 0 255
-0.0604028 -0.486637 0.307365 127 0 255
0.0830677 -0.480357 -0.0414096 127 0 255
0.0742313 -0.389972 -0.0888158 127 0 255
-0.324576 -0.445771 -0.219743 127 0 255
0.0687546 -0.129677 -0.244698 127 0 255
-0.320114 -0.48217 -0.106515 127 0 255
0.00393144 -0.473965 0.212247 127 0 255
0.0245461 -0.453779 -0.345237 127 0 255
0.0121728 -0.0748135 0.299971 127 0 255
0.085014 -0.139437 0.181087 127 0 255
-0.11868 -0.48504 0.332795 127 0 255
0.085268 -0.355241 0.233402 127 0 255
-0.0178926 -0.429999 0.394058 127 0 255
0.0501772 -0.31218 -0.408094 127 0 255
0.0716915 -0.227557 -0.444624 127 0 255
0.0697464 -0.240376 -0.211659 127 0 255
-0.308067 -0.473464 0.0288641 127 0 255
-0.0852038 -0.462811 -0.0749379 127 0 255
-0.288621 -0.45315 -0.0592336 127 0 255
-0.0520044 -0.487641 -0.33541 127 0 255
-0.336823 -0.327057 -0.143435 127 0 255
-0.163717 -0.484041 -0.0415608 127 0 255
-0.166527 -0.497069 -0.214409 127 0 255
0.0721642 -0.118614 -0.337619 127 0 255
0.0787266 -0.10512 0.319285 127 0 255
-0.0320101 -0.278348 0.295301 127 0 255
0.0331967 -0.452494 -0.406717 127 0 255
0.00477461 -0.446549 -0.0858613 127 0 255
0.061525 -0.0729433 0.0558223 127 0 255
0.084684 -0.380052 -0.23882 127 0 255
0.0586454 -0.175512 0.0943849 127 0 255
-0.321983 -0.343511 -0.204501 127 0 255
-0.101541 -0.474394 -0.193845 127 0 255
0.0715117 -0.480523 0.233036 127 0 255
0.0766683 -0.427664 -0.348794 127 0 255
-0.0016517 -0.48357 -0.174652 127 0 255
0.0351309 -0.174437 0.222156 127 0 255
0.0791628 -0.483116 -0.116508 127 0 255
0.079317 -0.399815 0.297777 127 0 255
0.0115721 -0.214821 0.338919 127 0 255
-0.0463197 -0.486139 -0.0145707 127 0 255
-0.308824 -0.365425 -0.0420849 127 0 255
0.0329779 -0.444081 0.314956 127 0 255
-0.0753274 -0.199829 0.299981 127 0 255
0.0290634 -0.442218 0.154445 127 0 255
-0.177206 -0.485532 0.297967 127 0 255
0.0717524 -0.0596716 -0.224894 127 0 255
0.0108049 -0.477871 -0.289139 127 0 255
0.0741593 -0.482647 -0.399417 127 0 255
0.0597539 -0.252164 0.0699343 127 0 255
0.0528394 -0.349402 -0.280722 127 0 255
0.0452238 -0.365355 0.0639507 127 0 255
0.0751599 -0.289062 -0.0713786 127 0 255
0.0883191 -0.45201 0.0748046 127 0 255
-0.0803487 -0.398111 0.340896 127 0 255
-0.00697251 -0.270429 0.368438 127 0 255
-0.181975 -0.475367 0.00471231 127 0 255
-0.131217 -0.484509 0.0883387 127 0 255
0.0964977 -0.402897 0.157838 127 0 255
0.0397457 -0.443269 -0.465216 127 0 255
-0.149222 -0.481699 -0.307597 127 0 255
0.0495834 -0.286964 -0.364839 127 0 255
-0.0459079 -0.483581 0.202078 127 0 255
-0.259832 -0.482954 0.14015 127 0 255
-0.397277 -0.358317 -0.0347472 127 0 255
0.0885239 -0.30827 0.214574 127 0 255
0.0388603 -0.427017 0.391466 127 0 255
-0.225327 -0.299794 -0.200039 127 0 255
0.0542625 -0.375515 -0.179212 127 0 255
-0.27196 -0.430873 -0.243619 127 0 255
0.07598 -0.258777 0.287035 127 0 255
0.0847505 -0.36364 -0.369044 127 0 255
0.0738124 -0.190317 -0.213335 127 0 255
0.0693654 -0.482173 0.164927 127 0 255
0.058027 -0.294052 -0.485738 127 0 255
0.0224997 -0.233747 0.230608 127 0 255
0.0780617 -0.113196 0.271336 127 0 255
0.0557335 -0.0665949 -0.342486 127 0 255
-0.0692681 -0.277511 0.327533 127 0 255
0.0587583 -0.482995 -0.170551 127 0 255
0.0507147 -0.45388 -0.0244126 127 0 255
0.0712726 -0.482718 -0.252783 127 0 255
-0.104859 -0.487743 0.213012 127 0 255
-0.0119443 -0.385865 0.388654 127 0 255
0.0568162 -0.221869 -0.272785 127 0 255
-0.23908 -0.392053 -0.163189 127 0 255
-0.0171891 -0.48356 0.34294 127 0 255
-0.0955666 -0.483968 0.0377007 127 0 255
0.0785303 -0.313668 -0.152785 127 0 255
-0.142173 -0.486341 -0.130328 127 0 255
0.0833727 -0.153887 -0.0168598 127 0 255
0.0152824 -0.48095 0.0513487 127 0 255
-0.0702318 -0.481225 -0.430182 127 0 255
-0.358654 -0.425325 -0.182326 127 0 255
-0.0392515 -0.341556 0.285664 127 0 255
0.0729349 -0.344935 0.341645 127 0 255
0.0513261 -0.369032 -0.04153 127 0 255
0.0868262 -0.128903 0.124768 127 0 255
0.0451713 -0.280887 0.172609 127 0 255
-0.216573 -0.486286 -0.177862 127 0 255
0.067869 -0.058669 -0.0468883 127 0 255
-0.302439 -0.412732 -0.106751 127 0 255
0.0702931 -0.434467 -0.135369 127 0 255
0.0697226 -0.119536 0.361524 127 0 255
-0.211295 -0.487417 -0.262166 127 0 255
-0.403765 -0.405219 -0.0930115 127 0 255
0.0602623 -0.253451 -0.00164005 127 0 255
0.0673603 -0.118835 -0.183837 127 0 255
0.0603685 -0.113065 -0.490491 127 0 255
0.0574577 -0.227758 0.137375 127 0 255
-0.304653 -0.482373 -0.0281688 127 0 255
0.0908988 -0.298983 0.0858809 127 0 255
-0.0634884 -0.469329 -0.137549 127 0 255
-0.0772687 -0.487804 -0.365629 127 0 255
-0.0221881 -0.483554 0.153618 127 0 255
0.046908 -0.325734 -0.0947545 127 0 255
0.0840171 -0.322018 0.000430124 127 0 255
0.0547132 -0.305761 0.253517 127 0 255
0.0701637 -0.264181 -0.437097 127 0 255
0.0303223 -0.443757 0.233789 127 0 255
-0.239587 -0.487113 -0.0298502 127 0 255
0.0787674 -0.17289 0.280923 127 0 255
0.0753568 -0.0749726 -0.395998 127 0 255
-0.00431582 -0.133132 0.350675 127 0 255
-0.00154253 -0.219061 0.277081 127 0 255
0.0717718 -0.264148 -0.248254 127 0 255
0.0721058 -0.100388 -0.100736 127 0 255
-0.266011 -0.487034 -0.221571 127 0 255
-0.048248 -0.475867 -0.251968 127 0 255
0.0777882 -0.213082 0.350167 127 0 255
0.0458346 -0.324895 0.379474 127 0 255
0.0580123 -0.119478 0.080745 127 0 255
0.0176064 -0.467722 -0.221853 127 0 255
0.0919113 -0.438447 0.203426 127 0 255
-0.289312 -0.339801 -0.13718 127 0 255
0.0563573 -0.106059 0.00976796 127 0 255
-0.105211 -0.498568 -0.274792 127 0 255
-0.162827 -0.487333 0.362484 127 0 255
-0.426735 -0.358162 -0.118024 127 0 255
-0.267147 -0.356117 -0.230875 127 0 255
0.048362 -0.450878 0.105048 127 0 255
0.077061 -0.447394 -0.439542 127 0 255
0.0335214 -0.483693 -0.0936938 127 0 255
0.0565474 -0.10446 0.215816 127 0 255
-0.121943 -0.484732 0.265779 127 0 255
-0.366111 -0.376895 -0.182722 127 0 255
-0.177025 -0.488254 0.180837 127 0 255
-0.119038 -0.470187 -0.0733049 127 0 255
0.0815996 -0.444164 0.299116 127 0 255
-0.158995 -0.482129 -0.386229 127 0 255
0.0750317 -0.427452 -0.293336 127 0 255
0.0630999 -0.171321 -0.109208 127 0 255
0.0525368 -0.411282 -0.494187 127 0 255
0.0605878 -0.155262 -0.441561 127 0 255
0.0618997 -0.063857 0.0972576 127 0 255
0.021399 -0.472867 -0.490932 127 0 255
0.0808155 -0.312547 -0.357627 127 0 255
-0.0154038 -0.384866 0.295316 127 0 255
0.0706735 -0.133014 -0.289237 127 0 255
0.0832025 -0.216491 -0.0471017 127 0 255
-0.0210402 -0.482123 -0.394146 127 0 255
0.0521484 -0.339941 -0.450611 127 0 255
0.0925674 -0.20091 0.155008 127 0 255
0.0862873 -0.423587 -0.0712382 127 0 255
-0.0484576 -0.328077 0.359094 127 0 255
-0.0849109 -0.481166 -0.0103839 127 0 255
-0.255372 -0.414468 -0.199821 127 0 255
0.0738889 -0.427078 -0.386415 127 0 255
0.0520386 -0.35132 -0.229869 127 0 255
0.0539967 -0.224047 -0.396634 127 0 255
-0.0859896 -0.482065 0.138766 127 0 255
0.0583957 -0.172984 0.0510082 127 0 255
-0.259945 -0.486225 -0.289627 127 0 255
0.0600389 -0.0626689 0.171468 127 0 255
0.0955349 -0.301442 0.129717 127 0 255
-0.36685 -0.451785 -0.0356173 127 0 255
-0.0103895 -0.454234 -0.157287 127 0 255
0.061657 -0.063598 0.257261 127 0 255
0.0744834 -0.269631 -0.107729 127 0 255
0.0499596 -0.424694 0.0285006 127 0 255
-0.248948 -0.485987 -0.100953 127 0 255
-0.0579731 -0.434357 0.366738 127 0 255
-0.227689 -0.483545 0.283293 127 0 255
-0.321894 -0.404815 -0.218717 127 0 255
0.0488563 -0.0907051 -0.240759 127 0 255
-0.251024 -0.487464 0.0864844 127 0 255
-0.354449 -0.375216 -0.044018 127 0 255
0.0543569 -0.247765 -0.335816 127 0 255
0.0488944 -0.17274 0.184584 127 0 255
-0.0209957 -0.483937 0.267507 127 0 255
0.0617845 -0.0580974 0.331008 127 0 255
0.0795851 -0.359819 0.271432 127 0 255
0.0882198 -0.120869 -0.0651995 127 0 255
0.0920648 -0.46704 0.0256917 127 0 255
-0.0548971 -0.233308 0.339654 127 0 255
0.0548391 -0.366844 -0.117527 127 0 255
0.0843515 -0.237256 0.228661 127 0 255
0.0769744 -0.475863 -0.321998 127 0 255
-0.0151913 -0.485395 0.0885333 127 0 255
0.0731546 -0.168762 -0.347114 127 0 255
0.0506748 -0.332293 -0.32447 127 0 255
0.0541784 -0.162778 -0.248913 127 0 255
0.0751867 -0.425819 -0.227069 127 0 255
-0.101555 -0.352538 0.326976 127 0 255
-0.0813817 -0.426377 0.281589 127 0 255
-0.237087 -0.485206 0.21499 127 0 255
-0.396179 -0.356325 -0.0846225 127 0 255
-0.315051 -0.481892 -0.1483 127 0 255
0.0771079 -0.407436 0.339368 127 0 255
0.0961283 -0.342722 0.192262 127 0 255
0.0164475 -0.279348 0.337351 127 0 255
-0.190039 -0.448627 -0.225113 127 0 255
-0.294277 -0.348735 -0.0917859 127 0 255
0.0114257 -0.487532 -0.352228 127 0 255
0.0866611 -0.23287 0.0131021 127 0 255
-0.00612613 -0.436915 0.350121 127 0 255
-0.000327213 -0.137312 0.28747 127 0 255
