ply
format ascii 1.0
comment Created by Open3D
element vertex 1171
property double x
property double y
property double z
property uchar red
property uchar green
property uchar blue
end_header
0.220695 -0.221989 -0.234663 68 187 255
-0.210695 -0.0190312 0.155458 120 135 255
-0.205515 -0.239942 -0.1206 63 192 255
-0.119248 -0.485617 -0.222567 0 255 255
0.333277 -0.163566 -0.235692 83 172 255
0.135426 -0.361375 0.436528 32 223 255
0.275063 0.0750776 0.0495462 144 111 255
0.314154 -0.411197 -0.217394 19 236 255
0.18781 0.0011215 -0.22829 125 130 255
-0.230613 -0.47617 0.0633861 3 252 255
-0.0124374 0.0750776 -0.225454 144 111 255
-0.232299 -0.249585 -0.0178822 60 194 255
-0.16244 -0.231411 0.184551 65 190 255
-0.231174 -0.157664 0.0542689 84 171 255
-0.154186 -0.272258 -0.221053 55 200 255
0.125063 -0.0374224 0.0370462 115 140 255
-0.185314 0.0725644 0.0942011 143 112 255
-0.162437 -0.0499224 -0.0504539 112 143 255
-0.152522 -0.385918 0.0142225 26 229 255
-0.224937 -0.474922 -0.225454 3 252 255
-0.192398 -0.487398 -0.0432371 0 255 255
-0.146204 -0.223209 0.0892938 67 188 255
-0.0216431 -0.405627 0.319005 21 234 255
0.400063 -0.362422 -0.225454 32 223 255
-0.127369 0.0524338 -0.233094 138 117 255
-0.0203504 -0.409896 -0.23819 20 235 255
0.412563 -0.237422 -0.225454 64 191 255
-0.227649 -0.36949 0.096683 30 225 255
0.0896297 -0.485395 -0.197983 0 255 255
-0.20084 -0.348141 -0.0847062 35 220 255
-0.224937 -0.0124224 0.312046 121 134 255
-0.155138 -0.0325746 0.0725297 116 139 255
-0.0137498 -0.0960282 -0.226372 100 155 255
-0.215031 -0.473501 0.146641 3 252 255
0.0296869 0.0749218 -0.158468 144 111 255
0.0166584 -0.225764 -0.222334 67 188 255
0.400584 0.00509785 -0.225535 126 129 255
0.149473 0.0729891 0.0588863 143 112 255
0.203014 0.0746918 -0.127374 144 111 255
0.13337 -0.076816 -0.232866 105 150 255
-0.179896 0.0752636 -0.147501 144 111 255
-0.227347 -0.367479 0.183828 30 225 255
0.399277 0.0762126 -0.111034 144 111 255
0.151373 -0.17685 -0.213973 79 176 255
0.251573 -0.454098 -0.233872 8 247 255
-0.227861 -0.0629068 -0.148447 108 147 255
-0.149937 -0.262422 0.312046 56 198 255
0.0524217 -0.35626 -0.219968 32 222 255
-0.026585 0.0724257 0.120095 143 112 255
-0.225601 -0.0799102 0.0196016 104 151 255
-0.191921 -0.0243353 -0.229377 118 137 255
-0.224803 -0.349861 -0.222209 35 220 255
-0.206912 -0.422189 -0.15155 16 239 255
-0.207282 -0.060878 0.230797 109 146 255
-0.111228 -0.485854 -0.0248139 0 255 255
-0.0975661 0.0752688 -0.0427486 144 111 255
0.337947 0.0751254 -0.194464 144 111 255
-0.124296 -0.430858 -0.18435 14 241 255
-0.0999374 -0.349922 0.212046 35 220 255
-0.225678 0.0618316 0.161207 140 114 255
-0.195224 -0.43145 0.280023 14 241 255
-0.137437 -0.162422 -0.0379538 83 172 255
0.273564 -0.486211 -0.160835 0 255 255
-0.158504 -0.188706 -0.224092 76 179 255
-0.206203 -0.300584 0.047615 48 207 255
-0.0854993 -0.448319 0.159867 10 245 255
0.0864575 0.051719 -0.231542 138 117 255
-0.226181 -0.268036 0.198087 56 199 255
-0.209585 -0.151887 -0.144881 86 169 255
-0.029465 -0.487802 -0.128549 0 255 255
-0.226217 -0.428442 -0.0696529 15 240 255
-0.224956 -0.0643694 0.104079 108 147 255
-0.228651 0.0426074 -0.100192 135 120 255
0.028266 0.0738483 0.0242124 143 112 255
0.00179725 -0.48578 0.0233886 0 255 255
-0.185265 -0.134964 0.232858 89 165 255
0.163501 -0.32315 -0.238952 42 213 255
0.300045 0.0746529 -0.034437 144 111 255
-0.104676 -0.375921 0.289906 28 227 255
-0.110323 -0.118656 -0.225903 94 161 255
0.170852 -0.456483 -0.234449 8 247 255
0.124866 0.0748797 -0.0853341 144 111 255
-0.137437 -0.124922 0.137046 93 162 255
-0.226401 -0.445416 0.229559 11 244 255
-0.168072 0.0752542 0.0185587 144 111 255
-0.0316631 -0.00535743 -0.228487 123 131 255
-0.0720677 -0.449668 0.255466 9 246 255
-0.218029 -0.410654 0.0278531 19 236 255
0.148018 -0.486018 -0.0377999 0 255 255
0.185881 0.0770029 -0.213289 144 111 255
-0.135265 -0.300657 0.0510455 48 207 255
0.175063 -0.0249224 0.0995462 118 137 255
-0.19881 -0.340455 -0.162917 36 218 255
0.0464432 -0.473725 -0.233536 3 252 255
-0.205314 -0.200245 -0.00892143 73 182 255
-0.221308 0.0010558 -0.0357998 125 130 255
0.297965 -0.111015 -0.220186 96 159 255
0.141739 -0.209609 -0.23891 71 184 255
0.0650578 -0.369708 0.428593 30 225 255
-0.198863 -0.423828 0.0670933 16 239 255
0.187094 -0.291643 -0.216239 50 205 255
-0.22499 -0.186907 0.122072 77 178 255
-0.0443066 -0.395014 0.384671 23 232 255
0.157945 -0.395245 0.365136 23 232 255
-0.11192 -0.410521 0.0779644 19 236 255
-0.0908184 -0.268593 -0.217371 56 199 255
0.319185 -0.486089 -0.23039 0 255 255
0.290719 -0.339095 -0.226339 38 217 255
-0.173206 0.0744645 0.209603 144 111 255
0.158258 -0.485736 -0.115295 0 255 255
-0.161726 -0.309414 0.169756 44 210 255
0.242476 -0.0375315 -0.219492 115 140 255
0.0603084 -0.468151 0.0678619 5 250 255
-0.222626 -0.28491 -0.206424 52 203 255
-0.227399 -0.292155 -0.0747902 50 205 255
0.0501334 -0.486908 -0.0321572 0 255 255
-0.209706 -0.0871688 -0.0918279 102 153 255
0.397517 -0.16363 -0.224718 83 172 255
0.251348 -0.176065 -0.220597 79 176 255
0.105534 0.0748483 -0.00524622 144 111 255
-0.0674085 -0.485159 0.0439926 0 255 255
0.014657 -0.27168 -0.239648 55 200 255
-0.221426 -0.301861 0.282166 47 208 255
-0.224937 0.0750776 0.0245461 144 111 255
-0.0331417 0.0751551 -0.0561892 144 111 255
-0.162004 -0.404186 0.19739 21 234 255
-0.0905373 -0.485937 -0.157673 0 255 255
-0.202876 -0.433156 -0.0621942 14 241 255
-0.0560752 -0.388812 -0.211832 25 230 255
-0.155946 -0.487195 -0.129288 0 255 255
-0.225013 -0.176524 0.215482 79 176 255
-0.0533146 -0.478181 -0.236476 2 253 255
-0.170899 -0.22092 -0.0837946 68 187 255
-0.171372 -0.321746 -0.0365551 42 213 255
0.161734 -0.403309 -0.218403 21 234 255
-0.225709 -0.442551 -0.169225 11 244 255
-0.215279 -0.227049 0.0517197 65 189 255
-0.100984 -0.331148 -0.226566 40 215 255
-0.146205 0.0453617 0.123631 136 119 255
0.287089 -0.485682 -0.0952642 0 255 255
0.255347 0.0777881 -0.175167 144 111 255
-0.162437 -0.0749224 -0.162954 105 150 255
0.116992 -0.00492118 -0.229371 123 131 255
0.37019 -0.0802538 -0.236654 104 151 255
-0.17359 -0.218178 0.247744 69 186 255
-0.0922637 0.074504 -0.211188 144 111 255
-0.226008 0.0218231 0.092582 130 125 255
0.228947 0.075117 -0.0657009 144 111 255
-0.230429 -0.212616 -0.0871437 70 185 255
0.325522 0.0261317 -0.230641 131 124 255
-0.220716 -0.206613 -0.181463 72 183 255
0.0333907 -0.486019 -0.150092 0 255 255
0.00253897 -0.166603 -0.229372 81 173 255
-0.225882 -0.0137448 0.216966 121 134 255
-0.218476 -0.423065 0.0915701 16 239 255
0.0651881 -0.0849761 -0.222154 103 152 255
0.354172 -0.486338 -0.171218 0 255 255
0.0875626 -0.0249224 0.0870461 118 137 255
0.0672391 -0.417119 0.305989 18 237 255
0.380199 -0.407855 -0.22577 20 235 255
-0.107428 -0.423355 -0.232702 16 239 255
-0.229151 0.0290798 -0.210658 131 123 255
-0.144508 -0.210505 0.01705 71 184 255
0.0882733 -0.434199 -0.22593 13 242 255
-0.204959 -0.12413 0.0859401 93 162 255
0.0177082 -0.375598 0.366652 28 227 255
-0.193712 -0.0826809 0.165819 103 152 255
-0.16052 -0.357506 0.303446 32 222 255
0.259539 -0.271183 -0.221056 55 200 255
-0.132409 0.0740009 -0.106142 143 112 255
-0.21976 -0.28499 -0.159431 52 203 255
-0.190307 -0.484975 0.0165646 0 255 255
0.190873 -0.36823 0.412837 30 225 255
-0.209915 -0.331679 0.140291 40 215 255
-0.145742 -0.467224 0.140684 5 250 255
-0.145513 -0.291145 0.111923 50 205 255
0.0839241 -0.207824 -0.238784 71 184 255
-0.222341 -0.159433 0.277431 84 171 255
0.325494 -0.219776 -0.235355 68 187 255
0.201203 0.0731532 0.0385233 143 112 255
0.150561 -0.132617 -0.23715 91 163 255
-0.18121 -0.443506 -0.231174 11 244 255
-0.220707 -0.403937 0.234189 21 234 255
-0.229518 -0.37232 -0.0418438 29 226 255
0.380861 -0.303707 -0.224148 47 208 255
-0.200693 -0.127755 -0.00898649 92 163 255
-0.101628 0.0755021 0.0861685 144 111 255
-0.229471 -0.303019 -0.00520857 47 208 255
-0.214116 -0.401626 0.317586 22 233 255
-0.159391 -0.193734 0.133697 75 179 255
-0.137437 -0.0499224 0.0120461 112 143 255
-0.165378 -0.485713 -0.15805 0 255 255
-0.167157 -0.284037 0.233955 52 203 255
-0.197126 -0.487323 0.0850041 0 255 255
0.0798107 0.0748064 -0.120872 144 111 255
0.251639 -0.396905 -0.230253 23 232 255
-0.227366 -0.357924 0.241177 32 222 255
0.354336 0.0754566 -0.0800464 144 111 255
-0.211424 -0.411666 0.151511 19 236 255
-0.223061 -0.0679768 -0.22216 107 147 255
-0.0118507 0.0750455 -0.11342 144 111 255
-0.225118 -0.0236233 -0.0904695 118 137 255
0.00815812 -0.333328 -0.238536 39 216 255
-0.0979891 -0.485503 -0.0891551 0 255 255
-0.22872 -0.390449 -0.184771 25 230 255
0.215175 -0.485955 -0.118472 0 255 255
0.400063 0.0750776 -0.225454 144 111 255
-0.22478 -0.108205 0.227197 97 158 255
-0.201582 -0.270259 -0.228077 55 200 255
0.235804 0.0314081 -0.228079 133 121 255
0.0258927 0.0433721 -0.231334 136 119 255
-0.137346 -0.00627991 -0.221478 123 131 255
0.137666 -0.335665 -0.217887 39 216 255
-0.00863997 0.0752499 0.0576889 144 111 255
-0.204999 -0.359845 0.0416798 32 223 255
-0.221879 0.0683034 -0.168467 142 113 255
-0.229962 -0.455552 -0.0191336 8 247 255
0.142435 0.0568074 -0.230954 139 116 255
0.172536 -0.0582435 -0.220315 110 145 255
-0.208845 -0.0572326 0.301829 110 145 255
-0.228972 -0.388961 -0.105102 25 230 255
-0.224734 -0.0587876 -0.0348135 109 146 255
-0.222587 -0.226998 0.169569 65 189 255
-0.158382 -0.486639 -0.0943505 0 255 255
0.185137 -0.263065 -0.238484 56 198 255
0.133851 -0.411031 0.323633 19 236 255
-0.0242031 -0.440964 -0.216875 12 243 255
-0.15384 -0.0808861 -0.226661 104 151 255
-0.22482 0.0266531 0.278977 131 124 255
-0.170715 -0.167148 0.194164 81 173 255
-0.0506705 -0.0675311 -0.219304 107 147 255
-0.0557749 -0.197812 -0.239605 73 181 255
0.0403541 -0.309569 -0.219668 44 210 255
0.0627863 -0.425033 -0.238348 16 239 255
-0.229449 -0.164395 -0.0972801 81 173 255
-0.0642749 -0.443025 0.206339 11 244 255
-0.194761 -0.307573 -0.118248 46 209 255
0.117898 -0.486708 -0.130327 0 255 255
0.400456 -0.0419762 -0.223213 113 141 255
-0.191415 -0.378426 -0.0348405 28 227 255
-0.0416014 0.0750858 -0.190379 144 111 255
-0.221513 -0.165013 -0.219305 81 173 255
-0.12679 -0.42222 0.131093 16 239 255
0.0832044 0.0734511 0.0530682 143 112 255
-0.164338 -0.258586 -0.191643 58 197 255
-0.148792 -0.172261 0.0762314 80 175 255
-0.120413 -0.486224 -0.0269159 0 255 255
-0.123136 -0.423899 0.284226 16 239 255
-0.168995 -0.331687 -0.227041 40 215 255
-0.205031 -0.260134 -0.0427614 58 197 255
-0.173292 0.0696565 -0.23282 142 113 255
-0.0668904 -0.37445 0.332594 29 226 255
-0.20963 0.0381236 0.176175 134 121 255
0.325213 0.0739957 -0.00547923 143 112 255
-0.0468226 -0.485986 0.0137333 0 255 255
0.117421 -0.47879 -0.234022 2 253 255
0.36179 0.0754902 -0.149682 144 111 255
-0.21008 -0.0490966 0.0543544 112 143 255
-0.0478972 0.0739177 -1.71373e-05 143 112 255
0.0588146 -0.486193 -0.0802842 0 255 255
-0.197537 -0.403588 0.236268 21 234 255
-0.228248 -0.112416 -0.136374 96 159 255
0.111432 -0.23238 -0.217814 65 190 255
-0.229846 -0.469749 0.138538 4 251 255
0.339407 -0.358372 -0.230976 32 222 255
-0.224319 -0.0677737 0.167088 107 147 255
-0.00153192 -0.424396 0.270161 16 239 255
0.235329 0.0746334 -0.0169804 144 111 255
-0.0319353 -0.129432 -0.238442 91 163 255
0.175063 -0.0624224 0.0620462 109 146 255
-0.0743274 0.0209278 -0.231847 130 125 255
0.108907 -0.383494 0.403487 26 229 255
0.199756 -0.154935 -0.215711 85 170 255
0.151996 0.075207 -0.135317 144 111 255
0.061573 0.0752809 -0.195618 144 111 255
-0.213428 -0.486058 -0.185697 0 255 255
-0.0936392 -0.48463 0.0923673 0 255 255
-0.142115 -0.349766 0.0803414 35 220 255
-0.140899 -0.377594 -0.200364 28 227 255
0.250532 -0.485025 -0.203693 0 255 255
-0.154112 0.0751921 -0.0272869 144 111 255
-0.195871 -0.42465 -0.108709 16 239 255
-0.145028 0.0743155 -0.181023 144 111 255
-0.207438 -0.422362 0.00788224 16 239 255
0.102684 -0.48621 -0.0295028 0 255 255
-0.205474 -0.17069 -0.0787511 81 174 255
-0.118177 -0.20241 -0.231574 73 182 255
-0.200915 -0.247465 0.0947075 60 194 255
-0.171466 -0.0866615 0.0868338 102 153 255
-0.227158 -0.318189 0.0989032 43 211 255
-0.0342131 -0.24854 -0.222465 60 194 255
-0.22643 -0.305356 0.212242 46 209 255
0.360322 -0.445902 -0.236415 10 245 255
-0.22753 -0.149295 0.0132095 86 169 255
-0.217299 0.0493794 -0.029215 137 118 255
-0.220486 0.0692053 0.0963075 142 113 255
0.366187 -0.239011 -0.224079 63 192 255
0.137935 -0.485849 -0.178486 0 255 255
-0.0456524 -0.486023 -0.133772 0 255 255
-0.216325 -0.246464 0.281605 60 194 255
-0.200344 -0.450202 0.204407 9 246 255
0.241025 -0.320035 -0.215721 43 211 255
-0.121984 -0.445659 0.0469791 10 245 255
-0.0764656 -0.385863 -0.232304 26 229 255
-0.167072 0.0719613 0.150607 143 112 255
0.0477309 -0.171347 -0.239033 81 174 255
0.360536 -0.124409 -0.225482 93 162 255
-0.224719 -0.00530283 -0.17574 123 131 255
0.114267 -0.113771 -0.216836 95 160 255
0.0373539 -0.389755 -0.232663 25 230 255
0.0142599 -0.0537561 -0.226172 111 144 255
0.27504 -0.0706587 -0.220419 105 149 255
-0.218988 -0.405801 0.17915 21 234 255
0.276905 -0.218509 -0.221269 69 186 255
-0.08733 -0.486546 -0.208787 0 255 255
-0.182253 -0.41058 0.121797 19 236 255
-0.137437 -0.0999224 -0.0379538 99 156 255
0.0765473 -0.0163162 -0.217018 120 135 255
-0.146837 -0.320198 -0.00786657 43 211 255
0.137563 0.0375776 0.0995462 134 121 255
-0.226248 -0.263551 0.0371234 56 198 255
-0.149576 0.0753757 0.0593278 144 111 255
-0.136616 -0.150035 -0.216801 86 169 255
-0.00141177 -0.485573 -0.236653 0 255 255
-0.178624 -0.3478 0.187148 35 220 255
-0.205887 -0.0311421 0.100756 117 138 255
-0.127459 -0.448992 -0.142242 10 245 255
0.101707 -0.359329 -0.22593 32 222 255
0.278194 0.000888669 -0.223236 125 130 255
0.185336 -0.208624 -0.215489 71 184 255
-0.22752 -0.413065 0.068283 19 236 255
0.00431553 -0.487242 0.0718559 0 255 255
0.0937178 0.0748476 -0.0505431 144 111 255
-0.228654 -0.330952 -0.0642568 40 215 255
0.198455 -0.415157 -0.23242 18 237 255
-0.208216 -0.00529635 -0.00253643 123 131 255
-0.200969 0.0732812 -0.0950577 143 112 255
-0.193126 -0.27268 0.143112 55 200 255
-0.20235 -0.172658 0.0561857 80 175 255
0.0199063 -0.361596 0.408832 32 223 255
-0.225555 -0.0810455 0.265817 104 151 255
0.326276 0.0720366 -0.225202 143 112 255
-0.0940612 -0.485965 -0.0541364 0 255 255
-0.228134 -0.22343 -0.153539 67 188 255
-0.19957 -0.408047 -0.231348 20 235 255
0.0638797 -0.255465 -0.220035 59 195 255
0.0114827 -0.486238 -0.0765731 0 255 255
-0.225522 -0.195589 -0.0354294 73 181 255
0.00324372 -0.441852 0.214246 11 244 255
-0.229503 -0.0944364 -0.0285202 100 155 255
-0.15224 -0.420365 0.320852 17 238 255
-0.181924 0.015184 -0.229343 128 127 255
-0.211415 -0.372096 -0.134801 29 226 255
-0.145563 -0.262789 0.0491696 56 198 255
0.258514 0.0747758 -0.113773 144 111 255
-0.172777 -0.449306 -0.206975 10 245 255
-0.0748399 0.074297 -0.0823899 144 111 255
-0.167173 -0.486855 -0.0833101 0 255 255
-0.166648 -0.472072 -0.0304284 4 251 255
-0.12497 -0.29425 -0.236612 48 206 255
0.0370324 -0.117792 -0.222065 94 161 255
-0.139979 -0.37173 0.24461 29 226 255
-0.224709 -0.114075 0.119069 95 160 255
0.354468 -0.0221525 -0.222272 119 136 255
0.137563 -0.0249224 0.137046 118 137 255
-0.0868729 0.0723014 0.133752 143 112 255
-0.0797347 -0.39457 0.384392 24 231 255
0.0269416 0.0747245 -0.0892585 144 111 255
-0.00129928 0.0724562 0.116522 143 112 255
-0.0750219 -0.11418 -0.21995 95 160 255
0.307181 0.0758289 -0.162193 144 111 255
0.324725 -0.335295 -0.217013 39 216 255
0.198914 0.075466 -0.175131 144 111 255
-0.162437 -0.0374224 -0.112954 115 140 255
0.274785 -0.142929 -0.224621 88 167 255
-0.192594 -0.224774 -0.229864 67 188 255
-0.192384 -0.476853 0.104159 2 253 255
-0.167726 -0.486451 -0.226981 0 255 255
-0.192695 -0.196771 0.266275 73 181 255
0.0500626 -0.362422 0.474546 32 223 255
-0.227963 -0.289041 -0.127192 51 204 255
-0.224731 -0.017801 0.25902 120 135 255
0.143564 0.0747035 0.00872337 144 111 255
-0.221268 -0.408219 0.00230271 20 235 255
0.205776 -0.486039 -0.2324 0 255 255
-0.224882 0.0645444 0.196408 141 113 255
0.181963 -0.486186 -0.0549808 0 255 255
-0.224729 -0.176066 0.178112 79 176 255
-0.000673416 0.0751612 -0.00814659 144 111 255
-0.218851 -0.454777 0.193719 8 247 255
0.0313165 -0.48575 -0.00624404 0 255 255
0.180272 -0.394678 0.344844 23 232 255
-0.221582 0.00709313 0.125545 126 129 255
-0.227181 -0.330916 0.0500596 40 215 255
0.258325 -0.48639 -0.0776626 0 255 255
-0.221347 -0.0778436 -0.176807 105 150 255
0.374021 0.0753792 -0.0578205 144 111 255
-0.177492 -0.0845177 0.0176661 103 152 255
0.126013 -0.27985 -0.238394 52 202 255
0.291544 -0.423841 -0.230169 16 239 255
0.17114 0.0751289 -0.0908201 144 111 255
0.0664386 -0.368116 0.367765 30 225 255
0.0833183 -0.190535 -0.219928 76 179 255
-0.209686 0.0731832 0.0364042 143 112 255
0.039572 -0.484827 -0.206806 0 255 255
-0.0717016 -0.469041 0.151609 4 251 255
0.179544 -0.176386 -0.237222 79 176 255
-0.230016 -0.480235 0.0277225 2 253 255
-0.211255 0.0118758 -0.105237 128 127 255
-0.0922638 -0.427399 0.239266 15 240 255
0.31317 -0.486276 -0.162474 0 255 255
-0.151987 -0.182352 -0.00789118 78 177 255
0.437563 0.0250776 -0.212954 131 124 255
-0.121885 0.075323 0.00979277 144 111 255
-0.225895 -0.331115 0.27384 40 215 255
-0.22665 -0.430476 -0.113156 14 241 255
-0.226815 -0.309989 0.172622 44 210 255
-0.0267439 -0.323752 -0.23905 42 213 255
-0.21878 -0.438019 0.258989 12 243 255
-0.178527 -0.122219 0.184653 93 162 255
0.15916 0.00678732 -0.221007 126 129 255
0.178472 -0.340107 -0.238992 36 218 255
0.227933 0.0719481 -0.22806 143 112 255
-0.202105 -0.326091 -0.0155236 40 214 255
-0.222554 -0.243778 -0.204092 62 193 255
0.390185 0.07597 -0.188756 144 111 255
-0.228151 -0.245022 0.225602 62 193 255
-0.2073 -0.194021 -0.155726 75 179 255
0.393741 -0.192508 -0.225055 75 179 255
-0.00975069 0.0193251 -0.22562 129 126 255
-0.169069 -0.142547 -0.230247 88 167 255
-0.225554 -0.0912984 0.053122 101 154 255
-0.227803 -0.391405 0.132816 24 231 255
0.067066 -0.485641 0.0441089 0 255 255
0.19693 -0.486103 -0.149093 0 255 255
-0.205424 -0.321794 -0.228219 42 213 255
-0.172319 -0.29583 0.266983 48 206 255
-0.206168 -0.128204 -0.0800227 92 163 255
-0.201437 -0.249037 0.00693709 60 194 255
0.227152 -0.0639319 -0.229368 108 147 255
-0.0809605 0.0648336 -0.233328 141 113 255
-0.202982 -0.482228 -0.17137 1 254 255
-0.0565757 -0.413413 0.288336 19 236 255
-0.00583961 -0.486521 -0.15373 0 255 255
-0.0865164 -0.263997 -0.235115 56 198 255
-0.0179854 0.074884 -0.171663 144 111 255
-0.0530545 0.0732941 0.0630451 143 112 255
-0.225299 -0.222626 0.100333 68 187 255
-0.169654 -0.397292 0.0652763 23 232 255
0.00200186 -0.314854 -0.218116 44 211 255
0.286234 0.0751119 -0.0627559 144 111 255
0.211481 -0.265057 -0.238397 56 198 255
-0.18701 -0.309468 -0.178698 44 210 255
-0.165922 -0.484746 0.0410443 0 255 255
-0.228923 -0.479787 -0.06158 2 253 255
0.378064 -0.261291 -0.236876 58 197 255
-0.123326 -0.0744237 -0.219634 105 150 255
-0.144896 -0.462932 0.190121 6 249 255
0.0628882 0.0749636 0.000582798 144 111 255
-0.0936086 0.0752586 -0.158844 144 111 255
0.126416 -0.486013 -0.0904599 0 255 255
-0.152727 -0.242338 0.126317 62 193 255
0.242373 -0.401206 -0.216495 22 233 255
0.161672 -0.365422 0.42573 31 224 255
0.364785 -0.486609 -0.131838 0 255 255
0.100063 -0.0624224 0.0620462 109 146 255
0.0385535 -0.426386 0.279182 15 240 255
0.100514 -0.0457052 -0.228913 113 142 255
0.0290328 0.0724398 -0.214828 143 112 255
-0.181391 0.0356353 0.123357 134 121 255
0.0408315 -0.207395 -0.239355 71 184 255
-0.210712 -0.393885 -0.0573773 24 231 255
-0.199181 -0.161769 0.113617 83 172 255
-0.164528 -0.270917 0.197064 55 200 255
0.3346 -0.0733834 -0.234913 105 149 255
-0.224732 -0.0627792 -0.100133 108 147 255
-0.201914 -0.31835 0.0883007 43 211 255
-0.224556 -0.035482 0.00522041 115 140 255
0.121568 -0.422457 -0.219438 16 239 255
-0.134312 0.0752266 -0.0691623 144 111 255
-0.0185251 -0.378099 0.417977 28 227 255
-0.186757 -0.466588 -0.0615683 5 250 255
0.371053 0.0349763 -0.225816 133 121 255
-0.130304 -0.378203 0.331663 28 227 255
-0.221946 -0.431902 0.112917 14 241 255
-0.224781 -0.0512892 0.205914 111 144 255
-0.112848 -0.485087 -0.237371 0 255 255
-0.229657 -0.353367 -0.167898 34 221 255
-0.231362 -0.230297 -0.0770019 65 189 255
0.16472 -0.102522 -0.220532 97 157 255
-0.148362 -0.367303 0.159726 30 225 255
0.40186 -0.116044 -0.22286 95 160 255
-0.0937193 -0.443036 -0.207378 11 244 255
0.112829 -0.415744 0.31138 18 237 255
-0.0675132 -0.0355742 -0.220474 115 140 255
0.123372 0.0706563 -0.226857 143 112 255
0.0817565 -0.133579 -0.238613 89 165 255
0.284554 -0.485262 -0.236282 0 255 255
-0.145768 -0.353472 0.0340103 34 221 255
0.2894 -0.296031 -0.217058 48 206 255
-0.225733 -0.143002 0.240829 88 167 255
0.0483538 0.072798 0.0957987 143 112 255
-0.0308312 -0.374832 -0.238431 29 226 255
-0.227957 -0.396969 0.208799 23 232 255
-0.0290913 -0.170678 -0.218887 81 174 255
-0.0445152 -0.485172 0.0113616 0 255 255
-0.189579 0.0756949 -0.192001 144 111 255
-0.210687 0.0162325 0.0503982 129 126 255
0.214334 0.0731651 0.0294955 143 112 255
-0.109383 -0.445321 0.11166 11 244 255
0.0947151 0.0747273 -0.153036 144 111 255
-0.00677906 -0.401234 0.344484 22 233 255
0.386419 -0.40182 -0.226109 22 233 255
-0.225549 -0.031234 -0.2105 117 138 255
0.111272 -0.485506 0.0184811 0 255 255
-0.208336 -0.121331 -0.170184 93 162 255
-0.14492 -0.148894 0.0299747 86 169 255
0.220157 -0.259486 -0.216486 58 197 255
-0.217032 0.0247182 0.221765 131 124 255
-0.135908 -0.485724 -0.13696 0 255 255
0.350142 -0.486099 -0.199381 0 255 255
-0.197964 -0.405778 -0.1546 21 234 255
0.244023 -0.486131 -0.142173 0 255 255
0.0866522 -0.314929 -0.225775 44 211 255
-0.221451 0.0343315 -0.145518 133 121 255
0.0960041 -0.367496 0.432167 30 225 255
0.0579307 -0.485966 -0.135699 0 255 255
-0.169373 -0.212237 0.218086 70 185 255
0.152496 -0.244499 -0.220325 62 193 255
0.315323 -0.182306 -0.224642 78 177 255
0.400319 0.0763951 -0.134994 144 111 255
-0.231204 -0.349574 -0.00538567 35 220 255
-0.219945 0.0685992 -0.0612105 142 113 255
-0.195755 -0.219938 -0.0557044 68 187 255
0.28078 0.0746739 -0.208928 144 111 255
-0.110765 -0.21463 -0.218596 70 185 255
-0.166742 -0.0339947 -0.219685 116 139 255
-0.224332 -0.104535 0.189307 97 157 255
-0.187486 -0.376594 0.274461 28 227 255
0.0660642 0.0237022 -0.230887 131 124 255
0.121559 -0.158953 -0.215588 84 171 255
-0.204734 -0.287037 -0.0818312 51 204 255
0.392354 -0.338069 -0.223739 38 217 255
0.109145 0.0728785 0.075416 143 112 255
-0.117923 -0.485057 0.0337633 0 255 255
0.226252 0.00332619 -0.219985 125 130 255
0.182412 -0.375147 -0.217234 28 227 255
0.0410065 -0.085312 -0.237201 103 152 255
0.291174 0.0739176 -0.00120437 143 112 255
0.00835207 -0.485925 -0.0691632 0 255 255
0.206091 -0.377277 0.378237 28 227 255
-0.225796 0.063681 0.14113 141 113 255
-0.17472 -0.389904 -0.019547 25 230 255
-0.180431 -0.372271 -0.236863 29 226 255
-0.00977525 -0.277739 -0.239799 52 202 255
-0.224082 0.0130298 0.296163 128 127 255
-0.212062 -0.440233 0.101644 12 243 255
0.145467 0.0748349 -0.0466695 144 111 255
-0.143615 -0.275776 -0.00850953 54 201 255
-0.226951 -0.275662 0.262151 54 201 255
-0.0346321 -0.486509 0.0575171 0 255 255
0.265499 -0.352771 -0.229376 34 221 255
0.0270981 -0.414665 -0.220561 18 237 255
-0.171074 0.0755382 0.179193 144 111 255
0.147915 -0.485853 -0.214741 0 255 255
-0.138873 -0.227237 0.0547336 65 189 255
0.330722 0.0746791 -0.106412 144 111 255
-0.225597 -0.0122269 0.169785 121 134 255
0.152296 -0.308238 -0.217455 46 209 255
0.305455 -0.486627 -0.101885 0 255 255
-0.225166 -0.160764 0.0846712 83 172 255
-0.216964 -0.474354 -0.137285 3 252 255
-0.0543987 -0.485773 -0.0715172 0 255 255
-0.08878 -0.151256 -0.233582 86 169 255
-0.20685 -0.139729 0.277624 89 166 255
0.437563 -0.0249224 -0.225454 118 137 255
-0.145758 -0.31958 0.115097 43 211 255
-0.156478 -0.12652 0.0957619 92 163 255
-0.197708 -0.206233 0.154074 72 183 255
-0.210506 0.00288036 -0.0607577 125 130 255
-0.0890329 -0.33597 -0.219717 39 216 255
-0.22474 -0.132139 -0.218921 91 163 255
-0.220042 -0.436413 -0.226519 13 242 255
-0.224953 -0.266264 0.157983 56 199 255
-0.225441 -0.0198944 0.0979436 119 136 255
-0.202349 -0.371545 0.160848 29 226 255
-0.23144 -0.317592 -0.130582 43 211 255
0.227893 -0.134195 -0.227622 89 165 255
0.0591175 0.0744965 -0.0933881 144 111 255
-0.0802048 -0.410331 0.327923 19 236 255
-0.23194 -0.255898 -0.0323114 59 195 255
-0.219755 -0.431734 0.0468555 14 241 255
0.179465 -0.0466884 -0.21787 113 142 255
-0.224554 -0.145425 -0.0146181 87 168 255
0.387908 -0.462146 -0.230869 6 249 255
0.0156124 -0.0206922 -0.220657 119 136 255
-0.0248637 -0.235055 -0.219262 64 191 255
0.175063 -0.0624224 0.112046 109 146 255
-0.0474144 0.0723225 0.127907 143 112 255
-0.190519 -0.0814534 0.150521 104 151 255
-0.225806 -0.375055 0.275661 29 226 255
-0.229084 -0.134146 -0.138969 89 165 255
0.287352 -0.0317722 -0.235771 116 139 255
-0.0667691 0.0752398 -0.0189648 144 111 255
-0.145039 0.0733618 -0.133568 143 112 255
-0.145271 0.0754947 0.0944149 144 111 255
-0.01824 -0.451467 -0.237586 9 246 255
0.363402 0.0748508 -0.0338285 144 111 255
0.157878 0.075424 -0.17594 144 111 255
-0.184129 -0.225918 -0.207747 67 188 255
0.30963 -0.108823 -0.235693 97 158 255
-0.195718 0.0750229 -0.00436272 144 111 255
0.209256 0.0747189 -0.0442276 144 111 255
0.0858461 -0.486708 -0.230744 0 255 255
0.00879157 -0.355462 -0.21933 34 221 255
0.120737 -0.41229 0.360231 19 236 255
-0.22417 0.0713431 -0.227843 143 112 255
-0.184831 -0.462439 0.158492 6 249 255
0.295459 -0.255063 -0.21797 59 195 255
-0.204271 -0.365607 0.0946326 31 224 255
-0.117647 0.0225609 -0.233466 130 125 255
-0.132068 -0.400819 -0.233685 22 233 255
-0.0336302 0.0750983 -0.110028 144 111 255
0.0391436 -0.265955 -0.237667 56 199 255
-0.228718 -0.462824 0.170856 6 249 255
-0.13556 -0.48096 -0.0958389 1 254 255
-0.207584 -0.191819 -0.114002 75 179 255
0.368639 -0.160076 -0.237326 84 171 255
-0.0179077 -0.0699465 -0.236464 107 147 255
-0.211484 -0.0405233 0.289352 113 141 255
0.0777883 -0.407759 -0.238389 20 235 255
-0.201777 -0.486331 -0.211589 0 255 255
-0.17697 -0.438361 0.23605 12 243 255
-0.203726 -0.337782 0.214497 38 217 255
0.10314 -0.486353 -0.060884 0 255 255
-0.226075 -0.280402 -0.219691 52 202 255
-0.221881 -0.0440606 -0.144135 113 142 255
-0.22542 -0.214002 0.0552295 70 185 255
0.307149 -0.395508 -0.216866 23 232 255
-0.230022 -0.421829 -0.158089 17 238 255
-0.0167669 -0.488392 -0.194146 0 255 255
0.195453 -0.485754 -0.0946476 0 255 255
-0.149353 -0.108118 0.00904034 97 158 255
0.233676 0.0754417 -0.143578 144 111 255
0.171021 0.0672714 -0.227706 142 113 255
-0.203703 -0.432019 0.0213206 14 241 255
-0.106848 -0.464576 0.197146 6 249 255
0.292004 0.0311167 -0.222844 131 123 255
-0.172523 -0.307922 0.0389822 46 209 255
-0.184069 -0.249738 0.272159 60 194 255
0.437563 0.0750776 -0.225454 144 111 255
0.400471 -0.0581918 -0.222475 110 145 255
-0.206631 -0.082646 -0.0493849 103 152 255
0.0196292 0.0733789 0.0600159 143 112 255
-0.147977 -0.444522 -0.124326 11 244 255
-0.177508 -0.34397 -0.1984 36 219 255
0.00375536 0.0751488 -0.0377716 144 111 255
-0.0699652 -0.465227 0.084777 5 250 255
0.356511 -0.302539 -0.235268 47 208 255
-0.164543 -0.162361 0.162722 83 172 255
0.219147 -0.301695 -0.233508 47 208 255
-0.229112 -0.419971 -0.0374712 17 238 255
0.168982 0.0730598 0.0525228 143 112 255
-0.215293 0.0749717 -0.126646 144 111 255
-0.218137 -0.415564 0.18878 18 237 255
0.129922 -0.147938 -0.237854 87 168 255
-0.224087 -0.370703 -0.0976756 30 225 255
-0.225567 -0.210082 -0.00607967 71 184 255
0.245736 -0.200012 -0.229303 73 182 255
-0.0251254 0.0575887 -0.233027 139 116 255
-0.165681 -0.0727536 -0.230354 105 149 255
-0.225887 -0.20028 0.228038 73 182 255
-0.151498 -0.227738 -0.0118634 65 189 255
0.0421022 -0.389581 0.383097 25 230 255
-0.231046 -0.292907 0.00781727 50 205 255
-0.207306 -0.486031 0.0708375 0 255 255
-0.0673788 -0.436843 -0.234152 13 242 255
0.00509117 -0.485996 -0.0151827 0 255 255
-0.169352 -0.395948 0.323798 23 232 255
-0.142772 0.0740862 -0.216433 143 112 255
-0.205653 -0.256917 -0.139553 59 195 255
-0.179066 -0.0569518 0.064856 110 145 255
0.113779 -0.485512 -0.156719 0 255 255
-0.200045 -0.0933091 0.211905 101 154 255
0.0363073 -0.136679 -0.238662 89 165 255
0.122227 -0.372055 0.38785 29 226 255
-0.219439 -0.185019 -0.220305 77 178 255
-0.226781 -0.099889 0.0785599 99 156 255
0.221253 -0.485985 -0.211181 0 255 255
-0.221455 0.0356351 0.00482073 134 121 255
0.143815 -0.484761 -0.0313935 0 255 255
0.140652 -0.0130433 -0.229527 121 134 255
-0.140315 -0.485627 -0.20022 0 255 255
-0.226751 0.00910088 -0.212772 127 128 255
-0.0848918 -0.284271 -0.216696 52 203 255
-0.2285 -0.475143 -0.0985926 3 252 255
-0.227381 -0.338542 0.127843 38 217 255
-0.201823 -0.312041 0.286506 44 210 255
0.120951 -0.383747 -0.21966 26 229 255
0.300571 -0.477121 -0.22364 2 253 255
-0.228096 -0.121294 -0.0904277 93 162 255
-0.227266 -0.382239 0.0266696 27 228 255
-0.123131 -0.386283 0.261293 26 229 255
-0.0920598 -0.386955 0.375332 25 230 255
-0.181889 -0.295627 -0.0417064 48 206 255
-0.191384 -0.156534 -0.0321082 84 171 255
0.400955 -0.226124 -0.223332 67 188 255
0.352096 -0.020383 -0.235273 119 136 255
-0.0685588 -0.485696 0.00906156 0 255 255
0.126405 -0.213311 -0.238875 70 185 255
-0.216639 -0.486155 -0.00528955 0 255 255
0.036436 0.0749149 -0.148119 144 111 255
-0.116897 0.0734553 0.0414325 143 112 255
-0.10756 0.0757431 0.150899 144 111 255
-0.221283 0.0536098 0.244937 138 117 255
-0.226045 -0.265457 0.0632378 56 198 255
0.100063 -0.0374224 0.124546 115 140 255
-0.16596 -0.305693 0.214554 46 209 255
-0.135141 -0.417658 0.14945 18 237 255
-0.0774846 0.0218506 -0.222569 130 125 255
-0.215685 0.0717405 0.0665593 143 112 255
-0.0403509 -0.420807 0.267537 17 238 255
-0.0801646 -0.0875715 -0.226757 102 153 255
-0.132702 -0.237442 -0.229869 64 191 255
-0.218655 -0.184118 0.277056 77 178 255
0.0852584 0.0712498 -0.226322 143 112 255
0.099425 0.0748898 0.022943 144 111 255
-0.142402 -0.264909 0.0897966 56 198 255
-0.205155 -0.043756 0.140811 113 142 255
-0.225207 -0.415477 0.282297 18 237 255
-0.226187 -0.0435321 0.0487412 113 142 255
0.258839 0.0734298 0.0122517 143 112 255
-0.0557757 -0.486435 -0.188442 0 255 255
-0.222576 -0.0915423 0.280728 101 154 255
-0.192901 -0.163487 0.0344604 83 172 255
-0.162172 -0.427057 0.0563639 15 240 255
-0.225433 -0.219561 0.147167 68 187 255
0.097945 -0.0859602 -0.231043 103 152 255
0.254702 0.0414332 -0.235811 135 120 255
0.0575804 -0.485713 -0.011028 0 255 255
0.355034 0.0702915 -0.223126 143 112 255
-0.229305 -0.314693 -0.198097 44 211 255
-0.224751 -0.145787 0.18136 87 168 255
0.11881 0.0747266 -0.105768 144 111 255
0.237771 0.0747091 -0.0849383 144 111 255
-0.0848602 -0.48604 -0.123641 0 255 255
-0.191551 0.0329372 -0.220239 133 121 255
0.250322 -0.0987803 -0.225154 99 156 255
0.0446947 -0.214051 -0.22113 70 185 255
-0.0962698 0.0752613 -0.0999015 144 111 255
0.0578836 -0.486414 -0.0992989 0 255 255
-0.162257 -0.485717 -0.0776514 0 255 255
0.0352926 -0.362144 0.431537 32 223 255
-0.175687 -0.481916 0.0967155 1 254 255
0.214896 -0.41658 -0.233017 18 237 255
-0.222917 -0.0828542 -0.222409 103 152 255
-0.0430841 -0.375887 0.338277 28 227 255
-0.230126 -0.48154 0.0923144 1 254 255
-0.150323 -0.187748 0.094137 76 179 255
0.143417 -0.360981 0.435909 32 223 255
0.343758 -0.426994 -0.229297 15 240 255
-0.033616 -0.128004 -0.219354 92 163 255
-0.207624 -0.0420519 -0.00988734 113 141 255
-0.0517385 -0.44249 -0.213776 11 244 255
-0.20277 -0.414014 0.19358 19 236 255
-0.208152 -0.0761787 -0.13067 105 150 255
-0.221458 -0.408614 0.151152 20 235 255
0.197838 -0.48489 -0.048845 0 255 255
0.0408318 -0.432761 -0.23833 14 241 255
0.318516 0.0746728 -0.150117 144 111 255
-0.225294 0.0254282 0.184804 131 124 255
-0.199579 -0.383304 -0.098936 26 229 255
-0.209181 -0.242709 0.207464 62 193 255
-0.189022 -0.135124 0.240262 89 165 255
-0.0491728 -0.480277 0.109647 2 253 255
0.146345 -0.456317 -0.23411 8 247 255
0.412563 -0.299922 -0.212954 48 207 255
-0.115257 -0.352294 -0.232246 34 221 255
-0.0327992 0.0752594 0.0243644 144 111 255
-0.179121 -0.139277 -0.216355 89 166 255
-0.229592 -0.470284 -0.186446 4 251 255
0.110368 -0.272058 -0.218187 55 200 255
0.176614 0.0743061 -0.00684721 144 111 255
0.181671 -0.152764 -0.236624 85 170 255
-0.227065 -0.352059 0.200708 34 221 255
0.364081 -0.20887 -0.237429 71 184 255
-0.124612 0.0752645 -0.0194923 144 111 255
0.21035 -0.346319 -0.216104 36 219 255
-0.219569 -0.385505 -0.226878 26 229 255
-0.229233 -0.175133 -0.056312 80 175 255
-0.157603 -0.485575 -0.234066 0 255 255
-0.0752741 0.0751995 -0.183694 144 111 255
-0.189571 0.0741541 0.138171 144 111 255
-0.201352 -0.339556 0.0159876 38 217 255
-0.227 -0.0999354 0.00947741 99 156 255
-0.227582 -0.257235 -0.116356 59 195 255
-0.174016 0.0752504 -0.0920245 144 111 255
-0.228408 -0.360614 -0.118064 32 223 255
0.363327 -0.486574 -0.126617 0 255 255
0.0723354 -0.340334 -0.231178 36 218 255
0.189158 -0.233918 -0.238252 65 190 255
-0.0482019 -0.33709 -0.219017 38 217 255
-0.190947 -0.304178 0.11326 47 208 255
0.0749444 0.0749164 -0.0350207 144 111 255
-0.0572359 0.0728925 0.0933522 143 112 255
0.226629 0.0746986 -0.200998 144 111 255
0.32097 0.0747024 -0.0581624 144 111 255
-0.217879 -0.48648 0.14307 0 255 255
0.162563 -0.0249224 0.0620462 118 137 255
0.0179375 -0.486952 0.0584827 0 255 255
0.296453 -0.297706 -0.230242 48 207 255
-0.165937 -0.293778 -0.230484 48 206 255
-0.212889 -0.0359795 0.232712 115 140 255
-0.194311 -0.42715 -0.175359 15 240 255
-0.227528 -0.333783 -0.0529623 39 216 255
0.162538 -0.485954 -0.131029 0 255 255
0.0287637 -0.48649 -0.20492 0 255 255
0.109673 0.0103094 -0.22056 127 128 255
-0.227461 -0.376806 0.0748668 28 227 255
-0.194134 -0.238125 0.0536154 64 191 255
-0.0391206 -0.207193 -0.235102 71 184 255
-0.11835 -0.0207977 -0.231071 119 136 255
-0.122645 -0.483533 0.0793045 1 254 255
0.399454 -0.132699 -0.225887 91 163 255
-0.224567 -0.0389608 -0.076292 115 140 255
0.0666679 -0.404797 0.35596 21 234 255
-0.0271176 -0.0295685 -0.220363 117 138 255
0.136343 -0.195914 -0.215147 73 181 255
0.261766 -0.48641 -0.0808566 0 255 255
0.225546 -0.0239134 -0.229245 118 137 255
0.367323 -0.361359 -0.231193 32 223 255
0.285018 -0.157881 -0.21916 84 171 255
-0.173339 -0.180279 0.21662 78 177 255
-0.152388 -0.35528 0.281129 34 221 255
-0.0288079 -0.389008 0.398992 25 230 255
-0.138848 -0.365914 0.0383194 31 224 255
0.370094 0.011142 -0.234181 127 128 255
-0.142058 -0.418567 0.209495 17 238 255
-0.162247 -0.252202 0.167131 60 195 255
-0.217504 -0.0833054 0.119238 103 152 255
-0.228097 -0.291007 0.240669 50 205 255
-0.116163 -0.409463 0.102515 20 235 255
-0.15809 -0.485697 -0.0061966 0 255 255
-0.223768 -0.189322 -0.158989 76 179 255
0.179156 0.0748457 -0.102024 144 111 255
-0.161574 -0.0951952 0.059232 100 155 255
0.187035 -0.0936108 -0.220334 101 154 255
-0.181093 -0.432566 0.276401 14 241 255
-0.109824 -0.154268 -0.233647 85 170 255
-0.194158 0.0514945 0.188715 138 117 255
-0.224883 -0.176057 0.123739 79 176 255
-0.206463 -0.487395 -0.05014 0 255 255
0.0216891 0.0650746 -0.228925 141 113 255
0.378582 0.075694 -0.096002 144 111 255
0.342627 -0.0839187 -0.223976 103 152 255
-0.0906033 -0.485776 -0.0335854 0 255 255
-0.226385 -0.28084 0.104246 52 202 255
0.181197 -0.39503 0.358656 23 232 255
0.110099 -0.485496 0.0197891 0 255 255
-0.205063 -0.322414 -0.121938 42 213 255
-0.21181 0.011239 -0.156516 127 128 255
0.237347 -0.486123 -0.158658 0 255 255
-0.0108826 -0.26512 -0.220017 56 198 255
-0.224217 0.036518 0.277355 134 121 255
0.0864681 0.0753632 -0.187644 144 111 255
0.188197 0.031441 -0.223514 133 121 255
0.150937 -0.373912 -0.234245 29 226 255
-0.0954132 -0.47002 0.175422 4 251 255
-0.155428 -0.327784 0.154219 40 214 255
0.0714941 -0.0508371 -0.220975 112 143 255
-0.00390848 0.0751013 -0.071524 144 111 255
0.0704749 -0.485522 -0.165731 0 255 255
0.355188 -0.486331 -0.233017 0 255 255
-0.142136 -0.182596 0.0377199 78 177 255
0.112563 -0.0749224 0.0995462 105 150 255
0.388836 0.0758947 -0.193188 144 111 255
-0.0837349 -0.427378 0.28891 15 240 255
-0.131561 0.0543517 0.142059 138 117 255
-0.201493 -0.364829 -0.186648 31 224 255
0.261073 -0.41888 -0.217171 17 238 255
-0.205111 -0.247192 -0.228773 60 194 255
-0.227033 -0.446859 0.220745 10 245 255
0.0820803 -0.169782 -0.239084 81 174 255
-0.210917 0.0262122 -0.0710343 131 124 255
0.299694 -0.207422 -0.218976 71 184 255
-0.224908 0.0376922 0.120332 134 121 255
-0.201655 -0.280159 0.0123183 52 202 255
-0.209004 -0.448933 -0.0954953 10 245 255
-0.185158 -0.398814 -0.0178566 22 233 255
0.052137 0.0750341 0.0298951 144 111 255
0.00775722 -0.485145 -0.121622 0 255 255
-0.206903 -0.14651 -0.117461 87 168 255
-0.225107 -0.174045 0.024414 80 175 255
-0.125683 -0.416122 -0.209537 18 237 255
0.0706059 -0.485037 -0.0660497 0 255 255
0.0179729 -0.134682 -0.220995 89 165 255
-0.177648 -0.105892 0.136962 97 158 255
-0.194299 -0.38005 0.104443 27 228 255
-0.0362696 0.0738056 -0.145033 143 112 255
-0.00501943 -0.386092 -0.229553 26 229 255
-0.205677 -0.255196 -0.0815392 59 195 255
-0.216041 -0.21975 0.280402 68 187 255
-0.163075 -0.433867 -0.233606 13 242 255
0.25643 -0.248418 -0.229429 60 194 255
-0.135208 -0.311584 0.0397907 44 210 255
0.105829 0.0729172 0.0774053 143 112 255
-0.22638 -0.429025 -0.0720591 15 240 255
0.268054 0.07466 -0.0382415 144 111 255
-0.222507 0.0674834 -0.173827 142 113 255
0.287485 -0.0126132 -0.220044 121 134 255
-0.173669 0.0728562 0.063154 143 112 255
-0.0929693 -0.485919 -0.226356 0 255 255
-0.137437 -0.0499224 -0.0254538 112 143 255
0.135643 -0.065654 -0.220468 108 147 255
-0.119112 0.0742176 -0.172888 144 111 255
0.313242 0.0677324 -0.230027 142 113 255
-0.121052 -0.389335 0.355143 25 230 255
0.0793886 -0.237493 -0.238046 64 191 255
0.0785741 -0.41451 -0.220742 18 237 255
0.00452719 0.0752492 0.0897608 144 111 255
-0.170899 -0.182705 -0.230255 78 177 255
0.0300044 0.00882327 -0.229943 127 128 255
-0.165983 -0.485723 -0.177758 0 255 255
0.265426 0.0746747 -0.156175 144 111 255
-0.156826 -0.360627 0.2197 32 223 255
0.295554 -0.486469 -0.132869 0 255 255
-0.0944735 -0.309297 -0.23581 44 210 255
-0.224875 -0.44057 0.0391815 12 243 255
-0.179699 0.0751526 -0.0324267 144 111 255
-0.0590051 -0.144817 -0.238437 87 168 255
0.163597 -0.485664 -0.194664 0 255 255
-0.1007 0.0611241 -0.23429 140 114 255
-0.21231 -0.280878 -0.184373 52 202 255
0.274693 -0.328554 -0.216545 40 215 255
-0.0635285 0.0751981 -0.0626083 144 111 255
-0.14671 -0.108972 -0.219294 97 158 255
-0.226931 -0.33143 0.162755 40 215 255
-0.227726 -0.471648 -0.142361 4 251 255
-0.226589 -0.0175999 -0.00672117 120 135 255
-0.192593 -0.211395 0.101885 70 185 255
-0.224795 -0.0318485 0.124912 116 139 255
-0.00508858 -0.485952 0.0023369 0 255 255
0.134966 -0.325276 -0.217807 40 214 255
-0.16815 -0.260745 0.227802 58 197 255
-0.228605 -0.422751 0.111627 16 239 255
-0.1963 -0.193637 -0.063822 75 179 255
0.137236 -0.486213 -0.11258 0 255 255
-0.227164 -0.322372 0.0554384 42 213 255
0.235746 -0.457131 -0.231362 8 247 255
-0.169407 -0.485639 0.0611094 0 255 255
0.402614 -0.175526 -0.223435 80 175 255
-0.231824 -0.256556 -0.0386786 59 195 255
-0.0192261 -0.485879 -0.231661 0 255 255
0.09572 -0.365547 0.431298 31 224 255
-0.096573 -0.375008 0.306883 29 226 255
-0.0661817 -0.0329971 -0.229724 116 139 255
-0.0996931 0.0754945 0.0769687 144 111 255
0.355849 -0.27144 -0.236364 55 200 255
-0.137437 -0.0499224 0.112046 112 143 255
-0.228891 -0.337194 0.254183 38 217 255
-0.0490495 -0.485803 -0.0836266 0 255 255
-0.205184 -0.12808 0.0440615 92 163 255
0.0179124 0.0749357 -0.183469 144 111 255
-0.205598 -0.104298 -0.0497349 97 157 255
-0.231007 -0.215057 -0.105629 69 186 255
0.311656 -0.383395 -0.229019 26 229 255
0.148205 0.0754234 -0.176729 144 111 255
-0.16141 -0.336272 -0.0183568 38 217 255
0.171306 -0.372062 0.413639 29 226 255
0.405384 -0.0622632 -0.227223 109 146 255
-0.223099 -0.134952 0.27913 89 165 255
-0.225131 -0.103983 -0.168566 97 157 255
0.22756 -0.174934 -0.227632 80 175 255
-0.220935 0.0447811 0.0518939 136 119 255
0.398152 0.0206131 -0.224106 130 125 255
-0.156612 -0.438748 -0.158933 12 243 255
0.117912 0.0747777 -0.0552375 144 111 255
-0.0412154 -0.267757 -0.237389 56 199 255
-0.224754 0.064667 0.194804 141 113 255
0.0875626 -0.0499224 0.0495462 112 143 255
-0.213193 -0.0378571 -0.18026 115 140 255
0.024451 -0.0920563 -0.219252 101 154 255
-0.223407 -0.0403347 0.282159 113 141 255
-0.203984 -0.485662 -0.233407 0 255 255
-0.142847 -0.346516 0.0948866 36 219 255
-0.228249 -0.414038 0.00234838 19 236 255
0.305638 0.073833 -0.00146027 143 112 255
-0.15631 -0.130022 -0.00617005 91 163 255
0.097497 -0.150551 -0.218928 86 169 255
-0.227886 -0.398874 -0.187892 22 233 255
0.00952372 -0.397173 0.360045 23 232 255
-0.210194 -0.445207 0.244015 11 244 255
-0.0562597 -0.486021 0.0321942 0 255 255
-0.132899 -0.257709 -0.215872 59 195 255
-0.224368 -0.0845395 0.206378 103 152 255
0.340654 -0.145899 -0.235934 87 168 255
-0.210727 -0.29125 0.175248 50 205 255
0.00975219 -0.188784 -0.224353 76 179 255
0.363427 -0.486467 -0.159481 0 255 255
0.154816 -0.414762 -0.234841 18 237 255
-0.163863 -0.318496 0.257164 43 211 255
-0.206318 -0.327219 -0.0550325 40 214 255
0.0636386 -0.290609 -0.224567 50 205 255
-0.209801 0.0440284 -0.230705 136 119 255
0.375159 -0.410564 -0.221017 19 236 255
0.17921 0.0731201 0.0470752 143 112 255
0.16282 -0.19736 -0.238722 73 181 255
-0.119627 -0.486143 -0.0779482 0 255 255
0.362534 0.0748518 -0.0352487 144 111 255
0.0996032 -0.486958 -0.230655 0 255 255
-0.202583 -0.435633 0.133864 13 242 255
0.287185 -0.0751901 -0.221282 105 150 255
-0.149937 -0.237422 0.312046 64 191 255
-0.0653504 -0.369769 -0.23044 30 225 255
-0.162926 -0.194626 0.172464 75 179 255
-0.157901 -0.208566 -0.0151389 71 184 255
-0.225356 -0.135895 0.0975067 89 165 255
-0.0485136 0.0747834 -0.217378 144 111 255
-0.2099 -0.0327252 0.181754 116 139 255
-0.222871 0.0153893 -0.105024 128 127 255
-0.0856765 0.0738098 0.00636966 143 112 255
0.0355463 0.075051 -0.0197856 144 111 255
-0.217962 0.0726255 -0.0505216 143 112 255
0.0640384 0.0748662 -0.119762 144 111 255
-0.154206 -0.445899 0.239824 10 245 255
-0.202356 -0.437495 -0.0562512 13 242 255
-0.149773 0.00133608 -0.232227 125 130 255
0.384623 0.0757343 -0.152098 144 111 255
0.213688 -0.2836 -0.216476 52 203 255
0.158306 0.0358392 -0.231743 134 121 255
-0.208745 -0.0201256 0.070141 119 136 255
-0.215911 -0.486273 0.0207737 0 255 255
0.0960159 -0.370182 0.377361 30 225 255
-0.224919 -0.20173 0.179416 73 182 255
0.284749 0.077163 -0.0958667 144 111 255
-0.227618 -0.389822 0.239268 25 230 255
0.215856 0.074165 -0.00238889 144 111 255
0.0134273 -0.486092 -0.0505894 0 255 255
-0.219043 -0.26754 0.2812 56 199 255
0.00447965 -0.366033 0.427705 31 224 255
-0.226926 -0.0973007 -0.0902969 100 155 255
-0.18411 -0.486011 -0.118785 0 255 255
-0.195191 -0.0748281 0.0111672 105 150 255
0.284391 -0.480074 -0.232584 2 253 255
-0.227696 -0.381469 0.146018 27 228 255
-0.206801 -0.180823 -0.17236 78 177 255
-0.0751531 -0.450324 0.155999 9 246 255
0.347623 -0.321396 -0.219585 42 213 255
0.142177 -0.48694 -0.0600667 0 255 255
0.239281 -0.356432 -0.228863 32 222 255
-0.157971 -0.157137 0.119353 84 171 255
-0.131837 0.0752282 -0.069956 144 111 255
-0.209032 0.0210812 0.129302 130 125 255
0.0303861 -0.486263 -0.148347 0 255 255
-0.0838241 -0.485317 -0.167526 0 255 255
0.0372708 -0.363928 -0.232321 31 224 255
-0.168106 -0.30137 -0.208624 47 208 255
0.188525 0.0747328 -0.0670509 144 111 255
-0.19479 -0.0970036 -0.230648 100 155 255
-0.223762 -0.356645 -0.22313 32 222 255
-0.199494 -0.394059 0.0377947 24 231 255
-0.170541 0.0752653 -0.144293 144 111 255
-0.224642 0.00663394 0.223573 126 129 255
-0.225833 -0.225443 -0.00938513 67 188 255
-0.162611 -0.471397 0.0178651 4 251 255
-0.156179 -0.259577 0.139449 58 197 255
-0.0494366 0.0201464 -0.222026 130 125 255
-0.224776 -0.143971 0.217973 88 167 255
-0.0207931 -0.0791586 -0.237056 104 151 255
0.132324 0.0747624 0.0105835 144 111 255
-0.0793264 -0.220902 -0.229583 68 187 255
0.301926 -0.248273 -0.232437 60 194 255
0.162598 -0.0314754 -0.219223 116 139 255
0.0793829 0.020396 -0.230776 130 125 255
0.220791 -0.486255 -0.113048 0 255 255
0.162454 -0.123918 -0.236088 93 162 255
-0.145999 -0.472341 0.112865 4 251 255
0.0792686 -0.485661 0.00592115 0 255 255
-0.161396 -0.382833 0.169152 27 228 255
-0.229551 -0.328788 -0.0219317 40 215 255
-0.140872 -0.293191 -0.00464836 48 206 255
0.0509723 0.0729273 0.0886856 143 112 255
-0.175186 -0.202514 0.247228 73 182 255
0.192037 0.0746908 -0.150068 144 111 255
-0.207249 -0.243069 -0.167499 62 193 255
-0.0361255 0.0723277 0.125957 143 112 255
-0.171814 -0.420117 0.31215 17 238 255
0.308022 0.075083 -0.181307 144 111 255
-0.208105 0.00965745 -0.0141468 127 128 255
-0.208699 -0.0820471 0.282903 104 151 255
-0.156182 -0.368391 -0.235094 30 225 255
-0.106834 -0.066124 -0.219949 108 147 255
-0.0256176 -0.485418 0.0350092 0 255 255
-0.100982 -0.429808 -0.232113 14 241 255
-0.230246 -0.162334 -0.0929106 83 172 255
-0.225192 -0.201853 0.071593 73 182 255
-0.164331 0.07527 0.0248633 144 111 255
0.186391 -0.300062 -0.235661 48 207 255
-0.112143 -0.462756 0.210622 6 249 255
-0.22235 -0.42193 0.193435 17 238 255
-0.177126 -0.128419 0.188449 92 163 255
-0.222145 -0.0193437 -0.221752 120 135 255
-0.116482 -0.414625 0.0755802 18 237 255
0.201589 -0.399593 -0.217655 22 233 255
-0.227171 -0.381255 -0.0581334 27 228 255
0.323603 0.015658 -0.223075 129 126 255
-0.193356 -0.337551 0.286527 38 217 255
-0.199044 -0.466003 0.158817 5 250 255
-0.226006 -0.25475 0.138554 59 195 255
0.124648 -0.258139 -0.238078 58 197 255
0.199677 0.0704449 -0.226129 143 112 255
-0.147645 0.0717798 0.160864 143 112 255
-0.162968 0.0681619 -0.225162 142 113 255
-0.224175 0.0133574 0.294279 128 127 255
-0.00715435 -0.419506 -0.237751 17 238 255
-0.015032 0.075212 0.0155443 144 111 255
-0.208245 -0.0432951 -0.0796309 113 142 255
-0.221937 -0.320674 -0.152825 42 213 255
0.0118585 0.0741994 -0.12214 144 111 255
-0.21203 -0.454994 -0.16583 8 247 255
0.0677771 -0.0642047 -0.234897 108 147 255
-0.0761172 -0.378137 0.372652 28 227 255
-0.230379 -0.476503 0.125021 3 252 255
0.290788 -0.485916 -0.191142 0 255 255
0.380644 -0.0836414 -0.236542 103 152 255
0.116166 0.0744143 -0.134944 144 111 255
-0.201879 -0.278449 0.0634068 52 202 255
0.239563 -0.106675 -0.220607 97 158 255
-0.219938 -0.124524 0.153117 93 162 255
0.169891 -0.401038 0.35258 22 233 255
0.16408 -0.486542 -0.228206 0 255 255
0.0336156 -0.258573 -0.220866 58 197 255
-0.144361 -0.24497 0.0214478 62 193 255
-0.0682866 -0.413636 -0.212291 19 236 255
-0.128201 -0.188742 -0.21947 76 179 255
-0.0650873 -0.486451 -0.0315413 0 255 255
-0.22588 -0.0633862 0.076491 108 147 255
-0.152459 -0.135349 0.0736704 89 165 255
0.00610132 -0.463978 -0.224873 6 249 255
-0.0833284 -0.412128 0.266247 19 236 255
0.373376 -0.485893 -0.233531 0 255 255
0.0715352 -0.356126 -0.219588 32 222 255
-0.228078 -0.26606 -0.218686 56 199 255
0.125063 -0.0124224 0.0870461 121 134 255
0.209902 -0.21896 -0.220016 68 187 255
0.20757 -0.48519 -0.175216 0 255 255
-0.0879401 0.0743567 -0.130863 144 111 255
-0.22159 -0.150706 -0.219987 86 169 255
-0.0506045 -0.485837 -0.126222 0 255 255
-0.229605 -0.47911 -0.0357875 2 253 255
-0.112784 0.0755948 0.106061 144 111 255
0.0980005 -0.484882 -0.189539 0 255 255
-0.227462 -0.295192 -0.0778976 48 206 255
-0.225085 -0.122551 0.0240094 93 162 255
0.0562093 -0.361597 0.43332 32 223 255
-0.224354 -0.0598241 0.149635 109 146 255
-0.143041 -0.281779 0.0959528 52 203 255
0.346716 0.075286 -0.130184 144 111 255
0.338561 -0.214112 -0.236103 70 185 255
-0.0091582 -0.368087 0.378895 30 225 255
-0.197231 -0.426853 0.0933184 15 240 255
-0.0862312 -0.485247 0.0586228 0 255 255
-0.20754 -0.109304 -0.139062 97 158 255
0.175063 -0.0499224 0.0495462 112 143 255
0.109832 0.0702743 -0.226906 143 112 255
0.262296 0.0762124 -0.209089 144 111 255
-0.201093 -0.255418 -0.0371849 59 195 255
0.0807938 -0.118207 -0.22079 94 161 255
-0.000699046 -0.0340101 -0.230665 116 139 255
-0.19214 -0.155316 0.255064 85 170 255
0.240901 -0.0114897 -0.228952 121 133 255
