ply
format ascii 1.0
comment Created by Open3D
element vertex 1174
property double x
property double y
property double z
property uchar red
property uchar green
property uchar blue
end_header
-0.312332 0.0627987 -0.257375 144 111 255
-0.114868 -0.180677 -0.263559 81 174 255
-0.452978 0.0587341 -0.251543 143 112 255
0.211617 0.0745647 -0.0679216 147 108 255
-0.400616 -0.48129 -0.211397 4 251 255
-0.31958 -0.140276 -0.260131 92 163 255
-0.0851744 -0.483634 0.106282 4 251 255
-0.313178 -0.386421 -0.19902 29 226 255
0.345643 -0.375333 -0.176476 31 224 255
-0.478478 -0.371652 -0.237662 32 223 255
-0.263143 -0.482704 -0.172158 4 251 255
0.0187892 -0.19773 -0.2633 77 178 255
-0.240185 -0.399746 -0.255472 25 230 255
0.0490686 -0.395977 0.405787 26 229 255
0.0537902 -0.466369 -0.0223628 8 247 255
0.280504 -0.125798 -0.251842 95 160 255
0.252031 -0.329361 -0.229938 43 211 255
0.138962 -0.438456 -0.165839 15 240 255
0.323667 -0.482899 -0.000982621 4 251 255
0.343303 -0.064728 -0.183912 111 144 255
-0.0881366 -0.481345 -0.178961 4 251 255
0.339363 -0.431771 0.139079 17 238 255
0.291311 -0.468653 -0.246163 8 247 255
0.180345 -0.440224 -0.0580755 15 240 255
-0.109143 -0.368369 -0.266908 32 222 255
-0.228443 -0.0449667 -0.260471 116 139 255
0.305613 -0.0749228 0.0664134 108 147 255
0.174673 0.0752256 0.0999457 147 108 255
0.282412 -0.422649 0.014163 19 236 255
-0.165454 -0.482111 -0.0683461 4 251 255
-0.415495 -0.118387 -0.231164 97 158 255
-0.450327 0.0752244 -0.0625535 147 108 255
0.313738 0.0739792 -0.02647 147 108 255
0.273974 -0.31721 0.0585756 46 209 255
-0.361344 -0.391247 -0.251903 27 228 255
0.326034 -0.1926 0.144274 78 177 255
0.0996729 -0.349803 0.449964 38 217 255
0.294632 -0.24699 -0.255021 64 191 255
0.135451 0.0738859 -0.133582 146 109 255
0.253567 0.0744967 -0.198 147 108 255
0.345698 -0.0304658 -0.0203869 120 135 255
0.0971006 -0.457623 0.186857 10 245 255
0.172729 -0.0874069 -0.242049 105 150 255
0.234124 -0.48243 -0.0591815 4 251 255
-0.316603 -0.467434 0.0614372 8 247 255
-0.160831 -0.472167 0.153763 7 248 255
0.245634 -0.0569603 -0.255505 113 142 255
-0.248853 0.0696237 -0.222933 145 110 255
0.34584 0.0171206 0.0760791 131 123 255
0.0453454 -0.486224 0.0936414 3 252 255
-0.0199139 -0.479244 -0.229246 5 250 255
-0.362088 0.0281199 -0.223096 135 120 255
0.157073 0.0728253 -0.228328 146 109 255
0.00207687 -0.285913 -0.271156 54 201 255
-0.329429 -0.448188 -0.105519 13 242 255
-0.0568347 -0.191005 -0.26048 79 176 255
0.158583 -0.482713 -0.00989864 4 251 255
0.0305057 0.055858 -0.208333 142 113 255
0.325716 -0.301619 0.123747 50 205 255
-0.408442 0.0736689 -0.139982 146 109 255
0.192501 -0.254903 -0.27474 62 193 255
-0.191868 -0.446367 -0.0232539 13 242 255
0.22456 -0.488313 0.15583 3 252 255
-0.261253 0.0744616 -0.0516165 147 108 255
-0.0178305 -0.41854 0.354923 20 235 255
0.333404 -0.397025 0.0639866 26 229 255
0.215754 -0.396586 0.0696683 26 229 255
0.338434 0.0520279 -0.193691 141 113 255
0.248472 -0.4065 -0.165374 24 231 255
0.0737229 -0.0421768 -0.261603 117 138 255
0.333282 -0.481623 -0.0713631 4 251 255
-0.120102 0.0750346 0.0275474 147 108 255
-0.319104 -0.436398 -0.271909 16 239 255
0.111355 -0.405715 -0.254914 24 231 255
-0.0800251 -0.058542 -0.261818 113 142 255
-0.278838 -0.0904967 -0.234247 104 151 255
-0.0258845 -0.467203 -0.121924 8 247 255
-0.335299 -0.228749 -0.23238 69 186 255
-0.112641 -0.278016 -0.262855 56 199 255
0.307545 0.00694482 -0.255013 129 126 255
0.341882 -0.287738 0.000264688 54 201 255
-0.254041 -0.483899 -0.0678022 4 251 255
-0.467866 -0.246585 -0.235904 64 191 255
-0.407482 -0.180292 -0.264978 81 174 255
0.176544 -0.18507 -0.233762 80 175 255
-0.398507 -0.305825 -0.263249 48 206 255
-0.0742905 -0.433004 -0.237909 17 238 255
0.152167 0.0743981 -0.0681586 147 108 255
0.21602 -0.407687 0.149316 23 232 255
-0.172474 -0.454334 0.207151 11 244 255
-0.0818501 -0.381458 0.435571 30 225 255
-0.387941 -0.488381 -0.0761373 3 252 255
0.0154226 -0.392267 -0.260337 27 228 255
-0.24088 -0.33463 -0.264345 42 213 255
-0.249571 -0.466796 -0.240921 8 247 255
0.0431108 -0.120486 -0.263029 97 158 255
0.285806 0.0742121 0.0389574 147 108 255
-0.189397 -0.485067 -0.136361 3 252 255
-0.401207 0.00774334 -0.26483 130 125 255
0.203991 0.0742332 -0.148908 147 108 255
-0.0616254 0.0754529 -0.0434196 147 108 255
-0.313684 0.0748826 -0.115091 147 108 255
0.294166 -0.420138 -0.0521212 20 235 255
0.343892 0.0732397 -0.0819714 146 109 255
0.226346 -0.482294 -0.168591 4 251 255
-0.0819155 -0.486167 -0.0710034 3 252 255
0.183378 -0.369107 -0.0396348 32 222 255
-0.191999 0.0750391 0.0195974 147 108 255
-0.192248 -0.45882 0.0912553 10 245 255
-0.179739 0.0744141 -0.0727315 147 108 255
0.137689 -0.482611 -0.0763504 4 251 255
-0.0851503 0.0574211 -0.251213 142 113 255
-0.400327 0.0752102 0.0374558 147 108 255
0.341337 -0.163181 0.0353224 86 169 255
0.210779 0.0743484 0.0546661 147 108 255
-0.244628 -0.394693 -0.0165312 27 228 255
-0.312871 -0.483459 0.00268069 4 251 255
-0.147585 -0.41927 -0.0384151 20 235 255
0.0363812 -0.449219 -0.165801 13 242 255
-0.160124 0.075415 -0.162399 147 108 255
0.179668 -0.456088 0.0445885 11 244 255
0.177028 -0.385474 -0.226479 29 226 255
0.128588 -0.0963465 -0.266884 103 152 255
-0.281337 -0.482386 0.132751 4 251 255
0.319092 -0.450534 0.187844 12 243 255
0.12284 0.0748445 0.031655 147 108 255
-0.27535 -0.00538797 -0.261741 126 129 255
-0.171468 -0.424982 -0.163009 19 236 255
0.159708 -0.00169506 -0.255413 127 128 255
0.0750969 -0.481896 -0.106144 4 251 255
0.268118 0.0746029 -0.0837605 147 108 255
-0.064089 0.0743658 -0.137146 147 108 255
-0.233785 0.0749107 -0.135402 147 108 255
-0.15522 -0.344634 -0.260832 39 216 255
-0.331049 -0.482292 -0.190172 4 251 255
0.295909 -0.257694 0.00488864 62 193 255
-0.270968 -0.370282 -0.177571 32 222 255
-0.0284471 -0.461321 0.216097 9 246 255
-0.150798 -0.0194983 -0.26019 123 131 255
0.334623 -0.117045 -0.0168154 97 157 255
0.0928414 -0.275427 -0.265694 56 198 255
0.0768578 -0.409499 0.342059 23 232 255
0.236507 -0.232915 -0.275743 68 187 255
-0.484737 -0.309497 -0.230057 48 207 255
0.329485 -0.165057 -0.095082 85 170 255
-0.365126 0.0736226 -0.207153 146 109 255
0.278472 -0.484819 0.0917412 3 252 255
0.317962 -0.0422615 -0.250298 117 138 255
-0.300327 -0.399813 0.149971 25 230 255
0.0932259 -0.184125 -0.24446 80 175 255
0.338712 -0.298887 -0.204391 51 204 255
-0.384586 0.0739162 -0.0887509 147 108 255
-0.217774 -0.398955 0.0443105 25 230 255
-0.20909 -0.22586 -0.258994 70 185 255
0.136436 -0.482511 -0.18902 4 251 255
0.335897 -0.261046 0.100322 60 194 255
0.335728 -0.39856 -0.230873 26 229 255
0.0404517 -0.463686 -0.257829 9 246 255
-0.00600682 -0.387607 0.43379 28 227 255
0.336524 -0.333008 -0.0349205 42 213 255
-0.204477 -0.124389 -0.258118 96 159 255
0.0916742 -0.466689 -0.0172257 8 247 255
0.341002 -0.216377 -0.181417 72 183 255
0.149739 -0.337912 -0.274072 40 214 255
0.00532618 -0.462899 0.0237532 9 246 255
-0.362675 -0.407892 -0.201449 23 232 255
0.267475 -0.282949 -0.228399 55 200 255
-0.284185 -0.481961 -0.123446 4 251 255
-0.311496 -0.420594 0.0210213 20 235 255
0.00524252 0.0559566 -0.257481 142 113 255
-0.464902 -0.0584557 -0.263422 113 142 255
0.231917 -0.180137 -0.232753 81 174 255
0.107824 -0.488017 0.108459 3 252 255
0.336268 -0.354567 0.123092 36 218 255
-0.256277 -0.394181 -0.0904408 27 228 255
0.297477 -0.113129 0.0341156 99 156 255
0.299078 -0.482687 -0.176177 4 251 255
0.0548856 0.0741939 -0.121304 147 108 255
-0.473054 -0.45997 -0.239548 10 245 255
-0.145215 0.0407352 -0.227385 138 117 255
-0.443686 0.0585738 -0.194558 143 112 255
-0.0804896 -0.463616 -0.13032 9 246 255
-0.123309 -0.483438 0.0132815 4 251 255
-0.301154 0.0737299 -0.189304 146 109 255
-0.00486821 0.0747963 0.0349677 147 108 255
0.337173 0.0752256 -0.262554 147 108 255
-0.169156 -0.474916 -0.220193 6 249 255
0.202423 0.0558888 -0.242888 142 113 255
0.331479 -0.0459902 -0.139347 116 139 255
-0.0297334 -0.394306 -0.206206 27 228 255
0.326617 -0.228779 -0.104498 69 186 255
-0.500327 -0.137274 -0.262554 92 163 255
0.20828 -0.432521 -0.127662 17 238 255
-0.299429 -0.341554 -0.265963 40 215 255
-0.0486395 0.00808716 -0.260174 130 125 255
0.343069 -0.135449 -0.16403 93 162 255
0.330706 -0.0362556 0.127163 118 137 255
-0.0973336 -0.472309 0.154364 7 248 255
-0.500327 0.0252256 -0.262554 134 121 255
-0.0986223 -0.441168 0.297909 15 240 255
-0.0236388 0.0747501 -0.19533 147 108 255
-0.426472 -0.228317 -0.264273 69 186 255
0.285343 -0.200707 0.0408088 76 179 255
-0.193221 -0.305345 -0.264217 48 206 255
0.209589 -0.418787 -0.250179 20 235 255
-0.0510944 -0.122889 -0.260129 96 159 255
0.323475 -0.336936 -0.160042 40 214 255
-0.36918 -0.482376 -0.120536 4 251 255
-0.0421967 -0.486233 -0.0490245 3 252 255
0.293565 -0.406165 -0.101942 24 231 255
-0.236994 -0.482629 -0.0199312 4 251 255
-0.209302 0.0614314 -0.252015 143 112 255
-0.0667986 -0.465126 0.0876362 9 246 255
-0.411079 -0.055361 -0.228757 113 142 255
0.193264 -0.285741 -0.230455 54 201 255
-0.159535 -0.429906 -0.0928993 18 237 255
-0.126913 -0.105208 -0.264064 101 154 255
-0.377372 -0.337437 -0.228621 40 214 255
0.0662717 -0.34037 -0.263627 40 215 255
0.154217 -0.155017 -0.271515 88 167 255
0.168969 -0.488653 0.149519 2 253 255
0.243342 -0.485772 0.00429615 3 252 255
-0.0437531 -0.262143 -0.26202 60 195 255
0.0878204 0.0737154 -0.2267 146 109 255
0.349433 0.0713124 -0.0119344 146 109 255
-0.129855 -0.215454 -0.234472 72 183 255
0.0917998 0.073869 -0.0189539 146 109 255
0.283786 -0.39359 -0.25082 27 228 255
0.344031 -0.28786 -0.0584849 54 201 255
-0.0753272 0.0751934 0.0749667 147 108 255
-0.250567 -0.290008 -0.238445 52 202 255
0.328086 -0.121463 -0.241218 96 159 255
0.329399 -0.367196 0.172925 34 221 255
0.121962 -0.455879 0.064362 11 244 255
0.314853 -0.375616 0.0384878 31 224 255
-0.0217418 -0.48648 0.133321 3 252 255
0.254345 -0.324443 -0.270903 44 210 255
0.279083 -0.482153 -0.0611344 4 251 255
-0.329879 -0.453727 -0.0397923 11 244 255
0.344273 -0.07338 -0.0839388 109 146 255
-0.21611 -0.482676 0.0394837 4 251 255
-0.316391 -0.101677 -0.262044 102 153 255
0.0144249 0.0748137 -0.0567734 147 108 255
0.206799 -0.395088 0.0159974 26 229 255
-0.346115 0.0742956 -0.00343323 147 108 255
-0.0834398 -0.48159 -0.235614 4 251 255
-3.04058e-05 -0.0392977 -0.261608 118 137 255
0.293264 -0.473676 0.207748 6 249 255
0.203358 -0.38995 -0.0769779 28 227 255
0.347363 0.00587253 -0.0728583 129 126 255
0.344627 -0.301672 0.0659795 50 205 255
0.344215 -0.432666 -0.0106694 17 238 255
0.190814 0.0744504 0.00628845 147 108 255
0.34892 -0.41781 -0.14827 21 234 255
0.257804 0.0142318 -0.227698 131 124 255
0.338572 -0.48077 -0.211587 5 250 255
0.127713 -0.217495 -0.270575 72 183 255
-0.202193 -0.384981 -0.261134 29 226 255
-0.300217 -0.419113 0.0744878 20 235 255
-0.430584 -0.483496 -0.154456 4 251 255
-0.0650966 -0.447039 0.241951 13 242 255
0.221662 -0.484904 0.0826112 3 252 255
-0.353699 -0.180344 -0.257998 81 174 255
0.324673 -0.0872845 0.162452 105 150 255
-0.0489358 -0.485036 0.0323999 3 252 255
0.248769 -0.466031 -0.250906 8 247 255
0.0794146 -0.478795 -0.218809 5 250 255
0.187053 -0.419806 -0.19384 20 235 255
-0.406139 -0.436897 -0.258122 16 239 255
0.342671 -0.00558856 -0.187082 126 129 255
0.156767 0.0728016 -0.188158 146 109 255
0.173817 -0.482172 -0.14712 4 251 255
0.0320341 -0.401275 0.378602 25 230 255
0.339297 -0.448111 -0.090195 13 242 255
0.340686 -0.135261 0.0928113 93 162 255
-0.121687 0.0750712 -0.199812 147 108 255
-0.0253273 -0.324821 0.449976 44 211 255
0.0370155 -0.487739 0.137281 3 252 255
0.0199123 -0.237936 -0.261937 67 188 255
-0.0173333 -0.482972 -0.167126 4 251 255
0.296542 -0.194442 -0.250779 78 177 255
-0.212062 0.0748146 -0.0178294 147 108 255
0.047673 -0.486438 0.0324074 3 252 255
-0.137454 -0.483093 0.0842085 4 251 255
-0.485422 -0.197752 -0.232375 77 178 255
-0.139422 -0.161249 -0.240199 86 169 255
-0.328096 0.00908748 -0.264323 130 125 255
0.341571 -0.190487 -0.0508091 79 176 255
0.147716 -0.463978 -0.253821 9 246 255
0.203416 -0.0391308 -0.24431 118 137 255
-0.116233 -0.485798 -0.0423759 3 252 255
0.195839 -0.232023 -0.228063 68 187 255
-0.418314 -0.359699 -0.237126 36 219 255
0.332955 0.0712016 0.0959424 146 109 255
-0.00855046 -0.431803 -0.25822 17 238 255
0.304685 -0.294466 -0.252547 52 203 255
-0.284334 0.0773089 -0.0161765 147 108 255
-0.351351 -0.07787 -0.231803 108 147 255
0.345153 -0.0429305 0.00607663 117 138 255
0.118587 -0.486246 0.0255977 3 252 255
-0.144598 0.0752071 -0.0614624 147 108 255
-0.223706 -0.18834 -0.26264 79 176 255
0.0634386 0.0737348 -0.171721 146 109 255
0.288709 0.0669713 -0.233566 145 110 255
-0.266418 -0.453305 -0.194182 12 243 255
-0.113643 -0.391219 0.412681 27 228 255
-0.402256 0.0560028 -0.257065 142 113 255
-0.166798 -0.427599 -0.236722 18 237 255
-0.148617 -0.464274 0.219655 9 246 255
0.0919029 -0.0475487 -0.239741 115 140 255
-0.200327 -0.399812 0.16247 25 230 255
-0.050828 0.0752997 -0.082666 147 108 255
-0.0874745 -0.22349 -0.262769 70 185 255
-0.200457 -0.0538195 -0.259638 113 141 255
0.325924 -0.345695 -0.0987733 39 216 255
0.114066 -0.483296 0.157114 4 251 255
0.0275162 -0.319316 -0.249038 46 209 255
0.274142 -0.343775 -0.201286 40 215 255
-0.354565 -0.482898 -0.0138703 4 251 255
0.243922 -0.435064 -0.0235601 16 239 255
0.124673 -0.387281 -0.0250499 28 227 255
-0.285237 -0.380439 -0.149846 30 225 255
-0.00801744 -0.114698 -0.247907 97 157 255
-0.131393 -0.481121 -0.15881 4 251 255
-0.300327 -0.449809 0.174968 12 243 255
-0.393665 0.0741696 -0.0172854 147 108 255
-0.309018 -0.272511 -0.261879 58 197 255
0.234229 -0.122091 -0.238619 96 159 255
-0.354967 -0.479657 -0.224723 5 250 255
0.27212 -0.428841 -0.216856 18 237 255
0.344194 0.0733537 -0.114237 146 109 255
0.189678 -0.401294 0.0891954 25 230 255
0.0384438 -0.420105 -0.188525 20 235 255
0.337173 -0.0247788 0.187449 121 134 255
0.334643 0.0235991 -0.00947507 134 121 255
0.00553049 -0.482131 -0.102616 4 251 255
-0.0947266 -0.0226266 -0.251344 121 133 255
0.0630901 0.0755598 0.0232441 147 108 255
0.237173 0.0752256 0.0999457 147 108 255
0.284478 -0.288974 0.0460656 54 201 255
0.0923293 0.0743017 -0.076595 147 108 255
-0.500327 0.0752256 -0.175054 147 108 255
0.320082 -0.422418 0.0881212 19 236 255
0.203102 -0.482679 -0.213743 4 251 255
-0.209286 -0.485372 -0.183667 3 252 255
0.0599281 0.0128733 -0.25549 131 124 255
0.116381 -0.366431 -0.262869 34 221 255
0.323773 -0.270315 -0.129702 58 197 255
-0.10412 0.074383 -0.144404 147 108 255
-0.294064 -0.41926 -0.0560076 20 235 255
0.251341 0.069335 -0.156425 145 110 255
-0.115048 -0.314119 -0.233135 47 208 255
0.329673 -0.312617 0.168855 48 207 255
-0.246676 -0.482454 0.138743 4 251 255
0.351035 0.0645848 0.0372099 144 111 255
0.0520596 -0.178281 -0.251276 81 173 255
0.0757081 -0.48208 -0.151139 4 251 255
-0.24882 -0.397518 0.0442308 26 229 255
-0.233431 -0.43395 -0.243915 16 239 255
0.267447 -0.476672 -0.114395 6 249 255
-0.371752 0.0735724 -0.150766 146 109 255
0.329326 -0.112368 -0.110868 99 156 255
0.0867324 -0.106555 -0.263214 100 155 255
-0.259154 0.0748774 -0.116391 147 108 255
0.251634 0.074447 0.0127815 147 108 255
0.243938 -0.435529 0.0476105 16 239 255
0.311997 0.00519373 0.0794604 129 126 255
0.323595 -0.480529 0.11909 5 250 255
0.0280981 -0.466232 0.0770682 8 247 255
-0.241973 -0.482265 -0.126866 4 251 255
-0.407307 -0.21594 -0.230053 72 183 255
-0.279796 0.0657909 -0.247078 144 111 255
-0.463668 0.0134 -0.262585 131 124 255
0.200454 -0.482376 -0.0762998 4 251 255
0.340946 -0.188691 0.092974 79 176 255
0.0501383 -0.412455 -0.256185 22 233 255
-0.236716 -0.397859 -0.131179 26 229 255
-0.189316 -0.48315 -0.0386954 4 251 255
-0.293658 -0.0427736 -0.242404 117 138 255
-0.0445342 -0.441656 -0.199602 15 240 255
0.277494 -0.0874403 -0.252517 105 150 255
0.336093 -0.170396 -0.204456 84 171 255
-0.215304 -0.24662 -0.230195 64 191 255
-0.446129 -0.309438 -0.256332 48 207 255
-0.00213208 0.074076 -0.123788 147 108 255
-0.0103831 -0.172784 -0.244639 83 172 255
-0.35574 -0.373195 -0.263442 32 223 255
-0.215128 0.0752908 -0.167613 147 108 255
0.0871731 -0.39978 0.162449 25 230 255
-0.468603 -0.145102 -0.233992 89 165 255
0.343722 -0.341911 0.00341816 40 215 255
0.048131 -0.485402 -0.0666368 3 252 255
-0.239413 -0.365684 -0.203379 34 221 255
0.332559 -0.354718 -0.234255 36 218 255
0.210291 -0.327573 -0.266967 44 211 255
0.112173 -0.387279 0.037449 28 227 255
-0.0696185 0.074645 0.00239825 147 108 255
-0.0781741 -0.431683 0.324032 17 238 255
-0.347048 0.0739899 -0.0722728 147 108 255
-0.301518 -0.482354 -0.0725887 4 251 255
0.225871 -0.363355 -0.0437737 35 220 255
0.11641 -0.264637 -0.245779 60 195 255
0.318091 -0.0893848 -0.195441 105 150 255
-0.048536 -0.484077 0.158302 4 251 255
-0.242389 -0.151761 -0.238293 89 166 255
0.216246 0.0745943 -0.0758677 147 108 255
0.205132 0.0719664 -0.187969 146 109 255
-0.380465 -0.123301 -0.262153 96 159 255
-0.449494 -0.453147 -0.263479 12 243 255
-0.0396687 -0.359929 -0.274961 35 220 255
0.181182 -0.482586 -0.0186625 4 251 255
0.144029 0.0287957 -0.236695 135 120 255
0.339598 -0.0663838 0.0719164 111 144 255
0.334135 0.0139985 -0.111555 131 124 255
0.33189 -0.484052 -0.147771 4 251 255
-0.413172 -0.483518 -0.114211 4 251 255
-0.210131 0.0160263 -0.261537 131 123 255
0.139775 -0.425371 0.136821 19 236 255
-0.125266 -0.376593 -0.230777 31 224 255
-0.176141 -0.48358 -0.102376 4 251 255
0.34131 -0.238286 -0.0167932 67 188 255
-0.27173 -0.436026 0.115914 16 239 255
0.210251 -0.132287 -0.276901 94 161 255
0.323624 -0.434671 -0.19922 16 239 255
-0.274095 -0.217457 -0.256142 72 183 255
0.325297 -0.419574 0.178464 20 235 255
0.293457 0.0749411 -0.0721048 147 108 255
-0.181697 -0.482841 0.147608 4 251 255
0.176912 -0.487102 0.0929306 3 252 255
-0.185343 -0.118291 -0.234914 97 158 255
0.311703 -0.0261021 -0.204193 121 134 255
-0.232984 -0.414032 -0.0777487 22 233 255
0.148271 -0.0407664 -0.239722 117 138 255
0.326356 -0.249533 -0.238154 64 191 255
-0.317087 -0.429474 -0.24203 18 237 255
-0.062999 -0.0781212 -0.263444 108 147 255
0.104579 -0.467629 -0.0378643 8 247 255
-0.305308 -0.482774 0.0677664 4 251 255
-0.0236248 -0.298739 -0.274095 51 204 255
0.0345925 -0.0588225 -0.237965 113 142 255
0.146967 0.0743657 -0.110649 147 108 255
-0.473954 -0.0784692 -0.236983 107 147 255
0.255484 -0.258972 -0.273418 60 194 255
-0.0151748 -0.482417 -0.0181986 4 251 255
-0.141273 -0.442739 -0.26295 14 241 255
-0.149131 -0.25929 -0.262449 60 194 255
0.290964 -0.48843 -0.21302 3 252 255
0.157169 -0.414504 0.0172827 21 234 255
-0.321648 -0.308985 -0.235436 48 207 255
-0.214973 -0.398409 -0.0043657 26 229 255
-0.322458 -0.137484 -0.235311 92 163 255
-0.033431 -0.389637 0.401477 28 227 255
0.285072 -0.483423 0.0458678 4 251 255
0.214617 -0.419326 0.120959 20 235 255
0.247721 -0.02359 -0.254117 121 133 255
-0.430595 -0.0231281 -0.261815 121 133 255
0.0603871 -0.278241 -0.263898 56 199 255
0.309878 0.0748706 -0.161926 147 108 255
-0.122074 -0.407785 -0.181322 23 232 255
-0.391625 -0.482835 -0.189724 4 251 255
-0.105615 -0.482958 0.0528766 4 251 255
0.254067 -0.488032 0.136865 3 252 255
0.159237 -0.358223 -0.229894 36 219 255
0.03527 0.0735086 -0.22849 146 109 255
-0.465206 -0.404379 -0.242465 24 231 255
-0.276239 -0.483429 0.0132103 4 251 255
0.343339 -0.0918308 0.00929829 104 151 255
-0.403314 0.0660545 -0.215565 144 111 255
0.304769 -0.210005 -0.0450005 73 181 255
0.278688 -0.404769 -0.122365 24 231 255
0.341981 -0.405541 -0.0038219 24 231 255
-0.0192102 -0.483389 0.0720677 4 251 255
-0.222617 0.0745666 -0.0582485 147 108 255
0.327876 -0.0330119 -0.0599053 119 136 255
0.171227 -0.445993 -0.081497 13 242 255
-0.180068 -0.483087 0.00925407 4 251 255
0.342273 -0.237241 -0.161043 67 188 255
0.33988 -0.401204 0.130042 25 230 255
-0.129999 0.0200545 -0.261485 133 121 255
0.0176425 0.0743088 -0.00897789 147 108 255
-0.0853816 -0.149559 -0.261897 89 166 255
-0.288017 0.0747288 0.0289119 147 108 255
-0.331272 -0.482223 -0.117892 4 251 255
0.260019 -0.203863 -0.22673 75 179 255
0.33535 -0.00753003 0.122479 126 129 255
0.128509 -0.139874 -0.268375 92 163 255
-0.0839163 -0.457971 -0.00300775 10 245 255
-0.128802 -0.481774 0.143939 4 251 255
-0.352665 -0.0221321 -0.263094 121 133 255
-0.148728 0.078265 -0.00441617 147 107 255
-0.263576 -0.372638 -0.254467 32 223 255
0.164077 0.0743717 -0.0422367 147 108 255
0.335329 -0.221714 0.0462701 71 184 255
-0.427889 0.0736447 -0.148161 146 109 255
-0.354004 -0.256578 -0.233004 62 193 255
0.342156 -0.131509 -0.0663305 94 161 255
-0.0528281 -0.481579 -0.235348 4 251 255
0.285153 -0.481326 -0.0288816 4 251 255
0.0686033 -0.220463 -0.243681 71 184 255
-0.411067 0.0740662 -0.0461403 147 108 255
0.00481843 -0.369295 -0.247018 32 222 255
-0.0937778 0.0756199 -0.0969438 147 108 255
-0.085558 0.0700477 -0.232711 146 109 255
-0.252743 -0.00181422 -0.242939 127 128 255
-0.19654 0.0749097 -0.119362 147 108 255
0.059631 -0.396837 0.401952 26 229 255
0.0266587 -0.483178 0.161067 4 251 255
-0.17801 -0.289934 -0.232361 52 202 255
-0.121029 -0.480946 -0.211567 4 251 255
0.117775 -0.475377 -0.13804 6 249 255
-0.340648 0.0659889 -0.242971 144 111 255
-0.303275 -0.422478 -0.0982009 19 236 255
0.340266 -0.409122 -0.0935498 23 232 255
0.345667 -0.286692 -0.0910334 54 201 255
0.227053 -0.381288 -0.257831 30 225 255
-0.294851 0.0744053 -0.0709495 147 108 255
0.34099 -0.328105 0.0657574 44 211 255
-0.422988 -0.263426 -0.263835 60 195 255
0.143659 0.0748682 0.034965 147 108 255
-0.0810559 -0.482134 -0.134511 4 251 255
0.110875 0.0732599 -0.184 146 109 255
0.336923 -0.15728 -0.00379927 87 168 255
-0.396591 -0.163776 -0.232029 86 169 255
0.00284486 0.00653862 -0.260138 129 126 255
0.246063 -0.39671 0.0283555 26 229 255
0.323407 -0.171695 -0.139633 84 171 255
-0.174527 0.0740055 -0.211807 147 108 255
-0.0544611 -0.394892 -0.205189 26 229 255
0.203377 -0.485549 0.0163309 3 252 255
0.0939547 -0.428586 -0.237466 18 237 255
0.345092 0.00398605 0.0467856 129 126 255
-0.136993 -0.0698473 -0.259745 110 145 255
0.108821 0.00974574 -0.259848 130 125 255
0.150316 -0.482569 -0.22842 4 251 255
-0.30721 0.0751099 -0.142497 147 108 255
-0.246722 -0.482687 0.0743183 4 251 255
0.169722 -0.258885 -0.229501 60 194 255
-0.184468 -0.452801 0.199635 12 243 255
-0.287703 -0.476875 -0.232865 6 249 255
0.335141 0.0319544 -0.215036 136 119 255
-0.226536 0.0749069 0.0146003 147 108 255
0.218864 0.0466549 -0.245434 140 114 255
0.0293429 -0.125149 -0.242789 96 159 255
0.333961 -0.451642 0.0330604 12 243 255
-0.0767464 -0.464051 0.208675 9 246 255
0.302999 -0.295141 -0.198711 52 203 255
-0.183472 -0.363922 -0.228737 34 221 255
0.297547 -0.140352 -0.252274 92 163 255
0.334582 -0.0947931 0.119297 103 152 255
-0.0132036 0.0722745 -0.179961 146 109 255
0.327756 -0.381495 -0.156438 30 225 255
-0.485013 -0.221311 -0.231467 71 184 255
-0.0138811 -0.410203 0.367504 23 232 255
-0.369523 -0.438683 -0.199642 15 240 255
0.205952 -0.405987 0.165127 24 231 255
0.326964 -0.249533 0.100401 64 191 255
0.151371 -0.431497 -0.16755 17 238 255
0.166038 -0.0990812 -0.243502 102 153 255
0.0124728 -0.483615 -0.156715 4 251 255
-0.429885 -0.482025 -0.231279 4 251 255
0.223896 -0.482261 -0.12114 4 251 255
-0.123271 -0.322084 -0.268195 44 210 255
0.298407 0.0741638 0.0327521 147 108 255
0.296189 -0.400953 -0.0578802 25 230 255
-0.404544 -0.0994145 -0.230909 102 153 255
0.363545 0.0494451 -0.0450084 140 114 255
-0.207447 -0.430796 -0.174342 17 238 255
0.337189 0.0499426 0.122819 140 114 255
-0.0385078 -0.199964 -0.261715 76 179 255
0.0390217 0.0744678 -0.0903393 147 108 255
0.221744 0.0746091 -0.0270949 147 108 255
-0.227286 -0.0906936 -0.259025 104 151 255
0.0122742 0.0748388 0.045001 147 108 255
0.0968805 -0.486562 0.0782657 3 252 255
0.146324 0.0654209 -0.247737 144 111 255
0.169702 -0.387073 -0.015818 28 227 255
0.268424 -0.31956 0.0513398 46 209 255
-0.247862 -0.298259 -0.263559 51 204 255
-0.0681161 -0.268365 -0.263779 59 195 255
-0.476407 -0.366091 -0.237827 34 221 255
0.168216 -0.426179 -0.252346 18 237 255
0.187332 -0.488525 0.146795 3 252 255
-0.16486 -0.459485 0.0847419 10 245 255
-0.0901917 -0.390608 0.403383 28 227 255
-0.317819 -0.228401 -0.2604 69 186 255
0.0694355 -0.358611 -0.242168 36 219 255
0.010878 -0.478009 -0.224203 5 250 255
0.331635 -0.0526603 -0.234862 113 141 255
0.22493 -0.300116 -0.230423 51 204 255
-0.0360263 -0.0379194 -0.260204 118 137 255
-0.260076 0.0707016 -0.198111 146 109 255
0.299199 -0.0865287 0.0308554 105 150 255
-0.443854 0.0645548 -0.236672 144 111 255
0.330194 -0.0645173 -0.14683 111 144 255
-0.315015 -0.481533 -0.160553 4 251 255
0.15645 -0.421457 0.0754306 20 235 255
0.321232 -0.363692 0.104198 34 221 255
-0.0358201 -0.46615 -0.0559487 8 247 255
-0.0659085 -0.388928 -0.276823 28 227 255
0.244261 0.0746118 -0.103818 147 108 255
0.245527 -0.458103 -0.19831 10 245 255
-0.177777 -0.232568 -0.231472 68 187 255
-0.236271 -0.482145 -0.0797323 4 251 255
-0.286288 -0.40378 -0.203772 24 231 255
-0.402945 -0.402908 -0.255775 24 231 255
0.0713739 -0.488316 0.154102 3 252 255
-0.0168267 -0.47464 0.193727 6 249 255
0.323324 -0.306008 -0.14411 48 206 255
0.290559 -0.198001 0.0450507 77 178 255
-0.127468 -0.481601 -0.125707 4 251 255
-0.221858 -0.456234 -0.243579 11 244 255
-0.329514 -0.471563 0.0279096 7 248 255
-0.174357 -0.430517 -0.0937337 17 238 255
0.150596 -0.482481 -0.101035 4 251 255
0.325931 -0.344167 -0.0594266 39 216 255
0.19213 -0.232294 -0.27609 68 187 255
-0.401109 -0.312934 -0.231931 47 208 255
0.290138 0.0259374 -0.253195 134 121 255
-0.145797 -0.164803 -0.260222 85 170 255
-0.274525 -0.410108 -0.0108561 23 232 255
-0.100327 -0.337324 0.449978 40 214 255
0.299038 -0.482078 -0.10288 4 251 255
0.331669 0.0117399 -0.150153 131 124 255
-0.402188 -0.479351 -0.0832797 5 250 255
0.239823 -0.0745706 -0.255055 108 147 255
0.323564 -0.431749 -0.240172 17 238 255
-0.290012 -0.482527 0.111907 4 251 255
-0.0530255 0.0438608 -0.259625 139 116 255
0.202905 -0.170349 -0.234838 84 171 255
-0.237827 -0.387313 0.112471 28 227 255
0.304964 -0.487438 0.178778 3 252 255
0.33119 -0.475714 -0.0213779 6 249 255
-0.0399692 0.0743062 -0.0452087 147 108 255
0.0644119 -0.486158 -0.0122102 3 252 255
0.0900267 0.0750526 0.0271647 147 108 255
0.248842 0.0743005 0.0552203 147 108 255
0.338989 -0.230524 -0.074597 69 186 255
0.341607 -0.143626 0.055037 91 163 255
0.327062 -0.184015 -0.239565 80 175 255
-0.143238 0.0743031 -0.135173 147 108 255
0.306486 -0.279401 0.0177467 56 199 255
-0.484141 -0.312987 -0.232289 47 208 255
0.0972122 -0.47305 -0.248478 6 249 255
0.240814 -0.401625 -0.0274928 25 230 255
-0.297048 -0.340141 -0.23458 40 214 255
0.328996 -0.0662677 -0.042917 111 144 255
-0.154247 -0.480189 -0.251401 5 250 255
0.196845 0.0738435 -0.13617 146 109 255
0.289885 0.0747726 -0.200065 147 108 255
-0.330849 0.0737064 -0.200944 146 109 255
-0.113747 0.0754286 -0.0488483 147 108 255
-0.210686 -0.482506 0.169061 4 251 255
0.0554571 -0.433591 -0.189359 17 238 255
-0.442688 -0.149826 -0.25153 89 166 255
-0.329425 -0.0660749 -0.262389 111 144 255
0.0973072 0.0737769 -0.131666 146 109 255
-0.205064 -0.434716 0.0125758 16 239 255
0.0814988 -0.469547 -0.095305 7 248 255
-0.129389 -0.485866 -0.0595224 3 252 255
0.0419661 -0.0287149 -0.260767 120 135 255
-0.0449832 -0.460533 0.0551819 10 245 255
0.319902 -0.129307 -0.194699 94 161 255
0.299783 0.0742068 -0.0233754 147 108 255
0.15303 -0.289033 -0.268017 54 201 255
-0.167316 -0.00591027 -0.2608 126 129 255
-0.0401423 -0.442605 -0.260414 14 241 255
0.109156 0.0743904 -0.0464893 147 108 255
-0.00466457 -0.243097 -0.24955 65 190 255
0.330834 -0.298408 0.130862 51 204 255
-0.370072 -0.457607 -0.152101 10 245 255
0.247514 -0.405982 -0.0918212 24 231 255
0.118917 -0.0478807 -0.263894 115 140 255
-0.312219 -0.420557 0.0526769 20 235 255
-0.0807852 0.0720097 -0.176825 146 109 255
0.134956 -0.189007 -0.244539 79 176 255
-0.166833 0.0623851 -0.249663 144 111 255
0.327338 -0.209577 0.124645 73 181 255
-0.112565 -0.434886 0.313458 16 239 255
-0.00918471 -0.440889 -0.185036 15 240 255
0.281746 -0.371386 -0.245908 32 222 255
-0.258383 -0.0408979 -0.242302 117 138 255
0.27257 -0.446502 -0.250875 13 242 255
0.162173 -0.387283 -0.137548 28 227 255
0.0885239 0.0576481 -0.255364 142 113 255
0.124609 -0.342972 -0.24501 40 215 255
-0.357373 0.0741305 -0.0474539 147 108 255
-0.349257 -0.195062 -0.23554 78 177 255
0.104949 -0.47918 -0.184277 5 250 255
-0.173937 -0.40414 -0.214349 24 231 255
-0.334159 -0.472934 -0.24245 7 248 255
0.193683 -0.442338 -0.033458 14 241 255
-0.304846 -0.482531 -0.0451271 4 251 255
-0.397893 -0.0110239 -0.260828 125 130 255
0.289058 -0.48577 0.10773 3 252 255
-0.400325 -0.487298 -0.0125392 3 252 255
0.259412 -0.239704 -0.23476 65 189 255
-0.462827 0.0752256 -0.100054 147 108 255
-0.212842 -0.370602 -0.264723 32 222 255
-0.0439553 -0.484482 -0.109175 4 251 255
-0.244665 -0.446329 0.0652032 13 242 255
-0.0997718 -0.226378 -0.235483 70 185 255
-0.0878875 -0.484973 0.129942 3 252 255
0.171528 -0.482818 0.046017 4 251 255
-0.0148091 0.0735983 -0.224189 146 109 255
-0.283845 0.0402942 -0.261826 138 117 255
-0.16086 -0.440143 -0.0341981 15 240 255
0.0303529 -0.282935 -0.270294 55 200 255
-0.26474 -0.247578 -0.2626 64 191 255
0.287153 0.0745146 -0.118277 147 108 255
-0.303881 -0.151011 -0.259112 89 166 255
-0.0860381 -0.367892 -0.23861 32 222 255
-0.145577 -0.456825 0.0451329 11 244 255
0.0554681 -0.472037 0.105607 7 248 255
0.190699 -0.478857 -0.244862 5 250 255
0.324811 -0.203661 -0.125476 75 179 255
0.0151139 -0.4858 -0.0534092 3 252 255
0.317162 -0.334435 -0.00393374 42 213 255
-0.0832762 -0.48535 -0.00890452 3 252 255
0.335544 -0.44428 0.157504 14 241 255
-0.276322 -0.408388 -0.131455 23 232 255
0.127529 -0.48278 -0.0187375 4 251 255
-0.433815 -0.480532 -0.168725 5 250 255
-0.178766 -0.485651 -0.158277 3 252 255
0.128983 -0.448413 0.105567 13 242 255
0.312277 -0.405958 0.0452456 24 231 255
-0.040049 0.0751387 -0.114874 147 108 255
0.0919898 -0.134956 -0.241478 93 162 255
0.347042 -0.0016137 -0.014381 127 128 255
0.343598 -0.302057 -0.185037 50 205 255
0.343113 -0.0378928 0.0705433 118 137 255
0.0499577 0.0738262 -0.176283 146 109 255
-0.446369 0.0735004 -0.164261 146 109 255
0.324673 0.0127253 0.187446 131 124 255
-0.248608 -0.482549 -0.169774 4 251 255
-0.11467 -0.11507 -0.243026 97 157 255
0.0454594 0.0739631 -0.0302273 147 108 255
0.20175 -0.00217982 -0.24762 127 128 255
0.252931 -0.149065 -0.234414 89 166 255
-0.254219 -0.123435 -0.240733 96 159 255
-0.218781 -0.463327 0.11091 9 246 255
0.266016 -0.449044 0.00144312 13 242 255
0.221815 -0.482561 0.156174 4 251 255
0.338117 -0.141241 0.109731 91 163 255
-0.1833 0.0748671 -0.0447364 147 108 255
-0.051247 -0.481487 -0.180884 4 251 255
-0.500326 -0.487276 -0.250053 3 252 255
0.206811 0.0745105 0.0494997 147 108 255
-0.44689 0.0444302 -0.265645 139 116 255
0.3292 -0.102264 -0.246006 101 154 255
-0.024191 -0.384245 0.430497 29 226 255
0.0996729 -0.362303 0.449964 35 220 255
-0.0603695 0.0761717 0.00648688 147 108 255
0.186874 -0.478531 -0.157358 5 250 255
-0.0684803 -0.304207 -0.265744 50 205 255
0.236552 -0.483513 0.0700798 4 251 255
0.346008 -0.0392085 -0.0894159 118 137 255
0.343406 -0.385785 -0.189449 29 226 255
0.344491 -0.143963 -0.13963 91 163 255
-0.175327 0.0751851 0.0624721 147 108 255
-0.10936 -0.439683 -0.192015 15 240 255
0.0220645 -0.356302 -0.262891 36 219 255
-0.254766 -0.462424 -0.00657408 9 246 255
0.212833 -0.416565 -0.192435 21 234 255
-0.312312 0.0772017 -0.023338 147 108 255
0.295755 -0.452503 -0.15055 12 243 255
-0.00478586 -0.0834667 -0.259964 105 149 255
0.062173 0.0752137 0.0874534 147 108 255
0.0385744 -0.458386 -0.257584 10 245 255
0.323618 -0.241243 -0.191721 65 189 255
0.224381 0.0721889 -0.193839 146 109 255
0.341259 -0.44896 -0.0662715 13 242 255
0.273118 -0.336489 -0.199426 40 214 255
0.17209 -0.133216 -0.273006 93 162 255
-0.385248 -0.0553385 -0.235541 113 142 255
0.338391 0.073462 -0.157984 146 109 255
-0.105143 0.00122078 -0.259886 128 127 255
-0.205055 -0.32738 -0.227756 44 211 255
0.281594 -0.00189347 -0.222547 127 128 255
-0.357443 -0.295759 -0.252578 52 203 255
0.0260467 -0.170953 -0.263015 84 171 255
0.13037 -0.405018 -0.243544 24 231 255
-0.00518819 -0.469497 0.100583 7 248 255
-0.462932 -0.0618508 -0.262953 112 143 255
0.335311 -0.482722 -0.213475 4 251 255
-0.385351 0.0735126 -0.188426 146 109 255
0.0834283 -0.465342 0.171716 8 247 255
0.345452 0.0730315 -0.0576972 146 109 255
-0.225985 0.0750821 -0.199094 147 108 255
0.330695 -0.457389 0.0865753 10 245 255
-0.0905459 -0.423143 -0.250622 19 236 255
0.341174 -0.176681 -0.0174487 81 173 255
0.0379468 -0.484054 -0.106256 4 251 255
0.0826742 -0.483161 0.0378617 4 251 255
0.154085 0.0733222 -0.162469 146 109 255
-0.341157 -0.388856 -0.253799 28 227 255
0.0892757 -0.308161 -0.253021 48 206 255
-0.241091 -0.413479 -0.202487 22 233 255
0.329651 0.07372 0.0880757 146 109 255
-0.00777548 -0.486602 0.0236422 3 252 255
-0.447642 -0.18534 -0.232702 80 175 255
-0.375719 0.0345616 -0.265434 136 119 255
0.195139 -0.397592 0.0388774 26 229 255
-0.273281 -0.401472 -0.0557394 25 230 255
-0.250327 -0.424809 0.174969 19 236 255
-0.035265 -0.163885 -0.260604 86 169 255
0.329879 -0.340975 -0.235882 40 215 255
-0.356779 -0.461733 -0.0895683 9 246 255
0.229143 -0.482301 -0.0616523 4 251 255
0.338839 -0.269455 0.0432896 59 195 255
0.0515322 -0.0742412 -0.263074 109 146 255
-0.159399 -0.478079 0.189331 5 250 255
0.120452 -0.225843 -0.269819 70 185 255
-0.00305369 0.0178721 -0.232184 131 123 255
-0.241152 0.0745644 -0.0844065 147 108 255
-0.202589 -0.0902402 -0.238522 104 151 255
-0.500327 0.0752256 -0.237554 147 108 255
0.176467 0.0743091 -0.00468609 147 108 255
0.211908 -0.297932 -0.270539 51 204 255
-0.0628269 -0.299826 0.449979 51 204 255
-0.152119 -0.225111 -0.262168 70 185 255
0.336815 -0.381075 -0.127601 30 225 255
0.343175 -0.04721 -0.189989 115 140 255
-0.192669 -0.482855 0.0512013 4 251 255
-0.15776 0.0751571 -0.089732 147 108 255
-0.0378271 0.0751974 0.0749641 147 108 255
-0.372398 -0.239641 -0.263064 65 189 255
-0.141169 -0.362586 -0.260828 35 220 255
-0.198159 -0.410709 -0.106054 22 233 255
-0.2489 -0.190626 -0.257951 79 176 255
0.330498 -0.306165 0.164294 48 206 255
0.342387 -0.105398 -0.0466902 101 154 255
0.246752 0.0626306 -0.238991 144 111 255
0.337999 -0.273555 -0.0416859 58 197 255
-0.378156 0.0737665 -0.127384 146 109 255
-0.101585 -0.478766 0.175399 5 250 255
0.271595 -0.0551641 -0.230759 113 142 255
0.158355 0.0744143 -0.0680069 147 108 255
-0.175327 -0.387312 0.12497 28 227 255
-0.162854 0.0756186 -0.177258 147 108 255
-0.290421 -0.374993 -0.175562 32 223 255
0.340435 -0.389879 0.145703 28 227 255
-0.0847971 -0.483837 0.0780111 4 251 255
0.342155 -0.102401 0.051658 101 154 255
-0.300209 -0.0238431 -0.261799 121 134 255
0.189005 -0.364056 -0.0293573 34 221 255
-0.215228 -0.482249 -0.0432483 4 251 255
-0.299769 0.0740498 -0.105001 147 108 255
0.290707 -0.481302 0.20257 4 251 255
0.2511 0.0744522 -0.0353492 147 108 255
-0.290728 -0.297969 -0.262579 51 204 255
0.0832022 0.026526 -0.236913 134 121 255
0.34383 -0.0911347 -0.117955 104 151 255
0.327163 -0.0285813 0.021588 120 135 255
-0.212849 -0.0305035 -0.260277 120 135 255
-0.119475 -0.0499496 -0.250302 115 140 255
0.319617 0.0189844 0.112316 131 123 255
0.250063 -0.430995 0.0619325 17 238 255
-0.372766 -0.42848 -0.247387 18 237 255
0.326727 -0.281514 -0.235779 56 199 255
0.023626 0.0740097 -0.103814 147 108 255
-0.385859 -0.14714 -0.263107 89 165 255
-0.250161 0.0745997 -0.0119129 147 108 255
-0.190782 -0.161975 -0.25762 86 169 255
0.129103 -0.471343 -0.0721282 7 248 255
0.195374 -0.385451 -0.252209 29 226 255
-0.00365004 -0.467796 -0.262216 8 247 255
0.348596 -0.291236 -0.133174 52 202 255
-0.26227 -0.481856 -0.12354 4 251 255
-0.0844489 -0.486161 -0.0829903 3 252 255
-0.445412 -0.256695 -0.249227 62 193 255
0.176097 -0.179821 -0.274486 81 173 255
-0.267702 -0.414866 0.0607959 21 234 255
0.159 -0.0251908 -0.238863 121 134 255
0.322855 0.0649689 -0.231482 144 111 255
-0.300177 -0.48193 -0.203157 4 251 255
0.331802 -0.483484 -0.136663 4 251 255
-0.143012 -0.482302 -0.0207629 4 251 255
-0.151915 -0.48306 0.110477 4 251 255
0.354025 0.0622262 0.00314257 144 111 255
0.311164 -0.403647 -0.0213699 24 231 255
-0.325327 0.0751984 0.0499634 147 108 255
-0.172678 0.0766983 -0.0013053 147 108 255
0.342333 -0.18486 0.0625084 80 175 255
0.12203 -0.448417 0.0403599 13 242 255
-0.418811 -0.366274 -0.250937 34 221 255
-0.0483688 -0.460502 0.222891 10 245 255
-0.0428361 -0.458176 0.00872973 10 245 255
0.341825 -0.166948 -0.0850507 85 170 255
0.243086 -0.482627 -0.219003 4 251 255
0.0513216 -0.22948 -0.24364 69 186 255
-0.310284 0.0462841 -0.223856 139 116 255
-0.252428 -0.399772 -0.255297 25 230 255
0.325435 -0.050735 0.11773 115 140 255
-0.0167638 -0.314127 -0.250205 47 208 255
-0.136055 -0.28819 -0.263078 54 201 255
0.331999 -0.376539 0.0481213 31 224 255
-0.272448 -0.0866881 -0.260665 105 150 255
-0.445454 -0.0779895 -0.227929 108 147 255
0.253866 -0.279245 -0.271299 56 199 255
0.0436652 -0.479418 -0.20988 5 250 255
-0.108317 0.075517 -0.00842702 147 108 255
0.200026 -0.0876265 -0.24539 105 150 255
0.344832 -0.0113884 -0.143418 125 130 255
-0.0718066 -0.159831 -0.241069 87 168 255
-0.0121321 0.0742399 -0.032887 147 108 255
0.0184122 0.0493607 -0.257073 140 114 255
-0.167446 -0.456247 -0.190548 11 244 255
0.0475119 -0.407379 -0.256488 23 232 255
0.10377 0.0738345 -0.103968 146 109 255
-0.0481693 -0.0214031 -0.251014 121 133 255
0.131035 -0.483313 0.12947 4 251 255
0.325441 -0.474154 0.0354327 6 249 255
0.321654 -0.00198951 -0.247558 127 128 255
0.184212 0.0575139 -0.24482 142 113 255
-0.35318 -0.480471 -0.0151619 5 250 255
0.265323 -0.401848 -0.254323 25 230 255
0.273107 0.0732643 0.0662892 146 109 255
0.101075 -0.15555 -0.266599 88 167 255
-0.104337 0.0287497 -0.229419 135 120 255
-0.0665838 -0.381426 0.427151 30 225 255
-0.410676 -0.474435 -0.236599 6 249 255
-0.0403726 0.074117 -0.158535 147 108 255
-0.236365 0.0509301 -0.249703 141 113 255
0.119894 0.0722465 -0.0071517 146 109 255
-0.418214 -0.48315 -0.1227 4 251 255
-0.330404 -0.121343 -0.234967 97 158 255
0.3364 -0.346186 -0.0826116 39 216 255
-0.217322 -0.421016 -0.0517023 20 235 255
0.106522 0.0737481 -0.221067 146 109 255
0.255215 -0.424763 -0.0986799 19 236 255
-0.388883 0.0739957 -0.0612988 147 108 255
-0.412827 0.075212 0.0249546 147 108 255
-0.202025 -0.405118 0.0155198 24 231 255
-0.185487 -0.481903 -0.0976102 4 251 255
0.254676 -0.482366 -0.0288165 4 251 255
0.321813 -0.223543 -0.241262 70 185 255
0.332529 -4.09515e-05 -0.0589219 128 127 255
-0.301698 0.0737172 -0.178621 146 109 255
-0.213619 -0.272567 -0.257363 58 197 255
0.305079 -0.151985 0.0384064 89 166 255
0.264108 -0.482718 -0.13209 4 251 255
-0.302115 -0.366918 -0.263709 34 221 255
0.346078 -0.178848 -0.16727 81 173 255
0.0299641 -0.482836 0.00111372 4 251 255
-0.0590894 -0.0948126 -0.259559 103 152 255
-0.126979 -0.413771 -0.255926 22 233 255
-0.463464 -0.407098 -0.24285 23 232 255
0.149673 -0.387282 -0.100049 28 227 255
-0.280872 -0.202431 -0.241341 76 179 255
-0.347066 -0.424504 -0.193502 19 236 255
-0.0325481 -0.484574 0.142096 4 251 255
0.327235 -0.3247 0.0887962 44 211 255
0.215552 -0.442843 -0.251241 14 241 255
0.248439 -0.348222 -0.263301 38 217 255
0.139337 -0.0968075 -0.244336 103 152 255
0.282015 -0.487457 0.131468 3 252 255
0.346247 0.0268767 0.0675538 134 121 255
-0.0408889 -0.397143 -0.197619 26 229 255
-0.373755 -0.0797823 -0.260002 107 147 255
-0.0909889 -0.425548 0.332695 19 236 255
0.31341 -0.484732 -0.0547995 3 252 255
0.18787 -0.483097 0.108722 4 251 255
-0.113906 -0.45954 0.0292383 10 245 255
0.308879 0.0743145 -0.098875 147 108 255
0.168656 -0.462089 -0.20237 9 246 255
-0.0133252 0.0747542 0.028346 147 108 255
0.159562 0.0747615 0.0384799 147 108 255
-0.0967061 -0.479919 -0.234145 5 250 255
0.0689011 -0.482073 -0.154374 4 251 255
-0.125918 0.0740751 -0.213725 147 108 255
0.17992 -0.319983 -0.243396 46 209 255
-0.211022 0.0751024 -0.144969 147 108 255
-0.34878 0.0742851 -0.00589147 147 108 255
0.337655 -0.43704 -0.2121 16 239 255
-0.203676 -0.474257 -0.220595 6 249 255
-0.113747 0.0755469 -0.107857 147 108 255
0.340815 0.041219 -0.185207 138 117 255
0.339546 -0.107316 -0.206051 100 155 255
-0.101334 -0.197315 -0.237479 77 178 255
0.144693 -0.237457 -0.243417 67 188 255
-0.274645 -0.482339 -0.0531578 4 251 255
-0.409328 0.0407093 -0.21635 138 117 255
-0.368899 -0.321709 -0.232675 44 210 255
-0.148742 -0.108122 -0.259051 100 155 255
-0.408462 -0.207943 -0.264239 73 181 255
0.132444 -0.430591 0.13301 17 238 255
0.275353 -0.178232 -0.251327 81 173 255
-0.0841252 -0.461812 -0.14324 9 246 255
0.0110569 -0.486433 0.0687153 3 252 255
0.325591 -0.343136 -0.17813 40 215 255
-0.337267 0.0231643 -0.265309 134 121 255
0.0384537 -0.275175 -0.243003 56 198 255
0.33671 -0.215994 0.0107619 72 183 255
0.0924996 -0.401829 -0.255819 25 230 255
0.258944 0.074549 -0.168228 147 108 255
0.204163 -0.413787 0.10738 22 233 255
-0.294767 -0.439109 -0.00429095 15 240 255
0.190287 -0.483322 -0.103133 4 251 255
0.0485421 -0.139545 -0.263259 92 163 255
0.189843 0.0744995 -0.081766 147 108 255
0.118926 -0.474683 -0.250804 6 249 255
0.336495 -0.256938 0.0998151 62 193 255
-0.0435166 0.0737906 -0.215794 146 109 255
-0.295364 -0.410387 -0.0986088 23 232 255
-0.468717 -0.289898 -0.237106 52 202 255
0.307875 -0.320947 0.0197302 44 210 255
-0.258182 -0.482713 0.0432563 4 251 255
0.224604 -0.482697 0.0252075 4 251 255
-0.0208782 -0.472636 -0.0912147 7 248 255
-0.270836 -0.482375 0.136229 4 251 255
-0.208967 -0.326841 -0.264413 44 211 255
0.339689 -0.440424 0.1231 15 240 255
-0.0845921 -0.333014 -0.263266 42 213 255
-0.107437 -0.3856 0.423951 29 226 255
0.321094 -0.254668 -0.0661621 62 193 255
-0.280532 -0.444672 -0.241595 14 241 255
0.0928613 -0.482594 -0.0707568 4 251 255
-0.0483231 -0.211787 -0.24304 73 182 255
0.0183809 -0.440171 -0.176185 15 240 255
0.086653 -0.0254616 -0.260602 121 134 255
-0.353133 -0.481652 -0.166415 4 251 255
-0.295513 -0.426532 0.08521 18 237 255
-0.443858 -0.482187 -0.214597 4 251 255
0.28264 0.0744361 0.00157711 147 108 255
0.170057 0.0739434 -0.195737 147 108 255
-0.17809 -0.416755 -0.174768 21 234 255
0.105439 -0.28589 -0.246092 54 201 255
-0.456095 -0.0270528 -0.266115 121 134 255
0.219055 -0.440281 -0.0705898 15 240 255
0.048006 0.0740145 -0.156802 147 108 255
0.0563069 0.0743853 -0.0501359 147 108 255
0.138248 -0.484234 0.0594914 4 251 255
-0.417021 -0.121723 -0.257775 96 159 255
-0.0051199 -0.392085 -0.253805 27 228 255
-0.315959 -0.481556 -0.0981945 4 251 255
0.327431 -0.100044 -0.150953 102 153 255
0.152169 -0.418345 0.0225414 20 235 255
0.322995 -0.242801 -0.15478 65 190 255
0.346679 0.0300251 -0.10589 135 120 255
0.343818 -0.0699933 -0.00651905 110 145 255
0.335626 -0.0836198 0.11925 105 149 255
-0.307036 -0.283814 -0.234616 55 200 255
0.221552 -0.0286551 -0.24364 120 135 255
0.292126 -0.474819 -0.2413 6 249 255
0.320977 -0.414473 -0.145064 21 234 255
0.332988 -0.373282 -0.0350726 32 223 255
-0.272591 0.0744218 -0.0507755 147 108 255
0.012137 -0.040987 -0.237278 117 138 255
0.177028 -0.481613 -0.0278558 4 251 255
0.326319 -0.378867 -0.239499 31 224 255
-0.172055 0.0112235 -0.261459 130 125 255
0.283379 -0.483522 0.056583 4 251 255
0.14224 -0.48219 -0.148193 4 251 255
-0.435145 -0.446033 -0.265461 13 242 255
0.278308 -0.10288 -0.252235 101 154 255
-0.0811255 -0.26949 -0.237146 59 195 255
-0.163593 -0.471883 0.208796 7 248 255
0.303838 -0.441067 -0.00354085 15 240 255
0.212724 -0.152338 -0.23674 89 166 255
0.255514 -0.382873 -0.217524 30 225 255
-0.0577082 0.0753611 -0.0796926 147 108 255
-0.169711 -0.388641 -0.255907 28 227 255
-0.0699129 -0.467846 0.103247 8 247 255
0.085697 -0.339714 -0.263971 40 214 255
-0.500327 -0.337274 -0.262554 40 214 255
0.295856 -0.205074 0.049276 75 179 255
0.225816 -0.39988 0.0697497 25 230 255
0.0964972 -0.102403 -0.244675 101 154 255
0.326509 -0.417858 0.177168 21 234 255
0.3356 -0.487155 -0.177158 3 252 255
-0.16153 -0.436381 -0.0980503 16 239 255
-0.00840154 -0.118926 -0.260473 97 158 255
-0.378549 -0.247983 -0.233216 64 191 255
-0.213749 -0.23419 -0.231226 68 187 255
0.0639621 -0.487831 0.121375 3 252 255
0.283208 -0.292603 -0.215717 52 202 255
0.222166 -0.477447 -0.186215 5 250 255
0.024143 -0.193818 -0.244265 78 177 255
-0.211567 -0.482708 0.131131 4 251 255
-0.0645619 -0.438061 -0.195609 15 240 255
-0.258894 0.0151741 -0.261936 131 124 255
0.0710396 0.0742465 0.0156779 147 108 255
-0.420798 0.0253022 -0.267247 134 121 255
-0.334462 -0.177669 -0.238654 81 173 255
-0.332486 -0.476177 0.0193532 6 249 255
0.300405 -0.0270761 -0.253273 121 134 255
0.339202 -0.129762 -0.0214739 94 161 255
-0.195008 -0.482711 0.0250333 4 251 255
-0.0908969 -0.486217 -0.0376459 3 252 255
0.337173 -0.0372803 0.18745 118 137 255
-0.203189 0.0693327 -0.230685 145 110 255
-0.314532 0.0749884 -0.126246 147 108 255
0.0234791 -0.467878 -0.132194 8 247 255
0.33878 -0.155398 0.107458 88 167 255
-0.0138635 -0.391775 0.402597 27 228 255
-0.394426 -0.477636 -0.0762246 5 250 255
-0.120112 0.0743066 -0.158666 147 108 255
0.21581 0.0743692 4.17496e-05 147 108 255
0.15056 -0.397474 -0.252476 26 229 255
0.152531 -0.00103976 -0.255983 127 128 255
-0.230921 -0.410217 -0.112685 23 232 255
0.322664 -0.319 -0.117184 46 209 255
0.0509724 0.0735955 -0.21926 146 109 255
0.346524 0.0354702 0.0249675 137 118 255
-0.175215 -0.473249 -0.24527 6 249 255
0.172559 0.0740574 -0.126346 147 108 255
-0.151294 -0.0466724 -0.258709 116 139 255
-0.175327 -0.412311 0.174969 22 233 255
0.3419 -0.414878 -0.0663539 21 234 255
-0.302694 -0.378994 -0.220736 31 224 255
-0.292476 -0.481373 -0.166626 4 251 255
0.335034 -0.395306 0.0931617 26 229 255
-0.00595927 0.0741913 -0.0844751 147 108 255
-0.0186218 -0.329669 -0.272872 43 211 255
-0.184906 0.0743476 -0.0994786 147 108 255
-0.208733 -0.427263 0.0498565 18 237 255
0.247357 0.0745898 -0.0935165 147 108 255
0.322016 -0.157419 -0.245444 87 168 255
-0.103181 -0.481683 -0.168881 4 251 255
0.242547 -0.487286 0.111108 3 252 255
0.0715594 -0.229612 -0.266354 69 186 255
-0.41357 -0.329081 -0.256638 43 211 255
-0.00238952 0.0720384 -0.167831 146 109 255
0.328305 -0.208606 -0.0929901 73 181 255
0.0440533 -0.486312 0.0497572 3 252 255
-0.327283 0.0633081 -0.253829 144 111 255
-0.0120868 -0.478226 -0.221862 5 250 255
-0.458879 -0.180567 -0.232444 81 174 255
-0.0734173 -0.47012 0.172893 7 248 255
-0.205783 -0.484888 -0.164059 3 252 255
-0.0436854 0.0151373 -0.258677 131 124 255
0.332362 -0.0348455 -0.111009 119 136 255
-0.110365 -0.469501 -0.093644 7 248 255
-0.432901 0.0735099 -0.185088 146 109 255
0.241593 0.0100655 -0.248935 130 125 255
-0.159545 -0.153021 -0.240482 88 167 255
-0.325263 -0.05583 -0.240008 113 142 255
-0.111705 -0.32909 -0.233678 43 211 255
0.0249537 0.0747238 0.0390911 147 108 255
0.31476 -0.198633 -0.0305771 77 178 255
0.0998382 -0.481837 0.00078416 4 251 255
0.333934 -0.288442 -0.0120737 54 201 255
-0.0244349 -0.241382 -0.261012 65 189 255
-0.172512 -0.273466 -0.230826 58 197 255
0.315064 0.0737892 0.054499 146 109 255
0.330464 -0.128558 -0.0904424 95 160 255
0.0114219 -0.472864 0.126329 7 248 255
-0.0878272 0.0751921 0.0749675 147 108 255
0.198888 -0.39304 -0.0039917 27 228 255
-0.0128272 -0.349817 0.449974 38 217 255
-0.260396 0.0715633 -0.182757 146 109 255
0.112264 0.0733501 -0.173644 146 109 255
-0.346843 -0.462093 -0.0625258 9 246 255
0.17588 -0.264302 -0.22967 60 195 255
0.326722 -0.478766 0.124238 5 250 255
-0.0977788 0.0755581 -0.0573756 147 108 255
0.0551594 -0.410434 -0.224144 23 232 255
0.332205 -0.482426 -0.107878 4 251 255
-0.0328429 -0.482539 -0.15854 4 251 255
-0.270992 -0.325843 -0.236175 44 211 255
-0.229879 -0.152443 -0.256364 89 166 255
-0.21011 0.0748904 0.0088416 147 108 255
0.163418 -0.436627 -0.161756 16 239 255
0.304894 0.0742429 -0.0514679 147 108 255
-0.0182838 -0.482311 -0.028244 4 251 255
-0.224527 -0.482734 -0.0983794 4 251 255
-0.0405796 -0.421051 -0.255874 20 235 255
-0.139648 -0.46069 0.081517 10 245 255
-0.201793 -0.4281 -0.245663 18 237 255
0.137173 0.0752256 0.0874457 147 108 255
0.240707 -0.397001 -0.0742647 26 229 255
0.046059 -0.0881908 -0.23957 105 150 255
-0.0768114 -0.0503805 -0.261725 115 140 255
0.311892 -0.000613369 0.087523 127 128 255
