ply
format ascii 1.0
comment Created by Open3D
element vertex 1196
property double x
property double y
property double z
property uchar red
property uchar green
property uchar blue
end_header
-0.145797 -0.482439 -0.208296 1 254 255
0.134293 -0.459403 0.0354624 7 248 255
0.0658498 -0.358272 0.173391 32 222 255
-0.15064 -0.387654 -0.0992932 25 230 255
-0.0562084 -0.224953 -0.21653 67 188 255
-0.0652805 -0.484136 0.242059 1 254 255
0.437173 -0.337274 -0.187554 38 217 255
0.275468 -0.401306 -0.243962 22 233 255
0.149121 -0.486588 0.253122 0 255 255
0.336515 -0.337229 0.042362 38 217 255
-0.212067 -0.45724 0.315958 8 247 255
-0.203974 -0.276483 -0.0928661 54 201 255
0.282701 -0.278117 -0.217017 54 201 255
0.204919 -0.485698 0.0837077 0 255 255
0.102609 -0.225165 -0.210849 67 188 255
0.221356 -0.450496 0.189506 9 246 255
-0.208724 -0.4433 0.104265 11 244 255
0.00290782 -0.479828 -0.249029 2 253 255
0.206395 -0.483618 -0.0876522 1 254 255
-0.197814 -0.280666 -0.18731 52 202 255
-0.214439 -0.415609 -0.148244 18 237 255
-0.148071 -0.367741 0.121575 31 224 255
0.430297 -0.36332 0.0514755 32 223 255
0.147283 -0.466099 -0.287094 5 250 255
-0.0124824 -0.274088 -0.254879 55 200 255
0.297571 -0.484504 -0.197856 1 254 255
-0.209753 -0.316308 0.22855 44 211 255
-0.090401 -0.369921 -0.0348554 30 225 255
0.0261358 -0.221574 -0.213894 68 187 255
-0.106922 -0.483106 -0.0417125 1 254 255
0.0491127 -0.483557 0.00456643 1 254 255
0.383602 -0.485712 -0.00689748 0 255 255
0.192501 -0.483031 -0.0141827 1 254 255
-0.166952 -0.483444 -0.153579 1 254 255
0.00999875 -0.409558 0.294873 20 235 255
-0.148247 -0.376667 0.0364552 28 227 255
0.361121 -0.338013 -0.173515 38 217 255
0.274032 -0.42332 0.0300624 16 239 255
0.188115 -0.445211 -0.215057 11 244 255
-0.0319682 -0.263587 0.271802 56 198 255
0.470826 -0.390056 -0.0342557 25 230 255
0.239767 -0.388175 -0.0430145 25 230 255
0.378525 -0.360956 -0.0114402 32 223 255
0.00187316 -0.356997 -0.208344 32 222 255
0.177607 -0.380033 0.0853562 27 228 255
0.0102095 -0.487782 0.420732 0 255 255
-0.107386 -0.438312 0.320322 13 242 255
0.136467 -0.356183 0.24917 34 221 255
0.263093 -0.334712 -0.133359 39 216 255
0.0413363 -0.427155 0.142703 15 240 255
0.311566 -0.358506 0.14201 32 222 255
0.440943 -0.392316 -0.140668 24 231 255
0.139427 -0.348334 -0.275251 36 219 255
-0.166275 -0.322086 -0.145364 42 213 255
-0.204081 -0.251994 0.150661 60 195 255
-0.112827 -0.487315 0.487472 0 255 255
0.315709 -0.385599 -0.107728 26 229 255
0.341766 -0.454028 0.109371 8 247 255
-0.106991 -0.414277 -0.116279 19 236 255
0.449673 -0.487274 0.124946 0 255 255
0.0935564 -0.399805 -0.22737 22 233 255
-0.0780012 -0.482614 -0.135684 1 254 255
0.114663 -0.319973 0.170317 43 211 255
0.199673 -0.32478 0.0374497 42 213 255
-0.110432 -0.273304 0.250803 55 200 255
-0.22463 -0.377283 -0.0682174 28 227 255
0.106659 -0.426417 -0.110039 16 239 255
-0.0674899 -0.458789 -0.277001 7 248 255
0.147551 -0.350037 -0.0339609 35 220 255
0.0038305 -0.48448 0.132932 1 254 255
0.177616 -0.376729 -0.108981 28 227 255
0.207811 -0.48812 0.283181 0 255 255
-0.01887 -0.485703 0.357429 0 255 255
0.0765247 -0.484198 0.0984747 1 254 255
-0.14976 -0.281977 -0.199749 52 202 255
-0.210584 -0.460076 0.393972 7 248 255
-0.217751 -0.445843 -0.0835502 11 244 255
0.23155 -0.323342 -0.219491 42 213 255
-0.218826 -0.332066 0.0803964 40 215 255
0.306664 -0.484524 -0.0828529 1 254 255
-0.161958 -0.428437 -0.201689 15 240 255
0.40697 -0.331118 -0.0608814 40 215 255
-0.205763 -0.441467 0.191219 12 243 255
-0.11273 -0.301505 -0.0486862 48 207 255
0.443697 -0.43446 -0.0168163 14 241 255
0.246203 -0.268447 -0.15991 56 199 255
-0.222264 -0.306023 0.0075005 46 209 255
0.0408889 -0.353823 0.221077 34 221 255
0.162173 -0.2248 0.262462 67 188 255
-0.0141757 -0.323354 -0.2603 42 213 255
-0.190468 -0.41499 0.0344054 18 237 255
-0.133798 -0.483649 0.0732138 1 254 255
0.236736 -0.484566 0.0198253 1 254 255
-0.216902 -0.204518 0.0531828 72 183 255
0.137082 -0.48431 -0.0250625 1 254 255
0.221086 -0.444261 -0.0967912 11 244 255
0.228749 -0.24743 -0.237055 60 194 255
0.362173 -0.487274 -0.250054 0 255 255
0.124191 -0.477542 0.174396 2 253 255
-0.120387 -0.379317 -0.267015 28 227 255
0.0246727 -0.212321 0.274976 70 185 255
-0.000327112 -0.349801 0.0249627 35 220 255
0.384859 -0.483693 -0.128339 1 254 255
-0.204546 -0.480441 0.135602 2 253 255
-0.116926 -0.483826 0.236001 1 254 255
0.255649 -0.487161 0.249484 0 255 255
-0.0942646 -0.320855 -0.20408 43 211 255
-0.214539 -0.382324 0.24574 27 228 255
-0.174657 -0.475726 -0.256947 3 252 255
0.237493 -0.42937 -0.218396 15 240 255
0.078502 -0.364549 -0.0260971 31 224 255
0.133342 -0.483875 -0.0969941 1 254 255
0.114823 -0.483824 -0.209542 1 254 255
-0.0423727 -0.482729 -0.180111 1 254 255
-0.207283 -0.327856 -0.0883019 40 214 255
-0.00675196 -0.482744 -0.0765841 1 254 255
0.269144 -0.337968 -0.0429643 38 217 255
0.359259 -0.485655 0.170104 0 255 255
-0.167316 -0.485382 0.332256 0 255 255
-0.163768 -0.403912 -0.0389632 21 234 255
0.0385335 -0.449034 -0.019721 10 245 255
-0.144779 -0.48281 0.00599021 1 254 255
0.0595973 -0.486109 0.28405 0 255 255
0.29041 -0.486467 0.127552 0 255 255
0.390592 -0.384879 -0.157928 26 229 255
-0.206142 -0.255012 -0.152954 59 195 255
0.033053 -0.44593 -0.271077 11 244 255
-0.0681866 -0.483536 0.100776 1 254 255
0.0201825 -0.487219 -0.169201 0 255 255
-0.198563 -0.483746 0.227351 1 254 255
0.0642708 -0.220535 -0.263254 68 187 255
-0.193533 -0.205328 0.265883 72 183 255
-0.0657607 -0.487086 0.457973 0 255 255
-0.219068 -0.315138 0.148611 44 211 255
0.109451 -0.282182 -0.110747 52 203 255
0.342258 -0.458484 -0.00163147 7 248 255
-0.215503 -0.477376 -0.130727 3 252 255
0.196945 -0.409463 -0.266656 20 235 255
-0.176841 -0.411764 0.288307 19 236 255
0.0759399 -0.295736 -0.22828 48 206 255
0.160267 -0.241055 -0.224106 63 192 255
0.0435138 -0.374975 -0.231884 29 226 255
0.474646 -0.385519 -0.0894831 26 229 255
-0.100327 -0.199818 0.274974 73 181 255
0.320191 -0.439481 -0.184169 12 243 255
-0.144286 -0.48539 0.3843 0 255 255
0.0535695 -0.483281 -0.10924 1 254 255
0.167 -0.47333 0.135381 4 251 255
-0.046808 -0.37711 -0.228707 28 227 255
0.296926 -0.351459 -0.226825 35 220 255
0.342685 -0.390982 0.132431 25 230 255
0.404397 -0.44413 0.0272495 11 244 255
-0.0502463 -0.485095 0.192969 1 254 255
0.405221 -0.349424 0.0924354 35 220 255
0.0923033 -0.486319 0.242567 0 255 255
0.315902 -0.483491 0.0459968 1 254 255
-0.187099 -0.254504 -0.00715379 60 195 255
0.0677129 -0.310657 -0.152908 44 210 255
-0.0357336 -0.331612 -0.0568759 40 215 255
-0.0832537 -0.437761 -0.23209 13 242 255
-0.111785 -0.231875 -0.171797 65 190 255
0.00883174 -0.486221 0.254919 0 255 255
-0.172027 -0.293806 0.267834 50 205 255
0.0113846 -0.344082 0.286861 36 218 255
-0.203123 -0.394224 -0.2641 24 231 255
-0.106588 -0.281624 -0.25431 52 202 255
-0.182193 -0.342858 0.200218 36 218 255
-0.0627394 -0.424762 -0.114947 16 239 255
0.122185 -0.439746 -0.245803 12 243 255
0.246568 -0.484518 -0.132691 1 254 255
0.213992 -0.328934 -0.174459 40 214 255
0.240888 -0.390734 0.0814863 25 230 255
-0.0679934 -0.486098 0.372456 0 255 255
-0.0197602 -0.483122 -0.00871889 1 254 255
-0.0362508 -0.301263 0.207908 48 207 255
0.127994 -0.285289 -0.176678 52 203 255
0.297844 -0.327495 -0.11377 40 214 255
0.357043 -0.483901 -0.188623 1 254 255
-0.0572157 -0.433228 0.0407633 14 241 255
0.201399 -0.483767 -0.216022 1 254 255
0.427541 -0.481168 -0.0844274 2 253 255
-0.106475 -0.280604 0.208429 52 202 255
-0.207675 -0.480926 0.0456077 2 253 255
0.443696 -0.358377 -0.00424183 32 222 255
0.00855037 -0.37996 -0.0265064 27 228 255
0.109437 -0.356378 0.217176 32 222 255
-0.0380808 -0.235435 -0.188019 64 191 255
-0.10918 -0.329956 -0.10821 40 215 255
0.0386262 -0.485175 0.173772 1 254 255
-0.198609 -0.243539 0.318874 62 193 255
0.223676 -0.47317 0.130586 4 251 255
0.122625 -0.235075 -0.269322 65 190 255
0.0533721 -0.323051 -0.0691775 42 213 255
0.271655 -0.384323 -0.190865 26 229 255
0.195854 -0.370311 0.152062 30 225 255
-0.182283 -0.413821 0.147647 19 236 255
0.312909 -0.483317 0.201532 1 254 255
-0.0878569 -0.406516 0.257046 21 234 255
-0.00776064 -0.332255 -0.136356 40 215 255
0.21488 -0.45253 -0.0291137 9 246 255
0.185097 -0.333794 -0.269958 39 216 255
0.326541 -0.336765 0.0840079 39 216 255
-0.16371 -0.254717 0.163015 60 195 255
0.00570945 -0.272846 0.281432 55 200 255
0.116945 -0.396492 0.11706 23 232 255
0.126281 -0.431009 0.0134536 14 241 255
-0.198241 -0.21029 -0.0680939 71 184 255
0.0726391 -0.376258 -0.278821 28 227 255
0.414487 -0.404898 0.107329 21 234 255
0.0693306 -0.487364 0.352705 0 255 255
0.424673 -0.412274 -0.200054 19 236 255
-0.188173 -0.278044 0.0654313 54 201 255
-0.108672 -0.417106 -0.0442794 18 237 255
0.0746286 -0.393712 0.267601 24 231 255
0.249673 -0.287281 0.0124497 51 204 255
0.36753 -0.484334 -0.0712572 1 254 255
-0.0773672 -0.361847 -0.171394 32 223 255
0.0169646 -0.335239 0.189945 39 216 255
0.0564697 -0.483849 0.0394428 1 254 255
0.214223 -0.345762 -0.0777539 36 219 255
-0.106133 -0.482452 -0.227288 1 254 255
0.0332337 -0.277457 -0.265548 54 201 255
0.0621729 -0.324798 0.0249608 42 213 255
-0.0468596 -0.484362 0.271136 1 254 255
-0.0509081 -0.482567 -0.0839239 1 254 255
0.135491 -0.371221 -0.20468 30 225 255
0.0692459 -0.303164 0.259965 47 208 255
-0.197972 -0.396942 0.361988 23 232 255
0.0663903 -0.430927 -0.094997 14 241 255
0.287679 -0.484937 -0.0205007 1 254 255
-0.169062 -0.48338 -0.0459945 1 254 255
0.31921 -0.339575 -0.0472125 38 217 255
-0.206501 -0.374311 -0.116983 29 226 255
0.247626 -0.484434 0.0659175 1 254 255
-0.2123 -0.472288 -0.251542 4 251 255
0.174673 -0.412282 0.26245 19 236 255
-0.119748 -0.482829 -0.137947 1 254 255
0.320544 -0.460785 -0.118102 7 248 255
-0.224303 -0.346769 -0.0255214 36 219 255
0.144612 -0.483981 -0.16012 1 254 255
0.0731968 -0.39079 -0.172343 25 230 255
-0.21961 -0.448103 0.00143734 10 245 255
0.220047 -0.302688 0.130947 47 208 255
0.189964 -0.466763 0.22728 5 250 255
0.330721 -0.299641 -0.159324 48 207 255
0.319365 -0.418302 -0.225367 18 237 255
0.293727 -0.393939 0.043166 24 231 255
-0.196517 -0.203245 0.108614 73 182 255
-0.171841 -0.249461 0.226557 60 194 255
0.0916177 -0.479963 -0.251188 2 253 255
-0.139017 -0.390054 -0.143478 25 230 255
0.0170565 -0.43808 -0.225788 13 242 255
-0.0526592 -0.483542 0.0602284 1 254 255
-0.209851 -0.405276 -0.176936 21 234 255
0.268843 -0.440444 0.163349 12 243 255
0.0175311 -0.398208 0.26515 23 232 255
0.0787541 -0.483178 -0.160404 1 254 255
-0.21617 -0.360637 0.324374 32 223 255
-0.180231 -0.44454 0.0721352 11 244 255
-0.192651 -0.484533 0.290373 1 254 255
-0.223605 -0.279064 -0.050572 52 202 255
-0.0678893 -0.277346 -0.22285 54 201 255
0.162422 -0.317961 -0.221732 43 211 255
0.367603 -0.357116 -0.0992118 32 222 255
0.403283 -0.427234 -0.127842 15 240 255
-0.109998 -0.380682 0.0128501 27 228 255
0.0199456 -0.372678 -0.106679 29 226 255
0.242539 -0.484163 -0.0653706 1 254 255
-0.0674217 -0.378826 -0.261678 28 227 255
0.225293 -0.395435 -0.176872 23 232 255
0.25929 -0.308024 -0.238463 46 209 255
0.248494 -0.378368 0.133177 28 227 255
0.43947 -0.419484 0.0459454 17 238 255
0.16581 -0.396627 0.0187326 23 232 255
-0.0231217 -0.470841 0.331126 4 251 255
0.124466 -0.484131 0.0825789 1 254 255
-0.0380415 -0.477708 -0.267841 2 253 255
-0.0231761 -0.410473 -0.155057 20 235 255
0.389396 -0.486268 0.115644 0 255 255
0.256998 -0.488214 0.209506 0 255 255
-0.145215 -0.460977 0.18003 7 248 255
0.429076 -0.344853 -0.114172 36 219 255
-0.217938 -0.244934 0.0207733 62 193 255
0.146667 -0.414511 -0.276126 19 236 255
-0.0547548 -0.38413 -0.0343946 26 229 255
-0.00634741 -0.462933 0.099437 6 249 255
-0.142973 -0.32792 0.001014 40 214 255
0.0259358 -0.330041 -0.234087 40 215 255
-0.133924 -0.48325 0.434058 1 254 255
0.122476 -0.319304 -0.138329 43 211 255
0.183487 -0.485931 0.296264 0 255 255
0.336746 -0.368253 0.0120445 30 225 255
-0.100593 -0.484739 0.327473 1 254 255
-0.162987 -0.378517 0.0724126 28 227 255
0.178715 -0.248067 -0.260427 60 194 255
0.0577648 -0.398448 -0.037781 23 232 255
0.282891 -0.450232 0.0751856 9 246 255
0.247539 -0.30914 0.0887279 46 209 255
-0.110112 -0.408528 -0.212524 20 235 255
-0.218102 -0.458381 -0.19372 7 248 255
0.182575 -0.452716 -0.0658876 9 246 255
0.332936 -0.352904 -0.202114 34 221 255
0.105199 -0.274641 -0.272273 54 201 255
-0.159491 -0.260827 -0.133382 58 197 255
-0.21977 -0.285718 0.303073 52 203 255
0.0295329 -0.48809 0.422778 0 255 255
-0.157381 -0.27627 -0.0601323 54 201 255
0.224591 -0.404657 0.0181499 21 234 255
-0.220059 -0.359498 0.0435685 32 222 255
0.370312 -0.344785 0.123259 36 219 255
0.175032 -0.344803 -0.151108 36 219 255
0.172245 -0.484131 0.058495 1 254 255
0.184621 -0.481449 -0.271214 1 254 255
0.413593 -0.480946 -0.0428318 2 253 255
-0.196325 -0.483641 0.393998 1 254 255
0.106154 -0.484225 0.306258 1 254 255
-0.124704 -0.433812 -0.093203 14 241 255
0.0352738 -0.390009 0.174941 25 230 255
0.0322911 -0.28566 0.239025 52 203 255
0.0785894 -0.440332 -0.00388608 12 243 255
-0.159832 -0.482734 0.117107 1 254 255
0.048634 -0.247274 -0.191469 60 194 255
-0.182427 -0.319812 0.164835 43 211 255
0.308996 -0.48249 -0.224614 1 254 255
-0.171395 -0.386793 -0.259352 26 229 255
0.110389 -0.434211 -0.204453 14 241 255
0.429652 -0.42108 -0.064789 17 238 255
0.43099 -0.318687 -0.0094183 43 211 255
0.394591 -0.486302 0.0603382 0 255 255
-0.0200633 -0.225767 -0.229334 67 188 255
-0.195213 -0.316676 -0.238346 44 211 255
-0.204148 -0.213468 -0.141492 70 185 255
0.174673 -0.32479 0.262456 42 213 255
0.254396 -0.479884 -0.266622 2 253 255
-0.222473 -0.421743 -0.0690264 17 238 255
0.0747359 -0.484613 0.124373 1 254 255
0.0940304 -0.320341 -0.0653386 43 211 255
-0.000327172 -0.274807 0.0249672 54 201 255
-0.205155 -0.205472 0.16356 72 183 255
-0.0373963 -0.249775 0.245461 60 194 255
-0.0966131 -0.483193 0.0433659 1 254 255
-0.119464 -0.452546 -0.185728 9 246 255
0.0549581 -0.484371 0.218305 1 254 255
0.30766 -0.408305 -0.108032 20 235 255
-0.155291 -0.332904 0.10761 39 216 255
-0.0307838 -0.482551 -0.140449 1 254 255
0.205752 -0.277467 -0.190083 54 201 255
0.0243558 -0.366876 -0.155859 31 224 255
-0.0648992 -0.468869 0.124449 5 250 255
0.227487 -0.373398 -0.26116 29 226 255
0.117623 -0.336476 -0.27607 39 216 255
0.177779 -0.356581 -0.0650023 32 222 255
0.356001 -0.407763 -0.196126 20 235 255
-0.0520432 -0.357305 -0.133701 32 222 255
0.209186 -0.484357 -0.139957 1 254 255
0.0680566 -0.483543 -0.0653596 1 254 255
-0.221278 -0.381457 0.148989 27 228 255
-0.21396 -0.342434 -0.169091 36 218 255
0.405166 -0.321993 0.0483567 42 213 255
-0.0892318 -0.483131 -0.0188821 1 254 255
-0.0649135 -0.483775 0.405674 1 254 255
0.101739 -0.484272 0.0155422 1 254 255
0.0261835 -0.487057 -0.212223 0 255 255
-0.00421337 -0.469155 0.159395 5 250 255
-0.176069 -0.483282 -0.105125 1 254 255
0.0267334 -0.308992 -0.105915 46 209 255
0.158543 -0.390961 0.0880586 25 230 255
-0.200905 -0.434092 -0.262049 14 241 255
-0.178077 -0.330702 -0.0899644 40 215 255
0.462173 -0.474774 0.0874457 3 252 255
0.13 -0.486072 0.206225 0 255 255
0.277276 -0.465393 -0.16722 6 249 255
0.358888 -0.431192 0.120095 14 241 255
0.174673 -0.26229 -0.112544 58 197 255
0.0116281 -0.394518 -0.25611 24 231 255
0.346844 -0.485657 -0.01556 0 255 255
-0.0677567 -0.322865 -0.259562 42 213 255
-0.207687 -0.20504 0.0153736 72 183 255
0.138821 -0.449764 -0.0386787 10 245 255
-0.20803 -0.27771 0.175832 54 201 255
-0.161836 -0.483969 0.212322 1 254 255
-0.207789 -0.424149 0.283438 16 239 255
-0.138235 -0.328979 -0.151657 40 214 255
0.133794 -0.354271 0.179009 34 221 255
0.0112013 -0.483925 0.365168 1 254 255
-0.213361 -0.21894 0.300164 69 186 255
0.268388 -0.35729 -0.0688341 32 222 255
0.394618 -0.476905 -0.160351 3 252 255
0.270348 -0.423004 -0.253868 16 239 255
-0.118875 -0.437593 -0.261377 13 242 255
-0.0285372 -0.291985 -0.214513 50 205 255
-0.177865 -0.440211 -0.152153 12 243 255
-0.169233 -0.389858 -0.0537399 25 230 255
0.103275 -0.342777 -0.211335 36 218 255
0.0216607 -0.483548 0.0533196 1 254 255
0.319682 -0.484991 0.146874 1 254 255
-0.205603 -0.347117 0.273956 36 219 255
-0.173918 -0.450516 0.0123793 9 246 255
-0.091331 -0.42022 -0.149649 17 238 255
0.288531 -0.409332 0.144309 20 235 255
-0.101234 -0.485146 0.277658 1 254 255
0.193178 -0.362163 -0.215973 32 223 255
0.280034 -0.346783 0.0107638 36 219 255
0.0193528 -0.241985 -0.258607 63 192 255
-0.125324 -0.483154 -0.0661487 1 254 255
0.206666 -0.323382 -0.12506 42 213 255
0.12154 -0.457357 -0.288373 8 247 255
-0.204778 -0.203424 0.221293 73 182 255
0.436324 -0.438385 -0.124217 12 243 255
-0.0946591 -0.485205 0.182642 1 254 255
-0.0242895 -0.483013 -0.210969 1 254 255
0.013598 -0.453364 -0.0480676 9 246 255
-0.218435 -0.253795 0.0849064 60 195 255
-0.0888648 -0.262041 0.236614 58 197 255
0.0599795 -0.334137 -0.275844 39 216 255
0.142006 -0.392313 -0.101986 24 231 255
0.281747 -0.289296 -0.180857 51 204 255
-0.112669 -0.241963 -0.208114 63 192 255
-0.170269 -0.381529 0.184077 27 228 255
-0.211385 -0.473877 0.0993864 3 252 255
0.197662 -0.486226 0.17479 0 255 255
0.0309586 -0.485853 0.309679 0 255 255
0.359699 -0.317222 -0.144052 44 211 255
0.33393 -0.486305 0.0815479 0 255 255
-0.12535 -0.338513 -0.0636247 38 217 255
0.176947 -0.417744 -0.217476 18 237 255
0.118735 -0.48754 0.34824 0 255 255
0.427711 -0.379605 0.0798048 28 227 255
0.109142 -0.405113 0.0140782 21 234 255
-0.207166 -0.421452 0.336279 17 238 255
-0.21917 -0.341749 0.099794 36 218 255
0.469612 -0.388559 -0.107748 25 230 255
0.176163 -0.459601 0.0149883 7 248 255
-0.209718 -0.384684 0.000204519 26 229 255
0.0734989 -0.414454 -0.148222 19 236 255
0.369121 -0.336921 -0.03274 38 217 255
-0.014349 -0.356335 -0.0332975 34 221 255
0.0989918 -0.396421 -0.281004 23 232 255
-0.143911 -0.479768 -0.261044 2 253 255
0.266985 -0.314992 -0.0963511 44 211 255
-0.0140403 -0.460043 -0.275228 7 248 255
0.102965 -0.376578 0.25667 28 227 255
-0.212405 -0.215003 -0.0450627 70 185 255
0.443422 -0.441171 0.00286005 12 243 255
0.108636 -0.241428 -0.226742 63 192 255
-0.199128 -0.482518 0.163159 1 254 255
-0.213709 -0.481824 -0.0874404 1 254 255
0.133431 -0.472266 0.11745 4 251 255
0.0167823 -0.43554 -0.132076 13 242 255
0.33074 -0.40232 -0.0772059 22 233 255
0.118115 -0.48325 -0.112568 1 254 255
-0.216888 -0.404599 0.0647232 21 234 255
0.426214 -0.371745 0.0169969 30 225 255
0.0496729 -0.274801 0.0124631 54 201 255
-0.129539 -0.366368 -0.191387 31 224 255
-0.177549 -0.442649 0.252128 11 244 255
0.326523 -0.345615 0.137991 36 219 255
0.255528 -0.486641 0.156181 0 255 255
0.0605892 -0.334162 -0.167919 39 216 255
0.224724 -0.291856 -0.252912 50 205 255
0.2804 -0.465276 -0.0686772 6 249 255
-0.0128272 -0.487316 0.474973 0 255 255
-0.188947 -0.311287 -0.030141 44 210 255
-0.0854379 -0.482719 -0.172912 1 254 255
-0.0567604 -0.328393 -0.0860632 40 214 255
0.0592091 -0.48367 0.397225 1 254 255
0.214303 -0.387492 -0.0393079 26 229 255
0.0855879 -0.302832 0.250309 47 208 255
-0.113624 -0.483599 0.118975 1 254 255
0.282588 -0.484407 0.0208967 1 254 255
0.308251 -0.381721 -0.159208 27 228 255
-0.00469612 -0.225908 -0.195435 67 188 255
0.126119 -0.332673 -0.0524125 40 215 255
-0.120103 -0.483882 0.372633 1 254 255
-0.21894 -0.372826 -0.249302 29 226 255
-0.221061 -0.227838 0.134704 65 189 255
-0.115197 -0.29439 -0.185336 48 206 255
0.173332 -0.241947 -0.188594 63 192 255
-0.207873 -0.482173 -0.186966 1 254 255
-0.202238 -0.286199 -0.111495 51 204 255
-0.0017871 -0.393386 0.294586 24 231 255
0.148404 -0.486698 0.253015 0 255 255
0.262029 -0.407738 0.0125302 20 235 255
-0.209582 -0.482415 0.00694278 1 254 255
0.0400232 -0.46965 -0.26996 4 251 255
-0.208306 -0.26995 0.228423 56 199 255
0.316289 -0.484527 -0.165519 1 254 255
0.00429637 -0.485492 0.215458 0 255 255
0.099673 -0.224796 -0.11254 67 188 255
0.0132948 -0.483679 -0.0132975 1 254 255
-0.0743556 -0.483283 -0.0771529 1 254 255
-0.0312624 -0.359187 -0.25057 32 222 255
0.00982474 -0.324407 0.206506 42 213 255
-0.175735 -0.41667 -0.101737 18 237 255
0.413236 -0.330378 -0.0972424 40 215 255
-0.145731 -0.237397 -0.168567 64 191 255
0.285079 -0.371423 0.0837909 30 225 255
0.1554 -0.452877 -0.0900276 9 246 255
-0.202412 -0.412869 0.208252 19 236 255
0.365144 -0.451453 -0.0828886 9 246 255
0.0373189 -0.484258 0.0971951 1 254 255
-0.0515998 -0.439709 -0.225308 12 243 255
0.0906924 -0.483443 -0.204336 1 254 255
-0.0817182 -0.393818 -0.118709 24 231 255
0.37357 -0.487582 0.141641 0 255 255
-0.023199 -0.46316 0.0455607 6 249 255
0.195313 -0.4848 0.108443 1 254 255
0.258158 -0.33594 -0.176197 39 216 255
-0.219613 -0.289026 0.034963 51 204 255
0.40616 -0.482614 0.0124335 1 254 255
0.0412413 -0.369462 0.253252 30 225 255
0.34661 -0.33382 0.0811226 39 216 255
0.150994 -0.288119 -0.270346 51 204 255
-0.187532 -0.317535 0.289548 43 211 255
0.20053 -0.443174 -0.274371 11 244 255
0.220563 -0.484607 0.0213899 1 254 255
0.269655 -0.365029 -0.243925 31 224 255
-0.0155074 -0.275099 0.233012 54 201 255
0.0161072 -0.405286 -0.183108 21 234 255
0.266507 -0.451422 -0.212275 9 246 255
0.0722771 -0.237259 -0.275267 64 191 255
0.0855531 -0.337926 0.200491 38 217 255
-0.211005 -0.342147 -0.12181 36 218 255
0.403362 -0.439243 0.114462 12 243 255
0.403849 -0.374227 -0.144088 29 226 255
0.197247 -0.484143 -0.19318 1 254 255
-0.0594054 -0.48469 0.324578 1 254 255
0.026406 -0.483 -0.08626 1 254 255
0.0291769 -0.41546 -0.0217663 18 237 255
0.1192 -0.484038 -0.052753 1 254 255
0.165051 -0.375407 -0.128786 29 226 255
-0.187711 -0.427848 0.128011 15 240 255
0.1542 -0.487032 0.321875 0 255 255
-0.205004 -0.477369 0.3181 3 252 255
0.0992701 -0.484731 0.052438 1 254 255
-0.157247 -0.371277 0.0257213 30 225 255
0.27535 -0.48845 0.229418 0 255 255
0.314832 -0.297166 -0.132266 48 206 255
-0.0426435 -0.380137 -0.183692 27 228 255
0.0490891 -0.396373 -0.109275 23 232 255
-0.0799157 -0.374167 -0.0144936 29 226 255
-0.136607 -0.259179 0.218268 58 197 255
0.212173 -0.32478 0.0124492 42 213 255
-0.0744774 -0.486608 0.448901 0 255 255
0.466766 -0.390381 -0.0241342 25 230 255
0.25639 -0.448332 -0.114847 10 245 255
0.177859 -0.357402 -0.271929 32 222 255
0.293107 -0.287407 -0.216075 51 204 255
0.352845 -0.455099 -0.211619 8 247 255
-0.131332 -0.48338 0.0277683 1 254 255
-0.163748 -0.483424 0.423399 1 254 255
0.31907 -0.458531 -0.0331097 7 248 255
-0.185572 -0.369494 0.243684 30 225 255
-0.200814 -0.379177 -0.183874 28 227 255
0.0834612 -0.484823 0.175522 1 254 255
0.176749 -0.416414 -0.0179795 18 237 255
0.174673 -0.274794 0.262459 54 201 255
-0.22126 -0.434348 -0.0285856 14 241 255
0.227277 -0.487839 0.2723 0 255 255
0.368241 -0.368115 0.00532587 30 225 255
-0.0276685 -0.485505 0.270159 0 255 255
0.157516 -0.311469 -0.172675 44 210 255
-0.21328 -0.256887 -0.077622 59 195 255
0.0884414 -0.359277 -0.0277877 32 222 255
-0.184065 -0.309579 0.109911 44 210 255
-0.0576301 -0.427206 0.0279593 15 240 255
0.314678 -0.335143 -0.0636436 39 216 255
0.0584173 -0.399867 -0.229558 22 233 255
-0.087624 -0.246074 -0.17772 62 193 255
-0.134011 -0.483264 0.29504 1 254 255
-0.0364242 -0.441873 -0.108649 12 243 255
-0.138557 -0.364408 -0.116292 31 224 255
-0.0117764 -0.326223 -0.072884 40 214 255
-0.172249 -0.27963 -0.187054 52 202 255
0.212142 -0.407266 0.0785947 20 235 255
0.0511072 -0.266217 -0.227791 56 198 255
-0.0185895 -0.486602 0.396751 0 255 255
0.220728 -0.247238 -0.245864 60 194 255
-0.21457 -0.433317 -0.110032 14 241 255
-0.0424081 -0.482851 -0.0297482 1 254 255
-0.113907 -0.483323 0.217427 1 254 255
-0.0386487 -0.484921 0.169161 1 254 255
0.243281 -0.486051 0.0914605 0 255 255
0.430999 -0.354262 -0.0496489 34 221 255
0.411239 -0.443325 -0.0299161 11 244 255
0.356619 -0.484077 0.0452723 1 254 255
-0.157307 -0.482141 -0.181929 1 254 255
-0.215003 -0.245149 0.262076 62 193 255
0.0919158 -0.485705 0.267795 0 255 255
0.321521 -0.487659 0.196197 0 255 255
0.352947 -0.484217 -0.134621 1 254 255
0.341971 -0.327303 -0.186748 40 214 255
-0.207999 -0.476504 0.225916 3 252 255
-0.121752 -0.287373 -0.25501 51 204 255
0.135941 -0.390896 0.25311 25 230 255
-0.190114 -0.242674 0.0520724 63 192 255
-0.0946752 -0.415904 -0.265155 18 237 255
-0.215017 -0.480533 -0.238675 2 253 255
0.000600359 -0.301957 -0.260207 47 208 255
0.200072 -0.44085 -0.0962538 12 243 255
0.0366707 -0.308396 -0.138204 46 209 255
-0.133982 -0.337315 -0.026684 38 217 255
-0.216842 -0.3326 0.323962 40 215 255
0.150676 -0.452874 -0.219508 9 246 255
0.169715 -0.486589 0.212073 0 255 255
-0.225476 -0.339034 -0.0443021 38 217 255
0.390127 -0.356866 0.120835 32 222 255
-0.0620982 -0.272817 0.261722 55 200 255
0.0557821 -0.467705 -0.185583 5 250 255
-0.197566 -0.407697 0.375385 20 235 255
-0.207036 -0.246615 -0.161987 62 193 255
-0.176536 -0.380615 0.133417 27 228 255
0.318962 -0.3386 0.0422618 38 217 255
0.0621727 -0.212317 0.274973 70 185 255
0.424673 -0.362274 -0.200054 32 223 255
0.159805 -0.483525 -0.134741 1 254 255
0.0972792 -0.453066 -0.0820807 9 246 255
0.0449138 -0.389793 0.170542 25 230 255
-0.0876295 -0.372553 -0.225533 29 226 255
0.410577 -0.432287 -0.15567 14 241 255
0.21929 -0.406697 -0.214293 21 234 255
0.0616104 -0.229862 -0.194738 65 189 255
0.342876 -0.362262 -0.114453 32 223 255
0.335129 -0.484386 -0.0683483 1 254 255
0.169968 -0.484149 -0.0370218 1 254 255
0.0539989 -0.380839 -0.278964 27 228 255
-0.02898 -0.383006 -0.0225413 27 228 255
-0.182542 -0.300683 0.208515 48 207 255
-0.0938467 -0.482504 -0.225548 1 254 255
0.111455 -0.289091 -0.143556 51 204 255
-0.0253272 -0.424805 0.262466 16 239 255
0.284929 -0.484653 -0.133779 1 254 255
-0.191689 -0.484898 -0.046802 1 254 255
0.0976427 -0.364701 -0.17341 31 224 255
-0.221668 -0.337172 0.0185602 38 217 255
0.029399 -0.273852 0.270251 55 200 255
-0.0845513 -0.435383 -0.0520256 13 242 255
0.138831 -0.485683 0.159222 0 255 255
0.0756506 -0.481475 -0.0243041 1 254 255
0.324673 -0.487274 -0.262554 0 255 255
-0.138927 -0.310206 -0.128368 44 210 255
0.390164 -0.329143 0.0290309 40 215 255
-0.144257 -0.479653 0.0774979 2 253 255
0.309983 -0.407201 0.138398 20 235 255
-0.0268947 -0.484151 0.0987237 1 254 255
-0.203874 -0.481436 0.38534 1 254 255
0.271909 -0.342169 -0.0214387 36 218 255
-0.00581665 -0.483086 -0.147916 1 254 255
0.04189 -0.339332 -0.0550641 38 217 255
-0.185421 -0.214481 -0.0833472 70 185 255
0.0796936 -0.477632 -0.261679 2 253 255
0.119588 -0.368989 -0.255466 30 225 255
0.0557065 -0.484091 0.343911 1 254 255
0.14419 -0.292639 -0.220108 50 205 255
-0.212014 -0.385257 0.30649 26 229 255
0.245077 -0.378883 0.12499 28 227 255
-0.0803964 -0.32637 -0.107224 40 214 255
-0.21779 -0.434335 -0.247721 14 241 255
0.148891 -0.483215 0.0270157 1 254 255
-0.152376 -0.346839 -0.194508 36 219 255
-0.199087 -0.280651 0.315394 52 202 255
0.399673 -0.487274 -0.225054 0 255 255
0.0412322 -0.484107 0.143378 1 254 255
-0.113008 -0.283958 0.202888 52 203 255
-0.0627134 -0.483855 0.222036 1 254 255
0.241084 -0.478251 -0.273411 2 253 255
-0.125327 -0.199815 0.274972 73 181 255
0.437755 -0.385792 -0.101563 26 229 255
0.0121848 -0.349925 0.287718 35 220 255
0.174673 -0.224792 -0.125043 67 188 255
0.243399 -0.268619 -0.168042 56 199 255
-0.11732 -0.482215 -0.135217 1 254 255
0.151695 -0.468226 -0.286596 5 250 255
-0.102474 -0.485563 0.407806 0 255 255
-0.205266 -0.262216 0.132085 58 197 255
-0.192175 -0.324969 -0.244398 42 213 255
-0.055238 -0.219947 -0.198824 68 187 255
0.233478 -0.483912 -0.165476 1 254 255
0.0510791 -0.328404 -0.232592 40 214 255
0.372413 -0.391454 -0.178457 25 230 255
0.426074 -0.43342 0.0549323 14 241 255
-0.176402 -0.263711 -0.0518891 56 198 255
-0.132349 -0.483317 -0.0169047 1 254 255
-0.182142 -0.412727 0.0637908 19 236 255
0.300317 -0.404415 -0.171701 21 234 255
0.25604 -0.484079 -0.0265943 1 254 255
-0.0248832 -0.32888 -0.125627 40 214 255
0.0584894 -0.483061 -0.136883 1 254 255
-0.0863733 -0.332587 -0.0446225 40 215 255
0.424451 -0.481316 -0.0796541 2 253 255
-0.153822 -0.268601 0.253368 56 199 255
0.240765 -0.338931 -0.0958054 38 217 255
0.0352732 -0.42105 -0.269037 17 238 255
0.220443 -0.486775 0.190922 0 255 255
0.238607 -0.428287 0.0210332 15 240 255
0.097492 -0.219717 -0.261174 68 187 255
-0.135949 -0.483355 0.163125 1 254 255
-0.224011 -0.377956 -0.0692333 28 227 255
0.443923 -0.37166 0.0358615 30 225 255
-0.132762 -0.397958 -0.26673 23 232 255
-0.182701 -0.292869 0.0140312 50 205 255
-0.162254 -0.483455 0.343147 1 254 255
0.0131607 -0.485179 0.275681 1 254 255
-0.202099 -0.482863 0.0879327 1 254 255
0.199673 -0.287284 0.0374518 51 204 255
-0.0950905 -0.349542 -0.153829 35 220 255
0.0338447 -0.429152 -0.0959585 15 240 255
0.144606 -0.357611 -0.0339222 32 222 255
-0.209796 -0.208694 0.00164061 71 184 255
-0.176288 -0.428928 -0.0594916 15 240 255
-0.168932 -0.48133 -0.230487 2 253 255
-0.20772 -0.375484 0.105189 29 226 255
-0.204923 -0.348121 0.205032 36 219 255
-0.203422 -0.207136 0.191906 72 183 255
0.217854 -0.402655 -0.264437 22 233 255
0.313928 -0.406075 -0.226593 21 234 255
0.112173 -0.224805 0.262466 67 188 255
0.209554 -0.381287 -0.0702638 27 228 255
-0.0230286 -0.424723 -0.253624 16 239 255
-0.186334 -0.440233 0.168221 12 243 255
-0.1669 -0.423408 -0.168183 16 239 255
0.0853241 -0.306776 -0.276354 46 209 255
-0.00776036 -0.368212 -0.200541 30 225 255
0.296289 -0.484228 0.113621 1 254 255
0.149501 -0.483857 -0.186689 1 254 255
-0.0128273 -0.212324 0.274978 70 185 255
0.103134 -0.467793 0.13388 5 250 255
-0.0861922 -0.483568 0.0752818 1 254 255
0.1876 -0.461336 0.04862 7 248 255
0.198739 -0.484191 -0.104826 1 254 255
0.343714 -0.448758 -0.145264 10 245 255
-0.182233 -0.40615 0.259172 21 234 255
0.107598 -0.405139 -0.197447 21 234 255
-0.205389 -0.206791 0.288158 72 183 255
-0.146903 -0.483954 0.262057 1 254 255
0.112683 -0.329388 0.241427 40 215 255
0.30646 -0.333218 -0.142983 39 216 255
0.379289 -0.456087 0.00597527 8 247 255
0.357091 -0.460895 0.150206 7 248 255
0.283233 -0.330893 -0.231131 40 215 255
-0.0441197 -0.46668 -0.18865 5 250 255
0.339444 -0.357283 -0.019079 32 222 255
0.179766 -0.383134 0.0843525 27 228 255
-0.0511891 -0.288079 -0.239659 51 204 255
0.050354 -0.479319 0.229773 2 253 255
0.432511 -0.3198 -0.00880199 43 211 255
-0.0303996 -0.487308 0.436839 0 255 255
0.181854 -0.272152 -0.263433 55 200 255
0.0121221 -0.356699 -0.0984915 32 222 255
-0.162098 -0.235387 -0.125689 64 191 255
-0.0253271 -0.312304 0.0124651 44 210 255
-0.206331 -0.48228 -0.129318 1 254 255
-0.0638913 -0.48274 0.00337226 1 254 255
0.314004 -0.460208 0.0512881 7 248 255
0.099151 -0.487448 0.356742 0 255 255
0.262173 -0.27478 0.0249496 54 201 255
0.207768 -0.482579 -0.229895 1 254 255
0.005675 -0.241746 -0.188707 63 192 255
-0.207492 -0.316465 0.253263 44 211 255
0.395476 -0.486087 0.0782342 0 255 255
0.0604817 -0.407496 -0.0124431 20 235 255
0.281462 -0.373813 0.0510037 29 226 255
0.241184 -0.395965 -0.168973 23 232 255
-0.0897561 -0.448316 -0.273516 10 245 255
0.2191 -0.325469 -0.259445 40 214 255
-0.1765 -0.483445 0.039535 1 254 255
-0.0444909 -0.411738 -0.147922 19 236 255
-0.22274 -0.271161 -0.026043 55 200 255
0.377147 -0.358521 -0.0761764 32 222 255
0.167475 -0.471664 0.106094 4 251 255
-0.135262 -0.483567 -0.0831472 1 254 255
-0.00588447 -0.48277 -0.0729853 1 254 255
0.171356 -0.41496 0.0207265 18 237 255
0.345469 -0.386006 0.132694 26 229 255
0.0978921 -0.418004 -0.282526 18 237 255
-0.154077 -0.369226 0.0867451 30 225 255
-0.103605 -0.378117 0.00485617 28 227 255
0.148202 -0.340308 -0.184917 38 217 255
0.0185476 -0.482448 -0.234045 1 254 255
0.0120463 -0.340154 -0.262465 38 217 255
0.0369034 -0.48429 0.0369929 1 254 255
-0.19699 -0.207307 0.0633486 72 183 255
0.25389 -0.447725 0.173604 10 245 255
0.19002 -0.487725 0.289844 0 255 255
-0.216592 -0.433944 0.017868 14 241 255
-0.204039 -0.301707 -0.149914 47 208 255
-0.0972207 -0.324454 -0.202455 42 213 255
-0.220081 -0.335177 0.139199 39 216 255
0.00239731 -0.254545 -0.255488 60 195 255
0.167156 -0.390743 -0.234755 25 230 255
-0.214202 -0.416589 -0.131448 18 237 255
0.134112 -0.348766 0.201416 35 220 255
-0.0660564 -0.481654 -0.124889 1 254 255
-0.201713 -0.203025 0.129018 73 182 255
-0.202572 -0.480984 0.274533 2 253 255
0.196282 -0.300133 -0.197548 48 207 255
-0.182938 -0.337629 0.0355329 38 217 255
-0.0889511 -0.484308 0.147052 1 254 255
0.204944 -0.324383 -0.124824 42 213 255
0.344018 -0.48401 -0.198891 1 254 255
-0.139942 -0.28953 -0.0496658 51 204 255
0.288075 -0.484553 -0.0858986 1 254 255
0.0589494 -0.385691 0.281695 26 229 255
-0.0718269 -0.329882 -0.259863 40 215 255
0.407221 -0.438462 -0.0601064 12 243 255
0.0940183 -0.318407 -0.136188 43 211 255
0.462173 -0.337274 -0.150054 38 217 255
0.142551 -0.257689 -0.210323 59 195 255
0.315399 -0.484398 0.00894098 1 254 255
-0.0695375 -0.483599 0.289102 1 254 255
-0.200072 -0.483296 0.183267 1 254 255
0.409828 -0.372211 0.110168 29 226 255
0.0891984 -0.320425 -0.0656602 43 211 255
0.110795 -0.483984 -0.176651 1 254 255
0.308065 -0.349364 0.12909 35 220 255
0.264324 -0.288888 -0.147487 51 204 255
-0.169889 -0.247562 0.200459 60 194 255
0.386413 -0.483748 -0.121189 1 254 255
-0.160588 -0.377826 -0.093316 28 227 255
-0.00654526 -0.485492 0.328607 0 255 255
0.0698508 -0.48385 0.0787959 1 254 255
-0.188897 -0.398148 -0.00857096 23 232 255
-0.179189 -0.428284 -0.25958 15 240 255
0.0937785 -0.485621 0.225109 0 255 255
-0.0172205 -0.483475 0.0444955 1 254 255
0.0433305 -0.221934 -0.248851 68 187 255
0.128542 -0.48735 0.302093 0 255 255
-0.185896 -0.286679 0.0984097 51 204 255
-0.112208 -0.484305 0.34358 1 254 255
0.217716 -0.483034 -0.0592083 1 254 255
0.0023116 -0.488556 -0.187157 0 255 255
0.253705 -0.425065 -0.261589 16 239 255
-0.0892256 -0.24366 -0.220729 62 193 255
0.443403 -0.433789 -0.110049 14 241 255
0.137173 -0.224793 -0.150042 67 188 255
0.255765 -0.449396 0.04517 10 245 255
0.0368397 -0.414029 -0.159991 19 236 255
-0.0643344 -0.478886 -0.257319 2 253 255
0.0429235 -0.382079 -0.049459 27 228 255
-0.186642 -0.422253 0.314937 17 238 255
0.00511357 -0.254087 0.248804 60 195 255
0.251486 -0.396518 -0.00638262 23 232 255
0.0875102 -0.444912 -0.220512 11 244 255
-0.0134045 -0.484972 0.192995 1 254 255
0.244527 -0.484742 0.124107 1 254 255
-0.200598 -0.216096 -0.114753 69 186 255
-0.126632 -0.414238 -0.212776 19 236 255
-0.0374924 -0.373386 -0.126443 29 226 255
0.315903 -0.298524 -0.192969 48 207 255
0.272483 -0.474557 -0.218984 3 252 255
-0.180993 -0.351046 0.166598 35 220 255
0.45046 -0.413536 0.0116734 19 236 255
-0.133208 -0.483268 0.433362 1 254 255
0.0913975 -0.324339 -0.228048 42 213 255
0.380765 -0.337495 -0.148708 38 217 255
0.114806 -0.46142 0.0368584 7 248 255
0.376734 -0.419014 0.124771 17 238 255
0.308853 -0.397131 -0.11839 23 232 255
-0.0567464 -0.397806 -0.263876 23 232 255
0.377417 -0.333414 0.0954833 39 216 255
-0.166641 -0.385569 -0.171608 26 229 255
0.364415 -0.484201 -0.0486449 1 254 255
0.0866 -0.430618 -0.114882 14 241 255
-0.218465 -0.463823 -0.0411712 6 249 255
0.254138 -0.268376 -0.205735 56 199 255
0.0487797 -0.345781 0.196593 36 219 255
0.406649 -0.331324 -0.051196 40 215 255
-0.207476 -0.475034 0.354342 3 252 255
0.462173 -0.437274 0.0999457 13 242 255
0.0583422 -0.483498 -0.0335035 1 254 255
0.260741 -0.385031 -0.207818 26 229 255
0.218149 -0.486294 0.233628 0 255 255
-0.124362 -0.412172 -0.113277 19 236 255
0.0217371 -0.486739 0.374251 0 255 255
-0.218581 -0.451725 -0.209496 9 246 255
-0.21308 -0.311711 -0.077767 44 210 255
0.0569152 -0.486085 0.285117 0 255 255
-0.21911 -0.337763 0.071625 38 217 255
-0.0581204 -0.485126 0.362981 1 254 255
0.160167 -0.480022 -0.253652 2 253 255
0.461245 -0.367485 -0.0911489 31 224 255
0.0217818 -0.351907 -0.155434 35 220 255
0.0833357 -0.2682 -0.212238 56 199 255
0.0356786 -0.421566 -0.223372 17 238 255
-0.18176 -0.482878 -0.156423 1 254 255
-0.0404349 -0.341512 -0.0429751 36 218 255
0.325118 -0.360738 -0.209518 32 223 255
0.207022 -0.238488 -0.251092 64 191 255
0.385005 -0.449017 -0.181317 10 245 255
-0.174902 -0.249694 0.149491 60 194 255
0.158126 -0.383236 -0.111955 27 228 255
-0.138052 -0.270327 -0.150481 56 199 255
-0.124183 -0.275668 0.250964 54 201 255
0.366862 -0.484999 0.162868 1 254 255
0.156106 -0.39417 -0.0125632 24 231 255
-0.215184 -0.403863 0.134035 21 234 255
0.174663 -0.409609 -0.270698 20 235 255
-0.192282 -0.355967 -0.0304806 34 221 255
0.140718 -0.483411 -0.00536971 1 254 255
0.358733 -0.368873 0.0243222 30 225 255
0.281207 -0.488305 0.198396 0 255 255
0.253544 -0.349292 -0.0318948 35 220 255
0.0746948 -0.483144 -0.0973633 1 254 255
0.346871 -0.334784 -0.106008 39 216 255
-0.0137153 -0.483757 0.00189855 1 254 255
-0.215178 -0.245845 0.306084 62 193 255
-0.203494 -0.203548 0.234557 73 182 255
-0.202817 -0.415749 0.213573 18 237 255
-0.00707535 -0.381261 -0.253814 27 228 255
0.0555678 -0.28261 0.260185 52 203 255
-0.204589 -0.480445 0.134445 2 253 255
0.161727 -0.486186 0.179163 0 255 255
0.0621729 -0.337297 0.0249604 38 217 255
-0.045 -0.484203 0.113219 1 254 255
-0.120313 -0.482452 -0.197736 1 254 255
0.179458 -0.237135 -0.194781 64 191 255
0.230001 -0.484584 0.0643047 1 254 255
0.121165 -0.338659 -0.276041 38 217 255
0.344796 -0.486536 0.0880615 0 255 255
0.309254 -0.343573 0.0891482 36 218 255
-0.0658161 -0.482634 -0.0698333 1 254 255
-0.211275 -0.443524 0.0749773 11 244 255
-0.203788 -0.210544 -0.0418784 71 184 255
-0.199137 -0.346121 -0.23634 36 219 255
0.202179 -0.483508 -0.0129297 1 254 255
0.329761 -0.453525 -0.226785 9 246 255
-0.00048256 -0.487611 0.422042 0 255 255
0.195207 -0.359697 -0.215143 32 222 255
0.0388464 -0.485058 0.170356 1 254 255
0.150788 -0.483359 -0.0837539 1 254 255
-0.0981063 -0.484129 0.255209 1 254 255
-0.0552914 -0.355964 -0.2202 34 221 255
0.2674 -0.38293 0.142032 27 228 255
0.0504406 -0.354122 0.254044 34 221 255
-0.213222 -0.339994 -0.156022 38 217 255
0.0247256 -0.311033 -0.102027 44 210 255
-0.0348249 -0.232103 -0.227262 65 190 255
-0.13422 -0.356471 0.0211605 32 222 255
-0.171721 -0.483605 0.00472192 1 254 255
0.237662 -0.337138 -0.137332 38 217 255
-0.174817 -0.270357 -0.0978541 56 199 255
-0.109217 -0.302439 -0.2578 47 208 255
0.291568 -0.328724 -0.0721624 40 214 255
0.266922 -0.3969 0.0749323 23 232 255
0.124973 -0.417948 0.0220197 18 237 255
0.124673 -0.262301 0.262463 58 197 255
-0.146288 -0.482091 -0.252292 1 254 255
-0.00278838 -0.414475 -0.129946 19 236 255
-0.11572 -0.472062 0.121073 4 251 255
-0.189351 -0.245512 0.0135128 62 193 255
0.323456 -0.460677 -0.0999947 7 248 255
0.399366 -0.485571 0.11667 0 255 255
0.409786 -0.354399 0.0567686 34 221 255
-0.196392 -0.349036 0.318091 35 220 255
0.201124 -0.46905 -0.280788 5 250 255
0.435498 -0.383255 -0.0274994 27 228 255
0.398604 -0.483608 -0.0161756 1 254 255
-0.182596 -0.301038 0.165148 48 207 255
0.119772 -0.246593 -0.269459 62 193 255
0.013349 -0.484498 0.0840287 1 254 255
0.0611069 -0.481721 -0.244321 1 254 255
-0.02858 -0.484166 0.241272 1 254 255
0.284356 -0.459729 0.00253268 7 248 255
0.27158 -0.484555 -0.16647 1 254 255
-0.0977496 -0.472482 -0.0172014 4 251 255
-0.141642 -0.483447 0.212869 1 254 255
-0.0540054 -0.48726 0.454461 0 255 255
0.0476455 -0.284613 -0.268127 52 203 255
0.0188993 -0.483092 -0.116781 1 254 255
-0.0235995 -0.484309 -0.23498 1 254 255
0.154623 -0.419491 -0.215075 17 238 255
-0.0628273 -0.212323 0.274977 70 185 255
0.384038 -0.437051 -0.131024 13 242 255
0.0526009 -0.483608 0.403664 1 254 255
0.119321 -0.482359 -0.145874 1 254 255
-0.184389 -0.276322 0.282764 54 201 255
0.393735 -0.328366 -0.00413992 40 214 255
0.134033 -0.292349 -0.149252 50 205 255
0.185527 -0.3265 -0.269251 40 214 255
0.410039 -0.431866 0.0862437 14 241 255
0.241533 -0.482031 -0.104553 1 254 255
-0.21276 -0.38642 -0.0932382 26 229 255
0.123219 -0.484319 0.100497 1 254 255
0.104062 -0.375907 0.256413 28 227 255
0.117874 -0.452026 -0.0277829 9 246 255
-0.103197 -0.229333 -0.175869 65 189 255
-0.00124751 -0.269199 -0.214229 56 199 255
-0.13295 -0.465714 -0.104134 6 249 255
-0.140193 -0.3192 -0.0973405 43 211 255
-0.1675 -0.319776 -0.17621 43 211 255
-0.0893916 -0.482819 0.0471463 1 254 255
0.098713 -0.359969 -0.0342069 32 222 255
0.0121729 -0.362299 0.0249617 32 223 255
0.319773 -0.341745 0.00187956 36 218 255
-0.164823 -0.485806 0.372053 0 255 255
-0.022806 -0.318774 -0.259715 43 211 255
-0.0914477 -0.375422 -0.119332 29 226 255
-0.210114 -0.456121 0.246198 8 247 255
0.18586 -0.479969 -0.155256 2 253 255
-0.217342 -0.252065 0.0674024 60 195 255
0.250082 -0.321863 -0.246617 42 213 255
0.0870611 -0.38252 -0.214617 27 228 255
0.408536 -0.482645 0.0505985 1 254 255
0.17528 -0.356834 -0.147801 32 222 255
-0.0706724 -0.482684 -0.198205 1 254 255
0.362432 -0.372108 -0.182967 29 226 255
-0.0334731 -0.381768 -0.0237304 27 228 255
0.174673 -0.337289 0.262455 38 217 255
0.102109 -0.476625 0.202515 3 252 255
-0.206074 -0.435789 0.350017 13 242 255
0.197686 -0.381304 -0.0742538 27 228 255
0.245873 -0.439584 -0.215942 12 243 255
-0.183929 -0.37024 0.26031 30 225 255
0.175116 -0.484375 0.252179 1 254 255
0.0786248 -0.484239 0.0122145 1 254 255
-0.222029 -0.303532 0.0082475 47 208 255
-0.158161 -0.480145 0.308138 2 253 255
-0.0430692 -0.482615 -0.120957 1 254 255
-0.1982 -0.390811 -0.241194 25 230 255
0.126589 -0.4127 -0.279183 19 236 255
0.0216212 -0.473046 0.304969 4 251 255
-0.117898 -0.345931 -0.0311376 36 219 255
-0.199621 -0.26751 -0.170276 56 199 255
0.268407 -0.334364 -0.172486 39 216 255
0.199929 -0.419377 0.00599357 17 238 255
-0.211476 -0.481378 -0.0922314 1 254 255
-0.0827275 -0.273963 0.253914 55 200 255
0.00634783 -0.484537 0.138626 1 254 255
0.0170111 -0.348123 0.285943 36 219 255
0.224894 -0.405015 0.0687528 21 234 255
-0.148913 -0.437039 -0.177445 13 242 255
0.434296 -0.439991 -0.0544704 12 243 255
0.196095 -0.485716 0.146329 0 255 255
0.0152943 -0.363853 -0.210624 32 223 255
-0.215665 -0.470727 0.0339397 4 251 255
-0.146091 -0.417494 -0.0776376 18 237 255
-0.00496938 -0.483489 -0.0444855 1 254 255
0.266998 -0.448571 0.155731 10 245 255
0.00111738 -0.33376 -0.0595998 39 216 255
-0.105104 -0.362661 -0.16717 32 223 255
0.126004 -0.483897 -0.213032 1 254 255
0.345738 -0.336053 -0.0643221 39 216 255
0.0793138 -0.469471 0.114336 5 250 255
-0.144563 -0.482075 -0.0378486 1 254 255
0.149673 -0.224793 -0.100042 67 188 255
0.272296 -0.486933 0.231602 0 255 255
-0.00628578 -0.429963 -0.228268 15 240 255
0.327373 -0.456985 -0.0196357 8 247 255
0.021838 -0.485573 0.231159 0 255 255
-0.0722309 -0.483994 0.166361 1 254 255
0.0785425 -0.487557 0.369153 0 255 255
0.0545436 -0.223921 -0.212962 67 188 255
0.413544 -0.37403 -0.133104 29 226 255
-0.168008 -0.482941 0.14321 1 254 255
0.431519 -0.396693 0.0690069 23 232 255
-0.210952 -0.202891 0.0444083 73 182 255
-0.140965 -0.391787 -0.262159 24 231 255
0.0391262 -0.483751 -0.178708 1 254 255
-0.175767 -0.367319 -0.135872 31 224 255
0.0211999 -0.400369 -0.0278346 22 233 255
-0.221379 -0.381665 0.15115 27 228 255
0.0588062 -0.338487 -0.165295 38 217 255
-0.204248 -0.481828 -0.24769 1 254 255
0.272314 -0.366583 0.0296196 31 224 255
-0.22221 -0.219331 0.137615 69 186 255
0.314131 -0.488185 0.175405 0 255 255
0.187173 -0.337281 0.0249499 38 217 255
0.101909 -0.486713 0.292349 0 255 255
-0.0761965 -0.48559 0.403402 0 255 255
0.149482 -0.332071 -0.22309 40 215 255
-0.066428 -0.429252 -0.126734 15 240 255
-0.208981 -0.229728 0.214427 65 189 255
0.12945 -0.343576 -0.0607601 36 218 255
0.174673 -0.249796 0.26246 60 194 255
0.0175723 -0.39907 0.27118 23 232 255
0.241093 -0.372305 -0.256899 29 226 255
0.324472 -0.415992 -0.172395 18 237 255
0.283497 -0.48362 0.0518453 1 254 255
0.3852 -0.484038 -0.0854645 1 254 255
-0.218708 -0.266793 -0.071267 56 199 255
-0.125327 -0.349808 0.262467 35 220 255
-0.205578 -0.316567 0.206549 44 211 255
0.244883 -0.374147 -0.0505798 29 226 255
-0.17707 -0.419533 -0.0261481 17 238 255
0.0720796 -0.398345 -0.281448 23 232 255
0.263785 -0.484477 -0.0442725 1 254 255
0.103529 -0.475937 -0.262232 3 252 255
-0.0414279 -0.483778 0.310351 1 254 255
0.226695 -0.299275 -0.173234 48 207 255
-0.0708648 -0.282988 -0.221601 52 203 255
0.171945 -0.48314 0.0744373 1 254 255
0.390574 -0.324865 0.0547603 42 213 255
0.217934 -0.487753 0.278721 0 255 255
0.368966 -0.46321 0.0440551 6 249 255
0.247356 -0.469523 -0.27422 5 250 255
-0.201531 -0.214591 -0.133803 70 185 255
-0.207761 -0.448407 0.195638 10 245 255
0.0982891 -0.454122 -0.0628972 8 247 255
-0.0624912 -0.328626 -0.0545025 40 214 255
0.120497 -0.300591 -0.274117 48 207 255
0.397687 -0.327979 -0.114576 40 214 255
-0.189366 -0.39297 0.041948 24 231 255
0.287173 -0.237281 -0.17505 64 191 255
-0.0316467 -0.389384 -0.17753 25 230 255
0.338004 -0.408065 0.129954 20 235 255
-0.14395 -0.483221 0.05607 1 254 255
0.132667 -0.486833 0.338507 0 255 255
0.0407619 -0.288639 0.240125 51 204 255
0.126518 -0.348846 0.198637 35 220 255
-0.217336 -0.285749 0.312794 52 203 255
-0.153728 -0.483365 0.429312 1 254 255
-0.0795446 -0.416745 -0.231731 18 237 255
-0.221981 -0.421174 -0.0703017 17 238 255
0.0246728 -0.274805 0.0249659 54 201 255
0.0871729 -0.224796 -0.15004 67 188 255
0.308274 -0.48427 0.121862 1 254 255
0.450622 -0.402014 -0.123513 22 233 255
0.0694828 -0.251158 -0.274881 60 195 255
0.296698 -0.291985 -0.129634 50 205 255
-0.201189 -0.432979 -0.188299 14 241 255
0.0747289 -0.339488 -0.0722758 38 217 255
-0.206389 -0.206084 0.285186 72 183 255
0.0826746 -0.395474 -0.179302 23 232 255
0.445185 -0.436296 -0.00449323 13 242 255
-0.183546 -0.391653 0.199809 24 231 255
-0.186494 -0.306623 0.0921166 46 209 255
0.381999 -0.483631 -0.155691 1 254 255
0.0219608 -0.392371 -0.115159 24 231 255
-0.155392 -0.312988 -0.0256887 44 210 255
0.321535 -0.336106 0.0573052 39 216 255
-0.122503 -0.26859 -0.203746 56 199 255
0.288494 -0.379413 -0.234891 28 227 255
-0.20959 -0.451288 0.295604 9 246 255
0.320083 -0.368878 -0.136532 30 225 255
0.20014 -0.421853 -0.213646 17 238 255
-0.0464977 -0.250477 0.255373 60 194 255
0.0521718 -0.31445 -0.274405 44 211 255
0.0357213 -0.484143 -0.00287965 1 254 255
-0.219164 -0.337078 -0.0729059 38 217 255
-0.0541973 -0.48353 0.0593918 1 254 255
0.218394 -0.484605 0.0177264 1 254 255
0.240558 -0.479493 -0.185971 2 253 255
-0.0299968 -0.478168 -0.264506 2 253 255
-0.00764642 -0.32748 -0.132272 40 214 255
0.0400666 -0.454625 -0.0854079 8 247 255
0.217288 -0.292288 -0.222076 50 205 255
-0.160575 -0.452894 -0.260767 9 246 255
-0.124679 -0.482062 -0.15309 1 254 255
-0.20836 -0.443046 0.113134 11 244 255
0.305261 -0.351866 -0.0301666 35 220 255
0.127676 -0.285505 -0.176657 52 203 255
-0.0500709 -0.483504 0.20188 1 254 255
-0.0223217 -0.485825 0.36882 0 255 255
0.0234613 -0.373985 -0.264321 29 226 255
0.448789 -0.367505 0.00101809 31 224 255
0.13547 -0.381746 -0.210028 27 228 255
-0.19962 -0.203937 0.105669 73 182 255
0.111912 -0.484296 0.15549 1 254 255
0.173094 -0.483512 -0.100957 1 254 255
0.183033 -0.48102 -0.220922 2 253 255
0.262741 -0.38068 -0.172143 27 228 255
-0.0749476 -0.327838 -0.102632 40 214 255
-0.100327 -0.487315 0.487472 0 255 255
0.312292 -0.48448 -0.18324 1 254 255
-0.219128 -0.351874 0.065477 35 220 255
0.0364127 -0.337614 0.197833 38 217 255
-0.093103 -0.484846 0.32704 1 254 255
0.388126 -0.386069 0.121473 26 229 255
0.363188 -0.327197 -0.162258 40 214 255
-0.206943 -0.287279 0.166203 51 204 255
0.0943932 -0.317793 0.247162 43 211 255
0.075746 -0.444734 -0.00800736 11 244 255
-0.213643 -0.448405 -0.136372 10 245 255
-0.202945 -0.48038 0.390578 2 253 255
0.0898255 -0.48314 -0.128018 1 254 255
-0.175657 -0.483351 -0.0794666 1 254 255
-0.0760892 -0.45684 -0.046742 8 247 255
0.179182 -0.35297 -0.105089 34 221 255
0.133576 -0.484259 0.247502 1 254 255
0.449673 -0.487274 0.124946 0 255 255
0.182423 -0.380006 -0.270285 27 228 255
-0.179919 -0.484195 0.216105 1 254 255
0.021638 -0.314375 -0.233905 44 211 255
0.321482 -0.355208 0.141981 34 221 255
0.44643 -0.355077 -0.097743 34 221 255
0.207585 -0.459017 -0.0532886 7 248 255
-0.142235 -0.350641 -0.199126 35 220 255
-0.0378237 -0.465472 -0.159135 6 249 255
0.134033 -0.456861 -0.286988 8 247 255
0.236943 -0.486391 0.196015 0 255 255
-0.0383646 -0.459406 0.0136309 7 248 255
-0.0894336 -0.370176 -0.0305484 30 225 255
-0.0735607 -0.369128 -0.197233 30 225 255
0.0839554 -0.483867 0.0564008 1 254 255
0.04646 -0.428986 -0.269503 15 240 255
-0.219359 -0.235845 -0.0463122 64 191 255
