ply
format ascii 1.0
comment Created by Open3D
element vertex 1187
property double x
property double y
property double z
property uchar red
property uchar green
property uchar blue
end_header
0.187669 -0.367854 -0.201764 32 222 255
0.236503 -0.159542 -0.201965 87 168 255
-0.0166692 -0.408926 0.23372 23 232 255
-0.428133 -0.387282 -0.20443 28 227 255
0.34206 -0.183192 -0.199859 81 174 255
-0.249417 -0.486696 0.0477236 3 252 255
-0.363759 -0.486364 0.0557973 3 252 255
-0.00641569 -0.0415825 -0.200569 117 138 255
0.0998163 -0.486589 0.104338 3 252 255
0.370891 -0.346198 -0.189879 39 216 255
0.142289 -0.486658 0.217758 3 252 255
-0.158972 -0.487003 -0.0489709 3 252 255
0.440643 -0.260861 -0.193053 60 194 255
-0.133749 -0.347739 -0.189656 38 217 255
0.108925 -0.238719 -0.186791 65 189 255
0.246882 -0.486523 0.0871181 3 252 255
-0.155522 -0.455435 -0.202519 11 244 255
-0.057131 -0.159485 -0.199908 87 168 255
-0.294588 -0.205346 -0.195255 75 179 255
0.255345 -0.484622 -0.158896 3 252 255
-0.0108559 -0.427237 0.410835 18 237 255
0.107457 -0.486432 0.304075 3 252 255
0.281873 -0.443076 -0.0419055 14 241 255
0.0443075 -0.485334 -0.194858 3 252 255
-0.475617 -0.485339 -0.201491 3 252 255
-0.0999374 -0.487422 0.362046 3 252 255
-0.167726 -0.486636 0.0694052 3 252 255
0.269092 -0.320642 -0.187964 44 210 255
-0.416679 -0.486536 -0.0903518 3 252 255
0.237563 -0.287422 0.0995462 54 201 255
0.195523 -0.240222 -0.186696 65 189 255
0.0839245 -0.486694 0.0122452 3 252 255
0.299343 -0.125702 -0.204367 95 160 255
-0.46661 -0.0712275 -0.202748 109 146 255
0.0500626 0.0125776 -0.200454 131 124 255
-0.129902 -0.242626 -0.189931 65 190 255
0.0741249 -0.361271 0.295823 35 220 255
0.43855 -0.179439 -0.20817 81 173 255
-0.251965 -0.106702 -0.203274 100 155 255
-0.125413 -0.486528 0.283443 3 252 255
0.27621 -0.441594 0.0952465 14 241 255
-0.483054 -0.228826 -0.205786 69 186 255
0.360059 -0.486579 -0.0355581 3 252 255
0.325063 -0.274922 0.0995462 56 198 255
-0.199937 -0.487422 0.349546 3 252 255
0.127366 -0.417761 -0.191009 21 234 255
0.0141326 -0.272438 -0.200316 58 197 255
0.00202413 -0.396571 -0.200724 26 229 255
0.204822 -0.486765 0.167713 3 252 255
0.348517 -0.477708 -0.17409 5 250 255
-0.399937 7.76117e-05 -0.200454 128 127 255
0.276979 -0.486507 0.0227819 3 252 255
0.487563 -0.0624224 -0.200454 112 143 255
0.381735 -0.102171 -0.199505 101 154 255
0.0567701 -0.127404 -0.199375 95 160 255
0.370637 -0.281997 -0.189944 55 200 255
-0.0588338 -0.330253 -0.18995 43 211 255
0.187841 -0.486504 0.287338 3 252 255
0.352986 0.00648587 -0.192657 129 126 255
0.421922 -0.363258 -0.205851 34 221 255
-0.0432384 -0.486502 0.220755 3 252 255
-0.0792988 -0.0952803 -0.189142 103 152 255
0.259359 -0.0796038 -0.201498 107 147 255
0.352221 -0.381228 0.0119692 30 225 255
-0.196922 -0.174162 -0.193074 83 172 255
-0.462437 -0.437422 -0.137954 16 239 255
-0.278168 -0.486833 0.155356 3 252 255
-0.0414083 -0.363606 0.404927 34 221 255
-0.400443 -0.138142 -0.201427 92 163 255
-0.101576 -0.0250869 -0.201147 121 134 255
-0.237278 -0.486101 -0.146563 3 252 255
-0.488357 -0.351327 -0.204985 38 217 255
0.182511 -0.134941 -0.20196 93 162 255
-0.124019 -0.486703 0.132479 3 252 255
-0.260442 -0.48677 -0.0297654 3 252 255
-0.00943367 -0.339057 0.312738 40 214 255
0.296608 -0.339541 0.115359 40 214 255
0.085102 -0.487034 0.351739 3 252 255
0.257077 -0.387947 0.00626529 28 227 255
0.405527 -0.486418 -0.0661392 3 252 255
-0.198073 -0.298951 -0.191226 51 204 255
-0.32741 -0.48664 -0.105085 3 252 255
0.327702 -0.368121 -0.188024 32 222 255
-0.0551211 -0.486582 -0.0473965 3 252 255
0.285537 -0.258383 -0.18958 60 194 255
-0.282373 -0.0342736 -0.18957 119 136 255
0.321092 -0.486498 0.0688908 3 252 255
0.125081 -0.0558661 -0.19865 113 142 255
-0.0443447 -0.48475 0.149592 3 252 255
0.0407064 -0.486313 0.237637 3 252 255
-0.380227 -0.0653942 -0.20169 111 144 255
0.010535 -0.361706 0.463309 35 220 255
0.204771 -0.424068 -0.200806 19 236 255
0.122861 -0.486319 -0.0691698 3 252 255
-0.18158 -0.374353 -0.190557 32 223 255
0.378865 -0.48583 -0.199387 3 252 255
0.188065 -0.486603 0.0492511 3 252 255
0.347471 -0.417126 -0.0444895 21 234 255
0.463211 -0.00906378 -0.206968 125 130 255
-0.392005 -0.478092 -0.201363 5 250 255
0.0295718 -0.407703 0.25665 23 232 255
-0.28289 -0.451199 -0.193424 12 243 255
0.200628 -0.0667065 -0.188701 110 145 255
0.203088 -0.486131 -0.123061 3 252 255
-0.244744 -0.486852 0.208737 3 252 255
-0.0050678 -0.486164 0.312199 3 252 255
-0.218322 -0.0384366 -0.205126 118 137 255
-0.0638955 -0.486648 0.0802855 3 252 255
-0.0971562 -0.486457 -0.203062 3 252 255
0.235609 -0.203968 -0.187824 75 179 255
0.396511 -0.207023 -0.204369 73 181 255
-0.237166 -0.486654 0.11324 3 252 255
-0.283353 -0.353657 -0.193403 36 218 255
-0.0293408 -0.125576 -0.188006 95 160 255
-0.391136 -0.193462 -0.185547 78 177 255
-0.377221 -0.367752 -0.194566 32 222 255
-0.323344 -0.264037 -0.196425 60 195 255
0.00307659 -0.478276 -0.202755 5 250 255
0.0891465 -0.486564 0.166643 3 252 255
0.162563 -0.374922 0.224546 32 223 255
0.0502116 -0.486711 -0.0924265 3 252 255
0.285665 -0.388301 -0.199372 28 227 255
-0.174393 -0.486896 -0.0107633 3 252 255
-0.174359 -0.225993 -0.200516 70 185 255
-0.171138 -0.486718 0.278532 3 252 255
0.282894 -0.486563 0.150919 3 252 255
0.124151 -0.486269 -0.151972 3 252 255
0.325354 -0.221882 -0.205435 71 184 255
0.0850036 -0.269502 -0.198928 58 197 255
0.449627 -0.486711 -0.101814 3 252 255
0.259111 -0.485894 -0.202894 3 252 255
-0.304861 -0.486837 0.0662944 3 252 255
0.161729 -0.22272 -0.202093 70 185 255
-0.00798352 -0.408777 0.450932 23 232 255
0.419039 -0.0914129 -0.193323 104 151 255
0.0387302 -0.352205 -0.190542 36 218 255
0.316298 -0.486602 -0.0169198 3 252 255
-0.232018 -0.486205 -0.0747399 3 252 255
0.0624218 -0.186128 -0.188975 80 175 255
-0.0306791 -0.372832 0.263452 32 223 255
-0.141796 -0.144394 -0.203054 91 163 255
0.249773 -0.0122886 -0.201608 124 131 255
-0.404778 -0.263013 -0.203206 60 195 255
0.348436 -0.486172 -0.106846 3 252 255
-0.361882 -0.487332 -0.0293861 3 252 255
-0.125289 -0.486862 -0.142557 3 252 255
-0.036689 -0.211957 -0.201128 73 182 255
0.0664144 -0.48639 0.079482 3 252 255
0.313242 -0.0893291 -0.190243 105 150 255
0.291331 -0.327638 0.0704378 44 211 255
-0.446225 -0.332045 -0.200929 42 213 255
0.487563 -0.162422 -0.200454 86 169 255
0.424846 -0.471516 -0.210027 7 248 255
-0.285565 -0.148266 -0.194297 89 165 255
-0.384895 -0.486965 -0.129807 3 252 255
0.0111512 -0.486713 -0.0494217 3 252 255
-0.12395 -0.486506 0.190822 3 252 255
0.396095 -0.164733 -0.190579 85 170 255
0.0544543 -0.390362 0.369292 28 227 255
-0.0357133 -0.444623 0.237889 14 241 255
-0.129558 -0.0576374 -0.20161 113 142 255
0.243225 -0.486574 -0.0528093 3 252 255
0.14261 -0.312395 -0.201948 48 207 255
0.356595 -0.354766 0.0472159 36 218 255
-0.0205802 -0.486203 0.0460739 3 252 255
0.2045 -0.486512 0.231428 3 252 255
0.0819614 -0.0935143 -0.185217 104 151 255
0.39893 -0.0179098 -0.191894 123 131 255
-0.111603 -0.487135 -0.0538831 3 252 255
0.18878 -0.486615 0.114692 3 252 255
0.244726 -0.360718 -0.189366 35 220 255
-0.449937 7.76117e-05 -0.200454 128 127 255
0.0931318 -0.486481 0.25186 3 252 255
0.15941 -0.440794 -0.202272 15 240 255
0.263099 -0.459261 0.0290433 10 245 255
-0.349755 -0.101156 -0.202685 102 153 255
-0.0249374 -0.324922 0.487046 44 211 255
-0.0313752 -0.303822 -0.189388 50 205 255
-0.137334 -0.444449 -0.190265 14 241 255
-0.0922674 -0.210774 -0.18897 73 181 255
-0.237983 -0.486942 0.263255 3 252 255
-0.0933476 -0.486323 0.283319 3 252 255
-0.240967 -0.420578 -0.203749 20 235 255
-0.130772 -0.486889 0.044258 3 252 255
0.41384 -0.486589 -0.0188775 3 252 255
-0.485483 -0.290321 -0.193553 52 202 255
0.44123 -0.292802 -0.192941 52 202 255
0.294784 -0.37317 -0.069024 32 223 255
0.357248 -0.39285 -0.201279 27 228 255
0.160366 -0.486539 0.339452 3 252 255
0.224854 -0.12838 -0.187828 95 160 255
-0.360874 -0.314334 -0.196265 47 208 255
-0.468928 -0.117719 -0.205865 97 158 255
0.162563 -0.399922 0.299546 25 230 255
-0.00917883 -0.44303 0.364179 14 241 255
-0.109613 -0.28261 -0.189574 55 200 255
-0.343882 -0.437327 -0.202595 16 239 255
-0.00583871 -0.0647698 -0.200587 111 144 255
0.0299876 -0.486449 0.152345 3 252 255
0.296702 -0.486144 -0.125557 3 252 255
-0.177081 -0.486604 0.126771 3 252 255
0.134084 -0.486938 0.0270218 3 252 255
0.278665 -0.417019 0.126593 21 234 255
-0.442436 -0.425801 -0.203719 18 237 255
-0.304673 -0.486811 -0.0469579 3 252 255
0.0811159 -0.391138 -0.19913 27 228 255
0.446636 -0.4865 -0.146489 3 252 255
-0.230972 -0.200325 -0.203348 76 179 255
0.000289294 -0.486638 -0.106176 3 252 255
0.102229 -0.485749 -0.195127 3 252 255
0.158732 -0.00663398 -0.206454 126 129 255
0.334989 -0.450131 0.051902 12 243 255
0.172916 -0.181756 -0.186687 81 174 255
-0.220886 -0.486298 -0.198869 3 252 255
0.0242826 -0.225516 -0.199047 70 185 255
-0.162405 -0.332209 -0.202528 42 213 255
0.26368 -0.345286 0.0130444 39 216 255
0.225441 -0.268022 -0.188216 59 195 255
-0.260766 -0.284917 -0.200577 55 200 255
0.131629 -0.486671 0.179415 3 252 255
0.0659577 -0.379915 0.267145 30 225 255
0.0189505 -0.374058 0.417316 32 223 255
0.00735443 -0.136124 -0.199353 93 162 255
-0.318193 -0.48635 -0.166884 3 252 255
-0.347881 -0.219703 -0.202336 71 184 255
-0.337755 -0.486964 0.0913454 3 252 255
0.0326109 -0.466944 0.308932 8 247 255
-0.195085 -0.111232 -0.199944 99 156 255
0.329762 -0.480025 -0.205859 5 250 255
0.327048 -0.278178 -0.189481 56 199 255
0.0923595 -0.4865 -0.0253872 3 252 255
-0.175569 -0.486016 -0.104314 3 252 255
-0.355758 -0.031827 -0.19016 119 136 255
0.438597 -0.354212 -0.193027 36 218 255
-0.0510034 -0.486658 -0.189415 3 252 255
0.186419 -0.486355 -0.0628851 3 252 255
-0.061174 -0.0296692 -0.187071 120 135 255
-0.224282 -0.486836 0.0336296 3 252 255
-0.435394 -0.0508584 -0.200293 113 141 255
-0.426919 -0.228441 -0.185295 69 186 255
0.111494 -0.0316708 -0.18603 119 136 255
0.0291224 -0.0260789 -0.187131 121 134 255
-0.0112707 -0.337735 0.341285 40 214 255
0.194682 -0.485934 -0.203252 3 252 255
0.267003 -0.48659 0.188382 3 252 255
-0.0133357 -0.385589 -0.187894 29 226 255
0.275476 -0.301295 -0.200985 50 205 255
0.265036 -0.414773 -0.0614041 21 234 255
-0.446503 -0.48665 -0.203011 3 252 255
0.371934 -0.0636236 -0.192053 111 144 255
0.0737815 -0.363593 0.343623 34 221 255
-0.49188 -0.407219 -0.191203 23 232 255
0.108893 -0.328641 -0.188524 43 211 255
-0.433232 -0.150768 -0.185685 89 166 255
-0.278782 -0.0972587 -0.203255 103 152 255
0.238437 -0.486554 0.0131365 3 252 255
0.305157 -0.148039 -0.189752 89 165 255
0.0830998 -0.486319 -0.137342 3 252 255
0.371762 -0.310132 -0.202385 48 207 255
-0.0761725 -0.360121 -0.202656 35 220 255
-0.314038 -0.486929 0.00892942 3 252 255
-0.0847558 -0.486157 0.226999 3 252 255
0.326233 -0.346775 -0.0205875 39 216 255
-0.31502 -0.354834 -0.19433 36 218 255
-0.193997 -0.0304131 -0.204241 120 135 255
0.407776 -0.416827 -0.194639 21 234 255
0.313995 -0.0297152 -0.200611 120 135 255
-0.137176 -0.408351 -0.199221 23 232 255
-0.061367 -0.485894 -0.137699 3 252 255
0.176217 -0.486221 -0.14715 3 252 255
0.395229 -0.486197 -0.114647 3 252 255
-0.473392 -0.199955 -0.205716 76 179 255
0.0203549 -0.440229 -0.200203 15 240 255
0.264137 -0.379152 0.0941737 30 225 255
0.145108 -0.265779 -0.187589 59 195 255
0.459655 -0.478893 -0.209183 5 250 255
-0.0249374 -0.312422 0.249546 48 207 255
0.27123 -0.486559 0.0893222 3 252 255
-0.0811883 -0.486862 0.0063964 3 252 255
-0.179963 -0.480402 -0.204577 5 250 255
-0.278678 -0.234757 -0.201345 67 188 255
-0.0396252 -0.486766 0.13246 3 252 255
0.286503 -0.434608 -0.201895 16 239 255
0.155725 -0.382703 -0.192983 30 225 255
0.354479 -0.486444 0.0626092 3 252 255
-0.0107315 -0.342689 0.421263 40 215 255
-0.346425 -0.159569 -0.194467 87 168 255
-0.0483025 -0.486358 0.323154 3 252 255
0.447849 -0.15708 -0.206648 87 168 255
-0.398627 -0.487263 -0.0864718 3 252 255
0.0917122 -0.486533 0.0441555 3 252 255
-0.155191 -0.258183 -0.200504 60 194 255
0.127327 -0.176158 -0.200266 81 173 255
0.00748055 -0.486612 -0.00590663 3 252 255
-0.214174 -0.48636 -0.0379023 3 252 255
-0.426239 -0.355653 -0.203783 36 219 255
0.439441 -0.486731 -0.0326118 3 252 255
-0.0757239 -0.48646 -0.0758939 3 252 255
0.4068 -0.246833 -0.205067 64 191 255
0.309163 -0.486426 -0.047692 3 252 255
0.173803 -0.486727 0.18002 3 252 255
-0.0383454 -0.184611 -0.186671 80 175 255
0.455671 -0.0226917 -0.20664 121 133 255
0.0325017 -0.486075 0.33536 3 252 255
-0.0905582 -0.116186 -0.188717 97 157 255
-0.194851 -0.486802 0.0616262 3 252 255
-0.242011 -0.486656 -0.138855 3 252 255
-0.33349 -0.3982 -0.203375 26 229 255
-0.309913 -0.0370032 -0.197402 118 137 255
0.0340996 -0.351049 0.252664 38 217 255
-0.369524 -0.487209 0.016602 3 252 255
-0.018063 -0.270915 -0.18962 58 197 255
-0.232885 -0.369514 -0.20261 32 222 255
0.265103 -0.00344605 -0.191109 127 128 255
-0.127729 -0.198397 -0.186432 77 178 255
0.213684 -0.319845 -0.19141 46 209 255
0.239989 -0.19341 -0.200688 78 177 255
0.133405 -0.486629 0.117105 3 252 255
0.246284 -0.482319 -0.16983 4 251 255
0.00707228 -0.486234 0.0793006 3 252 255
0.0815387 -0.485919 0.211801 3 252 255
0.170386 -0.0989719 -0.188985 102 153 255
0.197492 -0.486537 0.262475 3 252 255
0.262563 -0.249922 0.0870461 64 191 255
-0.271505 -0.486189 -0.198099 3 252 255
0.177756 -0.48647 0.019648 3 252 255
-0.00288878 -0.486077 0.25399 3 252 255
-0.0124374 0.0125776 -0.200454 131 124 255
0.31879 -0.323878 0.0871663 44 210 255
-0.217588 -0.486922 0.281925 3 252 255
0.35042 -0.443127 0.0133928 14 241 255
-0.290251 -0.486872 0.145803 3 252 255
0.0448621 -0.309157 -0.193214 48 207 255
0.307848 -0.486056 -0.178006 3 252 255
-0.133947 -0.486557 0.097668 3 252 255
-0.0249374 -0.287422 0.462046 54 201 255
0.28861 -0.364164 -0.186919 34 221 255
0.100641 -0.0938585 -0.201556 103 152 255
0.0273793 -0.486117 -0.175157 3 252 255
0.342935 -0.378105 -0.0484293 31 224 255
-0.422115 -0.0904424 -0.202785 104 151 255
0.338237 -0.169717 -0.199974 84 171 255
-0.234571 -0.136305 -0.20201 93 162 255
0.299921 -0.471488 0.109734 7 248 255
-0.386995 -0.408898 -0.202362 23 232 255
0.129193 -0.486335 0.275678 3 252 255
0.273972 -0.432507 0.00261838 17 238 255
0.00517527 -0.383392 0.358364 29 226 255
-0.104654 -0.0165136 -0.193028 123 131 255
0.45797 -0.394457 -0.201551 27 228 255
-0.0623492 -0.41654 -0.19869 21 234 255
-0.138095 -0.486236 -0.0886923 3 252 255
0.0786452 -0.248963 -0.200393 64 191 255
-0.077294 -0.250517 -0.200459 63 192 255
-0.159041 -0.108519 -0.192481 100 155 255
0.0246498 -0.0876118 -0.199703 105 150 255
0.378492 -0.486476 0.022269 3 252 255
-0.346696 -0.486939 -0.0885567 3 252 255
0.417381 -0.115785 -0.192493 97 157 255
-0.485898 -0.273897 -0.20592 56 198 255
-0.493176 -0.448579 -0.20097 13 242 255
-0.0833915 -0.486474 0.176912 3 252 255
-0.170224 -0.486201 -0.156583 3 252 255
0.265523 -0.347673 -0.0230772 38 217 255
-0.272121 -0.487116 0.033525 3 252 255
-0.215281 -0.277407 -0.19219 56 199 255
-0.24263 -0.486872 0.211233 3 252 255
-0.351313 -0.299954 -0.203803 51 204 255
-0.137851 -0.486715 0.00200277 3 252 255
0.224294 -0.0191541 -0.202218 123 131 255
0.343757 -0.374855 0.0774784 32 223 255
0.290391 -0.242215 -0.205756 65 190 255
-0.374382 -0.120215 -0.187228 97 158 255
-0.266224 -0.486651 -0.0858325 3 252 255
0.226991 -0.486635 0.0932617 3 252 255
0.054351 -0.486392 0.132171 3 252 255
-0.00500141 -0.348879 -0.190121 38 217 255
0.409517 -0.467575 -0.195055 8 247 255
0.15742 -0.486245 -0.0714149 3 252 255
-0.0249374 -0.462422 0.412046 9 246 255
-0.382406 -0.486414 -0.187994 3 252 255
0.1057 -0.470042 -0.201817 7 248 255
-0.474937 -0.362422 -0.150454 35 220 255
-0.0262561 -0.395233 0.24734 26 229 255
0.272947 -0.0825985 -0.190067 105 149 255
-0.419348 -0.301614 -0.204238 50 205 255
0.0224622 -0.486272 0.201231 3 252 255
-0.234577 -0.486654 0.107495 3 252 255
0.447316 -0.208186 -0.206478 73 181 255
-0.11624 -0.313771 -0.188962 47 208 255
-0.159987 -0.0405519 -0.202576 117 138 255
0.0722897 -0.486374 0.288074 3 252 255
-0.474937 -0.487422 -0.125454 3 252 255
0.394919 -0.33271 -0.191471 42 213 255
0.212885 -0.391741 -0.199321 27 228 255
-0.193135 -0.43063 -0.203395 17 238 255
0.0462098 -0.486511 -0.0611174 3 252 255
-0.0693045 -0.486191 0.0942312 3 252 255
0.113488 -0.39128 -0.189527 27 228 255
-0.265789 -0.183979 -0.193771 80 175 255
0.258031 -0.48647 0.21094 3 252 255
-0.462437 -0.187422 -0.137954 80 175 255
0.344652 -0.48623 -0.08824 3 252 255
-0.0184233 -0.34565 0.290166 39 216 255
0.163218 -0.0458544 -0.187923 116 139 255
0.275063 -0.249922 -0.137954 64 191 255
-0.236613 -0.0818803 -0.18812 107 147 255
0.213798 -0.486229 -0.0959244 3 252 255
-0.297608 -0.302971 -0.198548 50 205 255
0.0852687 -0.200959 -0.188289 76 179 255
0.338347 -0.339767 0.0193749 40 214 255
0.043354 -0.350973 0.386581 38 217 255
-0.124845 -0.486488 0.278217 3 252 255
-0.165523 -0.376648 -0.189709 31 224 255
0.157856 -0.158795 -0.186249 87 168 255
-0.166328 -0.192937 -0.200513 78 177 255
0.183879 -0.286312 -0.198531 54 201 255
0.384842 -0.0400008 -0.205053 117 138 255
0.00890031 -0.486596 -0.125276 3 252 255
0.0730656 -0.0308629 -0.186314 120 135 255
-0.0377396 -0.0370123 -0.202116 118 137 255
-0.328998 -0.486099 -0.196913 3 252 255
0.00282821 -0.193549 -0.199181 78 177 255
0.162524 -0.485102 0.329792 3 252 255
-0.384237 -0.034744 -0.192793 119 136 255
-0.0138361 -0.390493 0.461656 28 227 255
-0.0827562 -0.484674 -0.204811 3 252 255
-0.0461013 -0.467423 0.199995 8 247 255
0.350605 -0.253051 -0.189635 63 192 255
-0.0961364 -0.156539 -0.200163 87 168 255
-0.144667 -0.486542 0.151618 3 252 255
-0.0433193 -0.486966 -0.0204726 3 252 255
0.0617056 -0.134505 -0.198887 93 162 255
0.319397 -0.413012 0.0909569 22 233 255
-0.00877469 -0.440717 -0.193061 15 240 255
0.093111 -0.48599 -0.0969645 3 252 255
0.323587 -0.486395 0.121779 3 252 255
0.44416 -0.305108 -0.206526 48 206 255
-0.277358 -0.414501 -0.191602 21 234 255
0.047485 -0.344589 0.309327 39 216 255
-0.414075 -0.202493 -0.202659 76 179 255
0.245049 -0.147471 -0.188841 89 165 255
-0.322148 -0.193333 -0.199657 78 177 255
0.256046 -0.349366 0.0674224 38 217 255
0.336538 -0.128819 -0.189737 95 160 255
-0.302415 -0.0874093 -0.188207 105 150 255
0.0456125 -0.482652 0.358556 4 251 255
-0.48904 -0.362028 -0.204693 35 220 255
-0.0457778 -0.108942 -0.199875 100 155 255
0.271731 -0.486305 -0.0456562 3 252 255
0.450243 -0.473125 -0.209985 6 249 255
0.187771 -0.486555 -0.0154274 3 252 255
-0.468794 -0.0631689 -0.186984 111 144 255
-0.295889 -0.486678 -0.13938 3 252 255
0.244586 -0.485913 -0.185422 3 252 255
-0.0915513 -0.486405 -0.132875 3 252 255
-0.234763 -0.324709 -0.192825 44 211 255
0.352525 -0.474163 -0.208968 6 249 255
0.212563 -0.237422 -0.137954 67 188 255
0.214491 -0.486715 0.17442 3 252 255
-0.395509 -0.48685 -0.138238 3 252 255
0.306679 -0.311481 -0.203826 48 207 255
0.317971 -0.486436 0.0405305 3 252 255
-0.421786 -0.456962 -0.207766 11 244 255
0.0154814 -0.451407 0.313526 12 243 255
0.36158 -0.389383 -0.191157 28 227 255
0.0737138 -0.486711 0.0258114 3 252 255
0.445722 -0.486801 -0.0574723 3 252 255
0.156825 -0.486617 0.0932866 3 252 255
0.146048 -0.486667 0.218353 3 252 255
0.00899342 -0.33937 0.449785 40 214 255
0.256639 -0.380926 -0.187675 30 225 255
0.0490716 -0.369955 -0.190496 32 222 255
0.375819 -0.485792 -0.133937 3 252 255
-0.0368227 -0.40504 0.398044 24 231 255
-0.314729 -0.486848 0.123951 3 252 255
-0.213069 -0.486775 0.00169321 3 252 255
0.431809 -0.0790805 -0.206698 107 147 255
0.144019 -0.486133 -0.15606 3 252 255
-0.34724 -0.251883 -0.19609 63 192 255
-0.0675395 -0.367667 -0.18991 32 222 255
-0.303392 -0.487206 -0.0384071 3 252 255
0.291182 -0.198189 -0.200393 77 178 255
-0.0421345 -0.485353 0.267756 3 252 255
0.0766843 -0.311844 -0.187966 48 207 255
-0.37986 -0.35641 -0.194371 36 219 255
0.165546 -0.345658 -0.200845 39 216 255
0.0686649 -0.465947 -0.198769 8 247 255
-0.110552 -0.073287 -0.200667 109 146 255
-0.142699 -0.30276 -0.203608 50 205 255
-0.118917 -0.486483 0.214759 3 252 255
0.302836 -0.342228 0.115381 40 215 255
-0.0221485 -0.486347 0.0212209 3 252 255
0.400023 -0.274833 -0.1909 56 198 255
-0.213824 -0.0185636 -0.192286 123 131 255
-0.194154 -0.158285 -0.192307 87 168 255
0.00369386 -0.246278 -0.200834 64 191 255
0.439077 -0.486348 -0.153748 3 252 255
0.290125 -0.486075 -0.122266 3 252 255
0.371177 -0.486585 -0.0266332 3 252 255
0.448191 -0.00178746 -0.207739 127 128 255
0.185769 -0.228196 -0.202741 69 186 255
-0.484354 -0.243487 -0.194698 65 190 255
0.133776 -0.125081 -0.201333 95 160 255
0.335868 -0.0655862 -0.200423 111 144 255
0.262106 -0.367329 -0.0522062 32 222 255
0.0462371 -0.385594 0.251936 29 226 255
0.21794 -0.48645 0.0558056 3 252 255
-0.01457 -0.452529 -0.201255 12 243 255
0.387988 -0.151235 -0.202396 89 166 255
-0.199663 -0.239383 -0.194267 65 189 255
0.245764 -0.307934 -0.201104 48 206 255
-0.112218 -0.486462 0.0519591 3 252 255
-0.470384 -0.132465 -0.206081 94 161 255
0.276227 -0.469514 -0.206936 7 248 255
-0.00871624 -0.308962 -0.20116 48 207 255
-0.486411 -0.318797 -0.204703 46 209 255
0.00721574 -0.486675 0.109976 3 252 255
0.137563 -0.349922 0.274546 38 217 255
0.352528 -0.405813 -0.0108105 24 231 255
0.0917176 -0.486538 -0.0338648 3 252 255
0.10178 -0.486651 0.0894444 3 252 255
0.197177 -0.462482 -0.202911 9 246 255
0.0823996 -0.376619 0.339862 31 224 255
-0.283431 -0.486769 0.0685989 3 252 255
0.215624 -0.103422 -0.201866 101 154 255
-0.176471 -0.45123 -0.191208 12 243 255
-0.0356453 -0.486051 0.331738 3 252 255
0.266571 -0.453044 0.0326247 12 243 255
-0.189502 -0.486954 -0.0596079 3 252 255
-0.00601383 -0.443778 0.213366 14 241 255
-0.303792 -0.14039 -0.199043 92 163 255
0.036869 -0.486232 0.267769 3 252 255
0.143628 -0.00786632 -0.205794 125 130 255
0.445901 -0.37646 -0.206006 31 224 255
-0.354659 -0.0784675 -0.202289 107 147 255
-0.480421 -0.406345 -0.209872 23 232 255
-0.0258938 -0.486186 -0.157804 3 252 255
-0.363841 -0.487153 0.027264 3 252 255
0.487563 -0.112422 -0.200454 99 156 255
-0.0814345 -0.307938 -0.201723 48 206 255
-0.259942 -0.456734 -0.203732 11 244 255
0.337563 -0.312422 -0.137954 48 207 255
-0.178652 -0.486917 0.128046 3 252 255
-0.312437 7.76117e-05 -0.200454 128 127 255
0.124351 -0.407835 -0.202138 23 232 255
0.228809 -0.48601 0.131916 3 252 255
0.308035 -0.414283 -0.195968 21 234 255
-0.082567 -0.191892 -0.189336 78 177 255
0.096054 -0.486675 0.161964 3 252 255
0.298222 -0.0136353 -0.191596 124 131 255
-0.115178 -0.486705 -0.182218 3 252 255
0.0556773 -0.0520987 -0.183017 113 141 255
-0.13398 -0.383085 -0.189881 29 226 255
-0.391105 -0.249476 -0.202446 64 191 255
0.202835 -0.166895 -0.20147 85 170 255
-0.00229598 -0.136143 -0.199505 93 162 255
-0.274937 -0.487422 0.299546 3 252 255
0.132798 -0.262674 -0.187603 60 195 255
0.177306 -0.486525 0.312123 3 252 255
0.300571 -0.376746 0.0548342 31 224 255
-0.24121 -0.485875 -0.111066 3 252 255
-0.0768932 -0.486628 -0.074901 3 252 255
0.396724 -0.229778 -0.19056 69 186 255
-0.261198 -0.381916 -0.191455 30 225 255
-0.206472 -0.0778054 -0.19115 108 147 255
-0.000972729 -0.486337 -0.0864937 3 252 255
-0.284066 -0.234078 -0.200921 68 187 255
-0.00880856 -0.337504 0.33688 40 214 255
0.39554 -0.402294 -0.203719 24 231 255
-0.361209 -0.168632 -0.199361 84 171 255
-0.0900904 -0.486304 0.281602 3 252 255
0.0244421 -0.486665 0.0196777 3 252 255
-0.12383 -0.486757 -0.0053041 3 252 255
-0.0087267 -0.414705 0.437403 21 234 255
0.33399 -0.222111 -0.205108 71 184 255
0.344445 -0.338295 -0.201011 40 214 255
0.0808171 -0.486371 0.321321 3 252 255
0.446562 -0.272435 -0.206515 58 197 255
-0.410244 -0.487149 -0.0931849 3 252 255
0.168957 -0.486352 -0.117481 3 252 255
0.275495 -0.426417 0.108014 18 237 255
-0.115947 -0.2478 -0.20141 64 191 255
-0.470059 -0.486612 -0.194862 3 252 255
0.106468 -0.210375 -0.199901 73 181 255
-0.137437 0.0125776 -0.200454 131 124 255
0.225788 -0.486495 -0.0551395 3 252 255
0.399429 -0.0145875 -0.192989 124 131 255
0.353904 -0.344259 0.0354903 39 216 255
0.257489 -0.249107 -0.18902 64 191 255
0.224712 -0.0201342 -0.202228 121 133 255
0.284467 -0.486502 0.146384 3 252 255
-0.140579 -0.116577 -0.201355 97 157 255
0.0344863 -0.420621 -0.199161 20 235 255
-0.191162 -0.486638 0.0708429 3 252 255
0.146382 -0.486666 0.0356841 3 252 255
-0.348255 -0.400055 -0.190304 25 230 255
0.282549 -0.486487 0.0239077 3 252 255
-0.341427 -0.487015 -0.0763663 3 252 255
0.279127 -0.149916 -0.20134 89 166 255
-0.276379 -0.0646695 -0.201194 111 144 255
-0.258171 -0.486688 0.13447 3 252 255
-0.431311 -0.151157 -0.185655 89 166 255
0.0322004 -0.220484 -0.191018 71 184 255
-0.197697 -0.318848 -0.193077 46 209 255
0.126057 -0.486469 0.235696 3 252 255
0.103497 -0.329349 -0.202476 43 211 255
0.271021 -0.439941 -0.0246967 15 240 255
-0.0207912 -0.0750696 -0.200183 108 147 255
0.0625626 0.0125776 -0.200454 131 124 255
-0.0441715 -0.486298 0.0590415 3 252 255
-0.276217 -0.48683 -0.0112059 3 252 255
-0.0285362 -0.36601 0.265504 34 221 255
-0.408706 -0.316941 -0.204134 46 209 255
0.456309 -0.424622 -0.196278 19 236 255
0.0708473 -0.119281 -0.185297 97 158 255
0.196158 -0.486616 0.240416 3 252 255
-0.216675 -0.407554 -0.203446 23 232 255
0.21809 -0.408178 -0.190032 23 232 255
0.425302 -0.171763 -0.191928 84 171 255
-0.334683 -0.485995 -0.147079 3 252 255
0.0881746 -0.486143 -0.121225 3 252 255
0.340242 -0.469679 -0.0276263 7 248 255
0.396449 -0.48503 -0.201444 3 252 255
0.0242766 -0.438964 0.354459 15 240 255
-0.448628 -0.241421 -0.185513 65 189 255
-0.0307426 -0.363382 0.422469 34 221 255
-0.294247 -0.322066 -0.198478 44 210 255
-0.244483 -0.480411 -0.175812 4 251 255
-0.422124 -0.482654 -0.180341 4 251 255
-0.0873639 -0.428405 -0.200108 18 237 255
-0.218589 -0.210377 -0.192492 73 181 255
0.39939 -0.486344 -0.0736395 3 252 255
0.171373 -0.0597642 -0.202821 112 143 255
0.28301 -0.481552 -0.169183 4 251 255
0.328719 -0.365187 -0.0515409 34 221 255
-0.0495775 -0.480434 0.173405 4 251 255
0.0590619 -0.486501 0.200833 3 252 255
-0.434065 -0.391349 -0.200668 27 228 255
-0.169382 -0.486452 -0.124179 3 252 255
0.352139 -0.486445 0.0646549 3 252 255
0.37085 -0.123348 -0.190155 96 159 255
0.237563 -0.287422 0.0870461 54 201 255
-0.401706 -0.0701459 -0.201257 110 145 255
-0.124404 -0.0452039 -0.187907 116 139 255
0.0679496 -0.37177 0.268547 32 223 255
-0.360052 -0.487321 -0.0139613 3 252 255
-0.0410234 -0.176818 -0.200991 81 173 255
0.187052 -0.486302 0.131318 3 252 255
-0.328449 -0.452635 -0.20068 12 243 255
-0.0624374 0.0125776 -0.200454 131 124 255
0.306267 -0.0751039 -0.190472 108 147 255
-0.120562 -0.486559 0.109316 3 252 255
0.069441 -0.486199 -0.176226 3 252 255
0.0382649 -0.486743 -0.021252 3 252 255
0.166211 -0.433586 -0.20094 16 239 255
-0.323335 -0.48691 0.0716625 3 252 255
0.0578688 -0.486616 0.0803666 3 252 255
0.0450287 -0.349526 0.37713 38 217 255
0.341358 -0.411471 0.0518769 22 233 255
0.417195 -0.33433 -0.205451 42 213 255
0.312563 -0.262422 0.0995462 60 195 255
-0.254679 -0.145426 -0.200584 89 165 255
-0.146827 -0.486399 -0.0538251 3 252 255
-0.134701 -0.486573 0.280256 3 252 255
-0.247502 -0.26015 -0.200718 60 194 255
-0.153837 -0.450546 -0.203021 12 243 255
0.28846 -0.336307 0.0304489 40 214 255
0.194583 -0.486247 -0.148317 3 252 255
0.452121 -0.0283846 -0.206667 120 135 255
-0.0322926 -0.349975 -0.191733 38 217 255
0.220833 -0.486443 0.000256302 3 252 255
0.172482 -0.307156 -0.198318 48 206 255
-0.0403474 -0.468547 0.316294 8 247 255
-0.0645842 -0.244547 -0.191147 65 190 255
0.400157 -0.486524 -0.0128573 3 252 255
0.487563 -0.212422 -0.200454 73 182 255
0.142237 -0.00430661 -0.185684 126 129 255
0.263048 -0.351947 0.103868 36 218 255
0.284956 -0.486146 -0.0629159 3 252 255
0.175069 -0.187708 -0.186679 79 176 255
0.281108 -0.400325 -0.199862 25 230 255
-0.080082 -0.486518 -0.153639 3 252 255
-0.11823 -0.164016 -0.187396 85 170 255
0.0590445 -0.167637 -0.192568 85 170 255
-0.461102 -0.099985 -0.204119 102 153 255
0.0427808 -0.261773 -0.191182 60 195 255
-0.33729 -0.334009 -0.196235 42 213 255
-0.0294642 -0.486681 -0.0369324 3 252 255
-0.0511994 -0.48628 0.229537 3 252 255
-0.185007 -0.363611 -0.202134 34 221 255
0.144085 -0.486308 -0.0798147 3 252 255
0.36143 -0.00516975 -0.19181 126 129 255
0.333402 -0.486067 -0.137291 3 252 255
0.227684 -0.340793 -0.192853 40 215 255
-0.279034 -0.486841 -0.0738638 3 252 255
-0.052528 -0.486451 0.11815 3 252 255
0.245301 -0.0849322 -0.191362 105 149 255
0.0129037 -0.0388248 -0.187746 118 137 255
0.0684635 -0.386106 -0.19028 29 226 255
-0.168233 -0.486897 0.0407214 3 252 255
0.437052 -0.486643 -0.107534 3 252 255
0.346326 -0.183959 -0.190401 80 175 255
-0.0789433 -0.0974468 -0.200012 103 152 255
-0.00160211 -0.4109 0.237762 22 233 255
-0.256849 -0.486816 0.0764562 3 252 255
-0.296798 -0.392516 -0.203254 27 228 255
0.363704 -0.293225 -0.203277 52 203 255
0.0182736 -0.486329 0.164789 3 252 255
0.0975476 -0.0410469 -0.19827 117 138 255
-0.437437 7.76117e-05 -0.200454 128 127 255
-0.103935 -0.368563 -0.198991 32 222 255
0.465468 -0.46444 -0.203417 9 246 255
-0.165117 -0.278175 -0.19207 56 199 255
0.0386605 -0.339929 0.291607 40 215 255
0.331471 -0.430485 -0.192314 17 238 255
-0.149937 -0.487422 0.349546 3 252 255
0.154923 -0.120476 -0.188204 97 158 255
-0.184074 -0.147236 -0.201727 89 165 255
0.207692 -0.253435 -0.187389 63 192 255
-0.384668 -0.149771 -0.186152 89 166 255
-0.491994 -0.389243 -0.205514 28 227 255
-0.306738 -0.0407674 -0.189554 117 138 255
0.255821 -0.39595 -0.040667 26 229 255
0.179441 -0.485793 0.18232 3 252 255
0.158882 -0.486542 0.335554 3 252 255
-0.375157 -0.431297 -0.190281 17 238 255
-0.018941 -0.403745 -0.187785 24 231 255
-0.325326 -0.231933 -0.195967 68 187 255
0.0284901 -0.486245 -0.13068 3 252 255
-0.193811 -0.0522866 -0.203967 113 141 255
0.270443 -0.486474 0.0761199 3 252 255
-0.0796672 -0.486326 0.0432401 3 252 255
0.437609 -0.23366 -0.192975 68 187 255
0.0240074 -0.348308 0.411279 38 217 255
-0.0316024 -0.275053 -0.201734 56 198 255
0.100538 -0.251942 -0.200659 63 192 255
0.258448 -0.174736 -0.189366 83 172 255
0.135114 -0.486687 0.129924 3 252 255
0.308687 -0.376645 0.112056 31 224 255
-0.48351 -0.302803 -0.20624 50 205 255
-0.0632612 -0.0380812 -0.18772 118 137 255
0.268922 -0.26778 -0.201265 59 195 255
0.11657 -0.486099 -0.192274 3 252 255
-0.461485 -0.181922 -0.201893 81 174 255
0.0678952 -0.486379 0.264823 3 252 255
-0.177571 -0.486863 -0.0136378 3 252 255
-0.0857082 -0.486421 0.18053 3 252 255
0.315931 -0.353355 -0.187922 36 218 255
-0.112812 -0.487011 -0.08227 3 252 255
0.420992 -0.473663 -0.210169 6 249 255
0.412917 -0.0684996 -0.199257 110 145 255
0.337786 -0.486257 -0.0793236 3 252 255
0.0908062 -0.486638 -0.0220604 3 252 255
0.126324 -0.36447 -0.190949 34 221 255
0.0221633 -0.324752 -0.194091 44 211 255
-0.287996 -0.486361 -0.158084 3 252 255
0.285481 -0.485929 -0.203513 3 252 255
-0.335934 -0.136883 -0.193406 92 163 255
-0.315604 -0.487199 0.0106869 3 252 255
-0.38611 -0.272926 -0.201336 58 197 255
0.333268 -0.324843 0.0628679 44 211 255
-0.0376721 -0.48655 -0.187211 3 252 255
-0.164442 -0.486573 -0.183585 3 252 255
0.444011 -0.167027 -0.207638 85 170 255
0.179655 -0.486606 0.0768294 3 252 255
0.215527 -0.486183 -0.106384 3 252 255
-0.226552 -0.486568 -0.0702931 3 252 255
-0.249612 -0.32327 -0.191959 44 210 255
0.0150588 -0.0888074 -0.199883 105 150 255
0.18825 -0.486405 0.275451 3 252 255
0.329097 -0.486501 -0.0125082 3 252 255
-0.161632 -0.19531 -0.200597 77 178 255
-0.299937 -0.487422 0.237046 3 252 255
-0.375654 -0.0453604 -0.188859 116 139 255
0.182964 -0.382812 -0.199108 29 226 255
0.256141 -0.363504 0.0351987 34 221 255
0.19861 -0.0497515 -0.189158 115 140 255
0.342836 -0.485298 0.0788262 3 252 255
0.0741315 -0.486506 0.135222 3 252 255
0.0988152 -0.101027 -0.201384 102 153 255
-0.084222 -0.486618 -0.0195349 3 252 255
0.0338766 -0.486076 0.334195 3 252 255
0.21366 -0.464014 -0.203588 9 246 255
0.396213 -0.39689 -0.192311 26 229 255
0.00409812 -0.335896 0.357597 40 214 255
-0.400178 -0.199048 -0.185372 77 178 255
-0.421735 -0.417367 -0.203099 21 234 255
0.0271946 -0.352575 0.251749 36 218 255
-0.380445 -0.486705 -0.151694 3 252 255
0.261182 -0.486625 0.15592 3 252 255
-0.244493 -0.486502 0.0295476 3 252 255
-0.167708 -0.486592 0.13357 3 252 255
-0.0736967 -0.313632 -0.189379 47 208 255
0.312563 0.0250776 -0.200454 134 121 255
-0.0329513 -0.486324 -0.124418 3 252 255
0.260602 -0.466713 0.0570324 8 247 255
0.0923968 -0.172578 -0.187708 83 172 255
0.106365 -0.486957 0.0516558 3 252 255
-0.260682 -0.179664 -0.201983 81 174 255
-0.428912 -0.338619 -0.194287 40 214 255
-0.00765801 -0.486401 0.0873635 3 252 255
-0.0114607 -0.417822 0.430372 21 234 255
0.352026 -0.399092 -0.020084 25 230 255
0.312563 -0.224922 -0.137954 70 185 255
0.153154 -0.228308 -0.200642 69 186 255
0.00371128 -0.188017 -0.189801 79 176 255
-0.449937 -0.262422 -0.137954 60 195 255
-0.138699 -0.336106 -0.189403 40 214 255
-0.234305 -0.468078 -0.203788 8 247 255
-0.262431 -0.0480898 -0.200089 115 140 255
-0.309778 -0.486899 0.122482 3 252 255
0.109428 -0.486647 0.199221 3 252 255
-0.456679 -0.0663741 -0.202992 110 145 255
0.0195381 -0.486174 0.268784 3 252 255
-0.296664 -0.270051 -0.194403 58 197 255
0.296365 -0.371489 -0.0671951 32 223 255
0.439602 -0.278152 -0.192789 56 199 255
-0.00438714 -0.443443 0.359331 14 241 255
-0.0871873 -0.486413 0.241104 3 252 255
0.0711804 -0.485873 -0.0824057 3 252 255
0.324419 -0.116231 -0.189875 97 157 255
-0.482891 -0.23178 -0.203818 68 187 255
0.357689 -0.482504 -0.204527 4 251 255
-0.295157 -0.110078 -0.203506 99 156 255
0.255998 -0.0518116 -0.190495 113 141 255
0.222385 -0.48625 0.196282 3 252 255
-0.151069 -0.0882338 -0.201586 105 150 255
-0.0444993 -0.137544 -0.18893 92 163 255
0.18818 -0.486439 -0.00115929 3 252 255
0.224643 -0.138329 -0.187652 92 163 255
-0.341484 -0.48671 -0.100643 3 252 255
0.0656665 -0.312679 -0.199847 47 208 255
0.380746 -0.486428 0.00716007 3 252 255
-0.129833 -0.486858 -0.14526 3 252 255
0.298093 -0.294484 -0.189491 52 203 255
0.0651789 -0.357605 0.336014 36 219 255
0.381847 -0.486197 -0.118842 3 252 255
-0.464724 -0.486627 -0.199984 3 252 255
0.125717 -0.441443 -0.200966 14 241 255
-0.0918855 -0.441626 -0.200956 14 241 255
0.240227 -0.212613 -0.188066 73 182 255
0.0347669 -0.402354 0.259379 24 231 255
-0.237437 -0.487422 0.337046 3 252 255
0.336998 -0.451547 0.0435543 12 243 255
0.111577 -0.486498 0.280679 3 252 255
0.434739 -0.486763 -0.0514849 3 252 255
-0.346022 -0.486894 0.0478634 3 252 255
-0.373719 -0.374243 -0.194405 32 223 255
0.285324 -0.395238 -0.18803 26 229 255
0.0119207 -0.382592 -0.198715 30 225 255
0.0548712 -0.485662 -0.192865 3 252 255
-0.00997925 -0.48623 0.192389 3 252 255
-0.170637 -0.242834 -0.191788 65 190 255
-0.189979 -0.38096 -0.190632 30 225 255
0.180254 -0.486084 -0.195301 3 252 255
0.141914 -0.278972 -0.20108 56 199 255
0.300817 -0.486051 -0.176452 3 252 255
0.162563 -0.362422 0.237046 35 220 255
0.124144 -0.48618 -0.125657 3 252 255
-0.214266 -0.486686 0.101104 3 252 255
-0.367443 -0.459681 -0.200221 10 245 255
0.440897 -0.342436 -0.205978 40 215 255
0.0125626 0.0125776 -0.200454 131 124 255
-0.0249374 -0.324922 0.237046 44 211 255
0.347533 -0.237523 -0.189645 67 188 255
0.142157 -0.0619386 -0.189527 112 143 255
-0.0534567 -0.486383 0.315101 3 252 255
0.272853 -0.409178 0.0928308 23 232 255
-0.0674346 -0.388312 -0.189785 28 227 255
-0.212508 -0.12949 -0.202726 94 161 255
-0.0328016 -0.367841 0.42176 32 222 255
0.332809 -0.0289469 -0.191608 120 135 255
-0.138044 -0.0340237 -0.199947 119 136 255
0.4346 -0.137215 -0.206745 92 163 255
-0.137034 -0.486655 0.26816 3 252 255
0.264397 -0.48649 -0.00388165 3 252 255
-0.135202 -0.486769 0.0580608 3 252 255
-0.345434 -0.487233 -0.0398821 3 252 255
0.0278899 -0.486504 -0.0374985 3 252 255
0.288382 -0.485987 -0.102502 3 252 255
-0.294285 -0.413071 -0.20211 22 233 255
-0.0970822 -0.181379 -0.197814 81 174 255
-0.360974 -0.200659 -0.196918 76 179 255
0.238077 -0.383383 -0.198355 29 226 255
0.32337 -0.345874 -0.019209 39 216 255
0.418216 -0.0480928 -0.194136 115 140 255
-0.0231667 -0.402002 0.240951 25 230 255
0.17189 -0.136471 -0.20185 93 162 255
-0.355116 -0.294948 -0.196362 52 203 255
0.0284344 -0.486404 0.0789567 3 252 255
0.314095 -0.170483 -0.200289 84 171 255
-0.405142 -0.48714 -0.105982 3 252 255
-0.0234806 -0.251861 -0.189918 63 192 255
-0.0444198 -0.0261336 -0.19959 121 134 255
0.213603 -0.486489 0.0608747 3 252 255
-0.489943 -0.429403 -0.204284 18 237 255
0.315667 -0.48639 0.120336 3 252 255
0.0155648 -0.139636 -0.193923 92 163 255
0.0752608 -0.484531 0.348449 3 252 255
-0.0411278 -0.448774 -0.200641 13 242 255
-0.204954 -0.0187524 -0.190927 123 131 255
0.386617 -0.328198 -0.190857 43 211 255
0.273243 -0.451126 -0.0261328 12 243 255
-0.469672 -0.146643 -0.20399 89 165 255
-0.417195 -0.262185 -0.202447 60 195 255
-0.386945 -0.117027 -0.201226 97 157 255
0.0700525 -0.0895011 -0.185651 105 150 255
0.203275 -0.299806 -0.19116 51 204 255
0.392479 -0.23994 -0.204283 65 189 255
0.456509 -0.400324 -0.200021 25 230 255
0.487563 -0.0874224 -0.200454 105 150 255
0.226929 -0.48605 -0.139671 3 252 255
-0.278227 -0.48668 -0.128117 3 252 255
-0.0172533 -0.486286 0.020915 3 252 255
-0.167886 -0.486638 -0.0923139 3 252 255
-0.225881 -0.262972 -0.199574 60 195 255
0.0980882 -0.344829 -0.18878 39 216 255
-0.243019 -0.0972947 -0.187903 103 152 255
0.365824 -0.411567 -0.20257 22 233 255
0.440577 -0.486498 -0.119681 3 252 255
0.333043 -0.35796 0.0980045 36 219 255
-0.0906453 -0.265899 -0.200856 59 195 255
-0.262978 -0.362931 -0.192959 35 220 255
-0.274203 -0.486969 -0.0268486 3 252 255
-0.28708 -0.486835 0.142657 3 252 255
0.174277 -0.486682 -0.0733009 3 252 255
0.0499699 -0.486331 0.220791 3 252 255
-0.299094 -0.202593 -0.195413 76 179 255
0.00328512 -0.339959 0.445904 40 215 255
-0.413153 -0.486572 -0.193377 3 252 255
0.0571691 -0.221531 -0.191144 71 184 255
-0.142158 -0.444317 -0.202322 14 241 255
-0.00290454 -0.337026 0.323288 40 214 255
-0.125615 -0.486694 0.123777 3 252 255
-0.00892453 -0.486506 -0.103294 3 252 255
0.144875 -0.486428 0.253927 3 252 255
0.370691 -0.120158 -0.190487 97 158 255
0.355221 -0.35071 0.0324133 38 217 255
0.0692691 -0.0292617 -0.1865 120 135 255
0.266053 -0.346368 -0.00801814 39 216 255
0.199279 -0.024455 -0.202727 121 134 255
-0.485612 -0.330264 -0.204545 43 211 255
0.00504539 -0.473282 -0.202028 6 249 255
-0.111884 -0.139427 -0.202475 92 163 255
0.137563 -0.349922 0.287046 38 217 255
-0.302105 -0.486056 -0.194348 3 252 255
-0.343284 -0.0403085 -0.198839 117 138 255
-0.0356277 -0.486019 0.269527 3 252 255
-0.0623895 -0.486328 0.0987402 3 252 255
0.326494 -0.323765 -0.203593 44 210 255
-0.474937 -0.0124224 -0.200454 124 131 255
0.282891 -0.0927541 -0.190063 104 151 255
0.449295 -0.474107 -0.210093 6 249 255
-0.118442 -0.486906 -0.000892343 3 252 255
0.279133 -0.33729 0.109273 40 214 255
0.15535 -0.179271 -0.200507 81 173 255
0.168744 -0.48665 0.162159 3 252 255
0.150526 -0.404436 -0.191781 24 231 255
-0.333586 -0.361099 -0.20118 35 220 255
-0.109023 -0.486457 0.216139 3 252 255
0.121374 -0.487015 0.0637839 3 252 255
0.400841 -0.00900475 -0.19908 125 130 255
-0.0952058 -0.0641265 -0.199518 111 144 255
0.319342 -0.429722 0.0877831 17 238 255
0.280455 -0.0169273 -0.190277 123 131 255
-0.203813 -0.486503 -0.0408539 3 252 255
0.0210816 -0.303161 -0.190612 50 205 255
0.226351 -0.486574 -0.0490563 3 252 255
-0.218928 -0.191852 -0.193652 78 177 255
0.0658873 -0.423414 -0.192254 19 236 255
-0.2027 -0.420472 -0.201758 20 235 255
0.238579 -0.486654 0.116288 3 252 255
0.0982958 -0.48653 -0.0579304 3 252 255
0.196395 -0.103124 -0.189066 101 154 255
-0.191213 -0.315177 -0.19354 47 208 255
-0.0904908 -0.486491 -0.0653321 3 252 255
-0.462437 -0.487422 -0.100454 3 252 255
-0.0144339 -0.486216 0.322545 3 252 255
-0.0377727 -0.452397 0.233372 12 243 255
0.007102 -0.377083 0.38608 31 224 255
0.194209 -0.360066 -0.200496 35 220 255
0.366116 -0.486416 0.0394727 3 252 255
0.166586 -0.485893 0.325326 3 252 255
-0.441502 -0.375708 -0.200905 31 224 255
-0.172807 -0.485573 -0.154433 3 252 255
0.0479301 -0.486344 0.132864 3 252 255
-0.0295938 -0.328064 -0.200133 43 211 255
0.146321 -0.486054 -0.173148 3 252 255
0.379424 -0.203203 -0.191389 75 179 255
0.224905 -0.2687 -0.201383 59 195 255
-0.261698 -0.487098 0.0279685 3 252 255
0.109136 -0.265817 -0.187638 59 195 255
0.0470484 -0.486267 -0.149541 3 252 255
-0.411908 -0.080933 -0.201866 107 147 255
0.132093 -0.0267648 -0.205702 121 134 255
-0.0412146 -0.174763 -0.200939 83 172 255
0.00189439 -0.339652 0.280373 40 214 255
-0.122891 -0.223503 -0.197822 70 185 255
-0.133056 -0.390923 -0.189965 27 228 255
-0.239068 -0.485921 -0.101136 3 252 255
-0.0754854 -0.486294 -0.153553 3 252 255
0.294233 -0.246378 -0.204594 64 191 255
0.445652 -0.258813 -0.206482 60 194 255
-0.0293757 -0.0663772 -0.189264 110 145 255
-0.303514 -0.287154 -0.201881 54 201 255
-0.0346416 -0.486481 -0.0337557 3 252 255
0.11479 -0.133233 -0.199732 93 162 255
0.0695468 -0.37937 0.343139 30 225 255
-0.326084 -0.486915 0.0823891 3 252 255
-0.17887 -0.0839589 -0.201272 105 149 255
-0.287437 -0.487422 0.274546 3 252 255
-0.474937 -0.299922 -0.150454 51 204 255
0.388804 -0.486386 -0.0599507 3 252 255
0.352364 -0.414625 0.00499649 21 234 255
0.233241 -0.459639 -0.201529 10 245 255
-0.437437 -0.199922 -0.125454 76 179 255
0.212145 -0.486608 0.204628 3 252 255
0.272685 -0.320421 -0.188637 44 210 255
0.23499 -0.198587 -0.200126 77 178 255
0.487563 -0.487422 -0.125454 3 252 255
-0.391878 -0.226535 -0.202428 69 186 255
0.340127 -0.0619413 -0.191129 112 143 255
-0.347965 -0.471479 -0.190537 7 248 255
-0.0249374 -0.337422 0.487046 40 214 255
0.073512 -0.486728 0.0489911 3 252 255
0.449611 -0.00697874 -0.207425 126 129 255
0.255916 -0.364368 0.0693617 34 221 255
-0.355414 -0.487106 -0.0213914 3 252 255
-0.141468 -0.293247 -0.189145 52 203 255
0.174717 -0.486615 0.0177166 3 252 255
0.0251157 -0.440037 0.350485 15 240 255
-0.339996 -0.0868776 -0.198782 105 150 255
0.119682 -0.486595 0.181565 3 252 255
-0.179709 -0.486849 0.053929 3 252 255
0.285055 -0.48643 0.0665894 3 252 255
-0.30044 -0.486844 -0.0877726 3 252 255
-0.231087 -0.0353758 -0.201011 118 137 255
-0.403019 -0.338849 -0.194417 40 214 255
0.29912 -0.1486 -0.189703 89 166 255
0.170785 -0.257123 -0.187139 62 193 255
-0.303078 -0.158762 -0.194799 87 168 255
0.363115 -0.296657 -0.189864 52 203 255
0.0657736 -0.356356 0.281113 36 219 255
-0.445608 -0.0489233 -0.187714 115 140 255
-0.0762576 -0.486505 -0.202825 3 252 255
-0.0762865 -0.486757 0.0423726 3 252 255
-0.49192 -0.389622 -0.205564 28 227 255
0.210604 -0.477708 -0.190866 5 250 255
0.331831 -0.486294 -0.072064 3 252 255
-0.0874374 -0.487422 0.362046 3 252 255
0.0438202 -0.365969 -0.190503 34 221 255
-0.0613141 -0.486558 0.147076 3 252 255
-0.176633 -0.486217 -0.201341 3 252 255
-0.0143364 -0.421897 0.42042 19 236 255
-0.404516 -0.146362 -0.201557 89 165 255
0.363548 -0.4828 -0.204273 4 251 255
0.4232 -0.184265 -0.191796 80 175 255
0.270194 -0.447538 0.0184659 13 242 255
0.0761748 -0.486357 0.302477 3 252 255
-0.0559396 -0.110262 -0.200015 99 156 255
-0.249948 -0.446231 -0.204553 13 242 255
-0.0844311 -0.327285 -0.200033 44 211 255
0.0433215 -0.0753968 -0.199659 108 147 255
0.115912 -0.48664 0.11897 3 252 255
0.400376 -0.357788 -0.192117 36 219 255
-0.0276813 -0.37779 0.256846 31 224 255
0.146612 -0.321635 -0.190914 44 210 255
-0.219358 -0.373743 -0.203555 32 223 255
-0.0105156 -0.202136 -0.19928 76 179 255
0.27963 -0.407468 0.119201 23 232 255
0.0873322 -0.486521 -0.00914675 3 252 255
0.34626 -0.485416 -0.149311 3 252 255
-0.1676 -0.151172 -0.191307 89 166 255
0.0855209 -0.486534 0.232002 3 252 255
-0.437278 -0.454794 -0.190463 11 244 255
0.106918 -0.182914 -0.19999 81 174 255
0.254208 -0.381121 -0.01679 30 225 255
0.253829 -0.378836 -0.188641 31 224 255
0.299395 -0.486411 -0.0163472 3 252 255
-0.262523 -0.316263 -0.202087 47 208 255
-0.219184 -0.486643 0.0907677 3 252 255
0.402164 -0.11244 -0.192281 99 156 255
0.190954 -0.486564 0.254569 3 252 255
0.0530698 -0.486396 -0.0906602 3 252 255
-0.165654 -0.486952 -0.0220473 3 252 255
0.269478 -0.485892 -0.16343 3 252 255
0.0132642 -0.486519 0.146774 3 252 255
-0.438614 -0.304181 -0.202112 50 205 255
-0.180977 -0.0159773 -0.191885 123 131 255
0.0139938 -0.271859 -0.200289 58 197 255
-0.0776559 -0.239326 -0.19896 65 189 255
0.0454393 -0.13829 -0.195272 92 163 255
0.434328 -0.486755 -0.0485888 3 252 255
-0.35875 -0.487052 0.0300075 3 252 255
0.324886 -0.388635 -0.190199 28 227 255
0.298529 -0.369406 -0.0648213 32 222 255
0.162563 -0.412422 0.287046 22 233 255
-0.0472726 -0.394568 -0.196641 26 229 255
-0.0104258 -0.486179 -0.159734 3 252 255
0.443467 -0.410703 -0.195059 22 233 255
0.0152647 -0.486683 0.0116346 3 252 255
0.203605 -0.48653 0.11049 3 252 255
-0.47762 -0.216086 -0.194464 72 183 255
0.0161552 -0.473245 0.294269 6 249 255
-0.25007 -0.210663 -0.201288 73 181 255
0.0747214 -0.47126 -0.199033 7 248 255
0.321082 -0.32397 0.0811173 44 210 255
0.0344226 -0.353812 0.402494 36 218 255
-0.370204 -0.429373 -0.203334 18 237 255
-0.464623 -0.129932 -0.207551 94 161 255
0.250063 -0.262422 0.0995462 60 195 255
0.219557 -0.158148 -0.202001 87 168 255
-0.0733755 -0.486224 0.295223 3 252 255
-0.312437 -0.487422 0.212046 3 252 255
-0.254725 -0.48645 -0.153624 3 252 255
-0.312506 -0.0473897 -0.201922 115 140 255
0.444546 -0.217632 -0.206367 72 183 255
-0.0153502 -0.426576 0.223685 18 237 255
0.243177 -0.0315715 -0.190491 119 136 255
0.273905 -0.486589 0.141928 3 252 255
0.120277 -0.48644 -0.0983224 3 252 255
-0.040647 -0.39062 0.410729 27 228 255
0.442155 -0.297331 -0.206487 51 204 255
-0.165628 -0.486594 0.129807 3 252 255
-0.13234 -0.187702 -0.186314 79 176 255
-0.114975 -0.486484 -0.0833835 3 252 255
0.123819 -0.0770586 -0.196139 108 147 255
0.349125 -0.41001 -0.0316864 23 232 255
-0.255537 -0.104141 -0.203265 101 154 255
-0.389579 -0.486951 -0.128123 3 252 255
-0.349125 -0.249095 -0.199645 64 191 255
0.341065 -0.162893 -0.189893 86 169 255
0.0227908 -0.486199 0.207864 3 252 255
0.373265 -0.0362233 -0.205401 118 137 255
0.12923 -0.45145 -0.197026 12 243 255
0.297375 -0.429493 -0.199092 18 237 255
-0.193014 -0.280748 -0.201594 56 199 255
0.237855 -0.486501 0.0406676 3 252 255
-0.096811 -0.0295312 -0.201118 120 135 255
0.487563 -0.149922 -0.200454 89 166 255
-0.462437 -0.374922 -0.150454 32 223 255
0.414231 -0.486323 -0.115934 3 252 255
0.210941 -0.486586 -0.0707479 3 252 255
-0.274844 -0.486732 0.0883603 3 252 255
0.0535271 -0.241116 -0.198102 65 189 255
0.339452 -0.261094 -0.189536 60 194 255
-0.309564 -0.39168 -0.203215 27 228 255
0.32597 -0.486397 0.0995957 3 252 255
-0.141241 -0.482547 -0.174156 4 251 255
-0.37154 -0.317909 -0.20225 46 209 255
-0.263873 -0.486733 -0.0509011 3 252 255
0.0750626 0.0125776 -0.200454 131 124 255
-0.0972296 -0.486669 0.0811879 3 252 255
0.229561 -0.320292 -0.197674 44 210 255
-0.0516787 -0.486564 -0.130005 3 252 255
-0.128606 -0.113773 -0.201546 97 157 255
-0.0578011 -0.486696 -0.0105758 3 252 255
-0.0859502 -0.486479 0.18762 3 252 255
0.0186443 -0.427075 -0.199319 18 237 255
0.225063 -0.324922 0.0870461 44 211 255
0.188304 -0.439482 -0.202177 15 240 255
0.0180725 -0.486233 0.355388 3 252 255
0.216833 -0.0897606 -0.19097 105 150 255
-0.144074 -0.339829 -0.199401 40 215 255
0.0294795 -0.400728 0.254461 25 230 255
0.300782 -0.198852 -0.200259 77 178 255
0.415936 -0.479201 -0.210082 5 250 255
0.30886 -0.336828 0.0253975 40 214 255
-0.387437 7.76117e-05 -0.200454 128 127 255
-0.490619 -0.453808 -0.202643 11 244 255
-0.00730755 -0.0911527 -0.200387 104 151 255
-0.182216 -0.224963 -0.191432 70 185 255
0.347446 -0.486507 -0.0104245 3 252 255
-0.300594 -0.486765 0.026137 3 252 255
0.105842 -0.395331 -0.189619 26 229 255
-0.439485 -0.11409 -0.186821 97 157 255
0.294146 -0.48601 -0.0961573 3 252 255
-0.351056 -0.182636 -0.196625 81 174 255
-0.0369344 -0.296241 -0.189347 52 203 255
-0.475661 -0.276135 -0.207138 56 198 255
0.385353 -0.403271 -0.203336 24 231 255
-0.00902574 -0.486625 0.0511934 3 252 255
0.342664 -0.417605 0.0439671 21 234 255
0.175357 -0.237767 -0.202577 67 188 255
0.315372 -0.0524686 -0.200793 113 141 255
0.179728 -0.486367 0.294323 3 252 255
