ply
format ascii 1.0
comment Created by Open3D
element vertex 1173
property double x
property double y
property double z
property uchar red
property uchar green
property uchar blue
end_header
0.330121 -0.317889 -0.0702925 46 209 255
0.0117097 -0.420794 0.0811244 20 235 255
-0.220495 -0.403326 0.0942616 24 231 255
-0.22018 -0.378026 -0.205681 31 224 255
0.325381 -0.213841 0.0815231 73 182 255
-0.123189 -0.108826 -0.257649 100 155 255
0.322262 0.00472943 0.112501 129 126 255
0.325047 -0.470551 -0.27101 7 248 255
-0.00601816 -0.485333 -0.252042 3 252 255
0.141195 -0.485282 -0.172394 3 252 255
0.315623 -0.162494 -0.228199 86 169 255
0.282601 -0.271032 -0.27861 58 197 255
-0.354619 0.0732419 -0.174523 146 109 255
-0.17547 -0.485882 0.0918744 3 252 255
-0.363098 -0.485822 -0.120954 3 252 255
0.329147 -0.402817 -0.110259 24 231 255
-0.293986 -0.280134 -0.274768 56 199 255
-0.0613765 -0.255167 -0.279886 62 193 255
0.145421 -0.393863 -0.0810127 27 228 255
-0.393625 -0.4853 -0.232398 3 252 255
0.334076 -0.204067 -0.0611815 75 179 255
0.333993 -0.306589 0.00206453 48 206 255
0.330028 -0.466223 -0.00300323 8 247 255
-0.310531 -0.109625 -0.275362 100 155 255
0.204759 -0.485619 -0.266641 3 252 255
-0.0969617 -0.4848 -0.273009 3 252 255
0.249828 -0.485573 -0.00699783 3 252 255
0.234589 -0.38235 -0.0890811 30 225 255
-0.0922826 -0.174456 -0.255546 83 172 255
-0.161327 0.0761344 -0.214452 147 108 255
-0.274079 -0.420825 -0.236703 20 235 255
0.31449 -0.427647 -0.206648 18 237 255
-0.495662 -0.344277 -0.263695 39 216 255
-0.189868 -0.485538 -0.20095 3 252 255
0.0953192 -0.285507 -0.262199 54 201 255
0.091135 0.0753873 0.0655461 147 108 255
-0.0157967 0.0119131 -0.254177 131 124 255
0.151467 0.0753604 -0.166962 147 108 255
-0.460465 0.0723532 -0.0861309 146 109 255
0.241117 0.0755571 -0.0733687 147 108 255
0.31224 -0.0704636 -0.241299 110 145 255
0.0618495 -0.402447 -0.243491 25 230 255
0.217534 -0.485739 0.0671186 3 252 255
0.329417 -0.39214 -0.246611 27 228 255
0.0929956 -0.434032 -0.14522 16 239 255
0.104226 0.0352833 -0.274468 137 118 255
0.226851 -0.354143 -0.24578 36 218 255
0.0296823 -0.485059 0.112821 3 252 255
-0.121016 -0.00936062 -0.272504 125 130 255
-0.307469 -0.429224 -0.00708662 18 237 255
-0.257011 -0.48542 -0.276517 3 252 255
-0.152557 -0.486215 -0.0694976 3 252 255
0.159772 -0.390639 -0.188686 28 227 255
-0.299892 0.0733821 -0.0419788 146 109 255
0.315456 -0.109485 -0.0692416 100 155 255
-0.16577 -0.418071 -0.228885 21 234 255
0.330414 -0.197656 -0.165784 77 178 255
0.173298 -0.476729 -0.0605897 6 249 255
-0.460995 0.0215592 -0.269072 133 121 255
0.275763 0.0748042 0.00270041 147 108 255
-0.150773 -0.420265 0.0276341 20 235 255
0.159295 -0.131055 -0.25409 94 161 255
-0.300044 -0.0331042 -0.258565 119 136 255
-0.283331 -0.401999 -0.088225 25 230 255
0.107758 -0.401223 0.131491 25 230 255
0.0302537 -0.399764 0.421895 25 230 255
0.0311045 -0.486132 -0.0479095 3 252 255
0.132076 -0.485215 -0.240659 3 252 255
0.151744 -0.373657 -0.000176358 32 223 255
0.0274165 -0.46084 -0.276355 10 245 255
0.328408 0.0374657 0.0598724 137 118 255
0.32468 -0.0872838 0.162026 105 150 255
-0.0706314 0.0747182 -0.0983761 147 108 255
-0.0391504 -0.101902 -0.273738 101 154 255
-0.0406063 -0.484967 -0.197088 3 252 255
-0.204944 -0.118177 -0.253748 97 158 255
-0.372926 -0.258816 -0.260717 60 194 255
0.0385296 -0.485788 -0.131181 3 252 255
0.127752 -0.208702 -0.260828 73 181 255
0.308841 -0.485624 -0.0689504 3 252 255
0.316185 -0.0315134 -0.0694999 120 135 255
-0.380772 -0.420041 -0.270515 20 235 255
0.0752907 -0.415874 -0.0332763 21 234 255
0.333822 -0.158062 0.0202119 87 168 255
0.32935 -0.303079 -0.141679 50 205 255
-0.0993791 -0.486165 0.0187249 3 252 255
0.324671 0.0372758 -0.250718 137 118 255
-0.22569 -0.486122 -0.0683647 3 252 255
-0.183876 -0.454287 -0.271993 11 244 255
0.100149 0.0673899 -0.11083 145 110 255
-0.430212 0.072982 -0.172196 146 109 255
0.0124282 0.0748768 0.0619049 147 108 255
0.276428 -0.190355 -0.277002 79 176 255
0.329007 0.0196978 -0.131803 133 121 255
-0.254569 -0.206683 -0.270242 75 179 255
0.0701508 -0.0657794 -0.273832 111 144 255
0.320585 -0.485581 0.0992772 3 252 255
0.334337 -0.25225 -0.041647 63 192 255
0.20155 0.0748424 0.0708986 147 108 255
-0.378522 0.0732489 -0.268768 146 109 255
-0.245973 0.0738866 -0.11181 146 109 255
-0.425217 -0.170899 -0.275818 84 171 255
0.283663 -0.38555 -0.159629 29 226 255
0.0302794 0.0744864 -0.0444452 147 108 255
0.320427 -0.0719037 0.0528251 109 146 255
-0.038768 -0.452689 0.0416965 12 243 255
-0.303275 -0.400461 0.148501 25 230 255
0.239335 -0.0939429 -0.279414 104 151 255
0.172098 -0.45411 0.0400277 11 244 255
-0.0259759 -0.318841 -0.25368 46 209 255
-0.497425 -0.473642 -0.273849 6 249 255
-0.200279 0.0742508 -0.0196351 147 108 255
-0.0729302 0.0722162 -0.265619 146 109 255
-0.21217 -0.411369 -0.0916511 22 233 255
0.253082 -0.36106 -0.280932 35 220 255
-0.0770994 -0.375506 0.416264 31 224 255
0.138726 0.0745161 0.0126892 147 108 255
-0.077783 -0.420504 -0.246156 20 235 255
0.208183 -0.461735 -0.198498 9 246 255
0.33034 -0.391382 -0.180412 27 228 255
-0.149795 -0.285458 -0.277011 55 200 255
-0.181431 -0.000961902 -0.273573 127 128 255
0.106686 0.0686775 -0.190626 145 110 255
-0.142845 -0.193098 -0.25517 78 177 255
0.0819742 -0.486209 0.0301293 3 252 255
0.295177 0.0748699 -0.203429 147 108 255
-0.0435266 0.0688693 -0.174091 145 110 255
-0.210221 -0.391359 0.142674 27 228 255
-0.490856 0.0734022 -0.240304 146 109 255
-0.200234 -0.456799 0.0307499 11 244 255
0.0682318 -0.485419 -0.20855 3 252 255
-0.480919 -0.0448399 -0.278059 116 139 255
0.317307 -0.241005 -0.103815 65 189 255
0.205537 0.0628901 -0.272546 144 111 255
-0.310392 0.0454777 -0.273746 139 116 255
-0.494262 -0.249358 -0.268361 64 191 255
0.324641 -0.286918 0.0626676 54 201 255
0.18718 -0.449784 0.162026 12 243 255
0.30341 -0.312146 -0.239666 48 207 255
0.329097 -0.146222 0.0821421 89 165 255
0.192061 -0.258223 -0.252462 60 194 255
-0.226825 0.0759978 -0.214239 147 108 255
-0.398395 -0.354884 -0.258127 36 218 255
0.0190809 -0.378234 -0.285136 31 224 255
-0.177892 -0.398921 -0.150404 25 230 255
-0.141068 0.0746539 -0.0884016 147 108 255
-0.32739 -0.485535 -0.201795 3 252 255
-0.344954 0.0726595 0.000438377 146 109 255
-0.272807 -0.485791 0.113599 3 252 255
-0.460791 -0.485061 -0.200438 3 252 255
0.290998 -0.484633 -0.200445 4 251 255
-0.044398 -0.486245 -0.0337904 3 252 255
0.329704 -0.169849 -0.242637 84 171 255
0.267855 -0.450027 -0.045679 12 243 255
0.200891 -0.161577 -0.282079 86 169 255
0.33026 -0.037118 -0.253976 118 137 255
-0.276553 -0.408201 0.0538492 23 232 255
-0.430375 0.0724689 -0.0262413 146 109 255
-0.271695 -0.143264 -0.257681 91 163 255
-0.394672 -0.478096 -0.278604 5 250 255
0.212464 -0.379663 -0.160335 30 225 255
-0.265688 -0.343017 -0.202726 40 215 255
0.122794 -0.379921 -0.248784 30 225 255
-0.358005 -0.478377 0.0320512 5 250 255
0.330743 -0.424154 -0.0529985 19 236 255
-0.312217 -0.227312 -0.25849 69 186 255
0.172291 -0.486212 0.00923072 3 252 255
-0.487778 -0.145918 -0.267133 89 165 255
0.0145153 -0.217382 -0.256333 72 183 255
-0.287713 -0.471667 -0.139643 7 248 255
0.332447 -0.232028 0.0118663 68 187 255
-0.251746 -0.304969 -0.272741 50 205 255
-0.140936 -0.485787 0.0993438 3 252 255
-0.120734 0.0688621 -0.187774 145 110 255
-0.0339884 0.074459 -0.04333 147 108 255
0.173456 0.0749952 -0.0427829 147 108 255
-0.22447 -0.419448 -0.271777 20 235 255
0.218918 0.0688892 -0.157645 145 110 255
0.334145 -0.054921 -0.0112922 113 141 255
-0.0904379 -0.0661366 -0.274315 111 144 255
-0.365124 -0.0327404 -0.264954 119 136 255
0.0648525 -0.438712 0.298636 15 240 255
-0.317207 0.0740288 -0.222478 147 108 255
-0.13196 -0.462894 -0.0861562 9 246 255
0.327641 -0.0847438 -0.131368 105 149 255
0.0140548 -0.13837 -0.279646 92 163 255
-0.0203779 -0.485776 -0.127434 3 252 255
0.0683745 -0.402894 0.112235 24 231 255
0.323037 0.0720311 -0.121708 146 109 255
0.139294 0.00274322 -0.250902 128 127 255
-0.0291659 -0.485249 0.0953924 3 252 255
-0.321175 0.07309 -0.123782 146 109 255
0.22274 -0.0254296 -0.273454 121 134 255
0.314945 -0.376619 -0.281289 31 224 255
-0.103423 -0.485599 -0.174457 3 252 255
0.0202109 0.0768879 -0.201212 147 108 255
0.330491 -0.47157 -0.234587 7 248 255
0.022472 -0.299989 -0.277664 51 204 255
-0.114012 0.0750788 0.0220092 147 108 255
-0.163283 -0.417295 0.143464 21 234 255
-0.45254 -0.485006 -0.120577 3 252 255
0.329241 0.0218134 -0.0520421 133 121 255
-0.010606 0.0751845 -0.116907 147 108 255
-0.374241 -0.484797 -0.0643194 3 252 255
-0.222554 0.0312903 -0.258707 136 119 255
0.17792 -0.304185 -0.278086 50 205 255
0.323973 -0.112619 -0.201227 99 156 255
0.0618141 -0.486894 0.0827114 3 252 255
0.104177 -0.484902 -0.106966 3 252 255
0.0322878 0.0549298 -0.274159 142 113 255
-0.208281 0.0741259 0.0555517 147 108 255
-0.295174 -0.482692 -0.277949 4 251 255
-0.054434 -0.477436 -0.278006 5 250 255
0.328727 -0.270796 -0.271149 58 197 255
0.319959 -0.370197 -0.0386306 32 222 255
-0.0406109 -0.326828 0.441702 44 211 255
0.211358 -0.485624 -0.0931726 3 252 255
-0.337901 0.0724779 0.0586828 146 109 255
0.160154 -0.416576 0.0997419 21 234 255
0.328689 -0.27448 -0.174933 56 198 255
-0.168152 -0.486191 0.00789894 3 252 255
0.226281 -0.408503 -0.270795 23 232 255
-0.299907 -0.362384 -0.269517 35 220 255
0.200802 -0.485385 -0.223504 3 252 255
-0.0482013 -0.153675 -0.257338 88 167 255
-0.273983 -0.477148 0.0145556 5 250 255
-0.220423 -0.485725 -0.160802 3 252 255
0.327595 -0.0330182 -0.180805 119 136 255
0.333333 0.0113611 0.0537574 130 125 255
0.107116 0.0742937 -0.0556467 147 108 255
0.328464 -0.462834 0.040267 9 246 255
-0.431892 -0.270402 -0.262815 58 197 255
0.267247 0.0660523 -0.27114 144 111 255
-0.429224 0.0730946 -0.225498 146 109 255
-0.248887 -0.390588 -0.156566 28 227 255
0.123337 -0.0732694 -0.252465 109 146 255
0.328693 -0.157848 -0.12533 87 168 255
-0.0772531 -0.250167 -0.253491 64 191 255
-0.377372 -0.0991863 -0.264173 102 153 255
-0.0888056 -0.357129 -0.276132 36 219 255
0.0789066 -0.16256 -0.279259 86 169 255
0.267653 -0.485525 0.0650941 3 252 255
0.00329627 -0.453247 -0.00284908 12 243 255
0.313114 -0.30208 -0.0908079 50 205 255
-0.390938 -0.485822 -0.175111 3 252 255
0.189435 -0.485978 0.11733 3 252 255
-0.383894 0.0727949 -0.120979 146 109 255
0.109101 -0.33029 -0.254059 43 211 255
0.323087 -0.0809712 -0.267853 107 147 255
0.00566036 -0.0602979 -0.273625 112 143 255
-0.165773 -0.0658628 -0.254723 111 144 255
0.136202 -0.431475 -0.249048 17 238 255
-0.32791 -0.413931 0.110077 22 233 255
-0.465808 -0.370302 -0.274184 32 222 255
-0.172733 -0.38591 -0.210321 29 226 255
0.204511 -0.0829893 -0.253676 105 149 255
-0.393644 -0.485429 0.00741117 3 252 255
-0.267719 -0.0654332 -0.275049 111 144 255
-0.201833 0.0742157 -0.0702543 147 108 255
-0.301677 -0.486195 -0.0936761 3 252 255
0.124781 -0.485868 -0.0305476 3 252 255
-0.327473 -0.164015 -0.259045 86 169 255
0.239081 -0.206593 -0.253579 75 179 255
0.104296 -0.253336 -0.277954 63 192 255
0.33718 -0.0247838 0.187026 121 134 255
-0.493446 -0.203329 -0.268576 76 179 255
0.128749 0.0615301 -0.274351 143 112 255
-0.191688 -0.232065 -0.270707 68 187 255
0.330323 -0.342343 -0.134658 40 215 255
0.332571 -0.398901 0.0852243 25 230 255
0.174599 0.0752519 -0.117055 147 108 255
-0.370308 -0.296944 -0.268919 52 203 255
-0.0829375 -0.486163 -0.0832729 3 252 255
0.0125669 -0.485317 -0.189366 3 252 255
0.182879 -0.461535 -0.118182 9 246 255
0.278695 0.0745379 -0.035447 147 108 255
0.317807 -0.0445167 0.0835357 116 139 255
0.306414 -0.428731 -0.164903 18 237 255
0.109766 -0.380775 0.0256543 30 225 255
-0.202733 -0.485152 -0.25008 3 252 255
-0.406913 0.00185499 -0.264994 128 127 255
0.0871797 -0.349784 0.462026 38 217 255
0.306644 -0.445381 -0.282101 14 241 255
-0.31783 -0.485874 0.0291059 3 252 255
-0.466615 0.0724343 -0.121092 146 109 255
-0.15823 -0.143093 -0.254786 91 163 255
0.0306176 -0.486164 0.0226814 3 252 255
-0.137082 -0.391777 -0.274985 27 228 255
0.324577 -0.305566 -0.00816155 48 206 255
0.297272 -0.326189 -0.27876 44 211 255
0.273251 -0.486006 0.126848 3 252 255
-0.487911 -0.00484542 -0.270594 126 129 255
-0.0209713 0.0707586 -0.267278 146 109 255
-0.239914 -0.404828 -0.0228533 24 231 255
-0.226886 -0.485987 0.062527 3 252 255
0.316579 -0.133615 -0.0187641 93 162 255
-0.0986087 0.0744805 -0.0484647 147 108 255
0.321983 0.0644151 0.0900933 144 111 255
-0.272491 0.0736725 0.00401489 146 109 255
-0.44965 -0.459379 -0.278459 10 245 255
-0.15961 -0.321245 -0.253956 44 210 255
-0.38375 -0.165056 -0.275717 85 170 255
-0.15514 0.0747672 -0.153221 147 108 255
0.316185 -0.486223 -0.127891 3 252 255
-0.0859148 0.0164478 -0.254651 131 123 255
-0.150831 -0.485926 -0.135048 3 252 255
0.315067 -0.231572 -0.215894 68 187 255
0.197491 -0.37293 -0.210377 32 223 255
0.174308 0.0755708 -0.2222 147 108 255
0.304078 -0.346373 -0.187877 39 216 255
-0.203659 -0.403639 0.0661805 24 231 255
0.163606 -0.486279 0.0692267 3 252 255
0.0505645 0.074288 0.0102166 147 108 255
0.252963 -0.483329 -0.275015 4 251 255
0.11882 -0.404515 -0.150204 24 231 255
-0.122167 -0.224935 -0.279282 70 185 255
-0.134343 -0.48528 -0.241608 3 252 255
-0.0117088 -0.352203 -0.251991 36 218 255
0.316902 -0.218572 -0.0441409 72 183 255
-0.317103 -0.397599 -0.249359 26 229 255
-0.24463 0.0677322 -0.149195 145 110 255
0.0871797 -0.462284 0.174526 9 246 255
-0.23782 -0.462284 0.174526 9 246 255
-0.494022 -0.317597 -0.268433 46 209 255
0.32749 0.0440407 -0.165896 139 116 255
-0.423902 0.0729062 -0.270891 146 109 255
-0.088214 0.0745198 0.0517035 147 108 255
-0.44064 -0.0965661 -0.264624 103 152 255
0.0720041 -0.457053 -0.0855929 11 244 255
-0.091716 0.0759713 -0.226882 147 108 255
-0.280589 -0.447332 -0.181961 13 242 255
0.268079 -0.419415 -0.230157 20 235 255
0.329949 -0.0881987 -0.0753264 105 150 255
0.063021 -0.330994 -0.285633 43 211 255
0.258078 -0.145957 -0.27767 89 165 255
-0.153893 -0.416355 -0.0104861 21 234 255
0.315748 -0.395592 -0.093395 26 229 255
-0.241285 -0.380511 -0.2722 30 225 255
0.098509 -0.484986 -0.272891 3 252 255
-0.301522 0.0112998 -0.261074 130 125 255
-0.0353291 -0.418691 -0.274804 20 235 255
0.0507063 0.0752648 -0.152318 147 108 255
0.0585062 -0.111472 -0.279585 99 156 255
0.056842 0.0100929 -0.273807 130 125 255
0.321778 -0.119716 0.0413276 97 158 255
0.218783 -0.334136 -0.279213 42 213 255
0.329671 -0.321207 -0.228445 44 210 255
0.216585 -0.486025 -0.0202425 3 252 255
-0.0726804 -0.470135 0.080793 7 248 255
-0.236124 -0.485961 -0.0270458 3 252 255
-0.241992 -0.159853 -0.273145 87 168 255
-0.387513 0.0722403 0.0217067 146 109 255
0.334944 -0.0360035 0.0522752 118 137 255
-0.324833 -0.485639 0.101916 3 252 255
0.271372 0.0747183 0.0626108 147 108 255
0.147901 -0.187557 -0.277472 80 175 255
0.331521 -0.425006 -0.00357451 19 236 255
0.18471 -0.473456 -0.278996 6 249 255
0.247059 0.0666036 -0.199353 145 110 255
0.327244 -0.133551 -0.270478 93 162 255
-0.238525 0.0709982 -0.271723 146 109 255
0.288383 0.0740012 -0.100437 147 108 255
0.32162 0.0678561 0.0199478 145 110 255
0.0846421 -0.450099 0.0418703 12 243 255
-0.315938 -0.447922 -0.106987 13 242 255
-0.0230184 -0.364797 0.439779 34 221 255
-0.0227878 -0.261053 -0.254023 60 194 255
0.15186 -0.484693 -0.152374 4 251 255
-0.12532 -0.387284 0.412026 28 227 255
-0.427074 -0.398396 -0.257611 26 229 255
-0.342828 0.072901 -0.0548928 146 109 255
-0.0431622 -0.0433969 -0.255956 116 139 255
-0.204547 -0.459315 -0.187583 10 245 255
0.331348 -0.2368 -0.146577 67 188 255
-0.284157 0.0731296 0.0584384 146 109 255
0.329372 -0.340628 0.0701975 40 215 255
-0.47585 0.0726979 -0.170157 146 109 255
-0.27621 -0.262543 -0.258722 60 195 255
-0.165125 -0.451225 0.0824748 12 243 255
0.233594 0.00952258 -0.273164 130 125 255
-0.179939 -0.470616 -0.109156 7 248 255
0.299911 -0.485796 -0.0349591 3 252 255
0.243809 -0.485357 -0.168481 3 252 255
-0.125098 0.0718679 -0.269594 146 109 255
0.13436 -0.394852 -0.0972103 26 229 255
0.33718 0.0377163 0.162026 137 118 255
0.315774 -0.170055 -0.0784121 84 171 255
0.0822248 0.0658241 -0.235065 144 111 255
0.160803 -0.409837 0.0257036 23 232 255
0.256821 -0.283462 -0.251313 55 200 255
-0.0842316 -0.324294 -0.250495 44 210 255
-0.0687269 -0.190106 -0.280946 79 176 255
0.31744 -0.18348 0.0242044 81 174 255
-0.382648 0.0732625 -0.201834 146 109 255
-0.441109 -0.222798 -0.271514 71 184 255
0.329718 -0.428458 -0.220251 18 237 255
-0.280053 -0.485382 -0.219836 3 252 255
-0.274753 -0.39636 0.150518 26 229 255
0.295707 -0.306104 -0.142177 48 206 255
0.325403 -0.0122885 -0.212572 124 131 255
-0.392668 -0.484711 -0.126868 3 252 255
0.312508 -0.137236 -0.174118 92 163 255
0.331186 -0.459282 0.0917136 10 245 255
-0.41638 -0.038978 -0.277005 118 137 255
-0.35229 -0.352564 -0.271694 36 218 255
-0.112686 -0.486249 -0.0177863 3 252 255
0.148496 -0.41629 0.144045 21 234 255
0.0709941 -0.26276 -0.25702 60 195 255
-0.336739 -0.101123 -0.276043 102 153 255
-0.11455 -0.42204 -0.242026 20 235 255
-0.0160392 -0.486063 0.0345054 3 252 255
-0.281591 0.0740378 -0.193542 147 108 255
0.105991 0.0746682 0.0629911 147 108 255
0.0278099 -0.474987 -0.138334 6 249 255
-0.0648336 0.0750581 -0.13917 147 108 255
-0.20799 -0.0285414 -0.259122 120 135 255
-0.0157765 0.0744376 -0.00599937 147 108 255
0.0446633 0.0747706 -0.0994962 147 108 255
0.323287 -0.254682 0.0551751 62 193 255
0.314176 -0.0139123 -0.13945 124 131 255
0.0903516 -0.438702 -0.238158 15 240 255
-0.28089 0.0734318 -0.0898789 146 109 255
-0.451325 0.0723833 -0.0559666 146 109 255
-0.438141 -0.485142 -0.22864 3 252 255
-0.244219 -0.316832 -0.236597 46 209 255
0.128186 -0.352085 -0.277972 36 218 255
0.0398429 -0.426295 0.108849 18 237 255
0.31993 -0.222884 -0.274855 71 184 255
0.215795 0.0758526 0.0248595 147 108 255
0.128974 0.0679227 -0.126158 145 110 255
0.0817728 -0.484226 -0.157225 4 251 255
-0.344361 -0.485437 -0.243004 3 252 255
-0.208082 -0.485773 0.106134 3 252 255
-0.487603 -0.07832 -0.27424 108 147 255
0.1987 -0.384499 -0.103253 29 226 255
-0.274328 -0.443111 0.0930265 14 241 255
0.321321 0.00677498 0.00309894 129 126 255
0.290413 -0.0750203 -0.254129 108 147 255
-0.350751 -0.228897 -0.272275 69 186 255
0.166471 -0.12444 -0.279045 96 159 255
-0.494048 -0.388383 -0.270055 28 227 255
0.332791 -0.097934 0.0830459 103 152 255
-0.0875809 -0.12261 -0.271428 96 159 255
-0.0800884 -0.477314 -0.149257 5 250 255
-0.146656 0.0746549 -0.0328237 147 108 255
0.317596 -0.08345 -0.0258466 105 149 255
-0.00739157 -0.00381693 -0.272304 127 128 255
-0.299207 -0.3993 -0.159472 25 230 255
0.0123036 -0.485343 -0.271924 3 252 255
0.0210996 -0.109215 -0.256174 100 155 255
0.244045 -0.448586 -0.0652284 13 242 255
-0.242911 -0.425697 -0.230144 19 236 255
-0.332595 0.0734386 -0.268717 146 109 255
-0.0604797 -0.485397 -0.201951 3 252 255
0.214373 -0.233107 -0.27671 68 187 255
-0.328119 -0.486003 -0.0561292 3 252 255
-0.111308 -0.484217 -0.271735 4 251 255
-0.196983 0.0687815 -0.199216 145 110 255
0.0486938 -0.486139 -0.0582437 3 252 255
-0.221742 0.0742894 0.00483155 147 108 255
0.330167 -0.348685 -0.0901902 38 217 255
0.169328 -0.412013 -0.281669 22 233 255
0.23802 0.0752289 -0.110311 147 108 255
0.329153 -0.431183 -0.126259 17 238 255
0.27689 -0.485598 0.0192359 3 252 255
-0.258893 -0.485743 -0.148432 3 252 255
0.0758996 -0.0385482 -0.273549 118 137 255
0.296208 0.0268628 -0.260311 134 121 255
-0.225095 -0.461291 -0.0618283 9 246 255
0.0427771 -0.192396 -0.25694 78 177 255
0.0287098 -0.423903 0.0245779 19 236 255
-0.152823 0.00710974 -0.258777 129 126 255
0.0641897 -0.437503 0.29999 16 239 255
-0.437574 -0.312302 -0.272809 48 207 255
0.312762 -0.368847 -0.227763 32 222 255
0.317251 0.0731604 -0.0418316 146 109 255
-0.496572 -0.477282 -0.25893 5 250 255
-0.152282 -0.485633 -0.182096 3 252 255
-0.0290053 0.0761104 -0.223529 147 108 255
-0.315027 -0.305456 -0.260257 48 206 255
0.159114 -0.485306 -0.0808102 3 252 255
0.327836 -0.175761 -0.204463 83 172 255
-0.395738 -0.485412 -0.0368183 3 252 255
0.330673 -0.485699 -0.204057 3 252 255
0.0953785 -0.484916 0.097769 3 252 255
0.126338 0.0743853 -0.00970114 147 108 255
0.0673711 -0.415072 -0.275411 21 234 255
-0.294302 -0.0562054 -0.259313 113 142 255
-0.215383 -0.273875 -0.272254 56 198 255
0.268275 -0.48557 -0.10348 3 252 255
-0.492678 0.0514553 -0.271877 141 113 255
0.315898 -0.0111702 -0.0831621 125 130 255
-0.206263 -0.109123 -0.270119 100 155 255
-0.302483 -0.429143 -0.00872691 18 237 255
0.165986 -0.0254191 -0.25194 121 134 255
-0.123121 0.0677096 -0.111381 145 110 255
0.132798 -0.160617 -0.254992 86 169 255
0.171223 -0.315757 -0.252137 47 208 255
-0.396931 0.0725627 -0.063123 146 109 255
-0.454815 -0.484948 -0.159537 3 252 255
-0.173035 -0.209725 -0.256209 73 181 255
-0.104237 -0.485455 0.0941006 3 252 255
-0.244308 -0.391032 0.0843115 27 228 255
0.107879 -0.48548 -0.204367 3 252 255
0.149298 -0.400983 0.0789366 25 230 255
-0.193105 0.0725054 -0.268718 146 109 255
0.0225443 -0.371374 0.44051 32 222 255
0.277704 -0.421058 -0.282839 20 235 255
-0.174806 0.0742392 0.0513049 147 108 255
-0.334812 0.0732338 -0.163863 146 109 255
-0.1844 -0.486193 -0.0735226 3 252 255
-0.178823 -0.337176 -0.273671 40 214 255
0.221898 0.0756985 -0.0390298 147 108 255
0.327089 -0.343906 -0.00619988 40 215 255
-0.351847 -0.485876 -0.166573 3 252 255
0.32891 -0.345117 -0.266414 39 216 255
0.249294 -0.485687 -0.230362 3 252 255
0.190696 -0.409362 -0.223001 23 232 255
0.0280514 -0.318164 -0.251877 46 209 255
-0.319043 -0.430675 -0.266375 17 238 255
0.323764 -0.178408 0.0680766 81 173 255
-0.16282 -0.462284 0.174526 9 246 255
0.313371 -0.0719652 -0.185727 109 146 255
-0.0737361 -0.352745 0.435262 36 218 255
0.0896343 -0.407677 -0.0479665 23 232 255
-0.170232 -0.408678 -0.119939 23 232 255
-0.0220118 -0.486157 -0.0629262 3 252 255
-0.0448412 -0.4495 -0.243208 13 242 255
0.328336 -0.257542 -0.209068 62 193 255
0.0476571 0.0746458 0.0607433 147 108 255
0.312108 0.0735976 -0.234522 146 109 255
-0.143985 -0.100486 -0.273606 102 153 255
-0.442341 -0.145213 -0.262584 89 165 255
-0.152389 -0.44724 0.0489287 13 242 255
0.191472 -0.48544 -0.173247 3 252 255
0.329193 -0.28868 -0.105508 54 201 255
-0.408244 0.0724361 -0.134915 146 109 255
-0.349082 0.00477446 -0.270433 129 126 255
0.0957073 0.0752126 -0.162317 147 108 255
0.154873 0.0563161 -0.27394 142 113 255
0.147879 -0.482948 -0.0223455 4 251 255
-0.0340064 0.074999 0.051076 147 108 255
-0.261731 0.0250932 -0.260492 134 121 255
-0.153639 -0.421547 -0.194825 20 235 255
0.301278 -0.143209 -0.247969 91 163 255
0.331224 -0.468331 -0.0399054 8 247 255
0.323021 -0.00176439 -0.268461 127 128 255
0.282395 0.0776282 -0.142982 147 108 255
-0.176483 -0.457712 -0.274117 10 245 255
-0.280107 -0.40281 -0.0807893 24 231 255
0.204272 -0.486051 0.0397974 3 252 255
0.323904 -0.257359 -0.0323335 62 193 255
-0.0206011 -0.162328 -0.253663 86 169 255
0.205267 -0.177588 -0.254083 81 173 255
-0.394255 -0.474291 -0.278778 6 249 255
-0.0334269 -0.296364 -0.279073 52 203 255
-0.0623968 -0.486249 -0.000173762 3 252 255
0.322334 -0.000757301 0.102222 127 128 255
0.32835 -0.114397 -0.120145 97 157 255
0.00548158 0.0664795 -0.0684382 145 110 255
-0.0936351 -0.411547 -0.276503 22 233 255
-0.417384 0.0254035 -0.27487 134 121 255
-0.427221 -0.485325 -0.0950454 3 252 255
0.152261 -0.390464 -0.147513 28 227 255
-0.211819 0.0741035 -0.085365 147 108 255
-0.282368 -0.169671 -0.273339 84 171 255
-0.0332219 -0.485646 -0.157174 3 252 255
0.154104 0.0749629 -0.0649974 147 108 255
-0.243851 -0.485412 -0.277518 3 252 255
0.247401 -0.485517 0.124674 3 252 255
0.142848 -0.236049 -0.277618 67 188 255
-0.0128202 -0.299784 0.449526 51 204 255
-0.48006 0.0730038 -0.231231 146 109 255
-0.0146453 -0.485013 0.0990708 3 252 255
-0.00778096 0.0685842 -0.144642 145 110 255
-0.121847 -0.0484059 -0.274115 115 140 255
0.268101 -0.270698 -0.27821 58 197 255
-0.294289 -0.486538 -0.0121876 3 252 255
0.321635 -0.190784 -0.127608 79 176 255
-0.179272 -0.398723 0.139998 26 229 255
0.091066 -0.457271 -0.136855 11 244 255
0.334278 -0.406702 0.061812 23 232 255
-0.393952 -0.229027 -0.262798 69 186 255
-0.147221 -0.249602 -0.254491 64 191 255
0.329606 -0.378519 -0.166748 31 224 255
-0.488511 -0.264978 -0.269993 60 195 255
0.216919 -0.121247 -0.281105 97 158 255
0.326069 -0.296331 0.0711858 52 203 255
0.201059 0.0749249 0.0660461 147 108 255
-0.250119 -0.405286 0.00988888 24 231 255
0.118596 -0.486159 0.0479747 3 252 255
0.104794 -0.432091 0.140824 17 238 255
0.172897 0.0755944 -0.190208 147 108 255
-0.193099 -0.48619 0.00382445 3 252 255
-0.124883 -0.330197 -0.276097 43 211 255
-0.231138 -0.398024 -0.134522 26 229 255
0.119611 -0.0874788 -0.274638 105 150 255
-0.318736 0.0733587 -0.0016832 146 109 255
0.086818 -0.219857 -0.260063 71 184 255
0.319779 -0.0336307 0.0407179 119 136 255
0.0137372 -0.41179 -0.277588 22 233 255
0.32953 0.0317571 -0.06388 136 119 255
-0.117636 -0.486059 0.0360236 3 252 255
-0.378319 -0.485428 0.0332575 3 252 255
0.03114 0.0755255 -0.243587 147 108 255
0.289407 0.0743096 0.0299611 147 108 255
-0.149327 0.0752765 -0.229166 147 108 255
-0.405136 -0.107172 -0.276627 100 155 255
0.328043 -0.0547145 -0.108868 113 141 255
-0.491108 -0.196893 -0.268941 77 178 255
-0.278059 -0.485799 0.115579 3 252 255
-0.403801 0.0723109 0.00295484 146 109 255
-0.401288 -0.408576 -0.258785 23 232 255
0.0631638 0.0743362 -0.0370538 147 108 255
-0.48504 -0.0560884 -0.265829 113 142 255
0.329793 -0.119938 -0.259285 97 158 255
0.250362 -0.0415583 -0.27362 117 138 255
-0.121874 -0.161196 -0.271358 86 169 255
-0.0391392 0.0102119 -0.272045 130 125 255
0.243926 -0.338288 -0.241521 40 214 255
-0.473099 -0.441495 -0.277676 15 240 255
0.0250295 -0.485304 -0.224007 3 252 255
0.125482 -0.477642 -0.275417 5 250 255
-0.0806296 0.0743715 0.0159525 147 108 255
0.126446 -0.405188 -0.210736 24 231 255
-0.267175 0.0733953 -0.042391 146 109 255
-0.359362 0.0731433 -0.236916 146 109 255
-0.249406 -0.219514 -0.27057 71 184 255
0.331362 -0.395067 0.00331588 26 229 255
0.325448 0.0372584 -0.200338 137 118 255
-0.259392 -0.486058 -0.0853084 3 252 255
-0.231681 -0.354521 -0.272883 36 218 255
0.139771 -0.400151 -0.0319072 25 230 255
-0.20187 -0.0631134 -0.253197 111 144 255
0.319151 -0.0314943 -0.0309546 120 135 255
-0.184502 -0.46616 -0.0249849 8 247 255
0.243916 -0.48584 -0.0589476 3 252 255
-0.0531706 -0.359339 -0.276817 36 219 255
-0.0763839 0.0689239 -0.194341 145 110 255
0.230884 0.075551 -0.24771 147 108 255
0.0229246 -0.416798 0.0756344 21 234 255
-0.0524283 -0.228468 -0.252945 69 186 255
0.178789 -0.485726 -0.21888 3 252 255
0.317558 -0.213621 0.007988 73 182 255
0.317301 -0.175438 -0.276768 83 172 255
-0.250839 -0.486134 0.0361652 3 252 255
-0.0878203 -0.299784 0.449526 51 204 255
-0.395014 -0.485572 -0.211442 3 252 255
0.329322 -0.407865 -0.248322 23 232 255
-0.277769 0.07219 -0.270462 146 109 255
-0.327142 0.0726476 0.0603103 146 109 255
-0.491783 -0.483635 -0.220695 4 251 255
0.0883169 -0.486178 -0.0530681 3 252 255
-0.242651 -0.39878 0.152285 25 230 255
0.329976 -0.127697 -0.0532735 95 160 255
0.328597 0.0475936 0.0843566 140 114 255
0.312838 -0.45492 -0.215087 11 244 255
0.0683389 -0.316073 -0.285128 47 208 255
-0.076723 0.0745263 -0.0623438 147 108 255
0.1755 -0.467813 0.0854477 8 247 255
-0.0494431 -0.101017 -0.257633 102 153 255
-0.224927 0.0740365 0.0565563 147 108 255
-0.218787 0.0678887 -0.148216 145 110 255
-0.190459 -0.445223 -0.228332 14 241 255
-0.287886 -0.397233 -0.200831 26 229 255
0.131507 0.0266267 -0.251514 134 121 255
0.31178 -0.241637 -0.179792 65 189 255
-0.293967 -0.485812 -0.180681 3 252 255
0.10875 -0.402384 0.0759439 25 230 255
-0.265497 -0.103079 -0.262084 101 154 255
0.0500377 -0.0303362 -0.253131 120 135 255
0.212768 -0.377902 -0.174324 31 224 255
-0.315315 -0.432542 0.142746 17 238 255
-0.0467809 0.0707442 -0.271183 146 109 255
0.0602724 -0.135169 -0.256989 93 162 255
-0.131426 -0.486159 -0.0840231 3 252 255
-0.0984101 -0.468467 -0.225273 8 247 255
0.330316 -0.434412 -0.074954 16 239 255
0.30627 -0.485375 0.0502716 3 252 255
-0.12541 0.0743461 0.0441715 147 108 255
0.183911 -0.387349 -0.279726 28 227 255
-0.331051 -0.482788 -0.275808 4 251 255
-0.193604 -0.460913 0.117326 10 245 255
-0.0685506 -0.288663 -0.251801 54 201 255
-0.476886 0.0069509 -0.276885 129 126 255
-0.344631 -0.265753 -0.272194 60 195 255
0.202373 -0.00580552 -0.253225 126 129 255
-0.182899 -0.171982 -0.252673 84 171 255
-0.343374 0.0729051 -0.101002 146 109 255
0.33718 -0.0872838 0.162026 105 150 255
-0.323438 -0.485777 0.0577471 3 252 255
-0.345513 -0.48533 -0.0943407 3 252 255
0.333806 -0.320005 0.0132211 46 209 255
-0.426539 -0.358273 -0.276212 36 219 255
-0.487743 -0.136571 -0.267096 93 162 255
0.310557 -0.486059 -0.163033 3 252 255
-0.342283 -0.126595 -0.26108 95 160 255
0.298774 -0.107326 -0.277297 100 155 255
0.216667 -0.485578 -0.143037 3 252 255
0.0163586 -0.264634 -0.277244 60 195 255
-0.27935 -0.416469 -0.268236 21 234 255
0.333695 -0.157484 0.0280522 87 168 255
0.211526 -0.406185 -0.0719237 24 231 255
-0.20551 -0.412332 -0.052303 22 233 255
0.329219 -0.250169 -0.112677 64 191 255
0.152315 0.0755753 0.0574096 147 108 255
0.0355089 -0.376247 -0.250694 31 224 255
0.315258 -0.305942 -0.204229 48 206 255
-0.141685 -0.461387 -0.160884 9 246 255
0.0477744 -0.486181 -0.00646741 3 252 255
0.188894 0.0687357 -0.129812 145 110 255
0.0307933 -0.485643 -0.164332 3 252 255
0.328714 0.0338481 -0.110988 136 119 255
0.334126 -0.0426761 0.089524 117 138 255
0.138969 -0.485798 -0.12848 3 252 255
-0.246602 0.0746794 -0.223687 147 108 255
-0.232077 -0.48538 -0.221807 3 252 255
0.175721 -0.485538 -0.0347884 3 252 255
0.299691 -0.228864 -0.248655 69 186 255
-0.296362 -0.33689 -0.269545 40 214 255
0.0996798 -0.374784 0.449526 32 223 255
-0.036739 -0.485062 -0.275752 3 252 255
-0.101654 0.0156543 -0.271895 131 123 255
-0.344932 -0.0481654 -0.265763 115 140 255
-0.283006 0.0734409 -0.120586 146 109 255
-0.139455 0.0749955 -0.159555 147 108 255
0.314393 -0.29371 -0.278351 52 203 255
0.290758 -0.385283 -0.158649 29 226 255
0.294498 -0.485766 0.115855 3 252 255
0.199456 -0.116829 -0.253995 97 157 255
0.108702 0.0754292 -0.201599 147 108 255
0.087282 -0.404191 0.0167206 24 231 255
0.193268 -0.485877 0.117331 3 252 255
-0.495602 -0.354315 -0.267001 36 218 255
-0.0530036 -0.370739 0.421507 32 222 255
0.32708 -0.139563 -0.179708 92 163 255
-0.166371 0.0744969 -0.0847958 147 108 255
0.305239 0.0738695 -0.17261 146 109 255
0.328723 0.0206039 0.0024419 133 121 255
-0.0730768 -0.486006 -0.123885 3 252 255
-0.400555 -0.178163 -0.266777 81 173 255
0.0100232 0.0757299 -0.191956 147 108 255
-0.442895 0.0724897 -0.187833 146 109 255
-0.251389 -0.0231046 -0.261062 121 133 255
0.32002 -0.0772815 0.0100201 108 147 255
-0.396295 -0.298883 -0.269489 51 204 255
-0.224119 -0.485959 -0.119087 3 252 255
-0.167445 -0.385032 -0.268553 29 226 255
0.128666 -0.299346 -0.27674 51 204 255
0.077165 0.0764742 -0.0914325 147 108 255
-0.432201 0.0728448 -0.271054 146 109 255
-0.0261365 -0.468372 0.0822812 8 247 255
-0.00103117 -0.203755 -0.254887 75 179 255
0.324453 -0.485222 -0.254645 3 252 255
0.166478 0.0753885 -0.00906016 147 108 255
0.329973 -0.185639 -0.0344699 80 175 255
0.323902 -0.278881 0.0232865 56 199 255
0.3224 -0.116259 0.078714 97 157 255
0.264546 0.0749532 -0.0474149 147 108 255
0.30211 -0.396459 -0.27997 26 229 255
0.0350475 0.02476 -0.256275 134 121 255
-0.157531 -0.415777 0.0808023 21 234 255
-0.0168652 -0.0680048 -0.254806 110 145 255
-0.368696 -0.39066 -0.268837 28 227 255
-0.0301387 -0.400395 -0.249048 25 230 255
0.064007 -0.484977 -0.273561 3 252 255
-0.283124 -0.468666 -0.0492136 8 247 255
0.333493 -0.285378 -0.0536016 55 200 255
0.330935 -0.362078 0.0740152 35 220 255
0.0731496 -0.484521 0.101078 4 251 255
-0.27725 -0.403339 0.0773777 24 231 255
0.238681 -0.440414 -0.241117 15 240 255
-0.156281 -0.485479 -0.221413 3 252 255
0.0115819 0.0747127 0.0121494 147 108 255
0.149177 -0.441909 0.151622 14 241 255
0.313828 -0.028188 -0.212598 120 135 255
-0.201896 0.0150736 -0.273138 131 124 255
0.32468 0.0252162 0.187026 134 121 255
-0.0925766 -0.486273 -0.0517728 3 252 255
0.0391352 -0.454615 -0.0217243 11 244 255
0.248726 -0.323693 -0.278728 44 210 255
0.329621 -0.364522 -0.207727 34 221 255
0.218757 0.0756207 -0.186816 147 108 255
0.133627 -0.462888 -0.0765212 9 246 255
-0.219798 -0.423854 -0.272249 19 236 255
0.331034 -0.380233 -0.0482989 30 225 255
-0.234493 -0.385333 -0.182577 29 226 255
-0.3985 -0.0348428 -0.276977 119 136 255
0.167326 -0.0737929 -0.274063 109 146 255
0.329777 -0.194456 -0.242895 78 177 255
-0.19014 -0.284722 -0.254875 55 200 255
0.315263 -0.0644141 -0.0747621 111 144 255
0.0984198 -0.389908 -0.277342 28 227 255
-0.309182 -0.220705 -0.272997 71 184 255
0.194136 -0.245631 -0.276908 65 190 255
0.0900042 0.073104 -0.256033 146 109 255
0.239024 -0.48568 0.0633352 3 252 255
-0.37455 0.0466962 -0.273856 140 114 255
-0.377492 0.0728745 -0.166199 146 109 255
-0.107915 -0.215226 -0.279006 72 183 255
0.317548 0.0719426 -0.069371 146 109 255
-0.455791 -0.484952 -0.135485 3 252 255
0.329376 -0.437164 -0.185237 16 239 255
0.0190334 -0.387573 0.437743 28 227 255
-0.188096 0.0743114 -0.00408985 147 108 255
0.33489 -0.0202979 0.0389136 121 133 255
0.323097 -0.210301 0.0668333 73 181 255
-0.0921453 -0.0511994 -0.259781 113 141 255
-0.353138 -0.458501 -0.242309 10 245 255
-0.154381 -0.486 0.0650446 3 252 255
-0.101517 0.071572 -0.269536 146 109 255
0.249752 -0.202762 -0.276528 76 179 255
-0.349721 -0.485737 -0.0109429 3 252 255
0.314575 -0.0805495 -0.155463 107 147 255
0.33718 0.0752162 -0.250474 147 108 255
0.0339561 -0.486095 0.0536269 3 252 255
-0.188435 -0.411556 0.00707321 22 233 255
0.328723 -0.467138 0.00538153 8 247 255
0.138475 -0.453375 -0.214055 12 243 255
-0.443489 0.0722306 -0.0990094 146 109 255
0.330186 -0.336232 -0.134233 42 213 255
0.101106 -0.194711 -0.256482 78 177 255
0.270993 0.000833842 -0.256693 128 127 255
0.271477 -0.437356 -0.0549989 16 239 255
0.182098 -0.485601 -0.270079 3 252 255
-0.257813 -0.448405 -0.112464 13 242 255
0.324331 -0.476344 -0.0973603 6 249 255
-0.020648 -0.486175 -0.0133753 3 252 255
-0.300666 0.0683133 -0.208932 145 110 255
-0.271042 0.073235 0.0569207 146 109 255
-0.0302679 0.0748458 -0.0955222 147 108 255
-0.253774 -0.329306 -0.225402 43 211 255
-0.494825 -0.444501 -0.271236 14 241 255
0.322536 0.071321 0.020874 146 109 255
-0.460381 -0.273526 -0.272654 58 197 255
0.0825795 0.0745401 0.0615348 147 108 255
-0.00764263 -0.485915 -0.0965441 3 252 255
-0.166387 -0.415832 -0.0701141 21 234 255
0.129928 -0.129147 -0.254289 95 160 255
0.175232 -0.459667 0.0248019 10 245 255
-0.138434 -0.406075 -0.232204 24 231 255
-0.126423 -0.29148 -0.273341 52 202 255
-0.114062 -0.485092 -0.275447 3 252 255
-0.158013 -0.486246 -0.0305027 3 252 255
0.0629942 -0.0737316 -0.254279 109 146 255
-0.321476 -0.470475 -0.139697 7 248 255
-0.218652 -0.128674 -0.273796 95 160 255
0.263892 -0.485821 -0.0181541 3 252 255
-0.465446 -0.198944 -0.262085 77 178 255
0.331357 -0.466465 0.0851145 8 247 255
-0.00610903 -0.485536 -0.212978 3 252 255
0.301129 -0.398208 -0.244185 26 229 255
0.305086 -0.0430341 -0.264682 117 138 255
-0.304976 -0.137967 -0.274837 92 163 255
-0.0857219 0.0686399 -0.162843 145 110 255
-0.168629 -0.397893 -0.171471 26 229 255
0.199289 0.0754404 -0.0893524 147 108 255
0.332721 -0.217687 -0.090952 72 183 255
0.163655 -0.372623 -0.246315 32 223 255
0.0920986 -0.398473 0.121718 26 229 255
0.0953932 0.0746145 -0.00503847 147 108 255
0.0710799 -0.484742 -0.12979 3 252 255
-0.356254 0.0728787 -0.0495597 146 109 255
0.113047 -0.402029 -0.0955884 25 230 255
0.329837 -0.283801 -0.246571 55 200 255
0.193614 0.0256593 -0.273209 134 121 255
0.0380099 -0.376109 -0.284862 31 224 255
-0.343282 -0.348217 -0.258292 38 217 255
0.267958 -0.484753 -0.145002 3 252 255
0.314477 0.0145036 -0.141285 131 124 255
-0.139358 0.0746631 -0.0232428 147 108 255
-0.286767 0.00233687 -0.274806 128 127 255
-0.240853 -0.486163 -0.00989319 3 252 255
-0.0832575 -0.151177 -0.25527 89 166 255
0.122357 0.0743964 -0.0692144 147 108 255
-0.415514 -0.485386 -0.0878402 3 252 255
0.326529 -0.0930805 -0.203529 104 151 255
-0.245003 -0.485871 0.0867945 3 252 255
-0.186112 -0.0582583 -0.274188 113 142 255
-0.167619 0.072128 -0.264078 146 109 255
0.127216 -0.37582 0.0223176 31 224 255
0.31571 -0.198784 -0.2246 77 178 255
0.262512 0.075904 0.0585794 147 108 255
-0.218391 -0.401559 0.0554796 25 230 255
-0.0688872 -0.48914 0.0151141 2 253 255
0.254467 -0.0689853 -0.254816 110 145 255
0.184435 -0.485898 -0.0944615 3 252 255
-0.442642 -0.0640875 -0.268273 111 144 255
-0.312014 -0.432506 -0.038802 17 238 255
0.0278794 0.0687258 -0.158919 145 110 255
0.18718 -0.412284 0.149526 22 233 255
0.0642503 -0.27577 -0.255931 56 198 255
0.293643 0.0707328 -0.261479 146 109 255
-0.269121 -0.298833 -0.274766 51 204 255
0.279516 -0.484953 -0.266541 3 252 255
-0.438639 0.0724361 -0.0426852 146 109 255
0.00524088 -0.137394 -0.255935 92 163 255
-0.178588 0.0686557 -0.187097 145 110 255
0.333996 -0.0984088 0.0482278 102 153 255
-0.237496 0.074031 -0.0204084 147 108 255
0.31589 -0.173406 -0.0743741 83 172 255
0.157753 0.0759098 -0.250413 147 108 255
0.0081946 -0.442579 -0.276853 14 241 255
-0.0209786 -0.330204 -0.278122 43 211 255
-0.0542326 0.0745688 -0.031525 147 108 255
-0.412339 -0.485416 -0.172318 3 252 255
-0.425184 -0.423011 -0.272486 19 236 255
0.225968 -0.38686 -0.274769 29 226 255
-0.102279 -0.4848 0.0950378 3 252 255
-0.483488 0.0731282 -0.272155 146 109 255
0.117889 -0.486166 0.0338213 3 252 255
-0.168939 -0.48603 -0.119656 3 252 255
-0.316232 -0.452842 -0.196552 12 243 255
0.17498 -0.448577 -0.0569346 13 242 255
0.324136 -0.401753 0.0270149 25 230 255
-0.173839 -0.419582 0.152057 20 235 255
0.319677 -0.416103 -0.121464 21 234 255
0.327992 -0.194865 -0.155033 78 177 255
0.14474 -0.485254 -0.22553 3 252 255
-0.0773678 -0.485316 -0.239809 3 252 255
0.0372791 -0.206054 -0.278546 75 179 255
0.121562 -0.0270947 -0.264296 121 134 255
-0.239786 -0.485737 -0.187603 3 252 255
-0.292352 -0.461611 0.0535304 9 246 255
-0.299686 -0.0642537 -0.275587 111 144 255
0.271949 -0.309471 -0.246863 48 207 255
0.133557 0.0752716 -0.137943 147 108 255
0.019343 0.0745502 0.0538293 147 108 255
0.329017 -0.0360513 -0.14698 118 137 255
-0.277432 0.0737699 -0.163025 146 109 255
-0.353034 -0.19154 -0.274684 79 176 255
-0.237894 -0.23544 -0.270831 67 188 255
0.324507 -0.315386 -0.045184 47 208 255
0.314418 -0.108621 -0.0910817 100 155 255
0.169525 -0.390049 -0.139117 28 227 255
-0.398635 0.0731602 -0.227423 146 109 255
0.241391 -0.165522 -0.25425 85 170 255
0.250859 0.0751263 -0.00926609 147 108 255
-0.0382468 -0.327207 0.43994 44 211 255
0.332617 -0.224004 0.0145792 70 185 255
-0.441428 -0.485124 -0.239097 3 252 255
-0.101368 0.0748257 -0.115474 147 108 255
0.32468 -0.0372837 0.187026 118 137 255
0.10352 -0.348491 -0.282088 38 217 255
0.0171417 0.0462499 -0.273717 139 116 255
0.0669108 -0.484046 -0.205518 4 251 255
-0.405975 -0.138687 -0.276428 92 163 255
-0.0555463 -0.482118 -0.111949 4 251 255
0.329342 -0.304277 -0.165648 50 205 255
-0.166779 -0.4852 -0.272653 3 252 255
0.0510878 -0.470833 -0.0776156 7 248 255
-0.484881 -0.0265956 -0.266825 121 134 255
0.131481 -0.426013 -0.268346 19 236 255
-0.0421541 -0.268519 -0.279525 59 195 255
-0.288854 -0.444045 0.143049 14 241 255
0.32717 0.0534855 0.0884026 141 113 255
-0.134262 -0.104695 -0.258306 101 154 255
0.317532 -0.253841 -0.0750953 63 192 255
0.187845 -0.222194 -0.255363 71 184 255
0.235201 -0.399901 -0.206015 25 230 255
-0.282277 -0.485184 -0.250737 3 252 255
0.244504 0.0771994 -0.218047 147 108 255
-0.164169 0.0114349 -0.255832 131 124 255
-0.297642 0.0731099 -0.0517113 146 109 255
0.0488201 -0.414054 0.109368 22 233 255
-0.466495 0.0725907 -0.19018 146 109 255
-0.39167 -0.485397 -0.0106499 3 252 255
-0.298466 0.0737148 -0.2666 146 109 255
-0.238129 -0.175498 -0.258237 83 172 255
-0.0474613 0.0757758 -0.231651 147 108 255
-0.35701 -0.485862 -0.120984 3 252 255
-0.480773 -0.304633 -0.273122 50 205 255
-0.387458 -0.483053 -0.276409 4 251 255
-0.20762 -0.323905 -0.273472 44 210 255
-0.199448 0.0743694 -0.11433 147 108 255
-0.113527 -0.401606 -0.275594 25 230 255
0.317181 -0.334551 -0.27982 42 213 255
0.202992 -0.335076 -0.278823 42 213 255
-0.0771851 -0.485606 -0.170233 3 252 255
0.20245 -0.485907 0.00752834 3 252 255
-0.485122 -0.100281 -0.273611 102 153 255
0.329567 -0.452115 -0.250977 12 243 255
0.275938 -0.236042 -0.277837 67 188 255
0.32945 0.00780276 -0.0346272 130 125 255
0.019075 -0.484953 0.0977844 3 252 255
0.263094 0.0755375 -0.130182 147 108 255
0.330685 -0.229445 -0.196335 69 186 255
-0.282163 -0.486466 -0.0715023 3 252 255
-0.235333 -0.390176 0.140158 28 227 255
0.159526 -0.484747 0.107695 3 252 255
0.264939 -0.485103 -0.222888 3 252 255
-0.236664 -0.40411 -0.0933248 24 231 255
-0.0435564 -0.0213871 -0.271961 121 133 255
-0.415608 -0.238568 -0.26258 67 188 255
-0.171011 0.0741441 0.0492501 147 108 255
0.154208 -0.274351 -0.256188 56 198 255
-0.355249 0.0725003 0.0185579 146 109 255
0.324704 -0.341498 0.038991 40 215 255
-0.284414 -0.397841 -0.239256 26 229 255
0.130078 -0.456374 -0.145451 11 244 255
-0.187037 -0.485682 -0.17496 3 252 255
0.333201 0.0136082 0.0496853 131 124 255
-0.358351 0.00324054 -0.265996 128 127 255
0.0552012 -0.11311 -0.279618 99 156 255
-0.191669 -0.48615 0.0274904 3 252 255
0.31542 -0.335462 -0.106976 42 213 255
0.0729562 0.0127512 -0.2741 131 124 255
0.0438108 -0.420061 -0.244411 20 235 255
0.116461 -0.484952 -0.0630075 3 252 255
-0.169123 -0.151738 -0.272409 89 166 255
-0.387134 0.0725523 -0.0924288 146 109 255
-0.0890644 -0.2051 -0.254139 75 179 255
0.19946 -0.457781 -0.213594 10 245 255
-0.37761 -0.340528 -0.258307 40 215 255
0.329207 -0.455639 -0.148467 11 244 255
0.322963 -0.143592 0.0761667 91 163 255
0.014064 -0.360484 0.439206 35 220 255
0.316714 -0.170139 -0.0199461 84 171 255
-0.115903 -0.344152 -0.255843 39 216 255
0.324656 0.0315622 -0.24485 136 119 255
0.0213923 -0.428414 0.019275 18 237 255
-0.321865 -0.485572 0.0818121 3 252 255
-0.0300829 0.0751681 0.0474695 147 108 255
-0.268005 -0.411749 0.0142455 22 233 255
0.0776969 0.0677462 -0.121255 145 110 255
0.319565 -0.0615969 0.0770436 112 143 255
0.314532 -0.138083 -0.21931 92 163 255
0.155184 -0.406378 0.080699 24 231 255
-0.149765 -0.463594 -0.0709821 9 246 255
0.0483655 -0.340937 -0.257841 40 215 255
-0.349374 -0.485721 -0.17823 3 252 255
-0.159928 -0.408123 0.108201 23 232 255
-0.336791 0.0730882 -0.144878 146 109 255
0.318793 -0.407829 -0.0467305 23 232 255
0.0734382 0.075339 -0.202766 147 108 255
-0.267972 -0.389057 -0.15157 28 227 255
0.122623 0.0747721 0.0617761 147 108 255
0.328041 0.0321351 -0.162122 136 119 255
0.328664 -0.144015 -0.118345 91 163 255
-0.038255 -0.485931 0.0586905 3 252 255
-0.361999 -0.0934543 -0.264649 104 151 255
-0.308799 -0.265161 -0.274699 60 195 255
0.329494 -0.0501213 -0.0581826 115 140 255
0.193822 -0.0548703 -0.273658 113 141 255
-0.079012 -0.358268 0.429753 36 219 255
0.0919972 -0.46627 0.0749368 8 247 255
0.302811 -0.36182 -0.192194 35 220 255
0.0340021 0.0745948 -0.0284889 147 108 255
-0.225741 -0.483707 -0.277924 4 251 255
0.232562 -0.485748 -0.0909851 3 252 255
-0.129707 0.0690493 -0.214737 145 110 255
0.332689 -0.43333 0.0646155 17 238 255
-0.24008 -0.0796041 -0.269613 107 147 255
-0.446168 -0.00784368 -0.276611 126 129 255
0.222678 -0.485495 -0.259552 3 252 255
-0.488276 -0.392025 -0.272135 27 228 255
0.23311 -0.125054 -0.281204 96 159 255
-0.0682318 -0.433299 -0.271526 17 238 255
-0.227137 -0.453592 0.0968717 11 244 255
-0.310386 0.0728892 0.060379 146 109 255
0.184293 0.0750992 -0.0281765 147 108 255
0.329371 -0.385634 -0.243999 29 226 255
0.152176 0.0756479 -0.201692 147 108 255
0.323667 -0.248401 -0.272857 64 191 255
-0.204971 -0.486181 -0.066184 3 252 255
-0.0179099 -0.485665 -0.154138 3 252 255
0.0887957 -0.407167 -0.0763812 23 232 255
-0.29423 -0.485895 -0.135907 3 252 255
-0.302199 -0.395646 0.127251 26 229 255
-0.208395 0.0757739 -0.222912 147 108 255
0.296744 -0.485634 0.000945099 3 252 255
-0.21059 -0.376426 -0.273484 31 224 255
-0.484829 -0.150583 -0.271083 89 166 255
-0.0240849 0.0755221 -0.171184 147 108 255
0.0638464 -0.16545 -0.27949 85 170 255
-0.130453 -0.0297229 -0.257527 120 135 255
-0.178166 -0.400157 -0.145212 25 230 255
-0.436368 0.0723455 -0.137967 146 109 255
0.026279 -0.025068 -0.272624 121 134 255
0.319257 0.0686289 -0.0125199 145 110 255
-0.335847 0.0733973 -0.226284 146 109 255
-0.455067 -0.484899 -0.195349 3 252 255
-0.379184 -0.436497 -0.25722 16 239 255
0.120923 -0.242378 -0.27799 65 189 255
0.323034 -0.262242 0.0513964 60 195 255
0.262632 0.0753265 -0.0751828 147 108 255
-0.0377245 -0.183242 -0.252782 81 174 255
0.312443 -0.26833 -0.170503 59 195 255
0.305899 -0.421064 -0.164128 20 235 255
-0.307328 -0.426677 -0.103626 18 237 255
-0.317612 -0.485983 0.000809394 3 252 255
0.32965 -0.130199 -0.261502 94 161 255
-0.116921 0.0745221 -0.0412856 147 108 255
-0.185198 -0.264316 -0.275876 60 195 255
0.0957068 -0.42427 -0.238047 19 236 255
-0.217289 0.0741088 -0.0602103 147 108 255
0.302266 0.0730344 0.0640778 146 109 255
0.329388 -0.109695 -0.0170362 99 156 255
0.328737 -0.0129371 -0.0946037 124 131 255
-0.0527202 -0.0918347 -0.274012 104 151 255
0.330969 -0.469399 -0.0350962 7 248 255
0.133789 -0.320016 -0.25308 46 209 255
0.00600397 -0.259481 -0.256341 60 194 255
-0.125392 -0.48624 -0.0108815 3 252 255
0.205167 0.0729495 -0.259678 146 109 255
0.148953 -0.392008 -0.014208 27 228 255
-0.311549 -0.151571 -0.257914 89 166 255
0.225957 -0.432483 -0.27124 17 238 255
-0.490109 -0.242141 -0.269596 65 189 255
0.25741 -0.485583 0.0600171 3 252 255
-0.0180002 -0.354329 -0.251595 36 218 255
-0.0845865 0.025822 -0.271931 134 121 255
0.195374 0.0749896 0.0384814 147 108 255
-0.149643 0.0676227 -0.112228 145 110 255
-0.220639 -0.455138 -0.184008 11 244 255
-0.23592 0.027378 -0.269986 135 120 255
0.325726 -0.0418419 -0.23145 117 138 255
0.283487 -0.352995 -0.279396 36 218 255
0.0138706 -0.486084 -0.0417063 3 252 255
0.108389 -0.477627 -0.276286 5 250 255
0.12259 -0.0682459 -0.252268 110 145 255
0.266382 -0.485579 -0.174359 3 252 255
0.133963 -0.485187 -0.166973 3 252 255
-0.45071 -0.341855 -0.273037 40 215 255
-0.131864 0.0743355 0.042267 147 108 255
-0.205119 -0.455015 0.0103628 11 244 255
0.025861 0.067888 -0.11779 145 110 255
0.312147 0.0733699 -0.131795 146 109 255
-0.133172 -0.485698 -0.16752 3 252 255
0.329661 -0.377604 -0.0897552 31 224 255
0.123164 -0.485502 -0.00932731 3 252 255
-0.325244 -0.401055 -0.267502 25 230 255
-0.182097 -0.485901 0.0888085 3 252 255
-0.347241 -0.280751 -0.260741 56 199 255
0.329778 -0.328576 -0.211471 43 211 255
-0.112742 -0.252921 -0.276566 63 192 255
0.322453 -0.0101189 0.0955492 125 130 255
0.143703 -0.391711 -0.214631 27 228 255
0.0149924 -0.0831833 -0.255715 105 149 255
-0.0160683 0.0377145 -0.254767 137 118 255
0.291982 -0.484508 -0.0993259 4 251 255
0.332443 -0.188116 0.0561194 79 176 255
0.320697 -0.0511211 0.000523808 113 141 255
0.0871797 -0.424784 0.174526 19 236 255
-0.230747 0.0737616 0.053629 146 109 255
0.308051 0.0730081 -0.213413 146 109 255
-0.261086 0.0737035 -0.10893 146 109 255
0.242164 -0.290929 -0.278193 52 202 255
0.209848 0.0692414 -0.154929 145 110 255
0.187254 -0.162631 -0.254082 86 169 255
-0.0640012 -0.48626 -0.0638988 3 252 255
0.31099 -0.169474 -0.276237 84 171 255
-0.190812 -0.207904 -0.269369 73 181 255
0.195921 -0.48566 -0.138269 3 252 255
0.132153 0.016987 -0.27027 131 123 255
-0.3746 0.0732727 -0.268665 146 109 255
0.153272 -0.392966 -0.0783202 27 228 255
-0.157319 -0.423861 -0.265708 19 236 255
-0.255979 0.0685276 -0.190511 145 110 255
-0.273892 -0.346982 -0.271208 39 216 255
-0.384949 0.0724769 -0.00690406 146 109 255
0.169657 0.0675674 -0.0844189 145 110 255
0.244913 -0.484777 0.113032 3 252 255
0.0851497 -0.454904 0.0166394 11 244 255
-0.274293 -0.405988 -0.0467528 24 231 255
0.26046 0.0324377 -0.255502 136 119 255
-0.498364 -0.468134 -0.249734 8 247 255
-0.0361111 0.0747148 0.0113792 147 108 255
-0.078895 -0.352035 -0.276659 36 218 255
-0.365496 -0.485232 -0.0773294 3 252 255
-0.283977 -0.377219 -0.192237 31 224 255
0.0734961 -0.480387 -0.177757 5 250 255
-0.439737 -0.172481 -0.275904 83 172 255
