ply
format ascii 1.0
comment Created by Open3D
element vertex 1197
property double x
property double y
property double z
property uchar red
property uchar green
property uchar blue
end_header
-0.164202 -0.397453 -0.0964757 127 0 255
0.00461839 -0.317648 -0.0633365 127 0 255
0.0719536 -0.387488 -0.0884977 127 0 255
0.423469 -0.410234 -0.172422 127 0 255
-0.258176 -0.470517 -0.0650979 127 0 255
0.343664 -0.362179 -0.0722834 127 0 255
0.231044 -0.465469 -0.0827862 127 0 255
0.265833 -0.36272 -0.0788839 127 0 255
0.099673 -0.349795 -0.137541 127 0 255
0.080812 -0.482299 -0.0699164 127 0 255
0.105357 -0.484039 -0.153144 127 0 255
0.299443 -0.48389 -0.130184 127 0 255
-0.375327 -0.337274 -0.200054 127 0 255
-0.404117 -0.307672 -0.0663741 127 0 255
-0.00854242 -0.479181 -0.281979 127 0 255
-0.103316 -0.385213 -0.107114 127 0 255
-0.424551 -0.415278 -0.0676036 127 0 255
0.231615 -0.484987 -0.34315 127 0 255
0.133382 -0.485509 -0.342884 127 0 255
-0.453478 -0.34114 -0.0727127 127 0 255
0.313285 -0.32292 -0.0746686 127 0 255
0.449673 -0.399784 -0.125048 127 0 255
-0.478628 -0.416309 -0.113802 127 0 255
-0.263836 -0.48162 -0.164376 127 0 255
0.212488 -0.34078 -0.0608406 127 0 255
0.349673 -0.487289 -0.275045 127 0 255
0.137173 -0.387293 -0.200042 127 0 255
0.352896 -0.460183 -0.0683305 127 0 255
-0.198635 -0.37004 -0.0624417 127 0 255
-0.287827 -0.299786 -0.0625453 127 0 255
-0.0378271 -0.3873 -0.275038 127 0 255
0.185702 -0.484028 -0.10554 127 0 255
-0.154046 -0.481828 -0.254506 127 0 255
0.0312062 -0.416988 -0.0647314 127 0 255
-0.3205 -0.469223 -0.093813 127 0 255
-0.500327 -0.487274 -0.225054 127 0 255
-0.125655 -0.483178 -0.147166 127 0 255
0.187173 -0.274787 -0.0625459 127 0 255
0.273579 -0.48454 -0.255853 127 0 255
0.380123 -0.481656 -0.159681 127 0 255
-0.118604 -0.340548 -0.0794069 127 0 255
-0.46278 -0.483717 -0.150328 127 0 255
-0.0753271 -0.287297 -0.0875394 127 0 255
0.0782369 -0.479444 -0.348135 127 0 255
0.268035 -0.483574 -0.181049 127 0 255
0.297459 -0.444381 -0.0683389 127 0 255
0.13892 -0.481621 -0.228156 127 0 255
0.157743 -0.316548 -0.0772903 127 0 255
-0.0994701 -0.413803 -0.0637782 127 0 255
0.139141 -0.443311 -0.064557 127 0 255
-0.456202 -0.485644 -0.0839341 127 0 255
-0.183844 -0.328928 -0.0565714 127 0 255
-0.0503271 -0.412297 -0.33754 127 0 255
-0.00171554 -0.367055 -0.0682597 127 0 255
0.399897 -0.481608 -0.100596 127 0 255
-0.453611 -0.37558 -0.102463 127 0 255
0.287173 -0.274784 -0.0625483 127 0 255
0.0631074 -0.483423 -0.146046 127 0 255
-0.0686391 -0.377806 -0.111068 127 0 255
-0.447554 -0.479458 -0.254909 127 0 255
0.307236 -0.39202 -0.0833688 127 0 255
-0.168127 -0.483636 -0.184519 127 0 255
-0.120579 -0.475155 -0.0717995 127 0 255
0.312173 -0.387288 -0.262546 127 0 255
-0.281458 -0.406313 -0.0628611 127 0 255
-0.202639 -0.481737 -0.126728 127 0 255
-0.355271 -0.483709 -0.102942 127 0 255
0.249673 -0.387288 -0.225046 127 0 255
0.0687665 -0.336431 -0.065417 127 0 255
0.0261824 -0.477422 -0.0726694 127 0 255
0.235376 -0.482835 -0.247831 127 0 255
0.312229 -0.484308 -0.215384 127 0 255
0.00263208 -0.380782 -0.130219 127 0 255
0.22488 -0.37507 -0.0642976 127 0 255
0.368383 -0.329194 -0.0750491 127 0 255
-0.0248884 -0.481002 -0.231967 127 0 255
0.0825724 -0.479741 -0.288156 127 0 255
0.0719525 -0.471988 -0.207415 127 0 255
0.184863 -0.415017 -0.0674037 127 0 255
-0.38776 -0.48436 -0.168377 127 0 255
0.337173 -0.437287 -0.250046 127 0 255
-0.234062 -0.32621 -0.0659705 127 0 255
-0.215053 -0.459682 -0.0630739 127 0 255
-0.0253271 -0.387302 -0.212537 127 0 255
0.237173 -0.274784 -0.0625478 127 0 255
-0.117552 -0.376745 -0.0619714 127 0 255
0.224673 -0.437291 -0.362543 127 0 255
-0.294371 -0.453488 -0.062188 127 0 255
-0.397347 -0.358679 -0.0980794 127 0 255
0.324673 -0.274784 -0.087548 127 0 255
-0.083924 -0.482399 -0.17081 127 0 255
-0.242774 -0.483629 -0.245066 127 0 255
0.174673 -0.38729 -0.237544 127 0 255
0.0508321 -0.361917 -0.0995607 127 0 255
-0.317364 -0.35361 -0.07549 127 0 255
-0.432338 -0.455662 -0.0633419 127 0 255
-0.335422 -0.486428 -0.314685 127 0 255
-0.0168743 -0.417495 -0.0795227 127 0 255
0.102749 -0.411137 -0.0763304 127 0 255
0.101975 -0.481326 -0.114911 127 0 255
0.14988 -0.4834 -0.185148 127 0 255
0.163132 -0.485005 -0.296386 127 0 255
-0.45017 -0.421591 -0.119975 127 0 255
-0.400029 -0.483947 -0.111886 127 0 255
-0.238043 -0.423964 -0.0769336 127 0 255
-0.0914694 -0.483039 -0.109542 127 0 255
0.290836 -0.338175 -0.059253 127 0 255
-0.176486 -0.387578 -0.0617941 127 0 255
0.190398 -0.459919 -0.0844485 127 0 255
-0.167013 -0.480671 -0.217343 127 0 255
0.299673 -0.38729 -0.350044 127 0 255
-0.0618279 -0.343794 -0.0617604 127 0 255
0.0515716 -0.484288 -0.273114 127 0 255
0.312173 -0.387286 -0.212547 127 0 255
0.274888 -0.399118 -0.0697973 127 0 255
0.350378 -0.482701 -0.212205 127 0 255
0.137173 -0.337292 -0.125043 127 0 255
0.260046 -0.476666 -0.114363 127 0 255
0.230642 -0.319427 -0.0758454 127 0 255
0.324673 -0.399789 -0.300045 127 0 255
0.474673 -0.412285 -0.162547 127 0 255
-0.366689 -0.411041 -0.0716922 127 0 255
-0.158103 -0.480536 -0.0846702 127 0 255
-0.450327 -0.337274 -0.150054 127 0 255
-0.0790782 -0.484109 -0.324083 127 0 255
0.163877 -0.34866 -0.0749355 127 0 255
0.413775 -0.444471 -0.0922413 127 0 255
0.271248 -0.47364 -0.0612384 127 0 255
0.334152 -0.39491 -0.0668335 127 0 255
0.0557369 -0.414311 -0.0642491 127 0 255
-0.273194 -0.480559 -0.126605 127 0 255
-0.0779111 -0.443759 -0.0624206 127 0 255
0.164093 -0.484897 -0.339347 127 0 255
0.387173 -0.437285 -0.150047 127 0 255
0.40001 -0.384481 -0.0782688 127 0 255
-0.475327 -0.337274 -0.200054 127 0 255
0.274673 -0.38729 -0.300044 127 0 255
0.0327294 -0.473878 -0.110658 127 0 255
0.185867 -0.4815 -0.217056 127 0 255
-0.17066 -0.484391 -0.284033 127 0 255
-0.351111 -0.460998 -0.0631355 127 0 255
0.243283 -0.481125 -0.194825 127 0 255
-0.314796 -0.484062 -0.191064 127 0 255
-0.149603 -0.440469 -0.0661405 127 0 255
-0.2743 -0.392017 -0.0909987 127 0 255
-0.487827 -0.324774 -0.0625543 127 0 255
0.212614 -0.482113 -0.303188 127 0 255
0.162073 -0.484117 -0.13269 127 0 255
-0.415402 -0.36787 -0.0686762 127 0 255
-0.355851 -0.335308 -0.0687385 127 0 255
-0.475805 -0.477291 -0.111133 127 0 255
0.136518 -0.476097 -0.0692208 127 0 255
-0.0134715 -0.322989 -0.0731399 127 0 255
-0.246973 -0.464873 -0.0925154 127 0 255
-0.439407 -0.300383 -0.0791289 127 0 255
0.123627 -0.31108 -0.069999 127 0 255
-0.379509 -0.484423 -0.201781 127 0 255
0.0123295 -0.481712 -0.230773 127 0 255
0.249673 -0.437291 -0.325044 127 0 255
0.143405 -0.383093 -0.0619054 127 0 255
0.234433 -0.44353 -0.0651475 127 0 255
0.462173 -0.462284 -0.112548 127 0 255
-0.13179 -0.369371 -0.0908493 127 0 255
0.0746729 -0.387298 -0.212539 127 0 255
-0.0534667 -0.47951 -0.0769645 127 0 255
-0.500327 -0.487274 -0.275054 127 0 255
-0.342944 -0.382982 -0.0679567 127 0 255
0.0948219 -0.483784 -0.179284 127 0 255
-0.335447 -0.484346 -0.152807 127 0 255
-0.0799167 -0.477651 -0.196609 127 0 255
0.333212 -0.45006 -0.0678042 127 0 255
-0.0644429 -0.385282 -0.0642682 127 0 255
0.384444 -0.348199 -0.0710053 127 0 255
0.110086 -0.477727 -0.29599 127 0 255
-0.00542205 -0.440506 -0.0672966 127 0 255
0.0185985 -0.353184 -0.0908828 127 0 255
-0.235204 -0.382525 -0.0594909 127 0 255
0.274673 -0.362284 -0.125048 127 0 255
0.10172 -0.452407 -0.0657075 127 0 255
0.0364807 -0.31013 -0.0651031 127 0 255
-0.316672 -0.329839 -0.0604001 127 0 255
-0.471337 -0.429422 -0.0800841 127 0 255
0.0246729 -0.3873 -0.250038 127 0 255
-0.441154 -0.48375 -0.281171 127 0 255
0.449673 -0.437285 -0.175047 127 0 255
-0.032496 -0.478854 -0.271584 127 0 255
0.0890963 -0.484659 -0.344016 127 0 255
-0.441137 -0.472562 -0.10936 127 0 255
0.378058 -0.418174 -0.0682808 127 0 255
-0.0628271 -0.399796 -0.26254 127 0 255
-0.365829 -0.486402 -0.312365 127 0 255
-0.0628271 -0.399797 -0.187539 127 0 255
0.294368 -0.480417 -0.173694 127 0 255
-0.150961 -0.349529 -0.0651013 127 0 255
-0.0898659 -0.321688 -0.0605585 127 0 255
-0.139909 -0.47898 -0.192321 127 0 255
-0.405464 -0.418164 -0.0701983 127 0 255
0.0746729 -0.387297 -0.26254 127 0 255
0.027912 -0.385616 -0.0646095 127 0 255
-0.270036 -0.349438 -0.0749413 127 0 255
0.437173 -0.374784 -0.150048 127 0 255
-0.229102 -0.481971 -0.150818 127 0 255
0.130187 -0.484438 -0.128442 127 0 255
-0.464392 -0.478512 -0.232079 127 0 255
-0.143464 -0.399203 -0.0621773 127 0 255
0.2768 -0.316991 -0.056617 127 0 255
0.0644949 -0.48479 -0.0815743 127 0 255
0.0493219 -0.474246 -0.325943 127 0 255
0.14975 -0.482812 -0.242219 127 0 255
-0.372278 -0.366982 -0.0953614 127 0 255
-0.1537 -0.480112 -0.143418 127 0 255
0.194781 -0.369899 -0.0782731 127 0 255
-0.0685014 -0.483443 -0.132275 127 0 255
0.106697 -0.364147 -0.0666015 127 0 255
0.299673 -0.43729 -0.300044 127 0 255
-0.0297429 -0.355194 -0.0903073 127 0 255
0.162173 -0.412291 -0.350044 127 0 255
0.367441 -0.468474 -0.0802718 127 0 255
0.3459 -0.330877 -0.056068 127 0 255
0.403404 -0.481309 -0.13731 127 0 255
0.221701 -0.483241 -0.274031 127 0 255
-0.0579935 -0.480515 -0.239728 127 0 255
-0.0973208 -0.468535 -0.0640696 127 0 255
0.245112 -0.410095 -0.080303 127 0 255
-0.192911 -0.477828 -0.0888283 127 0 255
0.299673 -0.437291 -0.362544 127 0 255
0.220234 -0.484925 -0.345834 127 0 255
-0.284055 -0.484492 -0.193605 127 0 255
-0.314933 -0.48561 -0.129119 127 0 255
-0.314779 -0.404294 -0.0671532 127 0 255
0.0246729 -0.387301 -0.200037 127 0 255
-0.197134 -0.322409 -0.0728534 127 0 255
0.324673 -0.449785 -0.162547 127 0 255
0.041119 -0.455129 -0.0669026 127 0 255
0.337173 -0.274785 -0.0625477 127 0 255
-0.391869 -0.455682 -0.0789704 127 0 255
0.0746729 -0.387295 -0.337541 127 0 255
0.297386 -0.471899 -0.0869121 127 0 255
0.219402 -0.315768 -0.057163 127 0 255
0.0816675 -0.479045 -0.244161 127 0 255
-0.189913 -0.483801 -0.193906 127 0 255
-0.279908 -0.443201 -0.0745699 127 0 255
-0.0419708 -0.440285 -0.0668435 127 0 255
-0.455794 -0.376472 -0.102376 127 0 255
-0.150527 -0.483222 -0.268295 127 0 255
0.0166105 -0.483809 -0.105137 127 0 255
0.262173 -0.437288 -0.237545 127 0 255
-0.0711281 -0.35632 -0.0883217 127 0 255
0.129337 -0.483539 -0.183692 127 0 255
0.036229 -0.481316 -0.230089 127 0 255
-0.468196 -0.48378 -0.151459 127 0 255
-0.368947 -0.473592 -0.115362 127 0 255
-0.0649873 -0.484717 -0.319529 127 0 255
0.0900293 -0.313576 -0.0660385 127 0 255
0.203281 -0.47567 -0.116223 127 0 255
0.316002 -0.349964 -0.0612846 127 0 255
-0.177078 -0.373098 -0.0890853 127 0 255
0.279379 -0.425215 -0.0693446 127 0 255
0.0733413 -0.392395 -0.0648994 127 0 255
0.187173 -0.337288 -0.125046 127 0 255
-0.433056 -0.390745 -0.06907 127 0 255
0.141261 -0.417096 -0.075413 127 0 255
-0.472405 -0.462197 -0.0793946 127 0 255
0.112173 -0.387293 -0.287542 127 0 255
0.263616 -0.363639 -0.063213 127 0 255
0.0281985 -0.37819 -0.111715 127 0 255
-0.366811 -0.484576 -0.176814 127 0 255
0.224673 -0.437291 -0.300044 127 0 255
-0.125327 -0.387289 -0.162544 127 0 255
-0.416517 -0.327198 -0.0810095 127 0 255
0.137792 -0.48504 -0.314772 127 0 255
0.278649 -0.484096 -0.12451 127 0 255
0.411137 -0.41726 -0.175386 127 0 255
-0.278118 -0.483756 -0.0964773 127 0 255
-0.0772241 -0.407221 -0.0730419 127 0 255
0.26178 -0.482595 -0.23347 127 0 255
0.39919 -0.481511 -0.0890033 127 0 255
-0.24742 -0.326944 -0.0673741 127 0 255
-0.212175 -0.441646 -0.0640507 127 0 255
0.166565 -0.323539 -0.0626778 127 0 255
-0.0970915 -0.474023 -0.148032 127 0 255
-0.343058 -0.449238 -0.0642002 127 0 255
-0.0203429 -0.482905 -0.0871338 127 0 255
0.149673 -0.387292 -0.162543 127 0 255
-0.0302781 -0.320515 -0.0647432 127 0 255
0.173404 -0.447132 -0.0745668 127 0 255
0.115725 -0.484246 -0.0975205 127 0 255
0.311918 -0.484303 -0.214759 127 0 255
0.0871729 -0.424795 -0.350041 127 0 255
-0.021996 -0.39338 -0.0679864 127 0 255
0.356228 -0.378281 -0.0755683 127 0 255
-0.467961 -0.348309 -0.0896925 127 0 255
-0.111147 -0.462971 -0.0912096 127 0 255
0.112173 -0.387294 -0.225041 127 0 255
-0.274857 -0.483782 -0.162511 127 0 255
-0.487827 -0.337274 -0.175054 127 0 255
0.249673 -0.349784 -0.137548 127 0 255
-0.142394 -0.323189 -0.0705393 127 0 255
0.404781 -0.409541 -0.0790413 127 0 255
0.229296 -0.472861 -0.0754641 127 0 255
-0.481973 -0.428443 -0.10177 127 0 255
-0.0101457 -0.480667 -0.225471 127 0 255
-0.412827 -0.337274 -0.150054 127 0 255
-0.31153 -0.375114 -0.0822642 127 0 255
-0.175454 -0.470317 -0.0673759 127 0 255
0.197548 -0.415385 -0.0718585 127 0 255
-0.175327 -0.387287 -0.162545 127 0 255
-0.117219 -0.384288 -0.098727 127 0 255
-0.256143 -0.388979 -0.0911024 127 0 255
0.07227 -0.430723 -0.0761449 127 0 255
0.0920548 -0.482984 -0.213722 127 0 255
-0.00482302 -0.480485 -0.273256 127 0 255
0.099673 -0.362296 -0.150041 127 0 255
0.320802 -0.471974 -0.0698263 127 0 255
-0.197422 -0.400707 -0.0624793 127 0 255
0.165386 -0.483075 -0.158415 127 0 255
0.31247 -0.413346 -0.0696378 127 0 255
-0.1206 -0.43167 -0.0648504 127 0 255
0.246402 -0.311871 -0.0743719 127 0 255
-0.232998 -0.481359 -0.125864 127 0 255
0.393584 -0.35229 -0.0844504 127 0 255
0.0454574 -0.3529 -0.0666291 127 0 255
0.0906865 -0.483856 -0.142225 127 0 255
-0.140204 -0.481713 -0.107082 127 0 255
-0.387689 -0.484368 -0.0938228 127 0 255
-0.322987 -0.472231 -0.107739 127 0 255
-0.374197 -0.385152 -0.0656947 127 0 255
-0.12767 -0.483364 -0.16726 127 0 255
0.198519 -0.485569 -0.341133 127 0 255
-0.375327 -0.337274 -0.200054 127 0 255
0.131929 -0.48548 -0.341338 127 0 255
0.0167275 -0.426494 -0.0652494 127 0 255
-0.0630728 -0.482213 -0.0980352 127 0 255
0.387173 -0.387285 -0.162548 127 0 255
0.225569 -0.36926 -0.077263 127 0 255
0.0672237 -0.47657 -0.101662 127 0 255
0.137173 -0.387291 -0.337543 127 0 255
-0.199876 -0.357024 -0.0760816 127 0 255
0.178734 -0.483591 -0.0908382 127 0 255
0.390833 -0.452622 -0.0726232 127 0 255
-0.442837 -0.483663 -0.295637 127 0 255
-0.0128271 -0.387301 -0.262537 127 0 255
-0.000327101 -0.287299 -0.0875381 127 0 255
0.121728 -0.342387 -0.0665737 127 0 255
-0.053613 -0.483115 -0.272572 127 0 255
-0.441334 -0.483354 -0.0821751 127 0 255
0.324673 -0.399786 -0.225047 127 0 255
-0.269058 -0.470557 -0.0649342 127 0 255
0.182714 -0.483108 -0.208376 127 0 255
-0.352546 -0.483895 -0.322172 127 0 255
0.0582668 -0.475248 -0.313472 127 0 255
0.30437 -0.313812 -0.0613494 127 0 255
0.349543 -0.48432 -0.206415 127 0 255
0.195867 -0.307351 -0.0684746 127 0 255
-0.102665 -0.322893 -0.0611624 127 0 255
-0.260418 -0.405895 -0.0622297 127 0 255
-0.410736 -0.300407 -0.0679284 127 0 255
-0.487827 -0.387274 -0.0625543 127 0 255
0.257019 -0.47435 -0.0627186 127 0 255
0.117365 -0.434357 -0.0643356 127 0 255
0.0723577 -0.358169 -0.0903243 127 0 255
-0.428506 -0.444683 -0.0653924 127 0 255
0.287173 -0.437285 -0.187547 127 0 255
0.00690912 -0.382597 -0.118417 127 0 255
-0.163059 -0.484362 -0.288964 127 0 255
0.357615 -0.425255 -0.0757499 127 0 255
-0.0657966 -0.482316 -0.150783 127 0 255
-0.287187 -0.342457 -0.0609701 127 0 255
-0.165677 -0.327408 -0.0582884 127 0 255
0.0072714 -0.470772 -0.0687282 127 0 255
0.0537674 -0.484151 -0.257789 127 0 255
0.162173 -0.38729 -0.212544 127 0 255
-0.408556 -0.373052 -0.103733 127 0 255
0.0405635 -0.310266 -0.0651092 127 0 255
-0.219752 -0.475401 -0.0937894 127 0 255
-0.350642 -0.416789 -0.0739705 127 0 255
-0.452149 -0.327502 -0.0695477 127 0 255
0.324673 -0.437288 -0.275045 127 0 255
0.276815 -0.482877 -0.171399 127 0 255
-0.500327 -0.487274 -0.200054 127 0 255
-0.0502698 -0.361343 -0.0639482 127 0 255
0.24309 -0.48457 -0.267037 127 0 255
0.324673 -0.39979 -0.325044 127 0 255
0.157345 -0.484234 -0.235333 127 0 255
0.10555 -0.480457 -0.292265 127 0 255
-0.295765 -0.4859 -0.198913 127 0 255
0.262173 -0.387289 -0.262545 127 0 255
-0.145224 -0.451738 -0.0626886 127 0 255
0.182763 -0.476383 -0.134445 127 0 255
-0.425327 -0.337274 -0.200054 127 0 255
-0.378502 -0.484398 -0.198239 127 0 255
-0.305672 -0.459959 -0.0636536 127 0 255
-0.0378271 -0.387301 -0.225037 127 0 255
-0.385645 -0.332012 -0.0688863 127 0 255
0.287173 -0.487292 -0.375043 127 0 255
0.278622 -0.392009 -0.0811013 127 0 255
0.462173 -0.437285 -0.137548 127 0 255
0.391984 -0.365173 -0.105695 127 0 255
-0.450327 -0.362274 -0.150054 127 0 255
0.312173 -0.387285 -0.187547 127 0 255
0.184298 -0.371458 -0.0646773 127 0 255
-0.00760634 -0.362496 -0.0677152 127 0 255
-0.0845716 -0.434165 -0.0732948 127 0 255
-0.179291 -0.481293 -0.112997 127 0 255
0.162173 -0.36229 -0.150044 127 0 255
-0.150114 -0.400401 -0.0624238 127 0 255
0.408432 -0.481328 -0.123275 127 0 255
-0.167633 -0.481194 -0.208205 127 0 255
-0.0478463 -0.468939 -0.0652682 127 0 255
0.140477 -0.47507 -0.0684929 127 0 255
-0.475327 -0.487274 -0.325054 127 0 255
0.289033 -0.482801 -0.227498 127 0 255
0.364921 -0.357072 -0.0607661 127 0 255
0.167619 -0.48094 -0.298537 127 0 255
-0.102328 -0.375072 -0.062477 127 0 255
-0.347847 -0.484015 -0.171336 127 0 255
0.262173 -0.437291 -0.362543 127 0 255
0.0996945 -0.390535 -0.0699646 127 0 255
0.223347 -0.42232 -0.0663331 127 0 255
-0.453636 -0.483969 -0.119504 127 0 255
-0.439105 -0.401881 -0.0684206 127 0 255
-0.39111 -0.441705 -0.065639 127 0 255
-0.0753271 -0.287297 -0.0875394 127 0 255
-0.241735 -0.442586 -0.0635269 127 0 255
-0.295187 -0.479879 -0.134697 127 0 255
0.126371 -0.477998 -0.158323 127 0 255
0.110984 -0.311109 -0.0654437 127 0 255
-0.487827 -0.337274 -0.125054 127 0 255
0.324673 -0.42479 -0.362544 127 0 255
0.32466 -0.376591 -0.0763689 127 0 255
0.0438936 -0.478467 -0.0694758 127 0 255
0.212173 -0.437291 -0.325044 127 0 255
-0.246717 -0.363447 -0.0600449 127 0 255
-0.0649525 -0.48424 -0.319089 127 0 255
-0.0499454 -0.415812 -0.0658885 127 0 255
0.0154896 -0.48152 -0.258431 127 0 255
0.149673 -0.387291 -0.262543 127 0 255
-0.30154 -0.367081 -0.056518 127 0 255
0.267214 -0.440178 -0.0704317 127 0 255
0.15204 -0.356319 -0.0778178 127 0 255
-0.479811 -0.420433 -0.113128 127 0 255
0.352295 -0.470537 -0.0734722 127 0 255
0.249673 -0.387288 -0.225046 127 0 255
-0.101562 -0.471285 -0.110874 127 0 255
-0.236718 -0.481595 -0.156474 127 0 255
-0.080687 -0.338819 -0.0789569 127 0 255
0.274506 -0.320295 -0.0748317 127 0 255
0.0335142 -0.427631 -0.0817815 127 0 255
0.337168 -0.324476 -0.0750466 127 0 255
-0.351983 -0.336403 -0.0687164 127 0 255
0.411346 -0.429501 -0.0871249 127 0 255
0.102225 -0.470266 -0.0648415 127 0 255
0.0933141 -0.484797 -0.337529 127 0 255
0.337173 -0.487289 -0.287545 127 0 255
0.142368 -0.483855 -0.111066 127 0 255
0.155944 -0.406696 -0.0757086 127 0 255
0.0910973 -0.470162 -0.226362 127 0 255
-0.34391 -0.483313 -0.100991 127 0 255
0.393389 -0.48141 -0.149642 127 0 255
-0.155264 -0.482268 -0.174645 127 0 255
0.262173 -0.38729 -0.350044 127 0 255
0.0496729 -0.387299 -0.200038 127 0 255
-0.316284 -0.392249 -0.0908755 127 0 255
0.0746729 -0.287295 -0.0875406 127 0 255
0.268089 -0.484016 -0.116752 127 0 255
0.313104 -0.438552 -0.0682687 127 0 255
0.462173 -0.474784 -0.112548 127 0 255
0.0873475 -0.484007 -0.159518 127 0 255
-0.375327 -0.337278 -0.162552 127 0 255
0.00850696 -0.329025 -0.0739708 127 0 255
-0.0121442 -0.443806 -0.0787573 127 0 255
-0.173533 -0.42805 -0.0673778 127 0 255
-0.443774 -0.354959 -0.0764775 127 0 255
0.199673 -0.387288 -0.175045 127 0 255
0.157625 -0.48482 -0.341788 127 0 255
-0.195573 -0.321745 -0.0721508 127 0 255
0.24864 -0.378473 -0.0648087 127 0 255
-0.153118 -0.372325 -0.0902922 127 0 255
0.149673 -0.287291 -0.0875438 127 0 255
0.187173 -0.387289 -0.237545 127 0 255
0.250249 -0.478202 -0.236639 127 0 255
-0.473978 -0.471582 -0.149751 127 0 255
0.226917 -0.322835 -0.0560488 127 0 255
0.0347782 -0.395592 -0.0642634 127 0 255
0.384145 -0.396633 -0.0668896 127 0 255
-0.307265 -0.433068 -0.0685724 127 0 255
0.0621729 -0.337298 -0.125039 127 0 255
-0.0957441 -0.471989 -0.0667599 127 0 255
-0.287827 -0.299786 -0.0625453 127 0 255
-0.245619 -0.478 -0.101488 127 0 255
-0.217601 -0.395205 -0.0616883 127 0 255
0.156601 -0.474844 -0.213972 127 0 255
-0.0453067 -0.483917 -0.250691 127 0 255
-0.372121 -0.366065 -0.0938442 127 0 255
-0.500327 -0.487274 -0.287554 127 0 255
-0.0456722 -0.3295 -0.062067 127 0 255
0.362173 -0.287285 -0.0875475 127 0 255
-0.145819 -0.482255 -0.12941 127 0 255
0.274673 -0.437291 -0.312544 127 0 255
-0.0864399 -0.376815 -0.096088 127 0 255
0.206485 -0.485057 -0.324222 127 0 255
0.287173 -0.437284 -0.150048 127 0 255
-0.20783 -0.469128 -0.0674085 127 0 255
0.0760034 -0.330312 -0.0652466 127 0 255
0.191166 -0.47136 -0.0681964 127 0 255
0.183384 -0.328846 -0.061319 127 0 255
0.0661524 -0.483738 -0.299743 127 0 255
-0.500327 -0.337274 -0.0875543 127 0 255
0.292951 -0.471996 -0.0637911 127 0 255
-0.343525 -0.483819 -0.13506 127 0 255
-0.126391 -0.348606 -0.0641807 127 0 255
-0.46359 -0.438182 -0.073279 127 0 255
0.262173 -0.337284 -0.112548 127 0 255
-0.0847567 -0.475771 -0.171314 127 0 255
0.0279881 -0.478691 -0.11079 127 0 255
0.230797 -0.484704 -0.279008 127 0 255
-0.344145 -0.484038 -0.314389 127 0 255
0.437173 -0.387284 -0.112548 127 0 255
-0.313816 -0.484057 -0.19103 127 0 255
0.301128 -0.364414 -0.0651445 127 0 255
0.312173 -0.387288 -0.262546 127 0 255
0.0656425 -0.439553 -0.0682236 127 0 255
-0.0628271 -0.399797 -0.175039 127 0 255
-0.469915 -0.482031 -0.0905776 127 0 255
-0.409503 -0.363866 -0.0686201 127 0 255
-0.243255 -0.341162 -0.0756056 127 0 255
-0.103185 -0.406312 -0.0633854 127 0 255
0.0621729 -0.387295 -0.337541 127 0 255
-0.0529793 -0.482497 -0.0946178 127 0 255
-0.0351419 -0.360457 -0.0919911 127 0 255
-0.293083 -0.401019 -0.0635531 127 0 255
-0.0628271 -0.399796 -0.26254 127 0 255
-0.386251 -0.48512 -0.107554 127 0 255
0.41247 -0.453553 -0.0822337 127 0 255
0.189095 -0.386103 -0.0821284 127 0 255
0.161765 -0.48394 -0.17357 127 0 255
-0.419067 -0.296767 -0.0687214 127 0 255
0.300829 -0.483259 -0.203605 127 0 255
-0.369484 -0.460423 -0.0655072 127 0 255
-0.462827 -0.337274 -0.200054 127 0 255
-0.276104 -0.483813 -0.168282 127 0 255
-0.369887 -0.484176 -0.165581 127 0 255
-0.0135396 -0.397971 -0.0652451 127 0 255
-0.152399 -0.470725 -0.0690658 127 0 255
0.129024 -0.393724 -0.0670069 127 0 255
-0.0253271 -0.287302 -0.0625364 127 0 255
0.112173 -0.387295 -0.200041 127 0 255
-0.0128271 -0.387302 -0.200036 127 0 255
0.168358 -0.445224 -0.0701547 127 0 255
0.126445 -0.484357 -0.302283 127 0 255
0.0809339 -0.484143 -0.0840022 127 0 255
0.124673 -0.412292 -0.350043 127 0 255
0.058451 -0.36239 -0.0985145 127 0 255
-0.155004 -0.484457 -0.271925 127 0 255
0.0599686 -0.46987 -0.32946 127 0 255
-0.401985 -0.407302 -0.06802 127 0 255
0.0246729 -0.3873 -0.262538 127 0 255
-0.00758556 -0.480185 -0.274539 127 0 255
0.334837 -0.403132 -0.0675533 127 0 255
-0.295826 -0.48449 -0.106305 127 0 255
0.222307 -0.448927 -0.077687 127 0 255
-0.264937 -0.434229 -0.0654861 127 0 255
-0.116267 -0.483383 -0.144127 127 0 255
0.287173 -0.274784 -0.0625483 127 0 255
0.0968964 -0.483794 -0.178439 127 0 255
0.274673 -0.38729 -0.312544 127 0 255
0.337173 -0.437287 -0.250046 127 0 255
-0.199721 -0.366256 -0.062665 127 0 255
-0.451319 -0.484029 -0.292008 127 0 255
0.276334 -0.480228 -0.251093 127 0 255
0.400698 -0.481603 -0.100409 127 0 255
-0.463622 -0.399275 -0.0770625 127 0 255
0.0746729 -0.387297 -0.25004 127 0 255
0.387173 -0.424785 -0.137547 127 0 255
-0.0204892 -0.480521 -0.0752212 127 0 255
0.121488 -0.45096 -0.0765205 127 0 255
0.149673 -0.337291 -0.125043 127 0 255
-0.323396 -0.345824 -0.0561648 127 0 255
0.266628 -0.480991 -0.0867672 127 0 255
0.22075 -0.353181 -0.0703268 127 0 255
-0.500327 -0.487274 -0.237554 127 0 255
-0.150327 -0.387287 -0.162545 127 0 255
-0.445905 -0.318 -0.06615 127 0 255
0.36239 -0.326277 -0.0743075 127 0 255
-0.341202 -0.405775 -0.0752001 127 0 255
-0.0615055 -0.482972 -0.31312 127 0 255
-0.278197 -0.364143 -0.0780681 127 0 255
-0.214554 -0.420159 -0.0675077 127 0 255
0.185042 -0.484112 -0.110973 127 0 255
0.109002 -0.341007 -0.0665116 127 0 255
0.0647599 -0.482394 -0.271422 127 0 255
-0.159555 -0.470235 -0.103608 127 0 255
-0.10776 -0.320061 -0.0653206 127 0 255
0.26657 -0.335567 -0.0584369 127 0 255
0.324673 -0.424785 -0.175047 127 0 255
0.0152293 -0.363515 -0.102556 127 0 255
-0.124394 -0.382679 -0.0971831 127 0 255
0.132823 -0.479885 -0.193492 127 0 255
0.212173 -0.349786 -0.137547 127 0 255
0.351157 -0.47792 -0.206002 127 0 255
0.237173 -0.274784 -0.0625478 127 0 255
0.360317 -0.43964 -0.0708453 127 0 255
0.124673 -0.387294 -0.162542 127 0 255
-0.0476036 -0.43741 -0.0667277 127 0 255
-0.0628271 -0.399795 -0.325041 127 0 255
0.176558 -0.318489 -0.0773388 127 0 255
0.287173 -0.387286 -0.212547 127 0 255
0.0223602 -0.316155 -0.0633938 127 0 255
0.112173 -0.387293 -0.287542 127 0 255
0.266849 -0.420428 -0.0686502 127 0 255
-0.406386 -0.461578 -0.0760209 127 0 255
0.290516 -0.482527 -0.178424 127 0 255
-0.0535839 -0.383358 -0.0647616 127 0 255
0.305241 -0.332247 -0.0754196 127 0 255
0.400286 -0.368252 -0.08756 127 0 255
-0.315249 -0.469322 -0.0898097 127 0 255
0.123249 -0.483874 -0.129934 127 0 255
-0.169268 -0.483654 -0.186441 127 0 255
0.199673 -0.38729 -0.287544 127 0 255
-0.129224 -0.416262 -0.0629296 127 0 255
-0.476486 -0.475213 -0.112069 127 0 255
-0.392687 -0.321371 -0.0692346 127 0 255
0.338862 -0.470817 -0.0733378 127 0 255
-0.2472 -0.464193 -0.0633715 127 0 255
0.0070472 -0.483268 -0.0927386 127 0 255
-0.383462 -0.484527 -0.196269 127 0 255
0.00617232 -0.480551 -0.236054 127 0 255
0.228975 -0.386837 -0.0797877 127 0 255
-0.116098 -0.476944 -0.0749858 127 0 255
0.0970085 -0.391068 -0.0761556 127 0 255
-0.067947 -0.483076 -0.119506 127 0 255
0.153067 -0.483385 -0.237409 127 0 255
-0.215188 -0.476119 -0.104737 127 0 255
-0.365918 -0.360158 -0.066066 127 0 255
0.161138 -0.481495 -0.297533 127 0 255
0.201115 -0.426348 -0.0682413 127 0 255
-0.184929 -0.399436 -0.084053 127 0 255
-0.425327 -0.362274 -0.150054 127 0 255
-0.0516621 -0.478599 -0.257123 127 0 255
-0.365608 -0.420286 -0.0736146 127 0 255
-0.214625 -0.32422 -0.0680803 127 0 255
0.0420155 -0.396286 -0.0640769 127 0 255
0.324673 -0.44979 -0.312544 127 0 255
-0.0725054 -0.472678 -0.067012 127 0 255
-0.0698685 -0.475976 -0.171897 127 0 255
-0.465883 -0.359385 -0.0920926 127 0 255
-0.453339 -0.452882 -0.0662382 127 0 255
-0.176223 -0.450885 -0.0619266 127 0 255
0.16523 -0.47131 -0.0672115 127 0 255
-0.487827 -0.337274 -0.162554 127 0 255
0.139303 -0.485516 -0.3423 127 0 255
-0.359023 -0.486523 -0.316384 127 0 255
-0.0700058 -0.324826 -0.0743951 127 0 255
0.179194 -0.483401 -0.206674 127 0 255
0.152714 -0.383806 -0.061787 127 0 255
0.0131324 -0.36155 -0.0692413 127 0 255
0.404902 -0.411967 -0.0783928 127 0 255
-0.238991 -0.481718 -0.139665 127 0 255
0.462173 -0.387285 -0.162548 127 0 255
0.312173 -0.38729 -0.337544 127 0 255
-0.117094 -0.483266 -0.167921 127 0 255
0.349673 -0.274785 -0.0625475 127 0 255
-0.269937 -0.33329 -0.0693039 127 0 255
0.365068 -0.3468 -0.0598108 127 0 255
0.387173 -0.387285 -0.162548 127 0 255
0.0786777 -0.484697 -0.340088 127 0 255
-0.313059 -0.483937 -0.175276 127 0 255
-0.0628271 -0.399797 -0.22504 127 0 255
0.0798709 -0.427331 -0.0759287 127 0 255
-0.477143 -0.408908 -0.105246 127 0 255
0.0871729 -0.424795 -0.350041 127 0 255
-0.250859 -0.403779 -0.0619858 127 0 255
0.313009 -0.438469 -0.0766658 127 0 255
0.282513 -0.366016 -0.0647381 127 0 255
-0.0256207 -0.325766 -0.062288 127 0 255
0.0274861 -0.452221 -0.0681214 127 0 255
0.0572762 -0.313265 -0.0658955 127 0 255
0.276358 -0.484623 -0.111256 127 0 255
-0.424505 -0.419398 -0.0675992 127 0 255
-0.375327 -0.349776 -0.187553 127 0 255
-0.166572 -0.482347 -0.124769 127 0 255
-0.132901 -0.325156 -0.0716076 127 0 255
-0.0803016 -0.399764 -0.0638199 127 0 255
0.262173 -0.437289 -0.250045 127 0 255
-0.290484 -0.461412 -0.0627609 127 0 255
0.0912526 -0.483876 -0.143565 127 0 255
0.162369 -0.484124 -0.133667 127 0 255
0.0322867 -0.482068 -0.248783 127 0 255
0.350915 -0.38475 -0.0661723 127 0 255
-0.453859 -0.328813 -0.090224 127 0 255
-0.152543 -0.382443 -0.0627493 127 0 255
0.112173 -0.349794 -0.137541 127 0 255
-0.0253271 -0.3873 -0.275037 127 0 255
0.146215 -0.342747 -0.0656827 127 0 255
-0.30671 -0.400352 -0.0901491 127 0 255
-0.104816 -0.482635 -0.11673 127 0 255
0.214154 -0.470617 -0.0692032 127 0 255
0.399373 -0.473786 -0.125599 127 0 255
-0.413881 -0.362914 -0.0977262 127 0 255
0.239715 -0.306616 -0.0702043 127 0 255
-0.0171857 -0.443298 -0.0664031 127 0 255
0.119279 -0.426107 -0.0754469 127 0 255
-0.278978 -0.483379 -0.0971993 127 0 255
0.0121729 -0.387301 -0.212537 127 0 255
-0.346281 -0.483726 -0.118944 127 0 255
0.324673 -0.399789 -0.287545 127 0 255
0.0647987 -0.478052 -0.0670329 127 0 255
0.287173 -0.437291 -0.362544 127 0 255
0.0755078 -0.362578 -0.0693959 127 0 255
-0.336479 -0.463306 -0.0657802 127 0 255
-0.200327 -0.424787 -0.150045 127 0 255
0.309082 -0.470126 -0.0645371 127 0 255
0.324673 -0.437285 -0.150047 127 0 255
0.259772 -0.482536 -0.263451 127 0 255
0.13089 -0.484196 -0.0963463 127 0 255
0.237173 -0.387288 -0.225045 127 0 255
-0.444485 -0.483308 -0.0823344 127 0 255
0.197749 -0.352182 -0.0703227 127 0 255
0.254565 -0.444552 -0.0690714 127 0 255
0.149673 -0.387292 -0.200043 127 0 255
-0.341065 -0.33464 -0.0687185 127 0 255
0.387173 -0.437285 -0.162547 127 0 255
-0.0378271 -0.287301 -0.0875368 127 0 255
-0.0883828 -0.357872 -0.0620035 127 0 255
-0.0213475 -0.477588 -0.247104 127 0 255
-0.219797 -0.448731 -0.0814978 127 0 255
-0.291709 -0.484485 -0.198632 127 0 255
-0.446648 -0.483663 -0.289635 127 0 255
0.274673 -0.362284 -0.125048 127 0 255
-0.133774 -0.448936 -0.062841 127 0 255
-0.387827 -0.337279 -0.137551 127 0 255
-0.23846 -0.378243 -0.0597584 127 0 255
0.023824 -0.371945 -0.113902 127 0 255
0.462173 -0.424784 -0.137548 127 0 255
0.224673 -0.437291 -0.300044 127 0 255
-0.125327 -0.387289 -0.162544 127 0 255
0.305596 -0.314077 -0.0702278 127 0 255
0.388746 -0.456394 -0.0739138 127 0 255
0.274673 -0.437286 -0.200047 127 0 255
0.0307516 -0.476453 -0.110012 127 0 255
0.298349 -0.397637 -0.068851 127 0 255
-0.500327 -0.487274 -0.200054 127 0 255
0.343649 -0.482904 -0.206179 127 0 255
-0.0151846 -0.376323 -0.0674687 127 0 255
-0.433484 -0.300296 -0.0803188 127 0 255
0.137173 -0.387291 -0.337543 127 0 255
0.124673 -0.287293 -0.0875425 127 0 255
-0.188208 -0.363563 -0.0629616 127 0 255
0.289122 -0.482863 -0.223228 127 0 255
0.172807 -0.417406 -0.074731 127 0 255
0.112173 -0.387294 -0.237541 127 0 255
0.051859 -0.474664 -0.327986 127 0 255
-0.054898 -0.36523 -0.0921915 127 0 255
0.123379 -0.484956 -0.308819 127 0 255
-0.155468 -0.479214 -0.176422 127 0 255
-0.290269 -0.48356 -0.130779 127 0 255
0.426363 -0.46478 -0.0974454 127 0 255
0.262173 -0.387289 -0.275044 127 0 255
-0.325532 -0.376097 -0.0626281 127 0 255
-0.38491 -0.469096 -0.0695531 127 0 255
0.0746729 -0.362298 -0.150039 127 0 255
0.437173 -0.374784 -0.137548 127 0 255
-0.353243 -0.484272 -0.172442 127 0 255
-0.412827 -0.337274 -0.187554 127 0 255
0.123572 -0.483563 -0.181769 127 0 255
0.060283 -0.481772 -0.255688 127 0 255
-0.159047 -0.325904 -0.0731374 127 0 255
0.383158 -0.391761 -0.0666666 127 0 255
0.187173 -0.387288 -0.162545 127 0 255
0.238855 -0.41087 -0.079058 127 0 255
0.15405 -0.317163 -0.0640292 127 0 255
0.0371729 -0.287298 -0.0875392 127 0 255
-0.0851432 -0.44196 -0.0642204 127 0 255
-0.395613 -0.395776 -0.0739903 127 0 255
-0.188451 -0.470262 -0.0673582 127 0 255
-0.461804 -0.414625 -0.0735086 127 0 255
0.274673 -0.437284 -0.125048 127 0 255
-0.0316873 -0.480218 -0.0744458 127 0 255
0.0621729 -0.387299 -0.200038 127 0 255
-0.302681 -0.343926 -0.0586088 127 0 255
0.00940469 -0.430003 -0.0665579 127 0 255
0.390115 -0.350609 -0.0795702 127 0 255
0.110481 -0.477338 -0.0722443 127 0 255
0.0872503 -0.316507 -0.0702556 127 0 255
-0.0857639 -0.379972 -0.0929577 127 0 255
0.329126 -0.32837 -0.0583493 127 0 255
-0.157537 -0.419667 -0.0670624 127 0 255
0.257549 -0.334682 -0.0582175 127 0 255
0.324673 -0.399786 -0.225047 127 0 255
0.349673 -0.487288 -0.262545 127 0 255
0.0748511 -0.483529 -0.29211 127 0 255
0.187173 -0.337288 -0.125046 127 0 255
0.344384 -0.434366 -0.075348 127 0 255
-0.346804 -0.483978 -0.318176 127 0 255
0.159844 -0.483788 -0.169508 127 0 255
-0.00709221 -0.329036 -0.0750228 127 0 255
-0.487827 -0.324774 -0.0625543 127 0 255
0.189955 -0.475628 -0.118901 127 0 255
0.249673 -0.424791 -0.362543 127 0 255
-0.0373323 -0.415918 -0.0658893 127 0 255
0.299673 -0.387285 -0.175048 127 0 255
-0.315789 -0.445171 -0.0689004 127 0 255
0.0510839 -0.338977 -0.0768419 127 0 255
-0.228846 -0.329151 -0.0661617 127 0 255
-0.123704 -0.38979 -0.0620235 127 0 255
0.15512 -0.484206 -0.233352 127 0 255
-0.387781 -0.345619 -0.0854836 127 0 255
0.219292 -0.316166 -0.0570699 127 0 255
0.118802 -0.480364 -0.338716 127 0 255
0.424673 -0.474786 -0.175047 127 0 255
0.0496729 -0.387298 -0.262539 127 0 255
0.299673 -0.43729 -0.287544 127 0 255
-0.256309 -0.477585 -0.103014 127 0 255
-0.0378271 -0.387301 -0.187537 127 0 255
0.116429 -0.378836 -0.0684572 127 0 255
0.187173 -0.387289 -0.225045 127 0 255
0.260283 -0.472715 -0.0629949 127 0 255
-0.0504132 -0.478795 -0.262564 127 0 255
-0.476962 -0.47474 -0.105958 127 0 255
-0.112127 -0.483342 -0.167793 127 0 255
0.147492 -0.436695 -0.0748048 127 0 255
-0.377881 -0.483877 -0.103034 127 0 255
0.0852372 -0.484037 -0.15421 127 0 255
-0.0878714 -0.32243 -0.0605778 127 0 255
0.0569418 -0.446134 -0.0682592 127 0 255
-0.276187 -0.396228 -0.0629603 127 0 255
-0.0378271 -0.412299 -0.337538 127 0 255
-0.200061 -0.410738 -0.063279 127 0 255
-0.361475 -0.427922 -0.0693006 127 0 255
-0.07056 -0.483106 -0.120343 127 0 255
0.240886 -0.368279 -0.063785 127 0 255
0.0267809 -0.483286 -0.0826981 127 0 255
-0.141961 -0.481479 -0.102297 127 0 255
-0.500327 -0.487274 -0.287554 127 0 255
0.137173 -0.387292 -0.262543 127 0 255
-0.435617 -0.395632 -0.0689752 127 0 255
0.165824 -0.372123 -0.0613056 127 0 255
0.026303 -0.39497 -0.0643131 127 0 255
0.279623 -0.483647 -0.109688 127 0 255
-0.00333707 -0.481937 -0.266965 127 0 255
0.462173 -0.474784 -0.112548 127 0 255
0.409738 -0.425489 -0.0845724 127 0 255
0.249673 -0.349784 -0.137548 127 0 255
0.199673 -0.274786 -0.0625465 127 0 255
-0.351735 -0.374853 -0.0764269 127 0 255
0.332069 -0.382609 -0.0671536 127 0 255
-0.278122 -0.439909 -0.0645704 127 0 255
-0.12923 -0.372318 -0.0922249 127 0 255
-0.432005 -0.439266 -0.0656682 127 0 255
0.19256 -0.404833 -0.072013 127 0 255
-0.450327 -0.337274 -0.150054 127 0 255
-0.0905686 -0.476054 -0.0727622 127 0 255
-0.284766 -0.483995 -0.190545 127 0 255
-0.284527 -0.36438 -0.0773524 127 0 255
-0.0128271 -0.387301 -0.237537 127 0 255
0.276552 -0.387529 -0.0674067 127 0 255
0.212173 -0.437291 -0.325044 127 0 255
-0.47631 -0.40577 -0.100537 127 0 255
-0.176291 -0.35107 -0.079342 127 0 255
0.350257 -0.324016 -0.0754201 127 0 255
0.100425 -0.349783 -0.0679251 127 0 255
0.0666888 -0.410199 -0.0659993 127 0 255
-0.348882 -0.48189 -0.159443 127 0 255
0.388297 -0.472942 -0.0805559 127 0 255
0.236145 -0.480566 -0.2701 127 0 255
-0.455167 -0.482065 -0.0765011 127 0 255
0.462173 -0.424785 -0.175047 127 0 255
-0.445209 -0.341071 -0.0725184 127 0 255
0.176239 -0.483429 -0.203833 127 0 255
0.347167 -0.47922 -0.199591 127 0 255
0.112253 -0.483781 -0.126184 127 0 255
-0.177211 -0.478624 -0.0855496 127 0 255
-0.250181 -0.463547 -0.063185 127 0 255
0.282315 -0.445405 -0.0686041 127 0 255
-0.0540114 -0.332367 -0.078319 127 0 255
0.324673 -0.462291 -0.337544 127 0 255
-0.327609 -0.468703 -0.0952399 127 0 255
-0.163035 -0.396132 -0.0881631 127 0 255
-0.393671 -0.445118 -0.0655766 127 0 255
0.215595 -0.467993 -0.0815885 127 0 255
0.286655 -0.48144 -0.231811 127 0 255
0.401012 -0.37641 -0.0861767 127 0 255
0.274673 -0.437285 -0.162547 127 0 255
0.0418145 -0.367474 -0.100738 127 0 255
0.26972 -0.314355 -0.0730126 127 0 255
-0.0893872 -0.424737 -0.0657884 127 0 255
0.404966 -0.481387 -0.125137 127 0 255
0.162173 -0.36229 -0.150044 127 0 255
0.187173 -0.38729 -0.275044 127 0 255
-0.0349894 -0.380237 -0.0661489 127 0 255
0.0932702 -0.446873 -0.0676628 127 0 255
-0.0628271 -0.412297 -0.175039 127 0 255
-0.239794 -0.421737 -0.0642704 127 0 255
-0.217005 -0.356988 -0.0729895 127 0 255
0.0871729 -0.387295 -0.275041 127 0 255
-0.409977 -0.308651 -0.066684 127 0 255
-0.079254 -0.475019 -0.164119 127 0 255
0.361927 -0.424792 -0.0757953 127 0 255
0.00755029 -0.325356 -0.0640044 127 0 255
-0.410026 -0.368033 -0.0686158 127 0 255
0.337173 -0.437287 -0.250046 127 0 255
-0.273394 -0.334226 -0.0660219 127 0 255
-0.150402 -0.478814 -0.183112 127 0 255
-0.500327 -0.487274 -0.250054 127 0 255
0.287173 -0.387287 -0.237546 127 0 255
-0.187827 -0.399786 -0.162545 127 0 255
-0.141384 -0.355164 -0.066397 127 0 255
0.137301 -0.484743 -0.3427 127 0 255
0.067429 -0.483883 -0.0777969 127 0 255
0.165677 -0.458107 -0.0683414 127 0 255
-0.044987 -0.443278 -0.0669988 127 0 255
0.193884 -0.318825 -0.0597665 127 0 255
0.226977 -0.424961 -0.0791049 127 0 255
0.161825 -0.477753 -0.15394 127 0 255
-0.437827 -0.337274 -0.200054 127 0 255
-0.309141 -0.417335 -0.0683667 127 0 255
0.307505 -0.421154 -0.0700692 127 0 255
-0.487827 -0.337274 -0.125054 127 0 255
-0.0932704 -0.471464 -0.112665 127 0 255
-0.357278 -0.486499 -0.315724 127 0 255
-0.0628271 -0.412297 -0.125039 127 0 255
0.137173 -0.412292 -0.350043 127 0 255
0.0418384 -0.48179 -0.254991 127 0 255
0.356442 -0.467682 -0.0736878 127 0 255
0.274673 -0.38729 -0.312544 127 0 255
-0.466367 -0.452059 -0.075003 127 0 255
-0.213033 -0.457163 -0.0628153 127 0 255
0.118347 -0.408079 -0.0672072 127 0 255
0.0796708 -0.482721 -0.29676 127 0 255
-0.149042 -0.464612 -0.0651508 127 0 255
-0.461429 -0.482771 -0.116477 127 0 255
-0.34966 -0.35235 -0.078257 127 0 255
-0.316881 -0.48404 -0.186733 127 0 255
-0.0628271 -0.399796 -0.27504 127 0 255
0.126365 -0.342416 -0.0717273 127 0 255
-0.487827 -0.387274 -0.0625543 127 0 255
0.132861 -0.484199 -0.0954727 127 0 255
0.00103271 -0.455272 -0.0664924 127 0 255
0.072362 -0.360942 -0.0915711 127 0 255
0.262173 -0.437291 -0.325044 127 0 255
0.310131 -0.338722 -0.0594677 127 0 255
0.211474 -0.377018 -0.079139 127 0 255
-0.182937 -0.329772 -0.0589136 127 0 255
0.212173 -0.362287 -0.150046 127 0 255
-0.305949 -0.48447 -0.124368 127 0 255
0.125208 -0.484327 -0.303304 127 0 255
0.373873 -0.338615 -0.0661028 127 0 255
-0.0104262 -0.406445 -0.0650768 127 0 255
-0.0107876 -0.483929 -0.246118 127 0 255
0.287173 -0.274784 -0.0625483 127 0 255
0.324673 -0.48729 -0.312544 127 0 255
-0.0442849 -0.481827 -0.0823414 127 0 255
-0.0128271 -0.337301 -0.112537 127 0 255
-0.370529 -0.484215 -0.172975 127 0 255
-0.0923637 -0.354538 -0.0619844 127 0 255
-0.378813 -0.404677 -0.0691045 127 0 255
-0.445404 -0.311331 -0.0837262 127 0 255
0.122227 -0.48361 -0.180218 127 0 255
0.0871729 -0.387294 -0.337542 127 0 255
0.0871729 -0.387297 -0.21254 127 0 255
-0.119045 -0.437277 -0.0657761 127 0 255
0.387173 -0.387285 -0.162548 127 0 255
-0.381116 -0.483891 -0.104118 127 0 255
0.180225 -0.484217 -0.125505 127 0 255
0.324673 -0.449785 -0.162547 127 0 255
0.2762 -0.3658 -0.0781049 127 0 255
0.152422 -0.3181 -0.0637186 127 0 255
0.0649053 -0.472112 -0.335834 127 0 255
-0.110129 -0.483362 -0.138667 127 0 255
0.0383148 -0.409356 -0.0788315 127 0 255
0.166925 -0.360456 -0.0774881 127 0 255
0.312173 -0.38729 -0.337544 127 0 255
-0.0807757 -0.37457 -0.095013 127 0 255
0.0444371 -0.473753 -0.103294 127 0 255
0.383529 -0.403586 -0.0670733 127 0 255
0.374673 -0.487287 -0.237546 127 0 255
-0.219054 -0.475072 -0.0859836 127 0 255
-0.169398 -0.429698 -0.06909 127 0 255
0.274108 -0.483825 -0.114354 127 0 255
0.0121729 -0.3873 -0.262537 127 0 255
-0.0628271 -0.399795 -0.325041 127 0 255
0.154109 -0.41826 -0.0669913 127 0 255
0.04021 -0.314315 -0.0642131 127 0 255
-0.412827 -0.337274 -0.137554 127 0 255
0.237324 -0.470691 -0.0698031 127 0 255
0.137173 -0.387291 -0.300043 127 0 255
-0.0492506 -0.331866 -0.0621409 127 0 255
-0.323587 -0.357926 -0.0563731 127 0 255
0.0121729 -0.387301 -0.200037 127 0 255
-0.156559 -0.483305 -0.109746 127 0 255
-0.300327 -0.299785 -0.0625456 127 0 255
-0.283037 -0.468308 -0.0653591 127 0 255
-0.208611 -0.392181 -0.0619298 127 0 255
0.26577 -0.482543 -0.239226 127 0 255
-0.348455 -0.446022 -0.0726954 127 0 255
0.099673 -0.362296 -0.150041 127 0 255
0.237173 -0.387289 -0.275045 127 0 255
-0.25462 -0.344272 -0.0760801 127 0 255
0.339874 -0.398918 -0.0789238 127 0 255
-0.0588156 -0.40657 -0.0659457 127 0 255
-0.113508 -0.469599 -0.0662575 127 0 255
-0.0628271 -0.399797 -0.22504 127 0 255
0.462173 -0.449784 -0.125048 127 0 255
-0.0450035 -0.483932 -0.252234 127 0 255
0.312173 -0.387289 -0.287545 127 0 255
-0.448988 -0.389426 -0.0737249 127 0 255
0.318021 -0.470251 -0.0730344 127 0 255
-0.120484 -0.329893 -0.0626568 127 0 255
0.099673 -0.287294 -0.0875416 127 0 255
-0.375327 -0.349776 -0.187553 127 0 255
0.223058 -0.349483 -0.0705704 127 0 255
-0.386857 -0.325332 -0.077575 127 0 255
0.0180915 -0.366301 -0.0699506 127 0 255
-0.120596 -0.381436 -0.0964388 127 0 255
0.099673 -0.424794 -0.350042 127 0 255
0.101347 -0.467851 -0.0652231 127 0 255
-0.258722 -0.477176 -0.102538 127 0 255
-0.285389 -0.483561 -0.177467 127 0 255
-0.500327 -0.487274 -0.200054 127 0 255
0.3956 -0.355981 -0.0915186 127 0 255
-0.487827 -0.337274 -0.162554 127 0 255
-0.000327101 -0.287299 -0.0875381 127 0 255
-0.349325 -0.483106 -0.110956 127 0 255
0.0496729 -0.387296 -0.33754 127 0 255
0.168417 -0.483485 -0.196677 127 0 255
0.299673 -0.424791 -0.362544 127 0 255
-0.443309 -0.48307 -0.091459 127 0 255
0.291938 -0.315523 -0.0585433 127 0 255
0.409005 -0.430909 -0.0809768 127 0 255
-0.0147874 -0.47964 -0.0754667 127 0 255
-0.466699 -0.338515 -0.0824464 127 0 255
0.192561 -0.438433 -0.0706497 127 0 255
-0.0128271 -0.4123 -0.337538 127 0 255
0.267663 -0.401528 -0.0699586 127 0 255
0.231611 -0.313306 -0.057321 127 0 255
-0.250388 -0.43302 -0.0758612 127 0 255
0.0360342 -0.440137 -0.0796676 127 0 255
-0.407805 -0.424531 -0.0671297 127 0 255
0.320273 -0.358015 -0.0705391 127 0 255
0.237173 -0.387288 -0.225045 127 0 255
-0.0628271 -0.287299 -0.0875383 127 0 255
0.0617185 -0.482107 -0.264797 127 0 255
0.0807971 -0.371841 -0.069563 127 0 255
-0.221725 -0.328174 -0.0704126 127 0 255
-0.269868 -0.382187 -0.0627264 127 0 255
0.149673 -0.387292 -0.187543 127 0 255
-0.127223 -0.483263 -0.160351 127 0 255
-0.472033 -0.425119 -0.0809881 127 0 255
0.112379 -0.484147 -0.140744 127 0 255
-0.367954 -0.382066 -0.0680737 127 0 255
0.0496729 -0.337299 -0.125038 127 0 255
0.409094 -0.470104 -0.113396 127 0 255
-0.065082 -0.448765 -0.0633419 127 0 255
0.139535 -0.449351 -0.0659756 127 0 255
-0.121091 -0.400769 -0.0622464 127 0 255
0.199673 -0.387288 -0.175045 127 0 255
0.0838803 -0.423413 -0.0757301 127 0 255
-0.403563 -0.461691 -0.0764769 127 0 255
-0.317233 -0.416268 -0.0744524 127 0 255
0.236587 -0.439904 -0.066665 127 0 255
0.262173 -0.437289 -0.250045 127 0 255
0.324673 -0.399785 -0.175047 127 0 255
0.0136616 -0.481841 -0.250588 127 0 255
-0.170833 -0.369144 -0.0633058 127 0 255
0.120447 -0.314939 -0.0692132 127 0 255
-0.0497146 -0.366953 -0.0643649 127 0 255
0.145648 -0.399168 -0.0765105 127 0 255
-0.201852 -0.427427 -0.0737095 127 0 255
-0.450327 -0.362274 -0.150054 127 0 255
-0.354468 -0.486536 -0.317056 127 0 255
0.185449 -0.310805 -0.0690116 127 0 255
0.0119274 -0.363801 -0.0990541 127 0 255
-0.200327 -0.424787 -0.150045 127 0 255
0.324673 -0.449788 -0.275045 127 0 255
-0.0844263 -0.321228 -0.0722794 127 0 255
0.352135 -0.461827 -0.0681823 127 0 255
0.174398 -0.475304 -0.115148 127 0 255
0.139997 -0.485492 -0.340608 127 0 255
-0.152936 -0.478786 -0.183313 127 0 255
-0.315929 -0.369398 -0.0792096 127 0 255
-0.422131 -0.297002 -0.070185 127 0 255
-0.0897424 -0.469076 -0.102396 127 0 255
0.0389122 -0.484627 -0.091534 127 0 255
-0.416361 -0.373969 -0.0687633 127 0 255
-0.326394 -0.463088 -0.0667832 127 0 255
0.0685768 -0.335055 -0.0742798 127 0 255
0.240641 -0.378393 -0.0798047 127 0 255
-0.285376 -0.483494 -0.121303 127 0 255
0.287173 -0.437291 -0.312544 127 0 255
0.294891 -0.432036 -0.074706 127 0 255
0.138062 -0.478085 -0.158521 127 0 255
0.1861 -0.377051 -0.0652187 127 0 255
0.349913 -0.372998 -0.0726109 127 0 255
-0.0330681 -0.421777 -0.0770255 127 0 255
-0.162827 -0.387287 -0.162545 127 0 255
0.0770782 -0.483968 -0.320805 127 0 255
0.387173 -0.424785 -0.150047 127 0 255
-0.352936 -0.483993 -0.15791 127 0 255
0.174673 -0.38729 -0.250044 127 0 255
0.162493 -0.483192 -0.224067 127 0 255
-0.375327 -0.349781 -0.13755 127 0 255
0.312173 -0.387287 -0.250046 127 0 255
-0.145705 -0.328291 -0.0638915 127 0 255
-0.0857998 -0.481504 -0.154486 127 0 255
0.424673 -0.474786 -0.175047 127 0 255
-0.178438 -0.47027 -0.0674532 127 0 255
0.0371729 -0.3873 -0.212538 127 0 255
-0.0116232 -0.323268 -0.0731774 127 0 255
0.251583 -0.472725 -0.0844955 127 0 255
0.449673 -0.387285 -0.175048 127 0 255
0.0922525 -0.483709 -0.159148 127 0 255
0.385713 -0.4715 -0.0729969 127 0 255
0.0892659 -0.481839 -0.0766201 127 0 255
-0.23743 -0.403221 -0.0615531 127 0 255
0.372341 -0.333956 -0.0697305 127 0 255
-0.400327 -0.337274 -0.200054 127 0 255
-0.0936826 -0.411589 -0.0640542 127 0 255
0.0077248 -0.389144 -0.0645468 127 0 255
-0.500327 -0.487274 -0.112554 127 0 255
-0.119872 -0.466208 -0.0915647 127 0 255
0.122897 -0.379789 -0.0753051 127 0 255
-0.0462386 -0.481918 -0.265895 127 0 255
0.249673 -0.424791 -0.362543 127 0 255
0.274673 -0.387286 -0.212547 127 0 255
0.349673 -0.274785 -0.0750475 127 0 255
-0.173284 -0.378171 -0.0878517 127 0 255
0.37797 -0.431821 -0.0694616 127 0 255
-0.398851 -0.343951 -0.07274 127 0 255
0.337173 -0.487288 -0.275045 127 0 255
-0.466677 -0.453543 -0.0752508 127 0 255
0.163337 -0.467668 -0.0682724 127 0 255
0.26645 -0.309431 -0.0623864 127 0 255
0.306509 -0.382907 -0.0787654 127 0 255
0.107724 -0.478468 -0.312403 127 0 255
0.324673 -0.449791 -0.350044 127 0 255
-0.292564 -0.469811 -0.0911235 127 0 255
-0.0378271 -0.3873 -0.250037 127 0 255
-0.356765 -0.425046 -0.0692533 127 0 255
0.137173 -0.387292 -0.237543 127 0 255
-0.0518263 -0.355684 -0.0891113 127 0 255
0.3056 -0.472146 -0.0754412 127 0 255
-0.45256 -0.330758 -0.0912221 127 0 255
0.00410023 -0.452459 -0.0669298 127 0 255
-0.290825 -0.485429 -0.174789 127 0 255
0.274673 -0.437286 -0.187547 127 0 255
0.194948 -0.342619 -0.0636379 127 0 255
0.212173 -0.38729 -0.287544 127 0 255
0.201276 -0.461545 -0.0832261 127 0 255
-0.338996 -0.337945 -0.0636007 127 0 255
-0.140036 -0.421641 -0.0724816 127 0 255
0.21383 -0.402211 -0.0710102 127 0 255
0.0326178 -0.335549 -0.0743342 127 0 255
0.0635859 -0.481897 -0.287243 127 0 255
-0.462827 -0.337274 -0.187554 127 0 255
-0.332858 -0.482992 -0.122294 127 0 255
-0.276564 -0.42593 -0.0661953 127 0 255
0.099673 -0.387294 -0.287541 127 0 255
-0.116064 -0.372551 -0.0625604 127 0 255
0.224673 -0.437291 -0.300044 127 0 255
0.331671 -0.428824 -0.0706758 127 0 255
-0.244324 -0.476699 -0.0973492 127 0 255
-0.274489 -0.336666 -0.0634629 127 0 255
0.0861233 -0.318528 -0.070147 127 0 255
0.112173 -0.387295 -0.187541 127 0 255
-0.441845 -0.416748 -0.0670519 127 0 255
0.162173 -0.34979 -0.137544 127 0 255
0.0621729 -0.362299 -0.150039 127 0 255
-0.0378271 -0.387301 -0.187537 127 0 255
0.321658 -0.3289 -0.0587286 127 0 255
0.269065 -0.483453 -0.104727 127 0 255
0.0992376 -0.406349 -0.0694665 127 0 255
0.124673 -0.387292 -0.337543 127 0 255
0.324673 -0.399789 -0.312544 127 0 255
0.237173 -0.274784 -0.0625478 127 0 255
0.149673 -0.287291 -0.0875438 127 0 255
-0.20013 -0.355842 -0.0748354 127 0 255
0.166174 -0.481883 -0.156437 127 0 255
0.0491109 -0.478821 -0.070173 127 0 255
0.145151 -0.353957 -0.0661975 127 0 255
-0.143096 -0.481624 -0.106276 127 0 255
0.415899 -0.46438 -0.081586 127 0 255
-0.385071 -0.36563 -0.0955264 127 0 255
0.462173 -0.424785 -0.175047 127 0 255
-0.312282 -0.392559 -0.0650864 127 0 255
-0.500327 -0.487274 -0.250054 127 0 255
0.122882 -0.483834 -0.12575 127 0 255
-0.211022 -0.452286 -0.0627349 127 0 255
0.274269 -0.362476 -0.0770606 127 0 255
0.399695 -0.371702 -0.0851022 127 0 255
-0.0420269 -0.480611 -0.0791512 127 0 255
0.134891 -0.471632 -0.0684235 127 0 255
-0.368532 -0.469766 -0.0727022 127 0 255
0.265254 -0.437453 -0.0701911 127 0 255
-0.462861 -0.479623 -0.0774481 127 0 255
0.0502617 -0.395198 -0.0750137 127 0 255
0.399673 -0.387285 -0.175047 127 0 255
0.0496729 -0.387298 -0.250039 127 0 255
