ply
format ascii 1.0
comment Created by Open3D
element vertex 1201
property double x
property double y
property double z
property uchar red
property uchar green
property uchar blue
end_header
-0.0178069 -0.22881 -0.212165 127 0 255
-0.0782995 -0.434917 -0.224704 127 0 255
-0.111799 -0.0463371 -0.18652 127 0 255
0.0671939 -0.122926 -0.204865 127 0 255
-0.268436 -0.026882 -0.260745 127 0 255
-0.305164 -0.149315 -0.35453 127 0 255
0.230461 -0.0927445 -0.16736 127 0 255
0.113823 0.0568021 -0.191497 99 43 254
0.303717 -0.0996792 -0.165118 127 0 255
-0.298566 -0.216246 -0.24881 127 0 255
-0.00833428 -0.0633543 -0.20837 127 0 255
0.149969 -0.156353 -0.173375 127 0 255
-0.30067 -0.0478912 -0.194233 127 0 255
-0.222102 -0.365161 -0.182276 127 0 255
-0.0688112 -0.109139 -0.1805 127 0 255
0.390809 -0.128668 -0.208167 127 0 255
0.223687 -0.255461 -0.20761 127 0 255
-0.295218 -0.450653 -0.257509 127 0 255
0.160562 -0.238936 -0.163733 127 0 255
0.389042 -0.253947 -0.161278 127 0 255
-0.158226 0.0823454 -0.26358 85 65 252
-0.22358 -0.483599 -0.263801 127 0 255
-0.305811 0.0437905 -0.265286 105 34 254
-0.296692 -0.00526359 -0.356364 127 0 255
-0.220823 -0.244956 -0.211269 127 0 255
-0.299125 -0.0973841 -0.261826 127 0 255
0.36423 -0.0824087 -0.163793 127 0 255
0.240043 -0.0627538 -0.20757 127 0 255
0.162353 -0.374427 -0.188239 127 0 255
-0.301502 -0.378351 -0.242675 127 0 255
0.0505379 -0.201354 -0.165664 127 0 255
-0.284886 -0.439726 -0.34635 127 0 255
0.065853 -0.0631781 -0.21114 127 0 255
-0.0824548 -0.393424 -0.148801 127 0 255
-0.0329139 -0.360146 -0.207137 127 0 255
0.0639881 0.040223 -0.182073 107 31 254
-0.158995 -0.4691 -0.197361 127 0 255
0.46696 -0.170941 -0.198317 127 0 255
-0.168612 -0.337288 -0.182656 127 0 255
-0.246592 -0.112944 -0.212468 127 0 255
-0.224047 0.0712729 -0.19273 91 56 253
-0.223842 -0.483568 -0.322631 127 0 255
0.111641 -0.337714 -0.172483 127 0 255
0.0347459 -0.193206 -0.214528 127 0 255
0.190738 -0.181814 -0.172715 127 0 255
0.00214299 -0.275148 -0.187685 127 0 255
0.185882 0.0466729 -0.186337 105 34 254
0.0303479 -0.393476 -0.148762 127 0 255
-0.153766 0.0725344 -0.337503 91 56 253
-0.232701 0.0729677 -0.338187 91 56 253
-0.0315383 -0.33763 -0.140719 127 0 255
-0.285538 0.000256636 -0.190607 127 0 255
0.247744 -0.032402 -0.16071 127 0 255
-0.157103 -0.0251464 -0.18979 127 0 255
-0.299821 -0.261115 -0.280004 127 0 255
-0.27576 0.0226126 -0.302242 117 15 254
0.269246 -0.290296 -0.166713 127 0 255
0.112173 -0.412275 -0.200054 127 0 255
0.45883 -0.111357 -0.165684 127 0 255
-0.306901 -0.457427 -0.184712 127 0 255
0.0830052 -0.30409 -0.20438 127 0 255
0.435851 -0.260036 -0.157067 127 0 255
-0.303403 -0.339295 -0.353095 127 0 255
-0.0748017 0.0725367 -0.322749 91 56 253
0.277128 -0.170923 -0.168078 127 0 255
-0.0753269 -0.487276 -0.187554 127 0 255
-0.0145112 -0.0164295 -0.18676 127 0 255
-0.312768 -0.349776 -0.217947 127 0 255
-0.0565631 -0.181216 -0.154649 127 0 255
-0.273499 -0.297488 -0.246439 127 0 255
-0.11038 -0.152303 -0.182845 127 0 255
0.434688 -0.227878 -0.205501 127 0 255
0.293951 -0.0664867 -0.20621 127 0 255
0.337636 0.0151158 -0.144831 121 9 254
-0.0511689 -0.428376 -0.18081 127 0 255
-0.292213 0.0896147 -0.343663 83 68 252
0.050284 -0.39242 -0.206566 127 0 255
0.164854 -0.0748544 -0.176151 127 0 255
-0.0913268 -0.263033 -0.206152 127 0 255
-0.242941 -0.0729749 -0.190497 127 0 255
0.126903 -0.278069 -0.154732 127 0 255
-0.305994 -0.171832 -0.315194 127 0 255
0.136806 -0.133481 -0.205712 127 0 255
0.327547 -0.155706 -0.207151 127 0 255
-0.219662 0.0807605 -0.257715 87 62 253
-0.0712967 0.0430932 -0.184397 105 34 254
0.281765 -0.339602 -0.195273 127 0 255
-0.28967 -0.395597 -0.300033 127 0 255
0.0931994 -0.0048079 -0.211333 127 0 255
-0.0240736 0.0742963 -0.221963 89 59 253
-0.165223 -0.249674 -0.180591 127 0 255
-0.0713632 -0.0368464 -0.183657 127 0 255
0.324914 -0.278463 -0.204635 127 0 255
0.336262 -0.0261784 -0.178138 127 0 255
-0.148012 -0.377464 -0.276505 127 0 255
-0.256202 -0.330836 -0.181547 127 0 255
-0.189023 -0.367733 -0.204705 127 0 255
0.292313 -0.207456 -0.194947 127 0 255
-0.151799 -0.453497 -0.257123 127 0 255
-0.208497 -0.0325544 -0.191181 127 0 255
-0.300599 -0.473291 -0.299937 127 0 255
0.0142589 -0.353628 -0.206255 127 0 255
-0.123507 0.0734593 -0.204381 91 56 253
-0.176915 -0.165186 -0.209593 127 0 255
0.191233 -0.14402 -0.205883 127 0 255
0.212776 -0.296784 -0.170136 127 0 255
-0.300763 -0.415996 -0.240408 127 0 255
-0.279155 -0.124915 -0.272748 127 0 255
0.109595 -0.242051 -0.205147 127 0 255
-0.297875 -0.0625668 -0.352719 127 0 255
-0.0628024 -0.327659 -0.183073 127 0 255
-0.157659 -0.0864438 -0.20844 127 0 255
0.451578 -0.182782 -0.163033 127 0 255
0.326314 -0.104729 -0.205237 127 0 255
-0.296806 -0.225926 -0.194314 127 0 255
-0.207209 -0.412363 -0.198324 127 0 255
-0.00807278 0.0729985 -0.26012 91 56 253
-0.0141218 -0.168175 -0.214934 127 0 255
-0.112827 -0.487274 -0.275054 127 0 255
-0.264102 -0.185119 -0.278113 127 0 255
-0.303728 -0.0268513 -0.240631 127 0 255
-0.170976 -0.290966 -0.208239 127 0 255
-0.239839 -0.422917 -0.260893 127 0 255
-0.0832562 -0.204877 -0.185941 127 0 255
-0.0514036 -0.382098 -0.179094 127 0 255
0.148954 -0.194636 -0.20044 127 0 255
-0.104701 -0.101711 -0.208189 127 0 255
-0.210447 -0.45969 -0.222562 127 0 255
0.382755 -0.179547 -0.165453 127 0 255
-0.168409 0.0699457 -0.190982 93 53 253
0.0578207 -0.301242 -0.180401 127 0 255
0.394598 -0.116527 -0.165496 127 0 255
0.210551 -0.0756716 -0.206593 127 0 255
0.280526 -0.016438 -0.183986 127 0 255
0.13907 -0.0212224 -0.211188 127 0 255
-0.106743 -0.390812 -0.201686 127 0 255
0.0723575 -0.156172 -0.214322 127 0 255
-0.273122 -0.408846 -0.183341 127 0 255
-0.291216 -0.025574 -0.328493 127 0 255
-0.259074 -0.483447 -0.282213 127 0 255
-0.287692 0.0747962 -0.213056 89 59 253
0.101005 -0.0401672 -0.177701 127 0 255
0.353333 -0.301605 -0.15244 127 0 255
-0.0796441 0.0842314 -0.285175 85 65 252
-0.093607 -0.454219 -0.23612 127 0 255
0.290882 -0.250446 -0.206991 127 0 255
-0.308888 -0.262213 -0.219488 127 0 255
0.209313 -0.351253 -0.196801 127 0 255
-0.259314 0.0147322 -0.220803 121 9 254
0.00671459 0.0610073 -0.186481 97 46 253
-0.225327 -0.487274 -0.375054 127 0 255
-0.115284 -0.326946 -0.202884 127 0 255
-0.30603 -0.310939 -0.321362 127 0 255
-0.0773737 -0.2878 -0.143764 127 0 255
-0.216743 -0.447366 -0.29116 127 0 255
-0.260417 -0.0485496 -0.215673 127 0 255
0.391744 -0.0207467 -0.148752 127 0 255
-0.239546 -0.322926 -0.274656 127 0 255
0.0740683 -0.0973789 -0.1707 127 0 255
-0.0113813 -0.419945 -0.173111 127 0 255
-0.032602 -0.0990164 -0.181405 127 0 255
0.230009 -0.0243338 -0.210934 127 0 255
-0.0425074 -0.247652 -0.210657 127 0 255
0.223701 -0.198916 -0.207409 127 0 255
-0.300647 -0.428736 -0.311747 127 0 255
0.0512426 -0.253082 -0.15675 127 0 255
-0.28666 -0.118821 -0.335352 127 0 255
-0.219907 -0.321809 -0.204626 127 0 255
-0.21043 -0.209715 -0.184228 127 0 255
0.135261 -0.285626 -0.200236 127 0 255
-0.0780126 -0.141833 -0.206087 127 0 255
0.363891 -0.255125 -0.20751 127 0 255
-0.304834 -0.0820439 -0.202947 127 0 255
0.0540204 -0.0323502 -0.212957 127 0 255
-0.0160424 0.0164033 -0.187074 119 12 254
0.419449 -0.108212 -0.207583 127 0 255
0.348884 -0.133567 -0.172012 127 0 255
-0.275483 -0.448063 -0.226096 127 0 255
-0.152234 -0.183869 -0.181163 127 0 255
0.182817 0.0178217 -0.185056 119 12 254
-0.303466 -0.133475 -0.224119 127 0 255
-0.280099 -0.353867 -0.18381 127 0 255
0.393242 -0.288985 -0.151793 127 0 255
0.192059 -0.142218 -0.171503 127 0 255
0.0316819 -0.151639 -0.180777 127 0 255
0.239134 -0.337543 -0.165845 127 0 255
0.0110314 -0.307901 -0.216191 127 0 255
-0.128286 0.0216628 -0.184351 117 15 254
0.274691 -0.293568 -0.20115 127 0 255
-0.213267 -0.402233 -0.279024 127 0 255
0.455329 -0.083668 -0.167389 127 0 255
-0.197095 0.00414953 -0.18872 125 3 254
-0.204971 -0.119966 -0.187854 127 0 255
-0.308224 -0.246666 -0.326441 127 0 255
-0.023565 -0.193134 -0.187419 127 0 255
0.242889 -0.259033 -0.170941 127 0 255
-0.130378 -0.416727 -0.164326 127 0 255
0.0810078 0.062834 -0.193934 95 49 253
0.10941 -0.360025 -0.204851 127 0 255
0.104388 -0.178062 -0.206125 127 0 255
-0.104521 0.0803803 -0.236558 87 62 253
-0.0622563 0.00466212 -0.210048 125 3 254
0.0205019 -0.0814835 -0.184399 127 0 255
0.145181 0.052868 -0.188803 101 40 254
-0.0510873 -0.281721 -0.182667 127 0 255
-0.077567 -0.0571055 -0.209567 127 0 255
-0.303757 -0.00447213 -0.2822 127 0 255
0.356335 -0.0505847 -0.156597 127 0 255
0.248914 -0.132524 -0.203765 127 0 255
-0.252853 -0.261032 -0.183938 127 0 255
0.313088 -0.198196 -0.16755 127 0 255
-0.303491 -0.0586152 -0.297314 127 0 255
-0.230604 -0.170749 -0.18316 127 0 255
-0.131143 -0.14488 -0.207156 127 0 255
0.305749 -0.310637 -0.156522 127 0 255
-0.300916 -0.386291 -0.35058 127 0 255
-0.265828 0.0777923 -0.305938 89 59 253
0.408456 -0.0798861 -0.164928 127 0 255
0.188248 -0.273161 -0.206422 127 0 255
0.127422 -0.217428 -0.16741 127 0 255
0.137482 -0.373293 -0.165497 127 0 255
-0.125377 -0.229988 -0.207068 127 0 255
0.352851 -0.0679832 -0.205179 127 0 255
-0.239276 -0.396635 -0.182319 127 0 255
0.373541 -0.216437 -0.209205 127 0 255
-0.0510198 0.081426 -0.25319 87 62 253
-0.01366 -0.371822 -0.13997 127 0 255
-0.066505 -0.196407 -0.212457 127 0 255
0.0407804 0.0172628 -0.188384 119 12 254
-0.0190108 -0.269296 -0.148832 127 0 255
-0.309001 -0.312257 -0.224771 127 0 255
0.238722 -0.167676 -0.169403 127 0 255
-0.293731 0.0288616 -0.355999 113 21 254
0.267455 -0.0909102 -0.168762 127 0 255
0.196254 -0.0818124 -0.175499 127 0 255
0.136273 -0.00828462 -0.172873 127 0 255
-0.282002 -0.0725289 -0.243987 127 0 255
0.187501 -0.321706 -0.159501 127 0 255
-0.0524748 0.069305 -0.196275 93 53 253
0.329757 -0.246598 -0.166232 127 0 255
-0.261153 -0.483135 -0.208951 127 0 255
-0.282226 -0.152093 -0.194244 127 0 255
-0.312827 -0.487274 -0.362554 127 0 255
-0.137827 -0.487274 -0.237554 127 0 255
0.382296 -0.150068 -0.209125 127 0 255
-0.254142 0.0599625 -0.240168 97 46 253
-0.171675 -0.368777 -0.18261 127 0 255
-0.138001 -0.0530832 -0.211905 127 0 255
0.137074 -0.0623949 -0.209007 127 0 255
0.0643436 -0.208784 -0.205898 127 0 255
-0.297414 -0.19145 -0.270863 127 0 255
-0.17417 0.073349 -0.238327 91 56 253
-0.0318028 -0.145225 -0.158673 127 0 255
-0.174657 -0.146474 -0.176405 127 0 255
-0.0269844 -0.319715 -0.205615 127 0 255
0.075506 -0.415995 -0.181597 127 0 255
0.188274 -0.0333878 -0.170077 127 0 255
-0.115439 0.0845451 -0.301431 85 65 252
-0.0253269 -0.47478 -0.187551 127 0 255
-0.207757 0.0728649 -0.338603 91 56 253
0.152287 -0.336597 -0.207208 127 0 255
0.106609 -0.345276 -0.147329 127 0 255
0.0101803 -0.373321 -0.176318 127 0 255
-0.270876 -0.348874 -0.258589 127 0 255
-0.0726128 -0.433227 -0.179054 127 0 255
0.283966 -0.0440449 -0.159969 127 0 255
0.255957 -0.236051 -0.207839 127 0 255
-0.188687 -0.479392 -0.193478 127 0 255
0.41366 -0.283962 -0.194363 127 0 255
0.0381299 -0.226006 -0.161845 127 0 255
0.0115731 -0.271091 -0.215481 127 0 255
0.0942641 -0.118979 -0.204827 127 0 255
-0.043982 -0.0889054 -0.210402 127 0 255
-0.100327 0.0752256 -0.362554 89 59 253
0.456337 -0.157979 -0.163797 127 0 255
-0.298072 -0.118138 -0.296201 127 0 255
0.437173 -0.0622744 -0.212554 127 0 255
-0.195051 0.0824241 -0.279693 85 65 252
-0.137901 -0.273812 -0.181141 127 0 255
-0.305006 0.0151383 -0.23001 121 9 254
0.156064 -0.261064 -0.15847 127 0 255
0.00591502 -0.205294 -0.214204 127 0 255
-0.098604 -0.354991 -0.20677 127 0 255
-0.201908 -0.248875 -0.191667 127 0 255
-0.279186 -0.194715 -0.2108 127 0 255
-0.178632 0.0435167 -0.191448 105 34 254
0.10747 0.0194356 -0.183257 119 12 254
0.0745932 -0.266643 -0.181973 127 0 255
-0.302269 -0.429112 -0.348916 127 0 255
-0.130977 -0.444633 -0.208585 127 0 255
0.111073 -0.0725212 -0.178414 127 0 255
0.0431649 -0.352533 -0.205819 127 0 255
-0.280012 -0.243307 -0.244839 127 0 255
-0.306552 -0.265306 -0.353912 127 0 255
-0.266506 -0.0993577 -0.194955 127 0 255
-0.290844 -0.333364 -0.302388 127 0 255
0.453535 -0.215929 -0.199002 127 0 255
0.291906 -0.135918 -0.207417 127 0 255
-0.0547822 -0.42049 -0.216834 127 0 255
-0.141534 -0.0845068 -0.185176 127 0 255
-0.00925235 -0.00468389 -0.212035 127 0 255
-0.0533294 0.0726014 -0.315582 91 56 253
-0.290433 -0.185904 -0.335282 127 0 255
-0.25643 -0.440442 -0.179689 127 0 255
-0.150327 -0.487274 -0.300054 127 0 255
-0.0343923 -0.142663 -0.211949 127 0 255
0.396998 -0.234939 -0.162628 127 0 255
0.0990444 -0.165399 -0.173186 127 0 255
-0.239742 -0.0251605 -0.210931 127 0 255
-0.0102761 -0.396235 -0.203532 127 0 255
0.206909 -0.23047 -0.167793 127 0 255
-0.267223 -0.363079 -0.216357 127 0 255
0.164541 -0.105858 -0.205309 127 0 255
-0.30535 0.0424155 -0.28792 107 31 254
-0.18033 -0.427603 -0.180414 127 0 255
0.0393288 -0.108586 -0.208213 127 0 255
-0.139268 0.0731121 -0.252724 91 56 253
-0.305392 -0.375977 -0.319939 127 0 255
-0.0101873 -0.235647 -0.155078 127 0 255
-0.100244 -0.257825 -0.180933 127 0 255
-0.2729 -0.298463 -0.22449 127 0 255
0.215477 -0.111523 -0.204907 127 0 255
-0.232933 -0.224856 -0.211679 127 0 255
0.108744 -0.292215 -0.183163 127 0 255
-0.217098 -0.45947 -0.324119 127 0 255
-0.318099 -0.377171 -0.20535 127 0 255
-0.152022 -0.00783908 -0.206474 127 0 255
0.189364 -0.353228 -0.162595 127 0 255
-0.0705246 -0.13781 -0.178343 127 0 255
0.424718 -0.180189 -0.211412 127 0 255
0.333896 -0.202985 -0.20689 127 0 255
-0.186103 -0.315165 -0.205504 127 0 255
0.244626 -0.0558408 -0.164735 127 0 255
-0.293357 -0.473267 -0.181229 127 0 255
-0.103006 0.0670779 -0.193488 93 53 253
-0.18576 -0.433319 -0.269282 127 0 255
0.0303791 -0.281115 -0.181749 127 0 255
0.0582206 -0.0183819 -0.188783 127 0 255
0.191556 -0.315983 -0.205636 127 0 255
0.422252 -0.139247 -0.163935 127 0 255
0.298475 -0.152265 -0.167702 127 0 255
-0.300165 -0.153339 -0.257066 127 0 255
0.0727427 -0.377482 -0.198985 127 0 255
0.234339 -0.279483 -0.201002 127 0 255
-0.23149 0.0237718 -0.190619 115 18 254
-0.0529992 -0.21449 -0.179395 127 0 255
-0.0867139 -0.393082 -0.180119 127 0 255
-0.299673 -0.296108 -0.286354 127 0 255
-0.303305 -0.319495 -0.35399 127 0 255
-0.111995 -0.022069 -0.188285 127 0 255
0.00161632 -0.0556037 -0.211372 127 0 255
-0.294899 -0.0321425 -0.18972 127 0 255
0.210486 -0.164059 -0.206907 127 0 255
-0.207192 -0.082639 -0.190506 127 0 255
-0.293381 -0.252739 -0.188359 127 0 255
-0.230765 0.0733872 -0.217319 91 56 253
0.408292 -0.250855 -0.208272 127 0 255
0.276818 -0.325885 -0.15939 127 0 255
0.0478726 -0.370902 -0.144761 127 0 255
0.00916836 0.0730944 -0.257815 91 56 253
-0.300002 -0.370468 -0.267031 127 0 255
-0.286405 0.0646391 -0.361684 95 49 253
-0.295153 0.0815508 -0.288829 87 62 253
0.199722 -0.237232 -0.207277 127 0 255
0.389951 -0.0501529 -0.206776 127 0 255
-0.228372 -0.141685 -0.21183 127 0 255
0.126691 -0.383591 -0.205746 127 0 255
-0.288876 -0.451478 -0.276353 127 0 255
0.189788 -0.0534958 -0.207536 127 0 255
0.358041 -0.257085 -0.163293 127 0 255
0.0249045 -0.333344 -0.179828 127 0 255
-0.00795842 -0.446603 -0.193163 127 0 255
-0.242532 -0.483182 -0.248101 127 0 255
-0.277396 0.00886017 -0.258523 123 6 254
0.13195 -0.298161 -0.152475 127 0 255
-0.299556 -0.23743 -0.27688 127 0 255
0.0978228 -0.243775 -0.159959 127 0 255
-0.125327 -0.487274 -0.187554 127 0 255
0.310481 -0.000540397 -0.150196 127 0 255
-0.309177 -0.111667 -0.236074 127 0 255
0.346572 -0.301029 -0.195396 127 0 255
-0.096437 -0.0930133 -0.183938 127 0 255
-0.306841 -0.217173 -0.356467 127 0 255
0.0707364 -0.0545781 -0.177942 127 0 255
-0.151079 -0.351131 -0.206175 127 0 255
-0.0153421 -0.176041 -0.159379 127 0 255
-0.276847 -0.0723466 -0.276362 127 0 255
-0.123897 -0.446187 -0.245081 127 0 255
-0.299553 -0.0946422 -0.352872 127 0 255
0.225556 -0.125949 -0.169305 127 0 255
-0.268419 -0.420648 -0.244415 127 0 255
-0.236687 -0.285378 -0.205469 127 0 255
0.237773 0.00144783 -0.185946 127 0 255
0.0199164 -0.161613 -0.208515 127 0 255
0.320301 -0.0807004 -0.205074 127 0 255
-0.279551 -0.47158 -0.338417 127 0 255
-0.299345 0.0263226 -0.201609 115 18 254
-0.303375 0.0147661 -0.3144 121 9 254
-0.228409 -0.483242 -0.183778 127 0 255
0.0598145 0.0623817 -0.210256 97 46 253
0.257182 -0.175001 -0.207587 127 0 255
-0.041144 -0.0557748 -0.211532 127 0 255
-0.0310879 -0.413636 -0.159649 127 0 255
-0.154325 0.0725549 -0.333948 91 56 253
-0.19084 -0.0445033 -0.209286 127 0 255
-0.26165 0.0560942 -0.272404 99 43 254
-0.00687035 -0.107885 -0.210561 127 0 255
-0.305164 -0.405572 -0.190855 127 0 255
-0.0348697 0.0517168 -0.184064 101 40 254
-0.174595 -0.186986 -0.209297 127 0 255
-0.141192 -0.30525 -0.208095 127 0 255
0.145797 0.00273172 -0.210665 127 0 255
0.281098 -0.242973 -0.169117 127 0 255
-0.220801 -0.369628 -0.20493 127 0 255
0.3441 -0.108824 -0.165947 127 0 255
-0.0289282 -0.356328 -0.18045 127 0 255
0.352026 -0.183041 -0.167016 127 0 255
-0.286059 -0.482634 -0.239864 127 0 255
-0.0944851 0.0206621 -0.207253 117 15 254
-0.10943 -0.438154 -0.173774 127 0 255
0.44469 -0.204653 -0.162075 127 0 255
0.094682 -0.210584 -0.199559 127 0 255
-0.303253 -0.197135 -0.227406 127 0 255
0.172368 -0.201065 -0.173459 127 0 255
0.0848326 -0.329352 -0.176269 127 0 255
-0.295129 -0.331626 -0.190652 127 0 255
0.047405 -0.240705 -0.205844 127 0 255
-0.101494 -0.174486 -0.184231 127 0 255
0.0236352 -0.396581 -0.204628 127 0 255
-0.228125 -0.48386 -0.297192 127 0 255
-0.192883 0.0713194 -0.19086 91 56 253
-0.216034 0.0730029 -0.302326 91 56 253
0.154559 -0.336506 -0.167891 127 0 255
-0.305255 -0.15049 -0.323758 127 0 255
-0.299367 -0.0412088 -0.352114 127 0 255
-0.146874 -0.403784 -0.199811 127 0 255
-0.261773 0.071912 -0.201164 91 56 253
-0.263276 -0.289993 -0.26726 127 0 255
0.442976 -0.114051 -0.20694 127 0 255
0.0820475 -0.0783935 -0.207276 127 0 255
-0.0687372 -0.307825 -0.206814 127 0 255
0.268751 -0.0898387 -0.2059 127 0 255
0.205806 -0.00967976 -0.210452 127 0 255
-0.0613832 -0.264201 -0.146073 127 0 255
0.174513 -0.103158 -0.16918 127 0 255
0.248653 -0.212429 -0.174555 127 0 255
0.317866 -0.292289 -0.1605 127 0 255
-0.189553 -0.462525 -0.248165 127 0 255
-0.247824 0.0729377 -0.339315 91 56 253
0.246956 -0.33666 -0.187637 127 0 255
-0.272714 -0.209487 -0.273146 127 0 255
-0.0395431 0.0839139 -0.297991 85 65 252
-0.144024 -0.130891 -0.207201 127 0 255
0.433173 -0.268407 -0.157252 127 0 255
-0.282234 -0.28963 -0.181577 127 0 255
0.0238033 0.0608998 -0.189012 97 46 253
-0.200327 -0.487274 -0.350054 127 0 255
-0.0756949 -0.0199623 -0.211114 127 0 255
0.35807 -0.151252 -0.206997 127 0 255
-0.206202 -0.432071 -0.304995 127 0 255
-0.165381 -0.231304 -0.209458 127 0 255
-0.149773 0.078158 -0.217106 87 62 253
-0.200346 -0.327283 -0.181591 127 0 255
-0.155097 0.0838204 -0.290609 85 65 252
0.389101 -0.0129376 -0.147062 127 0 255
-0.079438 -0.349561 -0.183172 127 0 255
0.19289 -0.273726 -0.1731 127 0 255
-0.301778 -0.0488511 -0.225546 127 0 255
-0.239436 -0.193888 -0.206863 127 0 255
0.0955922 -0.0328378 -0.211702 127 0 255
-0.306746 -0.438183 -0.214325 127 0 255
0.0311365 -0.192322 -0.182035 127 0 255
0.382281 -0.145913 -0.16642 127 0 255
0.135184 -0.262239 -0.203667 127 0 255
-0.0672618 0.0729767 -0.257413 91 56 253
-0.0538957 -0.269904 -0.205342 127 0 255
-0.303476 -0.27008 -0.247392 127 0 255
0.305903 -0.174453 -0.207749 127 0 255
-0.00645574 -0.0795399 -0.181899 127 0 255
0.116903 -0.126873 -0.181595 127 0 255
-0.0555462 -0.177511 -0.212701 127 0 255
0.397587 -0.207667 -0.19116 127 0 255
0.291682 -0.0273953 -0.190601 127 0 255
-0.109614 -0.418709 -0.209818 127 0 255
0.115664 -0.31415 -0.202525 127 0 255
0.17677 -0.0175602 -0.171489 127 0 255
0.287995 -0.108459 -0.1662 127 0 255
-0.296598 0.0631056 -0.241671 95 49 253
0.381815 -0.0731626 -0.161778 127 0 255
0.029063 -0.409393 -0.172661 127 0 255
-0.202542 -0.281338 -0.18076 127 0 255
-0.0302548 0.0198198 -0.20785 117 15 254
-0.294119 -0.408733 -0.264574 127 0 255
0.0606759 -0.143542 -0.180221 127 0 255
0.0970741 -0.390874 -0.172214 127 0 255
-0.124931 -0.208543 -0.206764 127 0 255
-0.270959 -0.1242 -0.19437 127 0 255
0.345934 -0.029677 -0.177852 127 0 255
-0.307107 -0.2755 -0.324674 127 0 255
0.245736 -0.0288924 -0.211184 127 0 255
-0.237645 -0.0334375 -0.191108 127 0 255
-0.230658 -0.447973 -0.248757 127 0 255
-0.102108 -0.293143 -0.206198 127 0 255
-0.14525 0.0475906 -0.187935 103 37 254
-0.292428 0.0900669 -0.341975 81 71 252
-0.292753 -0.216923 -0.315016 127 0 255
-0.205147 -0.396284 -0.182639 127 0 255
-0.105904 -0.0539053 -0.211491 127 0 255
-0.200128 -0.161581 -0.20729 127 0 255
-0.240765 -0.334467 -0.20831 127 0 255
0.160004 -0.167354 -0.199647 127 0 255
0.231937 -0.290807 -0.169308 127 0 255
-0.308316 -0.462813 -0.345776 127 0 255
0.304377 -0.244557 -0.206915 127 0 255
-0.17205 -0.448045 -0.216791 127 0 255
-0.286609 0.0163439 -0.341705 119 12 254
-0.28796 -0.0676339 -0.313632 127 0 255
0.0216512 -0.0392921 -0.181339 127 0 255
-0.011365 -0.308316 -0.182234 127 0 255
0.355597 -0.106333 -0.204656 127 0 255
-0.0176178 -0.232438 -0.189284 127 0 255
0.00898673 -0.13798 -0.181254 127 0 255
0.151162 -0.0489369 -0.176771 127 0 255
-0.287435 -0.482622 -0.281426 127 0 255
-0.0799082 -0.238607 -0.187805 127 0 255
0.139889 0.0546993 -0.189796 99 43 254
-0.249495 -0.479637 -0.333425 127 0 255
0.136346 -0.201557 -0.171181 127 0 255
0.104774 -0.013635 -0.175588 127 0 255
-0.113437 0.0729464 -0.270707 91 56 253
-0.301575 -0.326197 -0.252416 127 0 255
0.168858 -0.293792 -0.205093 127 0 255
-0.0455015 -0.437549 -0.212307 127 0 255
0.0442425 0.0005576 -0.210338 127 0 255
-0.301564 -0.164267 -0.295649 127 0 255
0.426489 -0.157534 -0.211144 127 0 255
-0.265934 -0.00867228 -0.234401 127 0 255
-0.223947 -0.433734 -0.180726 127 0 255
-0.301224 -0.155914 -0.196845 127 0 255
-0.30724 -0.349244 -0.324908 127 0 255
-0.179242 -0.0934929 -0.190061 127 0 255
-0.024976 -0.356515 -0.140378 127 0 255
-0.113536 0.0840736 -0.33217 85 65 252
-0.134376 -0.36561 -0.183781 127 0 255
0.288382 -0.190794 -0.167682 127 0 255
-0.261791 -0.398478 -0.209758 127 0 255
-0.230224 -0.483216 -0.212343 127 0 255
-0.0744815 0.077446 -0.216941 89 59 253
0.203765 -0.176856 -0.171725 127 0 255
-0.074226 -0.10797 -0.20751 127 0 255
0.285297 -0.30658 -0.195391 127 0 255
-0.173445 0.00335712 -0.205615 127 0 255
0.144051 -0.120107 -0.205685 127 0 255
-0.304333 -0.138868 -0.351656 127 0 255
0.200019 0.0237939 -0.183141 115 18 254
-0.049488 -0.0217037 -0.184828 127 0 255
-0.12622 -0.314632 -0.18268 127 0 255
-0.21333 0.0732705 -0.254926 91 56 253
0.0116822 0.0710217 -0.228803 91 56 253
-0.0878269 -0.487274 -0.225054 127 0 255
0.413225 -0.0895582 -0.206718 127 0 255
0.0218876 -0.384847 -0.143556 127 0 255
-0.165913 -0.268596 -0.209696 127 0 255
0.0475099 -0.294616 -0.201287 127 0 255
0.362649 -0.282477 -0.194984 127 0 255
-0.124336 -0.11038 -0.185424 127 0 255
-0.302889 -0.0218439 -0.282125 127 0 255
-0.301481 -0.423073 -0.312659 127 0 255
-0.265582 0.0232315 -0.190875 117 15 254
-0.0523134 -0.376229 -0.208679 127 0 255
-0.317312 -0.323705 -0.205711 127 0 255
0.0615657 -0.146798 -0.213938 127 0 255
0.00497236 0.00526151 -0.187647 125 3 254
-0.301866 -0.103277 -0.195962 127 0 255
-0.0196148 0.0832914 -0.280086 85 65 252
0.247295 -0.0237007 -0.159325 127 0 255
-0.304147 -0.237685 -0.229349 127 0 255
0.457938 -0.109439 -0.165717 127 0 255
0.0835146 -0.259364 -0.202601 127 0 255
-0.158699 -0.421718 -0.173629 127 0 255
-0.0503269 0.0752256 -0.350054 89 59 253
-0.240294 -0.410436 -0.267334 127 0 255
0.461878 -0.190478 -0.198732 127 0 255
0.42074 -0.22885 -0.161777 127 0 255
-0.239621 -0.0982184 -0.211914 127 0 255
-0.176757 -0.22783 -0.18083 127 0 255
0.323292 -0.139341 -0.167159 127 0 255
0.0341761 -0.0713513 -0.210849 127 0 255
0.29203 -0.0594427 -0.206255 127 0 255
0.156876 -0.304551 -0.153263 127 0 255
-0.277505 0.05698 -0.322888 99 43 254
0.202479 -0.0534343 -0.170032 127 0 255
0.361132 -0.299849 -0.152759 127 0 255
0.346192 -0.229742 -0.206791 127 0 255
-0.240439 -0.354562 -0.181581 127 0 255
-0.155662 -0.0359896 -0.189748 127 0 255
0.220981 -0.321641 -0.201711 127 0 255
-0.223577 0.0254604 -0.207379 115 18 254
0.152362 -0.221726 -0.202279 127 0 255
0.0163489 -0.246981 -0.185486 127 0 255
-0.299459 -0.00264108 -0.197164 127 0 255
-0.261533 0.0135173 -0.281597 121 9 254
-0.300771 -0.0664143 -0.260139 127 0 255
0.122186 -0.1596 -0.20582 127 0 255
0.0707245 -0.101705 -0.170943 127 0 255
0.388306 -0.180208 -0.209398 127 0 255
-0.0272561 0.0721307 -0.207608 91 56 253
0.156562 -0.351735 -0.202889 127 0 255
0.0959987 0.0367385 -0.18382 109 28 254
0.364836 -0.210722 -0.164992 127 0 255
-0.299057 -0.197672 -0.194626 127 0 255
0.43368 -0.240396 -0.202832 127 0 255
0.0494845 -0.324156 -0.17925 127 0 255
0.219111 -0.210788 -0.207469 127 0 255
0.41997 -0.168561 -0.163578 127 0 255
0.15616 -0.0733516 -0.207393 127 0 255
-0.166302 -0.310175 -0.182477 127 0 255
-0.0713526 -0.286972 -0.143496 127 0 255
-0.288672 -0.101872 -0.312657 127 0 255
-0.272834 -0.247249 -0.209674 127 0 255
-0.15511 -0.452033 -0.25994 127 0 255
-0.299652 -0.40884 -0.348992 127 0 255
0.230054 -0.0994434 -0.204849 127 0 255
-0.0385749 -0.0524035 -0.183651 127 0 255
0.07165 -0.372538 -0.150573 127 0 255
0.34975 -0.0751798 -0.162791 127 0 255
-0.0728252 -0.449849 -0.197374 127 0 255
0.357694 -0.00816432 -0.147541 127 0 255
-0.264125 -0.479634 -0.182307 127 0 255
-0.297586 -0.014755 -0.355433 127 0 255
-0.258829 -0.318266 -0.181013 127 0 255
-0.290041 -0.255022 -0.292946 127 0 255
-0.142297 -0.199379 -0.184049 127 0 255
0.261603 -0.136702 -0.176252 127 0 255
0.175098 -0.248871 -0.175201 127 0 255
-0.173781 -0.393683 -0.199698 127 0 255
0.170731 -0.126854 -0.170961 127 0 255
-0.299342 -0.374673 -0.191477 127 0 255
0.265584 -0.274224 -0.200712 127 0 255
-0.276902 -0.0597174 -0.192608 127 0 255
-0.0143289 -0.193724 -0.157746 127 0 255
-0.266387 -0.336686 -0.241692 127 0 255
-0.0941679 0.00272732 -0.188094 127 0 255
-0.284493 -0.11269 -0.231721 127 0 255
0.158143 0.0173568 -0.18718 119 12 254
-0.0287262 -0.288635 -0.181868 127 0 255
0.0315679 -0.0979467 -0.180204 127 0 255
-0.242112 0.0802436 -0.25722 87 62 253
-0.288618 -0.373729 -0.279871 127 0 255
-0.083336 -0.0549394 -0.18448 127 0 255
-0.304352 -0.281465 -0.354196 127 0 255
-0.0683876 -0.150675 -0.17799 127 0 255
-0.00686823 -0.349731 -0.179792 127 0 255
-0.194184 0.0727775 -0.314141 91 56 253
-0.289791 0.0646913 -0.205114 95 49 253
0.0388712 -0.204647 -0.214357 127 0 255
0.409839 -0.0918268 -0.165102 127 0 255
-0.300725 -0.14216 -0.270793 127 0 255
-0.203352 -0.137395 -0.184816 127 0 255
-0.0187581 -0.398603 -0.146294 127 0 255
-0.112943 -0.41865 -0.161458 127 0 255
0.125854 -0.360875 -0.16039 127 0 255
0.102836 -0.0941193 -0.206769 127 0 255
-0.299762 -0.47655 -0.30861 127 0 255
-0.187827 -0.487274 -0.375054 127 0 255
0.396819 -0.283993 -0.153056 127 0 255
0.0724397 -0.397942 -0.196283 127 0 255
-0.113462 -0.247006 -0.182094 127 0 255
-0.275071 -0.427583 -0.21208 127 0 255
-0.0977571 0.0475378 -0.191837 103 37 254
0.0246731 -0.449778 -0.187552 127 0 255
0.0325816 0.0312163 -0.188546 113 21 254
-0.0379665 -0.11041 -0.180167 127 0 255
0.308552 -0.0139903 -0.152644 127 0 255
-0.30325 -0.350779 -0.351313 127 0 255
0.191565 -0.301616 -0.157709 127 0 255
-0.258197 -0.184601 -0.191769 127 0 255
0.321494 -0.230688 -0.167312 127 0 255
-0.0197088 -0.154249 -0.214584 127 0 255
-0.306902 -0.206504 -0.356766 127 0 255
0.374341 -0.0838383 -0.20375 127 0 255
-0.304489 -0.045404 -0.316405 127 0 255
-0.23452 -0.0490451 -0.211579 127 0 255
0.101665 -0.282478 -0.204424 127 0 255
-0.097003 -0.17441 -0.205982 127 0 255
-0.0383569 -0.405324 -0.211534 127 0 255
0.248972 -0.187555 -0.169302 127 0 255
0.213677 -0.0407443 -0.209293 127 0 255
-0.206178 -0.239991 -0.21084 127 0 255
-0.184853 -0.452975 -0.182269 127 0 255
0.120612 0.0071304 -0.210347 125 3 254
-0.0875507 0.0845219 -0.304455 85 65 252
-0.194113 -0.337972 -0.207887 127 0 255
-0.301586 -0.192246 -0.293034 127 0 255
-0.256245 -0.466485 -0.262424 127 0 255
0.452471 -0.147716 -0.208049 127 0 255
-0.304108 -0.0152275 -0.246804 127 0 255
-0.165197 0.0730318 -0.272354 91 56 253
0.311079 -0.124278 -0.206451 127 0 255
-0.291116 -0.312025 -0.307333 127 0 255
-0.193353 -0.07825 -0.210022 127 0 255
-0.207685 0.0717571 -0.194189 91 56 253
0.23421 -0.331358 -0.16138 127 0 255
0.258812 -0.2423 -0.169903 127 0 255
-0.274892 0.0389481 -0.245863 109 28 254
-0.0395916 -0.20839 -0.20361 127 0 255
0.108035 -0.335638 -0.204821 127 0 255
-0.113599 -0.351187 -0.183982 127 0 255
-0.302816 -0.16576 -0.228737 127 0 255
-0.29041 -0.474343 -0.216229 127 0 255
-0.313081 -0.406431 -0.216141 127 0 255
0.126343 -0.250625 -0.15997 127 0 255
0.0433297 -0.0355648 -0.212658 127 0 255
0.188206 -0.358393 -0.188744 127 0 255
0.128609 -0.0829001 -0.17837 127 0 255
-0.120022 -0.141402 -0.18404 127 0 255
-0.198411 -0.179688 -0.186341 127 0 255
-0.0632514 -0.390296 -0.178628 127 0 255
0.110617 -0.145612 -0.173205 127 0 255
-0.0244726 0.080228 -0.244975 87 62 253
-0.213901 -0.409402 -0.274456 127 0 255
0.335951 -0.272988 -0.205408 127 0 255
0.404653 -0.132384 -0.208901 127 0 255
0.217241 -0.138561 -0.205846 127 0 255
-0.12619 0.0029341 -0.206207 127 0 255
-0.120574 -0.0667064 -0.185305 127 0 255
-0.120386 0.0732357 -0.233424 91 56 253
0.0686535 -0.207308 -0.179156 127 0 255
-0.300225 0.0544579 -0.359395 101 40 254
0.167986 -0.00935351 -0.211115 127 0 255
-0.288239 -0.169248 -0.337088 127 0 255
0.329753 -0.0513764 -0.189985 127 0 255
-0.0069678 -0.0169899 -0.213078 127 0 255
-0.175327 -0.487274 -0.312554 127 0 255
0.287689 -0.321724 -0.157796 127 0 255
-0.305767 0.0501654 -0.279057 103 37 254
0.218633 -0.0853476 -0.171509 127 0 255
-0.0584158 -0.347954 -0.207371 127 0 255
0.014872 -0.132595 -0.208094 127 0 255
-0.252714 -0.483796 -0.307977 127 0 255
-0.309353 -0.346317 -0.225326 127 0 255
0.275798 -0.158436 -0.207761 127 0 255
0.391215 -0.264924 -0.193709 127 0 255
-0.196417 0.0201142 -0.188653 117 15 254
-0.175327 0.0752256 -0.362554 89 59 253
-0.208769 -0.480398 -0.183714 127 0 255
0.251383 -0.0716922 -0.207034 127 0 255
-0.182055 -0.129689 -0.209957 127 0 255
-0.299318 -0.0928534 -0.352848 127 0 255
0.0187356 -0.289555 -0.181742 127 0 255
-0.243829 -0.231297 -0.189932 127 0 255
-0.29944 -0.0946773 -0.277251 127 0 255
0.0577534 -0.101499 -0.208136 127 0 255
-0.149339 -0.447696 -0.182217 127 0 255
-0.0142924 -0.244935 -0.153398 127 0 255
0.0612231 0.046262 -0.182955 105 34 254
-0.289317 -0.432919 -0.290006 127 0 255
-0.278874 -0.035585 -0.28102 127 0 255
0.0887512 -0.00818798 -0.211242 127 0 255
-0.13973 -0.0987312 -0.207743 127 0 255
-0.186731 0.0733785 -0.230288 91 56 253
0.104146 -0.205109 -0.199593 127 0 255
0.408773 -0.217785 -0.210007 127 0 255
0.21166 -0.206296 -0.171917 127 0 255
-0.286797 0.0915965 -0.322997 81 71 252
-0.230614 -0.110269 -0.189782 127 0 255
0.145565 -0.381776 -0.187824 127 0 255
0.0721908 -0.354024 -0.184045 127 0 255
-0.240293 -0.424487 -0.181775 127 0 255
-0.14712 -0.280189 -0.20788 127 0 255
-0.0420835 0.0463706 -0.182992 105 34 254
0.255286 -0.239699 -0.207826 127 0 255
-0.274835 -0.275176 -0.252834 127 0 255
0.0403567 -0.160586 -0.174932 127 0 255
-0.215451 -0.460181 -0.287924 127 0 255
0.370315 -0.166654 -0.166694 127 0 255
-0.223012 -0.297017 -0.205311 127 0 255
0.27804 -0.00991062 -0.180203 127 0 255
0.387763 -0.0334025 -0.151418 127 0 255
-0.273728 -0.397407 -0.249971 127 0 255
-0.246753 -0.0148553 -0.190748 127 0 255
0.178725 -0.139972 -0.20577 127 0 255
-0.288709 -0.000889294 -0.317043 127 0 255
0.320457 -0.268796 -0.164994 127 0 255
-0.0921815 -0.290822 -0.186284 127 0 255
0.373078 -0.0513566 -0.206213 127 0 255
-0.233267 0.0730705 -0.295461 91 56 253
-0.305173 -0.386868 -0.320739 127 0 255
-0.184724 -0.0461084 -0.190591 127 0 255
-0.175327 -0.487274 -0.250054 127 0 255
-0.00249463 -0.44168 -0.196733 127 0 255
-0.303266 -0.0710474 -0.19944 127 0 255
0.444742 -0.146556 -0.162928 127 0 255
0.18101 0.0429294 -0.185523 107 31 254
-0.103823 -0.452814 -0.210136 127 0 255
-0.307451 -0.246968 -0.352216 127 0 255
-0.0482556 -0.119711 -0.208941 127 0 255
0.179473 -0.212539 -0.206975 127 0 255
0.327023 -0.170396 -0.206995 127 0 255
-0.0500896 -0.240202 -0.182371 127 0 255
0.305794 -0.109795 -0.165663 127 0 255
-0.307537 -0.295681 -0.229868 127 0 255
0.00985807 -0.357024 -0.203796 127 0 255
-0.275876 -0.147404 -0.212976 127 0 255
-0.141899 -0.166254 -0.207542 127 0 255
0.383862 -0.121791 -0.166145 127 0 255
-0.219548 -0.459177 -0.2323 127 0 255
-0.237827 -0.487274 -0.375054 127 0 255
-0.256285 -0.385868 -0.18592 127 0 255
-0.308387 -0.449593 -0.196347 127 0 255
-0.14392 0.0843099 -0.321816 85 65 252
-0.0565084 0.0103168 -0.209938 123 6 254
0.02058 -0.242014 -0.204278 127 0 255
-0.122439 -0.395113 -0.200698 127 0 255
0.151098 -0.180679 -0.175797 127 0 255
0.0421717 -0.414597 -0.184396 127 0 255
-0.125327 -0.487274 -0.287554 127 0 255
-0.00294441 0.0319287 -0.187407 111 25 254
-0.265378 0.0759846 -0.231281 89 59 253
0.220228 -0.273064 -0.164414 127 0 255
0.135492 -0.0302479 -0.210598 127 0 255
0.405451 -0.204597 -0.164248 127 0 255
-0.146585 0.0643832 -0.190865 95 49 253
-0.0888567 -0.202101 -0.185966 127 0 255
-0.0721838 -0.42986 -0.172517 127 0 255
-0.294016 -0.245247 -0.188245 127 0 255
0.303486 -0.205506 -0.167548 127 0 255
-0.0458387 -0.324105 -0.182527 127 0 255
-0.297813 -0.342072 -0.282688 127 0 255
-0.305046 0.0429965 -0.314755 105 34 254
-0.00347834 -0.0342594 -0.182308 127 0 255
-0.0301321 -0.171643 -0.157268 127 0 255
-0.0892694 0.0838051 -0.275653 85 65 252
0.265867 -0.0770823 -0.16649 127 0 255
-0.0696941 0.0668255 -0.192334 93 53 253
0.0780378 -0.318631 -0.203428 127 0 255
0.36286 -0.201734 -0.208071 127 0 255
-0.00747564 -0.117896 -0.180598 127 0 255
0.119235 -0.278548 -0.154729 127 0 255
-0.30285 -0.307492 -0.352062 127 0 255
-0.169602 -0.267677 -0.183112 127 0 255
0.0942511 -0.0584626 -0.210241 127 0 255
0.256213 -0.31676 -0.195197 127 0 255
-0.0628269 -0.487277 -0.200053 127 0 255
-0.0270834 -0.269559 -0.203559 127 0 255
-0.290422 -0.132904 -0.310181 127 0 255
0.15137 -0.315837 -0.204026 127 0 255
-0.305337 -0.229238 -0.311841 127 0 255
0.365948 -0.248551 -0.163587 127 0 255
-0.300664 0.0424539 -0.229567 107 31 254
-0.155993 0.0161265 -0.189397 119 12 254
-0.062816 -0.0648768 -0.21017 127 0 255
0.229448 -0.165765 -0.207172 127 0 255
-0.297711 -0.207812 -0.250553 127 0 255
0.027334 0.0634766 -0.211123 95 49 253
-0.140368 -0.238136 -0.207218 127 0 255
0.0959945 -0.142094 -0.202807 127 0 255
-0.26122 -0.309173 -0.266519 127 0 255
0.124618 0.0546761 -0.190401 101 40 254
0.223461 0.00399857 -0.186726 125 3 254
0.30694 -0.308016 -0.183535 127 0 255
-0.252401 -0.274797 -0.20545 127 0 255
-0.239645 0.0606553 -0.193071 97 46 253
0.109571 -0.252427 -0.205059 127 0 255
-0.165453 -0.191982 -0.180278 127 0 255
0.43064 -0.102839 -0.164234 127 0 255
-0.294564 -0.4536 -0.241111 127 0 255
-0.104119 -0.131676 -0.206777 127 0 255
-0.18041 -0.387132 -0.182172 127 0 255
0.02126 -0.195397 -0.177911 127 0 255
-0.0235024 -0.379679 -0.20267 127 0 255
-0.00332639 -0.0741115 -0.210698 127 0 255
0.0546053 -0.263357 -0.203074 127 0 255
-0.208483 0.0728812 -0.334449 91 56 253
0.101046 -0.386456 -0.19455 127 0 255
0.19048 -0.0827277 -0.205933 127 0 255
0.272407 -0.110591 -0.205988 127 0 255
-0.278476 -0.170211 -0.271747 127 0 255
-0.152526 -0.45996 -0.228269 127 0 255
0.162439 -0.25341 -0.197815 127 0 255
-0.285317 -0.449655 -0.340537 127 0 255
0.0399204 -0.365702 -0.174589 127 0 255
0.421147 -0.279212 -0.156533 127 0 255
0.343778 -0.0319672 -0.153792 127 0 255
0.139245 -0.0190304 -0.173728 127 0 255
-0.0532277 -0.276914 -0.144403 127 0 255
-0.271431 -0.456278 -0.17778 127 0 255
-0.298567 -0.0556864 -0.351771 127 0 255
-0.0726096 -0.249028 -0.205981 127 0 255
-0.283411 -0.37377 -0.221893 127 0 255
0.00574319 -0.411249 -0.164413 127 0 255
0.403646 -0.0714658 -0.206106 127 0 255
-0.153956 -0.338764 -0.183864 127 0 255
-0.0143435 -0.197946 -0.203893 127 0 255
-0.227261 -0.151 -0.211762 127 0 255
-0.304741 0.0211859 -0.268628 117 15 254
-0.0714001 -0.423327 -0.218023 127 0 255
-0.236178 -0.307241 -0.181181 127 0 255
0.0557788 -0.161261 -0.214139 127 0 255
-0.263382 -0.0662064 -0.215118 127 0 255
-0.0515692 0.073051 -0.247827 91 56 253
0.065773 0.0161127 -0.188993 119 12 254
-0.21016 -0.0250115 -0.209676 127 0 255
0.23165 -0.0534688 -0.173989 127 0 255
0.448016 -0.191495 -0.162523 127 0 255
0.196712 -0.344316 -0.202195 127 0 255
0.369865 -0.117771 -0.205679 127 0 255
0.213602 -0.150007 -0.170713 127 0 255
-0.154174 -0.072161 -0.209492 127 0 255
0.286261 -0.213779 -0.193242 127 0 255
0.0743701 -0.0684162 -0.179102 127 0 255
0.173499 -0.221224 -0.168658 127 0 255
-0.300222 -0.285606 -0.279025 127 0 255
0.00868762 0.0801 -0.253415 87 62 253
0.33733 -0.165664 -0.167752 127 0 255
-0.197529 -0.427895 -0.285949 127 0 255
0.0397674 -0.320319 -0.202821 127 0 255
-0.0260981 -0.377832 -0.141181 127 0 255
-0.203663 -0.422433 -0.197854 127 0 255
-0.139398 0.0833761 -0.270768 85 65 252
0.164769 -0.283565 -0.156298 127 0 255
0.432213 -0.202104 -0.209197 127 0 255
-0.299457 -8.05077e-05 -0.197523 127 0 255
-0.303128 -0.122444 -0.352931 127 0 255
-0.279381 0.0730102 -0.27911 91 56 253
-0.0477974 0.0726889 -0.302073 91 56 253
0.217334 -0.259574 -0.200243 127 0 255
0.263587 -0.301901 -0.164003 127 0 255
-0.269628 -0.214166 -0.206951 127 0 255
-0.210605 -0.353639 -0.181438 127 0 255
0.181559 -0.101247 -0.169011 127 0 255
0.429548 -0.239398 -0.159829 127 0 255
-0.302605 -0.0649117 -0.233831 127 0 255
0.142112 -0.338005 -0.169125 127 0 255
-0.0877328 0.0732612 -0.224594 91 56 253
-0.302807 -0.118662 -0.19524 127 0 255
-0.0862329 -0.020331 -0.21009 127 0 255
0.106833 -0.172698 -0.172908 127 0 255
0.358067 -0.300969 -0.153191 127 0 255
-0.294132 0.0449083 -0.195406 105 34 254
0.315066 -0.071922 -0.182155 127 0 255
-0.0518079 -0.175934 -0.183264 127 0 255
-0.29559 -0.291499 -0.195306 127 0 255
-0.0800355 -0.336912 -0.183481 127 0 255
0.435636 -0.105098 -0.206972 127 0 255
-0.237922 -0.483271 -0.224883 127 0 255
-0.0849207 -0.116367 -0.181249 127 0 255
-0.199423 -0.279359 -0.206429 127 0 255
0.0681579 0.0646794 -0.194585 95 49 253
-0.121621 -0.440398 -0.232609 127 0 255
-0.221539 -0.198529 -0.204133 127 0 255
0.165915 -0.0538444 -0.174854 127 0 255
-0.289343 -0.40265 -0.292296 127 0 255
0.0413436 -0.394379 -0.206091 127 0 255
-0.143033 -0.0357272 -0.207195 127 0 255
-0.30458 0.0203071 -0.345613 117 15 254
-0.00319457 -0.327928 -0.202282 127 0 255
0.277233 -0.052154 -0.207035 127 0 255
-0.293167 -0.283687 -0.319596 127 0 255
-0.301911 -0.37839 -0.349723 127 0 255
-0.25156 -0.470784 -0.332967 127 0 255
-0.195562 0.0731593 -0.273853 91 56 253
0.0964894 -0.363572 -0.154161 127 0 255
0.134849 -0.0941725 -0.205335 127 0 255
-0.232878 -0.0886068 -0.190392 127 0 255
-0.104534 0.0726754 -0.303871 91 56 253
-0.270244 -0.00221569 -0.278763 127 0 255
0.412809 -0.275908 -0.194006 127 0 255
0.288667 -0.282195 -0.200747 127 0 255
-0.253735 0.00729635 -0.214002 125 3 254
-0.06299 0.0243975 -0.181895 115 18 254
0.0763992 -0.284699 -0.180605 127 0 255
-0.277275 -0.246385 -0.268932 127 0 255
-0.284424 -0.482747 -0.255393 127 0 255
0.376789 -0.00508513 -0.145531 127 0 255
-0.0876923 -0.0781304 -0.209095 127 0 255
0.0605516 -0.0233707 -0.187117 127 0 255
0.127135 -0.226683 -0.201961 127 0 255
0.250153 -0.213564 -0.203645 127 0 255
-0.0790169 -0.377198 -0.181281 127 0 255
0.348625 -0.119118 -0.16672 127 0 255
-0.285445 -0.1335 -0.259804 127 0 255
-0.247962 -0.439615 -0.246797 127 0 255
-0.0460913 -0.297492 -0.204794 127 0 255
0.381996 -0.232681 -0.209303 127 0 255
-0.204733 0.0371727 -0.205951 109 28 254
-0.000625034 -0.155485 -0.179473 127 0 255
-0.0390496 -0.00925493 -0.211658 127 0 255
-0.13178 0.0344757 -0.203429 111 25 254
0.0769242 -0.233767 -0.180107 127 0 255
0.0603322 -0.119423 -0.175061 127 0 255
-0.273805 -0.343052 -0.217191 127 0 255
-0.165962 -0.103971 -0.189252 127 0 255
-0.116722 -0.286072 -0.206817 127 0 255
0.402291 -0.149424 -0.16496 127 0 255
-0.252267 -0.15016 -0.191283 127 0 255
0.0358011 -0.397953 -0.153788 127 0 255
0.225425 -0.24508 -0.168205 127 0 255
-0.30659 -0.471261 -0.32836 127 0 255
0.205974 -0.343176 -0.170497 127 0 255
-0.279206 -0.0374763 -0.252058 127 0 255
-0.187377 -0.476136 -0.199213 127 0 255
-0.0263604 -0.0777194 -0.183907 127 0 255
-0.3084 -0.198483 -0.326719 127 0 255
-0.315848 -0.430372 -0.199446 127 0 255
-0.183253 -0.22744 -0.207817 127 0 255
-0.233227 0.0729763 -0.334775 91 56 253
0.209366 -0.0324086 -0.171505 127 0 255
0.312883 -0.0207102 -0.178757 127 0 255
-0.265311 -0.0319621 -0.193044 127 0 255
0.280079 -0.174952 -0.167988 127 0 255
0.153333 -0.149611 -0.178782 127 0 255
-0.00471126 0.0643739 -0.192024 95 49 253
0.0210617 -0.00832656 -0.186749 127 0 255
-0.0737838 -0.194075 -0.211003 127 0 255
-0.307071 -0.255138 -0.223596 127 0 255
-0.121052 -0.443275 -0.177614 127 0 255
-0.163082 0.0726044 -0.324818 91 56 253
-0.173048 -0.460306 -0.260055 127 0 255
0.305904 -0.10183 -0.205794 127 0 255
-0.162827 -0.487274 -0.337554 127 0 255
0.378628 -0.172057 -0.208648 127 0 255
-0.288082 0.064025 -0.362248 95 49 253
-0.112592 -0.345758 -0.203016 127 0 255
-0.293477 -0.339838 -0.32165 127 0 255
0.0318309 -0.0543077 -0.211908 127 0 255
0.337172 -0.219754 -0.175055 127 0 255
-0.256979 -0.350957 -0.182012 127 0 255
-0.212244 0.0733489 -0.236856 91 56 253
0.0711072 -0.185969 -0.199042 127 0 255
-0.0189185 0.0728702 -0.274798 91 56 253
0.00869296 -0.401229 -0.203461 127 0 255
-0.118228 -0.184114 -0.205974 127 0 255
-0.29863 -0.389527 -0.250309 127 0 255
0.252417 -0.0273473 -0.159515 127 0 255
-0.299059 -0.0960058 -0.302255 127 0 255
-0.25488 -0.483022 -0.280864 127 0 255
-0.16373 -0.374843 -0.20295 127 0 255
0.215281 -0.290642 -0.196888 127 0 255
0.45297 -0.0934324 -0.166354 127 0 255
-0.297789 -0.0171376 -0.355157 127 0 255
-0.174885 -0.00774425 -0.190284 127 0 255
-0.303073 -0.209605 -0.210401 127 0 255
0.318679 -0.147047 -0.207228 127 0 255
0.243006 -0.110932 -0.177439 127 0 255
0.091533 -0.31994 -0.176573 127 0 255
0.458124 -0.178931 -0.201841 127 0 255
0.349134 -0.0655192 -0.205542 127 0 255
-0.00438568 -0.269351 -0.185558 127 0 255
0.0950246 -0.12824 -0.171703 127 0 255
-0.1348 0.0783982 -0.217623 87 62 253
-0.157305 -0.147539 -0.20868 127 0 255
0.186934 -0.177885 -0.172891 127 0 255
-0.0908256 -0.40354 -0.202218 127 0 255
0.159548 -0.2899 -0.200202 127 0 255
0.354253 -0.254349 -0.206778 127 0 255
-0.112988 -0.234713 -0.206863 127 0 255
-0.234702 -0.457717 -0.181577 127 0 255
-0.108942 -0.0253117 -0.188107 127 0 255
-0.226779 -0.48361 -0.320924 127 0 255
0.181782 -0.121314 -0.205172 127 0 255
-0.222058 -0.242078 -0.189563 127 0 255
-0.303971 -0.0413546 -0.305528 127 0 255
-0.221601 -0.396804 -0.197776 127 0 255
-0.211123 -0.0881296 -0.210888 127 0 255
-0.0120994 -0.236572 -0.15465 127 0 255
0.147351 0.0270063 -0.19271 115 18 254
-0.268767 0.060816 -0.302448 97 46 253
0.00859378 -0.0942983 -0.180233 127 0 255
-0.125327 0.0752256 -0.362554 89 59 253
-0.29578 -0.471221 -0.185392 127 0 255
0.406591 -0.0790173 -0.164779 127 0 255
-0.305079 0.00754837 -0.240836 125 3 254
0.28722 -0.265219 -0.172898 127 0 255
-0.0343674 -0.440398 -0.199093 127 0 255
-0.299862 -0.321496 -0.26455 127 0 255
-0.305444 -0.236349 -0.354142 127 0 255
-0.295926 -0.450414 -0.275848 127 0 255
0.433963 -0.23994 -0.202803 127 0 255
-0.287263 -0.0871936 -0.338754 127 0 255
-0.17882 0.0710639 -0.191571 91 56 253
-0.0507554 -0.165843 -0.211972 127 0 255
-0.212284 -0.440563 -0.306073 127 0 255
0.115759 -0.17261 -0.206072 127 0 255
-0.299204 -0.0344455 -0.194464 127 0 255
0.332947 -0.19646 -0.206933 127 0 255
-0.157391 -0.317243 -0.205796 127 0 255
-0.300132 -0.09344 -0.253071 127 0 255
0.289293 -0.126561 -0.167091 127 0 255
0.358201 -0.0627466 -0.159436 127 0 255
0.09621 -0.0421808 -0.180887 127 0 255
-0.10585 0.0693102 -0.194845 93 53 253
0.0429862 -0.201923 -0.214402 127 0 255
-0.305483 -0.372293 -0.193564 127 0 255
-0.00294043 -0.388747 -0.142171 127 0 255
0.372062 -0.271991 -0.158643 127 0 255
-0.299288 -0.405962 -0.348574 127 0 255
0.250553 -0.158717 -0.207243 127 0 255
0.262552 -0.0216068 -0.191782 127 0 255
-0.275795 -0.173831 -0.192994 127 0 255
-0.0848341 -0.281882 -0.207701 127 0 255
0.19296 0.00525754 -0.184905 125 3 254
-0.25954 -0.456689 -0.218094 127 0 255
-0.0563028 -0.0254145 -0.184228 127 0 255
-0.0293815 0.0756388 -0.224782 89 59 253
-0.0907595 -0.423784 -0.164832 127 0 255
-0.2921 0.0894371 -0.343965 83 68 252
0.212287 -0.204324 -0.207303 127 0 255
-0.267004 -0.094606 -0.194055 127 0 255
0.010868 -0.313753 -0.181188 127 0 255
-0.299186 0.0620135 -0.254771 97 46 253
-0.208926 -0.292427 -0.180709 127 0 255
0.404367 -0.145677 -0.210434 127 0 255
-0.071184 0.0845425 -0.31141 85 65 252
0.182256 -0.357379 -0.16938 127 0 255
0.00200597 -0.238536 -0.205679 127 0 255
0.316537 -0.292092 -0.160932 127 0 255
-0.147159 -0.222281 -0.184654 127 0 255
-0.313854 -0.311506 -0.213504 127 0 255
-0.302803 -0.371563 -0.296468 127 0 255
-0.304482 -0.151806 -0.347256 127 0 255
-0.0109256 -0.107142 -0.210588 127 0 255
0.213978 -0.0728232 -0.206152 127 0 255
-0.150327 -0.487274 -0.187554 127 0 255
0.115172 -0.387011 -0.18536 127 0 255
-0.299527 -0.22539 -0.264237 127 0 255
-0.0396281 -0.380157 -0.178442 127 0 255
-0.179674 -0.430386 -0.200703 127 0 255
-0.114889 -0.0860764 -0.206243 127 0 255
0.0573204 -0.374607 -0.147667 127 0 255
0.233398 -0.310536 -0.16503 127 0 255
-0.201613 -0.341561 -0.207647 127 0 255
-0.302475 -0.157143 -0.230415 127 0 255
0.0991807 0.0453528 -0.193107 105 34 254
0.144779 -0.339027 -0.207452 127 0 255
-0.21058 -0.0393083 -0.191267 127 0 255
-0.259958 0.0733075 -0.206556 91 56 253
-0.290801 -0.430553 -0.185099 127 0 255
0.0593242 -0.0140269 -0.212646 127 0 255
0.375156 -0.19862 -0.16489 127 0 255
0.0611399 -0.0847977 -0.206793 127 0 255
-0.0167341 -0.0474124 -0.209944 127 0 255
-0.0865406 0.0812087 -0.246042 87 62 253
0.236303 -0.185189 -0.170123 127 0 255
-0.290094 -0.151638 -0.301949 127 0 255
-0.0562038 -0.101375 -0.209162 127 0 255
-0.188437 -0.197794 -0.204749 127 0 255
-0.30347 -0.419214 -0.232487 127 0 255
-0.225385 -0.433659 -0.25607 127 0 255
0.383827 -0.0500255 -0.187747 127 0 255
0.116225 -0.271206 -0.155516 127 0 255
-0.151289 0.0732143 -0.24303 91 56 253
0.154839 -0.187797 -0.200167 127 0 255
-0.165073 0.0838831 -0.30526 85 65 252
0.224857 -0.0219007 -0.210898 127 0 255
-0.0178257 -0.416584 -0.17117 127 0 255
-0.301802 -0.342235 -0.351898 127 0 255
-0.112827 -0.487274 -0.237554 127 0 255
-0.267157 0.03187 -0.280199 111 25 254
0.131361 -0.270751 -0.204711 127 0 255
-0.220413 -0.158658 -0.183914 127 0 255
-0.115153 0.0841118 -0.329655 85 65 252
-0.221209 0.00750161 -0.190954 125 3 254
0.124448 0.00805829 -0.210249 123 6 254
0.299794 -0.193641 -0.199445 127 0 255
-0.0803087 0.0276617 -0.205604 113 21 254
-0.279255 -0.0673041 -0.2749 127 0 255
-0.260269 -0.301916 -0.208692 127 0 255
-0.293696 -0.243537 -0.323435 127 0 255
0.0444225 -0.232489 -0.180493 127 0 255
0.449673 -0.0622744 -0.200054 127 0 255
0.0500681 -0.35695 -0.198108 127 0 255
-0.139257 -0.129165 -0.186188 127 0 255
-0.3046 0.0208289 -0.310376 117 15 254
-0.281358 -0.482243 -0.305359 127 0 255
-0.228388 0.0730889 -0.284693 91 56 253
0.118467 -0.107856 -0.204914 127 0 255
-0.0295534 -0.00503494 -0.185508 127 0 255
0.0184191 -0.164295 -0.205084 127 0 255
0.0681663 -0.409814 -0.182041 127 0 255
-0.0763416 -0.139768 -0.206142 127 0 255
0.426036 -0.133946 -0.163781 127 0 255
0.251828 -0.263257 -0.17013 127 0 255
-0.25009 -0.256589 -0.206361 127 0 255
0.0199815 0.0610335 -0.188774 97 46 253
-0.305494 -0.442254 -0.34272 127 0 255
-0.0469441 -0.214743 -0.181813 127 0 255
-0.164839 0.0363123 -0.20183 109 28 254
-0.301939 -0.185432 -0.350326 127 0 255
-0.196898 -0.112724 -0.187855 127 0 255
-0.12099 -0.381237 -0.201721 127 0 255
-0.199278 -0.463292 -0.256098 127 0 255
0.444072 -0.118235 -0.207167 127 0 255
0.304079 -0.239245 -0.168205 127 0 255
-0.301297 -0.191225 -0.292205 127 0 255
-0.168691 -0.0448833 -0.206052 127 0 255
0.34896 -0.0952213 -0.204442 127 0 255
0.344481 -0.0141838 -0.150089 127 0 255
-0.0322323 -0.339789 -0.202477 127 0 255
0.165473 -0.0785507 -0.206698 127 0 255
-0.27878 -0.482859 -0.211034 127 0 255
