ply
format ascii 1.0
comment Created by Open3D
element vertex 1218
property double x
property double y
property double z
property uchar red
property uchar green
property uchar blue
end_header
0.0918902 -0.454651 0.0109859 127 0 255
-0.32895 -0.482164 0.010443 127 0 255
0.0746727 -0.249825 0.137479 127 0 255
0.172169 -0.0856955 0.225444 127 0 255
0.121638 -0.389884 0.0234805 127 0 255
0.0801077 -0.255216 -0.500683 127 0 255
0.112959 -0.400636 0.323151 127 0 255
0.0731983 -0.484576 -0.201266 127 0 255
-0.0346761 -0.482868 0.232823 127 0 255
0.113665 -0.484679 0.297587 127 0 255
0.0985866 -0.48448 -0.0847313 127 0 255
0.10827 -0.16078 -0.190689 127 0 255
0.183104 -0.101316 0.0324426 127 0 255
0.0746726 -0.137336 0.249986 127 0 255
-0.0524138 -0.354531 -0.46291 127 0 255
0.115441 -0.345477 0.168612 127 0 255
0.106308 -0.271523 0.00904428 127 0 255
-0.309377 -0.396885 -0.058203 127 0 255
-0.230194 -0.484867 0.0771407 127 0 255
0.0511711 -0.483499 0.205328 127 0 255
0.130968 -0.406453 -0.186827 127 0 255
0.199767 -0.312848 0.233747 127 0 255
-0.336464 -0.482314 -0.103858 127 0 255
0.175362 -0.481043 0.137747 127 0 255
0.109646 -0.178467 -0.349054 127 0 255
-0.175327 -0.412312 -0.0250296 127 0 255
0.188341 -0.126517 0.128048 127 0 255
0.0246908 -0.422744 -0.488881 127 0 255
0.167694 -0.212052 -0.158745 127 0 255
0.0323832 -0.146776 -0.498729 127 0 255
0.0468422 -0.408714 -0.0615755 127 0 255
0.120401 -0.104121 -0.000485937 127 0 255
0.194416 -0.207653 0.323525 127 0 255
0.0912319 -0.347495 -0.0722496 127 0 255
-0.0740341 -0.182556 -0.497566 127 0 255
0.171779 -0.262188 -0.239033 127 0 255
0.132824 -0.0772848 -0.223989 127 0 255
-0.126768 -0.282555 -0.490707 127 0 255
0.125775 -0.214416 -0.420875 127 0 255
-0.168341 -0.482159 -0.221752 127 0 255
-0.0345101 -0.483419 0.342931 127 0 255
0.0979285 -0.482272 -0.484678 127 0 255
0.195272 -0.402635 0.310653 127 0 255
0.119137 -0.344824 0.0539313 127 0 255
-0.154565 -0.485273 -0.116523 127 0 255
0.137906 -0.300344 -0.109534 127 0 255
0.112353 -0.222582 0.248878 127 0 255
0.192833 -0.124766 -0.0402982 127 0 255
0.116972 -0.334393 -0.230187 127 0 255
-0.238571 -0.482446 -0.147395 127 0 255
0.120165 -0.187747 -0.0851404 127 0 255
0.15925 -0.30817 -0.463462 127 0 255
0.170585 -0.436475 -0.229968 127 0 255
0.128962 -0.428504 -0.339674 127 0 255
0.147587 -0.308678 0.109747 127 0 255
0.171736 -0.339888 0.300976 127 0 255
0.0203965 -0.482762 0.133166 127 0 255
0.115502 -0.393542 0.240652 127 0 255
-0.234682 -0.483429 0.00737291 127 0 255
0.186077 -0.189545 0.0506117 127 0 255
0.170861 -0.343283 -0.278486 127 0 255
0.190154 -0.44771 -0.0678559 127 0 255
0.0916683 -0.0719634 -0.461188 127 0 255
0.162124 -0.174933 0.214061 127 0 255
0.0788406 -0.479078 -0.305733 127 0 255
-0.042425 -0.481908 -0.270652 127 0 255
0.200414 -0.459596 0.26894 127 0 255
-0.312827 -0.437308 0.162468 127 0 255
0.0746727 -0.28732 -0.187524 127 0 255
-0.246793 -0.408112 -0.00591755 127 0 255
-0.140409 -0.467417 -0.0607532 127 0 255
-0.205546 -0.484671 -0.317537 127 0 255
0.135946 -0.0725687 -0.295599 127 0 255
0.131345 -0.313847 -0.327344 127 0 255
0.10557 -0.12429 -0.147474 127 0 255
0.106411 -0.482874 0.36673 127 0 255
0.0325082 -0.0832093 -0.49754 127 0 255
0.19697 -0.221505 0.273279 127 0 255
0.0996726 -0.13734 0.324988 127 0 255
0.176373 -0.0974912 -0.353905 127 0 255
0.195892 -0.389091 0.202369 127 0 255
-0.221962 -0.484057 0.135961 127 0 255
0.0746727 -0.39982 -0.275025 127 0 255
0.0812576 -0.302742 -0.452396 127 0 255
0.177534 -0.208189 -0.239133 127 0 255
0.0905862 -0.483695 0.0901408 127 0 255
-0.0561145 -0.483361 -0.0564036 127 0 255
0.0316156 -0.20409 -0.489375 127 0 255
-0.00054644 -0.357842 -0.491512 127 0 255
-0.339329 -0.409521 0.0526731 127 0 255
0.171976 -0.234581 -0.35262 127 0 255
0.163909 -0.241306 -0.0737202 127 0 255
-0.0790479 -0.482916 0.148199 127 0 255
0.138202 -0.480692 -0.0201001 127 0 255
0.181782 -0.126839 -0.139516 127 0 255
0.158627 -0.366536 -0.45496 127 0 255
-0.149609 -0.481408 -0.406328 127 0 255
-0.107037 -0.483437 0.272746 127 0 255
0.0347309 -0.485365 0.350031 127 0 255
-0.270355 -0.418976 0.0711913 127 0 255
0.109991 -0.215187 -0.190856 127 0 255
0.175038 -0.45844 0.202788 127 0 255
0.16086 -0.203522 -0.450787 127 0 255
0.113929 -0.119305 -0.492585 127 0 255
-0.0730012 -0.118954 -0.487923 127 0 255
-0.312827 -0.437277 -0.225052 127 0 255
0.127243 -0.332879 -0.154199 127 0 255
0.193953 -0.344918 -0.00941086 127 0 255
0.159097 -0.207874 -0.0180006 127 0 255
-0.344867 -0.418031 -0.0465686 127 0 255
0.131561 -0.482019 -0.409189 127 0 255
-0.120689 -0.403152 -0.493492 127 0 255
-0.0670121 -0.483165 -0.451891 127 0 255
0.15226 -0.206967 0.14436 127 0 255
0.0447981 -0.46269 -0.0428311 127 0 255
0.0746728 -0.0748066 -0.362533 127 0 255
0.195691 -0.282191 0.297796 127 0 255
-0.128228 -0.482131 -0.163664 127 0 255
0.146477 -0.137084 0.0771094 127 0 255
-0.11191 -0.211872 -0.475619 127 0 255
-0.123884 -0.485304 0.0419024 127 0 255
0.129432 -0.303335 -0.384611 127 0 255
-0.0314412 -0.48219 -0.198663 127 0 255
0.110122 -0.206983 -0.294838 127 0 255
0.083113 -0.361477 0.273571 127 0 255
-0.00059417 -0.479138 -0.358231 127 0 255
0.0864835 -0.38624 -0.0400597 127 0 255
0.120339 -0.483578 0.220782 127 0 255
0.0746728 -0.0873113 -0.23753 127 0 255
-0.128623 -0.480715 -0.485009 127 0 255
0.18794 -0.244939 0.0759003 127 0 255
0.124943 -0.411909 0.107122 127 0 255
0.167417 -0.147205 -0.288449 127 0 255
-0.333771 -0.477906 -0.167664 127 0 255
0.0254553 -0.481856 -0.123044 127 0 255
-0.0188911 -0.0775505 -0.479684 127 0 255
-0.119481 -0.326127 -0.479763 127 0 255
-0.302566 -0.47785 0.0783065 127 0 255
0.154904 -0.478501 -0.192423 127 0 255
0.129608 -0.446988 0.0340762 127 0 255
0.116294 -0.275011 0.226969 127 0 255
0.136717 -0.083271 -0.126292 127 0 255
0.0812822 -0.447581 0.290405 127 0 255
-0.191076 -0.484968 0.225623 127 0 255
0.0681114 -0.441904 -0.500184 127 0 255
-0.337827 -0.39978 -0.16255 127 0 255
0.0996727 -0.0998287 0.224981 127 0 255
0.0375672 -0.48582 0.0670554 127 0 255
0.133662 -0.383171 -0.269958 127 0 255
-0.111937 -0.485295 0.0997952 127 0 255
0.108934 -0.112462 -0.0505223 127 0 255
0.12899 -0.234413 0.292549 127 0 255
-0.0188678 -0.477679 0.182508 127 0 255
0.0746727 -0.162325 0.149979 127 0 255
0.141382 -0.372195 -0.015885 127 0 255
0.143696 -0.358388 -0.37252 127 0 255
0.0957644 -0.4205 0.356102 127 0 255
0.180302 -0.0921532 0.128248 127 0 255
0.174431 -0.272449 -0.176147 127 0 255
0.191623 -0.157198 -0.00844634 127 0 255
0.131779 -0.139932 -0.385807 127 0 255
0.168561 -0.275017 -0.300777 127 0 255
0.182791 -0.469028 0.350704 127 0 255
0.103973 -0.263771 -0.0684845 127 0 255
-0.0307177 -0.483353 0.0299435 127 0 255
0.0517001 -0.482293 -0.352868 127 0 255
0.191274 -0.457262 -0.010697 127 0 255
0.131663 -0.394852 -0.50388 127 0 255
-0.0423283 -0.481529 -0.401821 127 0 255
0.188479 -0.290971 0.0531687 127 0 255
-0.193754 -0.485206 0.0302854 127 0 255
-0.0514129 -0.296218 -0.496884 127 0 255
-0.109882 -0.478933 -0.351853 127 0 255
-0.210434 -0.485034 -0.172046 127 0 255
-0.0637189 -0.439636 -0.482218 127 0 255
0.19162 -0.32902 -0.0647858 127 0 255
0.173721 -0.373919 0.267133 127 0 255
-0.223348 -0.483195 -0.0473414 127 0 255
0.183665 -0.193165 -0.12493 127 0 255
0.186976 -0.147871 0.237848 127 0 255
0.183308 -0.400458 0.073178 127 0 255
-0.290603 -0.481336 -0.250137 127 0 255
0.151874 -0.321783 0.344936 127 0 255
0.081169 -0.481969 -0.430027 127 0 255
-0.307004 -0.39885 0.0139121 127 0 255
-0.29563 -0.483027 -0.0663936 127 0 255
0.189031 -0.419196 -0.103672 127 0 255
0.169597 -0.105598 -0.416823 127 0 255
0.133957 -0.213029 0.190756 127 0 255
-0.198363 -0.481265 -0.389974 127 0 255
0.13195 -0.180321 -0.232798 127 0 255
-0.0824581 -0.481917 -0.110322 127 0 255
0.132198 -0.48315 0.113942 127 0 255
-0.0843889 -0.485361 0.000954258 127 0 255
0.156163 -0.479136 -0.299136 127 0 255
0.00767087 -0.486392 0.286733 127 0 255
0.118011 -0.377767 0.190351 127 0 255
0.180262 -0.0857515 -0.0904842 127 0 255
0.045629 -0.130555 -0.462918 127 0 255
0.1293 -0.429847 -0.0716275 127 0 255
-0.24138 -0.482113 0.172478 127 0 255
-0.0524925 -0.382065 -0.494009 127 0 255
0.19693 -0.300915 0.185647 127 0 255
0.120845 -0.169562 -0.0352053 127 0 255
-0.00398973 -0.483098 -0.0352856 127 0 255
0.157195 -0.427081 -0.432344 127 0 255
0.125671 -0.328232 0.256212 127 0 255
0.0988856 -0.482424 -0.165868 127 0 255
0.194172 -0.173249 0.320947 127 0 255
0.189893 -0.399197 0.158897 127 0 255
-0.193995 -0.48443 -0.257451 127 0 255
-0.0023591 -0.48207 -0.273465 127 0 255
0.117921 -0.268546 0.143003 127 0 255
-0.189029 -0.483927 0.095559 127 0 255
0.157167 -0.278535 -0.45978 127 0 255
0.10679 -0.313798 0.0213271 127 0 255
0.103508 -0.478805 -0.251673 127 0 255
-0.357871 -0.438216 0.0164734 127 0 255
0.0982978 -0.178098 -0.492413 127 0 255
0.0604406 -0.341863 -0.497314 127 0 255
0.128349 -0.356323 -0.102305 127 0 255
0.161382 -0.129915 -0.194367 127 0 255
0.12302 -0.229327 0.0408712 127 0 255
0.128077 -0.073745 -0.385198 127 0 255
0.170613 -0.0887144 0.18046 127 0 255
0.0451999 -0.483145 0.00874757 127 0 255
0.12461 -0.162621 -0.120454 127 0 255
0.176301 -0.469243 0.0882915 127 0 255
0.138414 -0.459878 -0.500946 127 0 255
0.119742 -0.272219 -0.148136 127 0 255
0.129415 -0.218841 -0.358797 127 0 255
0.188737 -0.391638 -0.0122747 127 0 255
0.190529 -0.233702 0.162645 127 0 255
0.172255 -0.316672 -0.406177 127 0 255
-0.086293 -0.483182 0.213239 127 0 255
0.108118 -0.155672 -0.293982 127 0 255
-0.328234 -0.428686 -0.0809561 127 0 255
-0.0411488 -0.193018 -0.499546 127 0 255
0.177459 -0.467563 -0.154412 127 0 255
0.128229 -0.420941 -0.367906 127 0 255
-0.235306 -0.410457 0.059633 127 0 255
0.19502 -0.238427 -0.0198595 127 0 255
0.0444526 -0.268546 -0.493911 127 0 255
0.00579205 -0.482491 -0.408141 127 0 255
-0.0435763 -0.483455 0.120461 127 0 255
0.117835 -0.434102 0.255312 127 0 255
-0.304208 -0.482512 0.0316926 127 0 255
0.133661 -0.0948635 0.0514753 127 0 255
-0.150327 -0.487336 0.349986 127 0 255
0.188476 -0.349884 0.1422 127 0 255
0.149208 -0.0979404 -0.46403 127 0 255
0.0746727 -0.349818 -0.300026 127 0 255
0.109349 -0.347461 0.340225 127 0 255
0.169785 -0.328239 -0.189338 127 0 255
-0.177231 -0.471551 -0.0944149 127 0 255
-0.00999832 -0.480514 -0.486697 127 0 255
0.0221145 -0.484578 -0.21283 127 0 255
0.163249 -0.106431 0.300959 127 0 255
0.102492 -0.402655 -0.448797 127 0 255
-0.179811 -0.484233 0.154625 127 0 255
0.0746726 -0.399827 0.0374798 127 0 255
0.155624 -0.168233 0.132444 127 0 255
0.136247 -0.408567 -0.152497 127 0 255
0.18311 -0.155636 -0.0682971 127 0 255
-0.0857008 -0.480521 -0.257074 127 0 255
0.191484 -0.343658 0.215447 127 0 255
0.182844 -0.132855 -0.241806 127 0 255
-0.191933 -0.480859 -0.451327 127 0 255
0.0444415 -0.484158 0.174695 127 0 255
0.0749943 -0.22789 -0.453576 127 0 255
-0.13304 -0.246216 -0.486303 127 0 255
0.170649 -0.303351 -0.348339 127 0 255
0.177652 -0.168089 -0.344513 127 0 255
0.17284 -0.387568 -0.364452 127 0 255
0.114981 -0.322268 0.0817109 127 0 255
0.186416 -0.168696 0.0717819 127 0 255
0.107223 -0.241469 -0.020194 127 0 255
0.123403 -0.415988 0.15554 127 0 255
0.108323 -0.279923 0.323453 127 0 255
0.183976 -0.366341 0.0484055 127 0 255
0.173129 -0.207755 -0.413923 127 0 255
0.00394481 -0.483432 0.355935 127 0 255
0.168908 -0.311124 -0.24774 127 0 255
-0.252465 -0.482894 -0.107085 127 0 255
0.160622 -0.262282 0.25942 127 0 255
0.16247 -0.482714 0.298585 127 0 255
0.0746727 -0.112321 0.0999761 127 0 255
0.0904351 -0.483087 -0.0383728 127 0 255
-0.227538 -0.481229 -0.344139 127 0 255
0.182075 -0.0987184 0.0852643 127 0 255
0.139054 -0.331189 -0.052205 127 0 255
0.0746726 -0.187331 0.212483 127 0 255
0.160343 -0.0757592 -0.242021 127 0 255
0.168163 -0.413734 0.285285 127 0 255
0.0746728 -0.299814 -0.375028 127 0 255
-0.2657 -0.483169 0.131133 127 0 255
-0.281151 -0.482185 -0.192221 127 0 255
-0.119618 -0.485068 -0.0249811 127 0 255
0.170739 -0.42248 -0.276745 127 0 255
0.0583044 -0.484985 0.294334 127 0 255
0.193266 -0.184748 0.189178 127 0 255
-0.120974 -0.175429 -0.483947 127 0 255
-0.247759 -0.437832 -0.0204671 127 0 255
-0.328213 -0.486267 -0.131356 127 0 255
-0.0390489 -0.486116 -0.339872 127 0 255
0.192172 -0.252025 0.326681 127 0 255
0.125751 -0.161742 -0.413853 127 0 255
0.105234 -0.478165 -0.3538 127 0 255
0.167441 -0.0859444 0.254591 127 0 255
0.165044 -0.192049 -0.185406 127 0 255
0.163445 -0.481937 0.0265199 127 0 255
0.148626 -0.481 -0.106054 127 0 255
0.119434 -0.264124 0.0794858 127 0 255
0.149269 -0.160215 0.313748 127 0 255
-0.375327 -0.399801 0.112463 127 0 255
-0.0391266 -0.485347 -0.125089 127 0 255
0.139005 -0.364685 -0.504542 127 0 255
0.125219 -0.234827 -0.31409 127 0 255
0.105283 -0.126737 -0.18734 127 0 255
-0.0665289 -0.485285 0.0645977 127 0 255
0.182649 -0.274645 -0.0751331 127 0 255
0.116159 -0.308856 -0.215953 127 0 255
0.125402 -0.260969 -0.415286 127 0 255
0.113071 -0.484853 0.331804 127 0 255
0.0746726 -0.0998277 0.17498 127 0 255
0.101618 -0.483713 0.1551 127 0 255
0.161518 -0.475846 -0.238199 127 0 255
-0.12898 -0.48509 0.276078 127 0 255
0.0570529 -0.485813 -0.137578 127 0 255
-0.138578 -0.485409 -0.23036 127 0 255
0.186504 -0.138745 0.0230449 127 0 255
-0.153907 -0.485708 0.198215 127 0 255
-0.329213 -0.482353 -0.0549329 127 0 255
0.111922 -0.408605 -0.0102371 127 0 255
-0.120587 -0.348814 -0.49399 127 0 255
0.183585 -0.254131 0.125124 127 0 255
0.184598 -0.361962 0.342413 127 0 255
-0.0217929 -0.482774 0.243934 127 0 255
0.0855079 -0.114378 -0.500033 127 0 255
0.114163 -0.230422 -0.0955545 127 0 255
0.194281 -0.303292 -0.00562392 127 0 255
0.0857834 -0.482666 0.2296 127 0 255
0.151573 -0.122048 0.206761 127 0 255
-0.00583021 -0.380538 -0.466222 127 0 255
0.134654 -0.130464 -0.329982 127 0 255
0.0616793 -0.482623 -0.475507 127 0 255
0.187421 -0.445844 0.153657 127 0 255
0.166771 -0.379427 -0.428802 127 0 255
-0.0819041 -0.479084 -0.407435 127 0 255
-0.171221 -0.482161 -0.171309 127 0 255
-0.291373 -0.392365 -0.0152038 127 0 255
0.186668 -0.310184 0.0789639 127 0 255
0.170262 -0.411598 -0.186624 127 0 255
0.181602 -0.351794 -0.123686 127 0 255
0.174619 -0.245755 -0.21021 127 0 255
0.0889085 -0.264094 -0.500562 127 0 255
0.0367002 -0.48287 0.120461 127 0 255
0.137047 -0.189275 0.252525 127 0 255
-0.0784757 -0.299701 -0.497323 127 0 255
-0.0947028 -0.480319 -0.309177 127 0 255
-0.269365 -0.483148 -0.00315628 127 0 255
0.137219 -0.0776026 -0.183209 127 0 255
-0.202243 -0.417059 -0.0121295 127 0 255
-0.227665 -0.485098 -0.250582 127 0 255
0.193842 -0.209369 -0.0831485 127 0 255
-0.00655167 -0.30902 -0.492448 127 0 255
-0.400327 -0.487284 -0.0375479 127 0 255
0.169608 -0.355187 -0.237109 127 0 255
0.182765 -0.449536 0.0497825 127 0 255
0.0746725 -0.187341 0.299989 127 0 255
-0.0938326 -0.440664 -0.472118 127 0 255
0.144954 -0.478112 -0.383291 127 0 255
-0.079795 -0.481887 -0.174562 127 0 255
0.00857197 -0.180346 -0.487943 127 0 255
-0.00142179 -0.0858319 -0.494834 127 0 255
0.136953 -0.152845 0.0179801 127 0 255
0.0127325 -0.48588 -0.171916 127 0 255
-0.157873 -0.485189 0.0610799 127 0 255
-0.110063 -0.470258 -0.0748972 127 0 255
0.179248 -0.3854 -0.0499355 127 0 255
0.194439 -0.299832 0.270678 127 0 255
0.11452 -0.376366 0.282095 127 0 255
0.177169 -0.278953 -0.13945 127 0 255
-0.350327 -0.399807 0.162467 127 0 255
-0.0878268 -0.0747913 -0.500041 127 0 255
0.139909 -0.482126 -0.467883 127 0 255
0.106465 -0.15919 -0.22151 127 0 255
-0.0465761 -0.485205 0.329048 127 0 255
0.165178 -0.426907 0.348085 127 0 255
0.0812688 -0.457046 0.356536 127 0 255
-0.15669 -0.486676 -0.444252 127 0 255
0.195289 -0.238222 0.231539 127 0 255
-0.182512 -0.485295 -0.0139814 127 0 255
0.168445 -0.188915 -0.285024 127 0 255
0.121837 -0.0616441 -0.464827 127 0 255
0.186772 -0.444532 0.247499 127 0 255
0.0309536 -0.463824 -0.432198 127 0 255
0.11761 -0.483187 0.0209665 127 0 255
0.0746726 -0.249828 0.18748 127 0 255
0.188716 -0.464633 -0.0361092 127 0 255
-0.331667 -0.463442 0.0447108 127 0 255
-0.0049389 -0.485567 -0.0879998 127 0 255
0.155731 -0.35997 -0.30327 127 0 255
0.0108665 -0.483196 0.201225 127 0 255
0.137585 -0.077848 -0.103401 127 0 255
0.149531 -0.217036 0.083061 127 0 255
0.0714963 -0.342484 -0.453437 127 0 255
0.0443162 -0.47881 -0.32162 127 0 255
0.0914876 -0.482875 -0.210097 127 0 255
0.0981862 -0.443364 -0.0868344 127 0 255
0.173884 -0.445554 -0.325536 127 0 255
0.0159173 -0.485579 0.0186069 127 0 255
0.144139 -0.0705627 -0.341888 127 0 255
0.109083 -0.231735 -0.22452 127 0 255
0.153913 -0.262319 0.34127 127 0 255
-0.35483 -0.419546 -0.0217415 127 0 255
0.0746037 -0.101032 -0.452447 127 0 255
-0.306778 -0.481481 -0.218879 127 0 255
0.114784 -0.108229 -0.0232214 127 0 255
0.0550665 -0.401158 -0.0519761 127 0 255
0.116943 -0.227689 -0.141045 127 0 255
-0.0172514 -0.242769 -0.484767 127 0 255
0.144517 -0.358755 -0.169413 127 0 255
0.145363 -0.276794 0.0241891 127 0 255
0.0746728 -0.237313 -0.375029 127 0 255
0.0753065 -0.171797 -0.455897 127 0 255
0.11808 -0.345444 0.175176 127 0 255
-0.141362 -0.48272 -0.365017 127 0 255
0.194211 -0.110278 -0.0833753 127 0 255
0.159647 -0.335154 -0.47149 127 0 255
-0.202357 -0.482488 -0.124629 127 0 255
0.0746727 -0.374822 -0.200023 127 0 255
0.119489 -0.410963 -0.402045 127 0 255
0.173553 -0.159803 -0.395899 127 0 255
0.100823 -0.328796 0.00259143 127 0 255
-0.0359056 -0.475602 -0.214808 127 0 255
0.157047 -0.25246 0.187966 127 0 255
0.115874 -0.448803 0.20067 127 0 255
0.180915 -0.0969614 -0.00731863 127 0 255
0.182642 -0.167852 -0.136787 127 0 255
0.124985 -0.35673 0.0691668 127 0 255
0.0212357 -0.42053 -0.486352 127 0 255
0.189522 -0.144255 0.142887 127 0 255
0.0836242 -0.413998 0.270801 127 0 255
-0.285606 -0.457911 -0.144917 127 0 255
-0.256024 -0.483351 0.094205 127 0 255
0.103648 -0.406309 0.352852 127 0 255
0.127364 -0.404417 -0.123932 127 0 255
-0.0398672 -0.48328 -0.020899 127 0 255
-0.0454554 -0.150919 -0.486967 127 0 255
-0.107996 -0.48421 0.177191 127 0 255
0.173339 -0.400182 0.2368 127 0 255
-0.288372 -0.414083 0.0460222 127 0 255
0.0746727 -0.262317 -0.275026 127 0 255
0.173441 -0.472092 0.187664 127 0 255
0.180144 -0.149938 0.273403 127 0 255
0.0746727 -0.212321 0.0249764 127 0 255
0.193571 -0.195339 -0.00955803 127 0 255
0.17307 -0.224803 -0.327447 127 0 255
-0.115545 -0.482276 -0.124166 127 0 255
0.0765794 -0.474269 0.0743166 127 0 255
0.112426 -0.15025 -0.111832 127 0 255
0.0729089 -0.478668 -0.269997 127 0 255
-0.142403 -0.452373 -0.486789 127 0 255
0.182769 -0.113692 -0.17772 127 0 255
-0.0731816 -0.483298 0.238705 127 0 255
0.104731 -0.281054 -0.455765 127 0 255
0.134613 -0.0743871 -0.296329 127 0 255
0.18045 -0.183232 -0.220863 127 0 255
-0.225327 -0.399804 -0.0750353 127 0 255
0.151828 -0.322887 0.144601 127 0 255
0.116668 -0.320602 -0.120824 127 0 255
0.0818117 -0.48222 -0.392582 127 0 255
0.0934193 -0.407561 -0.484618 127 0 255
-0.348582 -0.459407 -0.0817289 127 0 255
0.138571 -0.275135 -0.0542682 127 0 255
0.156717 -0.074689 -0.400884 127 0 255
-0.0276369 -0.483332 0.0994179 127 0 255
0.195944 -0.332343 0.308476 127 0 255
-0.172205 -0.484976 0.247436 127 0 255
0.161551 -0.481999 0.361801 127 0 255
0.115444 -0.339772 0.226738 127 0 255
0.170772 -0.274595 -0.385673 127 0 255
-0.0147305 -0.47534 -0.307259 127 0 255
0.111823 -0.300757 0.295798 127 0 255
-0.110458 -0.483191 0.0993082 127 0 255
0.0814831 -0.482608 -0.0878564 127 0 255
0.120093 -0.484479 0.266536 127 0 255
0.145811 -0.202356 -0.460953 127 0 255
-0.0785958 -0.394743 -0.474589 127 0 255
0.025292 -0.482898 0.251395 127 0 255
0.0746728 -0.124814 -0.262529 127 0 255
0.199502 -0.46015 0.283073 127 0 255
0.118599 -0.187638 -0.0593338 127 0 255
0.168421 -0.263901 -0.267214 127 0 255
0.130508 -0.4253 -0.314162 127 0 255
0.176919 -0.429518 -0.147252 127 0 255
0.0225207 -0.47946 -0.487405 127 0 255
-0.236458 -0.482212 -0.21086 127 0 255
-0.358673 -0.416785 0.0443534 127 0 255
-0.295666 -0.394846 -0.0529716 127 0 255
0.170935 -0.325023 -0.306491 127 0 255
-0.175327 -0.424818 0.0874741 127 0 255
0.0996726 -0.19984 0.337489 127 0 255
0.0937678 -0.350697 -0.0756554 127 0 255
0.128272 -0.483192 -0.162223 127 0 255
0.0128575 -0.13347 -0.488022 127 0 255
0.122563 -0.363585 -0.257595 127 0 255
-0.0509007 -0.483117 -0.470867 127 0 255
0.173665 -0.427313 -0.364711 127 0 255
0.155284 -0.441312 -0.474016 127 0 255
0.118435 -0.197625 0.0888722 127 0 255
0.165495 -0.316566 0.244996 127 0 255
-0.2569 -0.482781 -0.061382 127 0 255
0.176957 -0.135093 -0.354893 127 0 255
0.187223 -0.401903 0.0213887 127 0 255
-0.134436 -0.317191 -0.489838 127 0 255
0.0294732 -0.29219 -0.493745 127 0 255
0.130377 -0.339392 -0.428151 127 0 255
-0.132913 -0.210627 -0.483981 127 0 255
0.190521 -0.242957 0.0289071 127 0 255
0.0746727 -0.362317 -0.350027 127 0 255
0.125736 -0.192058 -0.164053 127 0 255
0.17682 -0.475839 0.11343 127 0 255
0.170514 -0.435773 -0.230251 127 0 255
0.174229 -0.477059 -0.0833256 127 0 255
0.165081 -0.0857069 0.0314329 127 0 255
-0.119435 -0.485922 -0.196495 127 0 255
0.182262 -0.310585 -0.110988 127 0 255
0.157899 -0.124689 0.125058 127 0 255
0.122341 -0.183946 0.00357025 127 0 255
0.139891 -0.383015 -0.0716193 127 0 255
0.162446 -0.197904 0.326759 127 0 255
-0.090081 -0.463958 0.00659944 127 0 255
0.186272 -0.199082 0.107 127 0 255
0.0290347 -0.482686 -0.0344939 127 0 255
0.199673 -0.487315 -0.175028 127 0 255
0.117942 -0.260267 0.135952 127 0 255
-0.176243 -0.467652 -0.052609 127 0 255
0.107461 -0.167865 -0.348879 127 0 255
0.168038 -0.110237 -0.266053 127 0 255
0.0746728 -0.099814 -0.162528 127 0 255
0.165952 -0.141426 -0.43432 127 0 255
0.147104 -0.380571 0.346805 127 0 255
0.0225025 -0.482715 0.0876219 127 0 255
0.188226 -0.421298 0.192674 127 0 255
-0.247275 -0.483328 0.0334508 127 0 255
-0.0406961 -0.484076 0.184361 127 0 255
-0.00662047 -0.483387 0.313896 127 0 255
0.0746728 -0.0748071 -0.337533 127 0 255
0.119837 -0.427723 -0.0231424 127 0 255
0.128717 -0.482511 0.0717564 127 0 255
0.0751679 -0.37188 -0.497412 127 0 255
-0.312827 -0.424811 0.19997 127 0 255
0.105976 -0.114 -0.0702712 127 0 255
-0.100327 -0.487341 0.387489 127 0 255
0.184303 -0.288134 0.114263 127 0 255
-0.205532 -0.481465 -0.327649 127 0 255
0.0311199 -0.235588 -0.488083 127 0 255
0.118386 -0.399661 0.212811 127 0 255
0.171456 -0.0864017 0.207968 127 0 255
0.189742 -0.340797 0.185103 127 0 255
-0.282982 -0.484155 -0.263241 127 0 255
-0.229958 -0.422921 0.0615675 127 0 255
0.139951 -0.482869 -0.32925 127 0 255
-0.302698 -0.470539 0.0917147 127 0 255
-0.157151 -0.48229 -0.254622 127 0 255
0.139301 -0.232016 0.236312 127 0 255
0.2005 -0.405488 0.267016 127 0 255
0.142006 -0.347298 0.0141839 127 0 255
-0.0742574 -0.1265 -0.488849 127 0 255
0.0145361 -0.485918 -0.228474 127 0 255
0.0989707 -0.468035 -0.498809 127 0 255
0.128579 -0.299144 -0.327155 127 0 255
-0.183806 -0.484111 0.139998 127 0 255
-0.321301 -0.482822 -0.011513 127 0 255
0.12401 -0.168731 -0.479295 127 0 255
-0.324672 -0.485157 -0.178122 127 0 255
0.155635 -0.264343 -0.460195 127 0 255
-0.0361721 -0.477807 -0.357788 127 0 255
0.128863 -0.224455 -0.393226 127 0 255
0.171664 -0.360316 -0.369165 127 0 255
0.0746727 -0.412321 -0.237524 127 0 255
0.141367 -0.483149 -0.236294 127 0 255
0.0871726 -0.0998357 0.262486 127 0 255
-0.115978 -0.481317 -0.426806 127 0 255
-0.412827 -0.437286 0.0124535 127 0 255
0.16549 -0.225389 -0.105354 127 0 255
0.00387531 -0.484365 -0.12275 127 0 255
0.0419031 -0.482398 -0.393793 127 0 255
-0.0349955 -0.0765968 -0.490949 127 0 255
0.134277 -0.100437 -0.48442 127 0 255
0.16312 -0.246704 -0.0262987 127 0 255
0.192508 -0.167588 0.182 127 0 255
0.153789 -0.483509 0.227929 127 0 255
0.0505946 -0.165822 -0.498812 127 0 255
0.189593 -0.204762 0.271475 127 0 255
0.0746727 -0.274822 -0.125023 127 0 255
0.1921 -0.283648 0.32301 127 0 255
0.119516 -0.482354 -0.444031 127 0 255
0.157896 -0.161139 -0.0872354 127 0 255
0.141718 -0.483101 0.148593 127 0 255
-0.202675 -0.491374 -0.432085 127 0 255
0.0820448 -0.452301 0.330872 127 0 255
0.130549 -0.197051 -0.251803 127 0 255
0.148552 -0.480829 -0.0338183 127 0 255
-0.163566 -0.483308 0.0296263 127 0 255
0.178961 -0.3607 0.102808 127 0 255
0.121432 -0.304165 -0.236321 127 0 255
-0.0621257 -0.481869 -0.268357 127 0 255
0.191448 -0.4076 0.337664 127 0 255
0.0984447 -0.318372 -0.0481886 127 0 255
0.185111 -0.368283 -0.0756098 127 0 255
0.0593601 -0.471644 0.00798959 127 0 255
0.0752088 -0.483385 0.134506 127 0 255
0.0551036 -0.47955 -0.178773 127 0 255
0.183199 -0.138443 0.0663074 127 0 255
0.161446 -0.13857 0.319326 127 0 255
-0.0879107 -0.485605 -0.0433517 127 0 255
0.0746726 -0.337326 0.0499793 127 0 255
-0.334951 -0.396068 -0.0255373 127 0 255
0.0199248 -0.364526 -0.468483 127 0 255
-0.0967859 -0.485951 0.263959 127 0 255
-0.0779506 -0.483779 0.147031 127 0 255
0.0746727 -0.412317 -0.375027 127 0 255
-0.0749879 -0.343399 -0.496489 127 0 255
0.0746727 -0.337322 -0.162523 127 0 255
-0.0384853 -0.483005 0.0594694 127 0 255
-0.214514 -0.485093 -0.0885866 127 0 255
0.181687 -0.118108 -0.137896 127 0 255
-0.110487 -0.481684 -0.331601 127 0 255
0.192365 -0.312852 0.0152526 127 0 255
0.138589 -0.389298 -0.228961 127 0 255
0.0403841 -0.485192 0.320317 127 0 255
0.0086889 -0.483857 0.153639 127 0 255
0.135378 -0.0768698 -0.211558 127 0 255
-0.304403 -0.484314 -0.114369 127 0 255
-0.107536 -0.183395 -0.473301 127 0 255
0.178331 -0.375569 -0.159125 127 0 255
0.152291 -0.393916 -0.493926 127 0 255
-0.121393 -0.425763 -0.492101 127 0 255
0.0877753 -0.47832 -0.305175 127 0 255
0.17317 -0.261806 -0.209867 127 0 255
0.0829685 -0.364435 0.280697 127 0 255
0.144154 -0.0993221 -0.0481379 127 0 255
0.0541574 -0.483025 0.217747 127 0 255
0.144333 -0.283208 0.208239 127 0 255
-0.0229583 -0.482782 -0.436409 127 0 255
0.15296 -0.312666 0.343897 127 0 255
-0.0489799 -0.484128 -0.108093 127 0 255
0.0746727 -0.199819 -0.162525 127 0 255
0.19383 -0.161136 -0.0234997 127 0 255
-0.205331 -0.484592 0.179014 127 0 255
0.173627 -0.201126 -0.380282 127 0 255
0.186629 -0.20761 0.0493256 127 0 255
0.148105 -0.122582 0.22719 127 0 255
0.103105 -0.433863 -0.451313 127 0 255
0.119352 -0.28501 -0.155797 127 0 255
0.0265938 -0.0901918 -0.497961 127 0 255
0.0746727 -0.224824 0.112478 127 0 255
0.0835389 -0.247273 -0.454127 127 0 255
-0.250327 -0.412296 -0.11254 127 0 255
0.170144 -0.270157 -0.329081 127 0 255
0.0528623 -0.429695 -0.0512508 127 0 255
-0.0856765 -0.480833 -0.478084 127 0 255
0.0746727 -0.14982 -0.0375249 127 0 255
0.0746726 -0.349827 0.11248 127 0 255
0.170985 -0.403132 -0.27888 127 0 255
0.168048 -0.48249 0.326097 127 0 255
0.112377 -0.26327 0.018278 127 0 255
-0.021305 -0.483451 0.353592 127 0 255
0.168786 -0.436225 0.118416 127 0 255
0.0305778 -0.48216 -0.290739 127 0 255
0.189118 -0.444008 0.00947563 127 0 255
-0.170397 -0.482148 -0.181731 127 0 255
0.106311 -0.16345 -0.26829 127 0 255
-0.177825 -0.481483 -0.353273 127 0 255
0.0996728 -0.0873159 0.0999728 127 0 255
0.130545 -0.0732813 -0.399012 127 0 255
-0.259306 -0.405045 0.000392258 127 0 255
-0.387827 -0.487281 -0.0875499 127 0 255
-0.0422974 -0.189928 -0.49954 127 0 255
-0.175327 -0.412309 -0.0875318 127 0 255
-0.19815 -0.483929 0.0989826 127 0 255
0.125824 -0.482456 -0.103726 127 0 255
0.117593 -0.450295 0.288455 127 0 255
0.1305 -0.314206 -0.399034 127 0 255
-0.0601801 -0.410911 -0.491854 127 0 255
-0.101908 -0.483163 0.0408295 127 0 255
0.182721 -0.423781 -0.0531695 127 0 255
0.198795 -0.29779 0.21418 127 0 255
0.158044 -0.431937 -0.411504 127 0 255
-0.13646 -0.485282 -0.0638073 127 0 255
-0.121161 -0.485728 0.221268 127 0 255
0.143941 -0.152378 0.0410948 127 0 255
0.0746728 -0.262315 -0.337528 127 0 255
-0.287686 -0.42507 -0.0628849 127 0 255
-0.017124 -0.313947 -0.492313 127 0 255
0.172481 -0.0897799 0.166348 127 0 255
-0.0123876 -0.484931 0.0209036 127 0 255
0.160566 -0.115427 -0.307889 127 0 255
0.111693 -0.259196 0.28527 127 0 255
0.108677 -0.242303 -0.0503895 127 0 255
-0.0480167 -0.481615 -0.184297 127 0 255
0.105552 -0.122713 -0.134377 127 0 255
0.0156814 -0.427771 -0.469537 127 0 255
0.144881 -0.282319 0.0627455 127 0 255
0.121023 -0.151767 -0.432478 127 0 255
0.19481 -0.213238 0.166402 127 0 255
0.0963661 -0.376639 -0.0345121 127 0 255
0.172185 -0.454263 -0.285517 127 0 255
0.0451447 -0.323822 -0.494628 127 0 255
0.17427 -0.101378 -0.376031 127 0 255
-0.0751674 -0.482482 -0.373442 127 0 255
0.184059 -0.101771 0.0945668 127 0 255
0.141017 -0.0689695 -0.473399 127 0 255
-0.135718 -0.484173 0.166624 127 0 255
0.0746726 -0.149832 0.212483 127 0 255
0.19168 -0.33395 -0.0597716 127 0 255
0.195646 -0.342378 0.275447 127 0 255
0.182077 -0.169697 -0.210918 127 0 255
-0.107489 -0.481942 -0.142443 127 0 255
0.106906 -0.485077 0.361447 127 0 255
0.113619 -0.342373 -0.452964 127 0 255
0.0746727 -0.412319 -0.312526 127 0 255
0.0609431 -0.18004 -0.451969 127 0 255
0.0551494 -0.482629 -0.0911073 127 0 255
0.159373 -0.359826 0.206059 127 0 255
0.0871725 -0.137342 0.32499 127 0 255
-0.242042 -0.483464 -0.0247828 127 0 255
-0.158422 -0.480897 -0.472381 127 0 255
0.0746726 -0.412327 0.12498 127 0 255
0.0957116 -0.48323 0.195845 127 0 255
0.185489 -0.347667 0.0456859 127 0 255
0.149055 -0.0733028 -0.133716 127 0 255
0.121762 -0.235472 -0.199548 127 0 255
-0.132318 -0.350804 -0.481466 127 0 255
0.0744303 -0.48481 0.277634 127 0 255
0.169931 -0.317352 -0.189105 127 0 255
-0.247894 -0.482942 0.151469 127 0 255
0.194942 -0.193445 -0.0645344 127 0 255
-0.107898 -0.481959 -0.235909 127 0 255
-0.0192833 -0.484152 -0.0625103 127 0 255
-0.357043 -0.442342 -0.0300561 127 0 255
0.192956 -0.114592 -0.0465638 127 0 255
0.174897 -0.206374 -0.316216 127 0 255
0.134306 -0.434244 -0.216929 127 0 255
0.169241 -0.30955 -0.271264 127 0 255
0.0909447 -0.482157 0.00220388 127 0 255
-0.211099 -0.42739 -0.0329221 127 0 255
0.144095 -0.209152 0.169003 127 0 255
0.139753 -0.312502 -0.0222442 127 0 255
0.195237 -0.210803 0.320773 127 0 255
0.106798 -0.279602 -0.0892197 127 0 255
0.18766 -0.148182 0.233343 127 0 255
0.0938562 -0.422047 -0.089544 127 0 255
-0.266851 -0.482522 -0.162039 127 0 255
0.178784 -0.216799 -0.169239 127 0 255
0.169848 -0.394082 0.155892 127 0 255
0.125503 -0.399127 0.0176178 127 0 255
0.196156 -0.245356 0.254118 127 0 255
0.158755 -0.074278 -0.261554 127 0 255
0.0884527 -0.111088 -0.499475 127 0 255
-0.206092 -0.485192 0.0322724 127 0 255
0.179865 -0.269406 0.14768 127 0 255
0.161436 -0.2428 -0.435348 127 0 255
0.111829 -0.330751 0.273948 127 0 255
0.128607 -0.390173 -0.410751 127 0 255
0.130962 -0.10232 0.0265315 127 0 255
0.134963 -0.482034 -0.378799 127 0 255
-0.00830665 -0.479572 -0.260157 127 0 255
0.0436113 -0.467925 -0.496575 127 0 255
0.109417 -0.361722 0.342597 127 0 255
-0.349988 -0.400042 0.0128864 127 0 255
0.168978 -0.36416 -0.327457 127 0 255
0.0746728 -0.199812 -0.38753 127 0 255
0.146289 -0.159038 0.0978685 127 0 255
0.0940976 -0.482456 -0.149902 127 0 255
-0.145479 -0.481432 -0.405197 127 0 255
0.126325 -0.463151 0.0801483 127 0 255
-0.164079 -0.485221 -0.134395 127 0 255
0.108636 -0.175987 -0.31159 127 0 255
0.180258 -0.26354 -0.130753 127 0 255
-0.217461 -0.481998 -0.250086 127 0 255
0.00108396 -0.203045 -0.487733 127 0 255
0.17477 -0.476266 -0.105773 127 0 255
0.134486 -0.19918 0.258939 127 0 255
-0.0521202 -0.484552 0.234486 127 0 255
-0.259799 -0.411341 0.0666649 127 0 255
0.146699 -0.222985 0.0325388 127 0 255
0.0746727 -0.324818 -0.287526 127 0 255
0.083477 -0.292078 -0.452948 127 0 255
-0.273517 -0.483767 0.0689435 127 0 255
-0.312827 -0.412282 -0.175049 127 0 255
0.0746728 -0.08731 -0.275031 127 0 255
0.171648 -0.313959 -0.373315 127 0 255
0.0824881 -0.425 0.262881 127 0 255
0.175033 -0.410271 0.066214 127 0 255
0.0523758 -0.482269 -0.236631 127 0 255
0.030587 -0.483051 0.0533038 127 0 255
0.0557697 -0.115486 -0.457847 127 0 255
0.066529 -0.482275 -0.369182 127 0 255
0.122035 -0.406762 0.171828 127 0 255
-0.0503793 -0.481162 0.136268 127 0 255
0.183839 -0.259086 -0.032074 127 0 255
0.187468 -0.255169 0.0893534 127 0 255
0.0746726 -0.299829 0.224982 127 0 255
0.121796 -0.325883 0.0935449 127 0 255
-0.0119729 -0.268269 -0.483246 127 0 255
0.0746727 -0.149825 0.149979 127 0 255
0.12642 -0.231033 -0.316692 127 0 255
0.131353 -0.483123 -0.200867 127 0 255
0.164947 -0.481494 0.0299197 127 0 255
-0.0161601 -0.132646 -0.485914 127 0 255
0.145146 -0.231635 0.323027 127 0 255
-0.319909 -0.425824 -0.0813847 127 0 255
0.199673 -0.0748114 -0.18753 127 0 255
-0.312827 -0.412308 0.124967 127 0 255
0.194938 -0.407229 0.31178 127 0 255
0.13796 -0.456515 -0.501342 127 0 255
0.132205 -0.137573 -0.190228 127 0 255
0.152602 -0.114586 0.267005 127 0 255
-0.00549294 -0.478986 -0.367339 127 0 255
-0.149483 -0.485365 -0.0152856 127 0 255
0.0746727 -0.287319 -0.225025 127 0 255
0.179197 -0.188317 -0.248176 127 0 255
0.159857 -0.332715 -0.467696 127 0 255
0.17764 -0.427371 -0.137252 127 0 255
0.190761 -0.367692 0.00826414 127 0 255
-0.0655864 -0.466141 -0.0384261 127 0 255
0.180451 -0.0863217 -0.076569 127 0 255
0.102034 -0.182824 -0.491342 127 0 255
0.0049153 -0.481217 -0.172385 127 0 255
0.189866 -0.320445 0.159906 127 0 255
-0.158519 -0.483526 0.0836602 127 0 255
0.17009 -0.477396 0.265164 127 0 255
0.0746728 -0.337315 -0.387528 127 0 255
0.0744258 -0.482356 -0.454091 127 0 255
-0.0113123 -0.389413 -0.490058 127 0 255
-0.293101 -0.482867 -0.0340776 127 0 255
0.125416 -0.357188 -0.118743 127 0 255
0.118997 -0.34078 0.162691 127 0 255
-0.254938 -0.482796 -0.119218 127 0 255
0.0895277 -0.394364 -0.45276 127 0 255
0.113664 -0.214246 -0.0170237 127 0 255
0.0802932 -0.449298 -0.0363915 127 0 255
0.13432 -0.120129 -0.378003 127 0 255
0.120057 -0.198 -0.109703 127 0 255
0.137842 -0.225963 0.126549 127 0 255
0.174547 -0.473767 0.359504 127 0 255
-0.129859 -0.230699 -0.487044 127 0 255
0.000580516 -0.484729 0.255973 127 0 255
0.0746725 -0.249841 0.337489 127 0 255
0.10452 -0.25988 -0.488939 127 0 255
-0.273753 -0.481469 -0.267792 127 0 255
0.150051 -0.139757 -0.0138641 127 0 255
-0.335982 -0.477096 -0.152284 127 0 255
0.0737965 -0.48318 0.358168 127 0 255
-0.0927376 -0.485331 -0.309161 127 0 255
0.165225 -0.372948 -0.218341 127 0 255
0.192084 -0.199261 0.215139 127 0 255
-0.175327 -0.412314 0.0124718 127 0 255
0.115124 -0.478267 -0.294188 127 0 255
-0.0856124 -0.460711 -0.448762 127 0 255
0.125858 -0.256127 -0.398136 127 0 255
-0.0537033 -0.482249 -0.22078 127 0 255
-0.108007 -0.4853 0.101172 127 0 255
0.191279 -0.367649 0.23781 127 0 255
0.113318 -0.483146 0.121407 127 0 255
-0.109256 -0.369608 -0.494865 127 0 255
0.0746725 -0.149839 0.274988 127 0 255
0.123586 -0.324581 -0.172277 127 0 255
0.121134 -0.0751256 -0.437067 127 0 255
-0.050336 -0.0839064 -0.489071 127 0 255
-0.0497924 -0.303289 -0.496755 127 0 255
-0.204509 -0.482269 -0.164295 127 0 255
0.171529 -0.448658 -0.186796 127 0 255
0.195036 -0.280857 0.268285 127 0 255
-0.000417565 -0.481408 -0.433449 127 0 255
0.1619 -0.24343 -0.267691 127 0 255
-0.0898122 -0.486129 -0.0923017 127 0 255
0.187564 -0.166371 0.125158 127 0 255
0.121611 -0.197037 -0.430587 127 0 255
0.142443 -0.482807 0.183944 127 0 255
0.0746726 -0.212328 0.18748 127 0 255
0.0225185 -0.471204 -0.0790188 127 0 255
0.181891 -0.328551 0.106863 127 0 255
-0.299172 -0.482582 0.0362079 127 0 255
0.0746727 -0.399824 -0.162522 127 0 255
0.0880983 -0.350981 -0.493406 127 0 255
0.112173 -0.0998191 0.162475 127 0 255
-0.210137 -0.484605 -0.32458 127 0 255
0.141053 -0.152815 -0.248246 127 0 255
0.125476 -0.481002 -0.0549371 127 0 255
0.0293167 -0.484082 0.167924 127 0 255
0.188571 -0.129469 0.180078 127 0 255
0.135233 -0.0761538 -0.30735 127 0 255
0.18442 -0.258019 -0.0733746 127 0 255
0.11622 -0.441915 0.31899 127 0 255
0.148028 -0.3493 0.348651 127 0 255
-0.166331 -0.482119 -0.222552 127 0 255
0.182231 -0.146442 -0.121352 127 0 255
-0.0506704 -0.481836 0.0290799 127 0 255
-0.279526 -0.482517 -0.214086 127 0 255
0.103147 -0.303916 0.0158511 127 0 255
0.189877 -0.437471 -0.0797041 127 0 255
0.0612999 -0.483387 0.0929728 127 0 255
0.196183 -0.17889 0.315484 127 0 255
0.171162 -0.244413 -0.369521 127 0 255
0.181294 -0.0982457 0.0498263 127 0 255
-0.0435001 -0.486026 -0.31807 127 0 255
-0.234743 -0.482435 0.0891602 127 0 255
0.165072 -0.359115 -0.427993 127 0 255
0.130957 -0.481177 -0.429423 127 0 255
0.115795 -0.238931 0.225149 127 0 255
0.108579 -0.207016 -0.216216 127 0 255
0.168025 -0.143613 -0.3101 127 0 255
0.182137 -0.30417 -0.115546 127 0 255
0.117598 -0.396925 0.221805 127 0 255
-0.290596 -0.411156 0.0350721 127 0 255
0.187587 -0.438637 0.170934 127 0 255
0.129568 -0.279698 0.116282 127 0 255
0.125021 -0.356892 0.06823 127 0 255
-0.0289615 -0.485493 -0.145159 127 0 255
-0.110522 -0.48155 -0.375295 127 0 255
-0.0965439 -0.156624 -0.488297 127 0 255
0.121786 -0.355877 -0.250965 127 0 255
-0.325327 -0.399811 0.187469 127 0 255
0.133607 -0.0890285 -0.158665 127 0 255
0.162482 -0.474368 -0.272787 127 0 255
0.130734 -0.424443 -0.354388 127 0 255
0.0195002 -0.32899 -0.473138 127 0 255
0.11915 -0.148819 -0.0517121 127 0 255
-0.202047 -0.485117 -0.0868137 127 0 255
0.188613 -0.297303 0.0537437 127 0 255
0.155484 -0.12251 0.30528 127 0 255
0.0980323 -0.480674 0.0509847 127 0 255
0.15009 -0.383993 -0.49836 127 0 255
-0.0281138 -0.47943 0.185343 127 0 255
0.0686873 -0.484559 -0.197688 127 0 255
-0.334004 -0.482545 -0.0827276 127 0 255
-0.00115368 -0.48629 0.302776 127 0 255
0.139006 -0.337492 -0.0603465 127 0 255
0.192798 -0.209877 -0.00212293 127 0 255
0.119653 -0.218211 0.0826736 127 0 255
0.193793 -0.367375 0.29828 127 0 255
0.15154 -0.423868 0.0185045 127 0 255
0.144203 -0.138403 -0.461276 127 0 255
0.132276 -0.191644 -0.357863 127 0 255
0.168589 -0.299702 -0.212317 127 0 255
0.17196 -0.362393 -0.29506 127 0 255
0.154204 -0.289416 0.342103 127 0 255
-0.0618138 -0.368555 -0.495142 127 0 255
0.176766 -0.47872 0.125505 127 0 255
0.0692119 -0.485743 -0.131369 127 0 255
0.118769 -0.271608 -0.112596 127 0 255
0.199415 -0.456427 0.28404 127 0 255
-0.0144011 -0.483326 0.121925 127 0 255
0.120942 -0.410825 -0.100765 127 0 255
0.0540713 -0.412479 -0.489443 127 0 255
0.182996 -0.109949 -0.208852 127 0 255
-0.269297 -0.421052 -0.0318493 127 0 255
0.18223 -0.203111 -0.139049 127 0 255
0.16241 -0.213829 -0.446956 127 0 255
0.186598 -0.154259 0.0295434 127 0 255
0.121631 -0.450036 0.218339 127 0 255
-0.346334 -0.454642 0.014397 127 0 255
-0.0579214 -0.481364 -0.420609 127 0 255
0.188336 -0.294602 -0.0326181 127 0 255
0.0846732 -0.0813098 -0.459758 127 0 255
0.148765 -0.298341 0.166352 127 0 255
0.169924 -0.479408 -0.00875949 127 0 255
0.17829 -0.380585 -0.157814 127 0 255
0.0617873 -0.482002 -0.409667 127 0 255
0.00321778 -0.484905 -0.310061 127 0 255
-0.0232235 -0.482974 -0.0202782 127 0 255
0.0746727 -0.0998167 -0.0375267 127 0 255
0.162239 -0.253138 0.277938 127 0 255
0.0293895 -0.24671 -0.487242 127 0 255
0.153692 -0.476896 -0.335128 127 0 255
-0.0902671 -0.483374 0.260017 127 0 255
0.182471 -0.0955308 0.12817 127 0 255
0.0537489 -0.482895 0.258224 127 0 255
-0.137827 -0.487338 0.362487 127 0 255
-0.0828459 -0.481889 -0.157533 127 0 255
0.155264 -0.0701774 -0.36764 127 0 255
0.146652 -0.35023 -0.351547 127 0 255
0.156278 -0.42825 -0.437394 127 0 255
-0.00447695 -0.482856 -0.476667 127 0 255
-0.141855 -0.480885 -0.477372 127 0 255
-0.209392 -0.483331 -0.0136403 127 0 255
0.136729 -0.101492 -0.247036 127 0 255
0.0746727 -0.237317 -0.275027 127 0 255
-0.30092 -0.47023 0.0930857 127 0 255
0.0453485 -0.164389 -0.498826 127 0 255
0.123874 -0.184882 -0.140172 127 0 255
0.0903897 -0.479853 -0.243825 127 0 255
-0.0782161 -0.483199 0.0691291 127 0 255
-0.220071 -0.484314 0.174506 127 0 255
-0.375327 -0.399801 0.124963 127 0 255
0.188193 -0.235856 0.115374 127 0 255
0.0484245 -0.412087 -0.0578492 127 0 255
0.161659 -0.311626 -0.438819 127 0 255
0.17438 -0.426445 0.0852746 127 0 255
0.199673 -0.449832 0.374983 127 0 255
0.0679542 -0.48413 0.172144 127 0 255
0.19289 -0.233825 0.206053 127 0 255
0.150363 -0.394906 0.340245 127 0 255
-0.270876 -0.483169 -0.0896739 127 0 255
0.0445227 -0.482501 -0.0293597 127 0 255
-0.130821 -0.48345 0.00216523 127 0 255
0.176752 -0.169517 -0.357973 127 0 255
0.130355 -0.483845 0.320748 127 0 255
-0.176287 -0.481458 -0.358661 127 0 255
0.0779123 -0.221472 -0.454336 127 0 255
-0.187827 -0.399818 0.0749738 127 0 255
0.106981 -0.122933 -0.119004 127 0 255
0.123786 -0.341009 0.256478 127 0 255
-0.157058 -0.483954 -0.0881499 127 0 255
0.108767 -0.438663 -0.000180546 127 0 255
0.159838 -0.205196 -0.0462015 127 0 255
0.178638 -0.407781 -0.03317 127 0 255
0.0746726 -0.274827 0.17498 127 0 255
0.123824 -0.251935 -0.16773 127 0 255
-0.324062 -0.455336 -0.116057 127 0 255
0.174172 -0.470359 -0.148296 127 0 255
-0.0869593 -0.481905 -0.266264 127 0 255
0.180463 -0.0954685 -0.0262453 127 0 255
0.168764 -0.298762 -0.318099 127 0 255
0.164203 -0.367075 0.129896 127 0 255
0.19387 -0.242767 0.322529 127 0 255
0.0746727 -0.212321 -0.100024 127 0 255
0.166881 -0.425855 -0.383392 127 0 255
-0.128591 -0.485464 -0.176569 127 0 255
0.0746726 -0.374826 0.0249796 127 0 255
0.19286 -0.341244 -0.0355992 127 0 255
0.163049 -0.112739 -0.431227 127 0 255
0.0721623 -0.348005 -0.453259 127 0 255
-0.0451999 -0.191711 -0.497634 127 0 255
-0.128771 -0.485347 0.174699 127 0 255
-0.125133 -0.436353 -0.491089 127 0 255
0.172586 -0.329184 -0.160108 127 0 255
-0.0326848 -0.485234 0.333164 127 0 255
0.112 -0.294899 0.291731 127 0 255
-0.0143874 -0.485947 -0.231532 127 0 255
0.128524 -0.21316 -0.286056 127 0 255
0.0891643 -0.354958 -0.0631033 127 0 255
0.135113 -0.443888 -0.260392 127 0 255
0.199125 -0.300432 0.218722 127 0 255
0.0748808 -0.461234 -0.499056 127 0 255
-0.0667879 -0.117069 -0.489668 127 0 255
0.186001 -0.186639 0.276516 127 0 255
0.0486701 -0.483418 0.337252 127 0 255
-0.292496 -0.392703 -0.0077834 127 0 255
0.192821 -0.223315 -0.0919047 127 0 255
-0.110435 -0.206854 -0.493647 127 0 255
0.0602507 -0.286199 -0.496189 127 0 255
0.189718 -0.386129 0.186398 127 0 255
0.14978 -0.484037 0.242662 127 0 255
0.152444 -0.122627 0.200386 127 0 255
0.168289 -0.417082 0.284026 127 0 255
-0.284128 -0.484106 -0.00392314 127 0 255
-0.412827 -0.437284 -0.0250484 127 0 255
0.116408 -0.107906 -0.016469 127 0 255
0.168277 -0.400472 -0.222059 127 0 255
0.0746728 -0.12481 -0.362531 127 0 255
0.0925772 -0.478371 -0.365036 127 0 255
-0.220375 -0.437222 -0.0385065 127 0 255
-0.191046 -0.481096 -0.424508 127 0 255
0.0746727 -0.212321 -0.0250238 127 0 255
-0.311809 -0.481759 -0.192553 127 0 255
0.170035 -0.291484 -0.259493 127 0 255
0.182241 -0.154702 -0.163772 127 0 255
-0.219435 -0.485055 0.0609193 127 0 255
0.112098 -0.389465 0.277783 127 0 255
0.175232 -0.246518 -0.190114 127 0 255
0.0746727 -0.212322 0.0624765 127 0 255
0.125971 -0.433546 -0.0605604 127 0 255
0.183158 -0.155104 -0.0831315 127 0 255
0.138512 -0.359482 -0.392555 127 0 255
-0.0682543 -0.485539 0.192814 127 0 255
0.119779 -0.333541 -0.222364 127 0 255
0.111046 -0.122682 -0.493573 127 0 255
0.0280007 -0.481736 0.219564 127 0 255
0.177934 -0.128459 0.267142 127 0 255
-0.0271825 -0.363333 -0.475193 127 0 255
0.0187493 -0.482452 -0.404388 127 0 255
0.139487 -0.419866 -0.138926 127 0 255
0.107482 -0.150991 -0.199994 127 0 255
0.119895 -0.252447 -0.474097 127 0 255
0.126007 -0.242061 -0.349538 127 0 255
0.16029 -0.39245 -0.32262 127 0 255
0.185356 -0.183784 0.0664906 127 0 255
0.137493 -0.451181 -0.501737 127 0 255
0.0286259 -0.48333 0.044912 127 0 255
0.134358 -0.482793 0.365768 127 0 255
0.17745 -0.364355 -0.0986778 127 0 255
-0.236208 -0.482291 -0.231335 127 0 255
-0.327811 -0.482288 -0.0344003 127 0 255
0.128921 -0.28609 0.0752232 127 0 255
-0.0753275 -0.487342 0.38749 127 0 255
-0.225327 -0.4123 -0.112538 127 0 255
0.175055 -0.316305 0.285164 127 0 255
-0.00567349 -0.0919819 -0.494618 127 0 255
0.17349 -0.0880896 -0.145879 127 0 255
0.19228 -0.241263 0.0130734 127 0 255
-0.245691 -0.483517 0.123561 127 0 255
0.108636 -0.16036 -0.30428 127 0 255
-0.250259 -0.412147 0.0671011 127 0 255
0.134107 -0.094532 -0.0690977 127 0 255
0.158716 -0.188588 0.172867 127 0 255
-0.361125 -0.415059 0.0265917 127 0 255
0.186014 -0.440604 0.0332165 127 0 255
0.134231 -0.45849 0.152942 127 0 255
-0.144263 -0.485234 0.0532421 127 0 255
0.108409 -0.30755 -0.092486 127 0 255
0.144543 -0.340644 0.0264032 127 0 255
0.110645 -0.484559 0.266372 127 0 255
0.081655 -0.481502 -0.0754058 127 0 255
0.0255785 -0.485863 -0.168131 127 0 255
-0.203887 -0.485132 -0.145023 127 0 255
0.0746725 -0.199838 0.274987 127 0 255
0.0996728 -0.149817 0.0499734 127 0 255
-0.14785 -0.482128 -0.246172 127 0 255
0.172506 -0.143807 -0.405565 127 0 255
0.171013 -0.294332 -0.385267 127 0 255
0.114566 -0.42231 -0.421109 127 0 255
0.120785 -0.483228 0.0179203 127 0 255
-0.400327 -0.462281 -0.0750501 127 0 255
-0.0333009 -0.478541 -0.392405 127 0 255
-0.0160231 -0.484242 -0.0866772 127 0 255
0.167464 -0.151366 -0.273445 127 0 255
0.0746727 -0.374818 -0.312526 127 0 255
0.12677 -0.372057 -0.0321335 127 0 255
0.144414 -0.345073 0.204488 127 0 255
0.00200263 -0.449866 -0.479654 127 0 255
0.191522 -0.28245 0.177093 127 0 255
0.161283 -0.152444 0.324335 127 0 255
-0.112099 -0.389505 -0.485543 127 0 255
0.140503 -0.0757499 -0.196292 127 0 255
0.112042 -0.232168 -0.0830836 127 0 255
0.181447 -0.0983958 0.0165561 127 0 255
0.0524752 -0.48321 0.127591 127 0 255
0.119783 -0.194102 -0.000602917 127 0 255
0.0595089 -0.117387 -0.454998 127 0 255
0.188574 -0.424895 0.143633 127 0 255
0.17304 -0.440033 -0.310659 127 0 255
0.0874279 -0.473203 -0.300229 127 0 255
0.125434 -0.481018 -0.137802 127 0 255
-0.231849 -0.425311 0.0114349 127 0 255
-0.0934951 -0.485381 -0.0289541 127 0 255
-0.0891435 -0.483568 0.125861 127 0 255
-0.14097 -0.48137 -0.41649 127 0 255
0.170361 -0.0888769 0.17393 127 0 255
0.189498 -0.40556 0.342486 127 0 255
0.119809 -0.342509 -0.47821 127 0 255
0.160464 -0.386076 0.0540517 127 0 255
0.109454 -0.235917 -0.217494 127 0 255
-0.0531343 -0.480878 -0.473879 127 0 255
0.0746727 -0.137322 0.112477 127 0 255
0.0746727 -0.299817 -0.312527 127 0 255
0.183761 -0.10276 0.087936 127 0 255
0.135533 -0.483141 -0.211246 127 0 255
0.109817 -0.356931 0.338608 127 0 255
0.126795 -0.273734 -0.420598 127 0 255
0.156758 -0.40806 -0.468865 127 0 255
-0.0229529 -0.48304 0.235354 127 0 255
-0.180856 -0.48524 -0.0373106 127 0 255
0.140964 -0.246751 0.00636315 127 0 255
0.0820342 -0.427094 0.265392 127 0 255
-0.00426549 -0.483193 0.00541124 127 0 255
0.0871726 -0.0998312 0.224983 127 0 255
-0.109357 -0.484773 0.233662 127 0 255
-0.333955 -0.395867 -0.0209052 127 0 255
-0.193774 -0.485293 0.117844 127 0 255
0.108403 -0.443105 0.355713 127 0 255
0.131744 -0.175492 -0.388041 127 0 255
0.0801697 -0.447523 -0.452826 127 0 255
0.02805 -0.478858 -0.302878 127 0 255
0.139349 -0.185661 0.0926505 127 0 255
0.134126 -0.0798422 -0.32899 127 0 255
-0.118095 -0.482357 -0.108493 127 0 255
0.170584 -0.0918129 0.244619 127 0 255
0.143659 -0.275995 0.207595 127 0 255
-0.0404194 -0.483269 0.0827739 127 0 255
-0.0311513 -0.157031 -0.498229 127 0 255
0.0746727 -0.287324 0.0749782 127 0 255
-0.110919 -0.481672 -0.33559 127 0 255
0.121556 -0.399888 0.174239 127 0 255
0.191211 -0.304676 0.0241448 127 0 255
0.188852 -0.462131 0.31399 127 0 255
-0.0496236 -0.481888 -0.272144 127 0 255
-0.28236 -0.484697 -0.166261 127 0 255
0.170402 -0.215572 -0.253027 127 0 255
0.0871728 -0.0748104 -0.225031 127 0 255
0.079636 -0.238715 -0.495164 127 0 255
0.149631 -0.471004 -0.425482 127 0 255
0.114555 -0.229463 0.233475 127 0 255
0.170589 -0.389382 -0.273616 127 0 255
-0.287936 -0.48147 -0.246396 127 0 255
0.175284 -0.201147 -0.321326 127 0 255
0.158921 -0.221635 0.333652 127 0 255
-0.322294 -0.470049 0.0414474 127 0 255
0.0302412 -0.481851 -0.117948 127 0 255
0.165508 -0.084168 -0.273828 127 0 255
0.130814 -0.292499 -0.214433 127 0 255
0.100395 -0.308875 0.00891866 127 0 255
0.146984 -0.483203 -0.0859337 127 0 255
-0.00745767 -0.243944 -0.485334 127 0 255
0.0746727 -0.374821 -0.225024 127 0 255
0.194478 -0.116668 -0.0655861 127 0 255
0.164151 -0.286529 -0.0702639 127 0 255
0.0422909 -0.484976 0.286723 127 0 255
-0.312827 -0.42478 -0.200051 127 0 255
0.142103 -0.483004 0.0930169 127 0 255
0.109691 -0.15143 -0.15642 127 0 255
0.0314355 -0.360472 -0.491379 127 0 255
0.182385 -0.321006 0.101862 127 0 255
