ply
format ascii 1.0
comment Created by Open3D
element vertex 1210
property double x
property double y
property double z
property uchar red
property uchar green
property uchar blue
end_header
-0.163379 -0.340317 0.259768 36 218 255
-0.131237 -0.203872 0.202384 72 183 255
0.176248 -0.345268 0.200281 36 219 255
0.119818 -0.162503 0.210781 83 172 255
0.0175469 -0.257745 0.198535 59 195 255
-0.125608 -0.0704007 0.201128 105 149 255
0.090583 -0.0739435 0.20271 105 149 255
0.0444923 -0.427425 0.212026 15 240 255
-0.149996 -0.0625024 0.312486 108 147 255
-0.0287725 -0.401894 0.202485 22 233 255
0.196925 -0.404773 0.200617 21 234 255
-0.142878 -0.4813 0.216657 1 254 255
0.299706 -0.307456 0.204608 46 209 255
0.13969 -0.38166 0.200293 27 228 255
0.291869 -0.247168 0.212284 60 194 255
-0.0399531 -0.0885845 0.200148 102 153 255
0.0812746 -0.184141 0.198561 77 178 255
0.312504 -0.387502 0.299986 25 230 255
0.228836 -0.204835 0.207062 72 183 255
0.0475697 -0.0878855 0.203034 102 153 255
0.0645902 -0.38302 0.21583 26 229 255
0.102662 -0.233754 0.206786 65 190 255
0.0258914 -0.469579 0.214864 4 251 255
-0.147342 -0.276189 0.206341 54 201 255
0.214521 -0.298241 0.199389 48 207 255
-0.0322401 -0.15586 0.205534 85 170 255
0.267484 -0.368617 0.199688 30 225 255
-0.159626 -0.249881 0.279472 60 194 255
0.105342 -0.42777 0.203046 15 240 255
-0.0928478 -0.409683 0.20305 20 235 255
0.0599934 -0.303905 0.199093 47 208 255
0.176553 -0.22704 0.207626 65 189 255
0.112504 -0.300002 0.237486 48 207 255
-0.163588 -0.351049 0.211303 35 220 255
0.145241 -0.120928 0.2001 94 161 255
-0.0910385 -0.123474 0.204272 93 162 255
0.149753 -0.457028 0.201647 8 247 255
0.260342 -0.159452 0.203259 84 171 255
-0.0485455 -0.263927 0.202174 56 198 255
-0.0692268 -0.48566 0.217179 0 255 255
0.228794 -0.337186 0.210198 38 217 255
0.199439 -0.169545 0.200066 81 174 255
0.00120539 -0.0980578 0.204984 99 156 255
0.229549 -0.0992711 0.198766 99 156 255
0.203866 -0.419109 0.282694 17 238 255
0.110694 -0.361667 0.218623 32 223 255
0.300619 -0.199555 0.211565 73 182 255
-0.0113245 -0.221122 0.204968 68 187 255
0.0568193 -0.117946 0.19949 94 161 255
-0.152249 -0.164787 0.199444 81 173 255
0.0607835 -0.20515 0.198563 72 183 255
0.017637 -0.321182 0.199892 42 213 255
-0.0968603 -0.0785367 0.200415 104 151 255
-0.163743 -0.427837 0.303131 15 240 255
-0.0351337 -0.370031 0.202429 30 225 255
0.0875043 -0.437502 0.287486 12 243 255
0.0541702 -0.262923 0.209213 56 198 255
-0.152766 -0.105253 0.238121 97 157 255
-0.0107568 -0.464268 0.200137 6 249 255
-0.0592335 -0.413127 0.202937 19 236 255
0.15914 -0.282422 0.199504 52 203 255
0.0142072 -0.384623 0.200969 26 229 255
0.252864 -0.400167 0.217284 22 233 255
0.227949 -0.45794 0.209293 7 248 255
-0.165122 -0.405353 0.251889 21 234 255
-0.163239 -0.473859 0.309 3 252 255
0.132494 -0.23206 0.208991 65 190 255
-0.0377474 -0.200087 0.19967 73 182 255
0.145756 -0.329337 0.208995 40 215 255
0.0750043 -0.387502 0.287486 25 230 255
0.0147304 -0.139581 0.199189 89 166 255
0.331754 -0.417663 0.210641 18 237 255
-0.132031 -0.239275 0.210811 63 192 255
0.0514479 -0.479735 0.215313 2 253 255
0.287063 -0.34224 0.211185 36 218 255
0.294439 -0.277205 0.202727 54 201 255
0.0869366 -0.36132 0.199546 32 223 255
-0.0108906 -0.29076 0.205021 50 205 255
0.0991619 -0.118754 0.202033 94 161 255
0.209111 -0.234673 0.206944 64 191 255
-0.0267618 -0.122995 0.199731 93 162 255
0.16596 -0.383617 0.199853 26 229 255
-0.1609 -0.194707 0.245241 75 179 255
-0.144426 -0.334188 0.2142 39 216 255
0.0932383 -0.296769 0.202464 48 206 255
0.291 -0.157298 0.20441 84 171 255
0.130427 -0.0827407 0.200499 103 152 255
0.187969 -0.433413 0.213613 14 241 255
-0.143988 -0.103363 0.19989 97 157 255
-0.163335 -0.44945 0.235977 9 246 255
-0.161562 -0.283595 0.227086 52 203 255
-0.155072 -0.0866324 0.279063 102 153 255
0.253506 -0.301991 0.208352 47 208 255
-0.0730945 -0.230869 0.19954 65 190 255
0.250036 -0.193557 0.202582 75 179 255
0.321761 -0.370173 0.20495 30 225 255
0.0262539 -0.231364 0.207079 65 190 255
-0.104284 -0.468789 0.200528 4 251 255
-0.162496 -0.0375024 0.199986 115 140 255
0.19784 -0.363515 0.215963 31 224 255
-0.159742 -0.478987 0.270971 2 253 255
0.119945 -0.39421 0.210754 24 231 255
-0.150246 -0.38813 0.204302 25 230 255
-0.0693746 -0.0855443 0.200437 103 152 255
-0.0431404 -0.340186 0.202677 36 218 255
0.0400486 -0.183641 0.198692 77 178 255
0.26594 -0.107817 0.206244 97 158 255
-0.15988 -0.23301 0.257359 65 190 255
0.204784 -0.14265 0.2007 88 167 255
0.017566 -0.428753 0.203366 15 240 255
0.244719 -0.256464 0.201449 59 195 255
0.127574 -0.175706 0.198707 80 175 255
0.110347 -0.448424 0.214356 10 245 255
0.106028 -0.260245 0.205095 58 197 255
0.269562 -0.435853 0.203141 13 242 255
0.185253 -0.270787 0.199966 55 200 255
0.0246472 -0.0809474 0.200408 104 151 255
0.250004 -0.362502 0.249986 32 223 255
0.137504 -0.412502 0.249986 19 236 255
0.0481815 -0.369432 0.206299 30 225 255
0.189448 -0.086716 0.201579 102 153 255
-0.131765 -0.192024 0.204215 75 179 255
0.0285484 -0.273596 0.212089 54 201 255
0.180779 -0.170295 0.209771 81 174 255
0.0630406 -0.455465 0.201283 8 247 255
-0.0791035 -0.435178 0.204551 13 242 255
-0.0810307 -0.189134 0.199599 76 179 255
-0.161528 -0.170742 0.241628 81 174 255
0.132431 -0.136806 0.199367 89 166 255
0.0462884 -0.141448 0.203617 88 167 255
0.216559 -0.409536 0.199774 20 235 255
0.0014698 -0.347871 0.19862 35 220 255
-0.0191054 -0.162264 0.205606 83 172 255
0.300004 -0.0750024 0.199986 105 150 255
0.164051 -0.209366 0.20039 71 184 255
-0.0771178 -0.487186 0.20791 0 255 255
0.144327 -0.422974 0.212816 16 239 255
0.213762 -0.331722 0.211327 40 215 255
0.24218 -0.132137 0.203445 91 163 255
0.0109797 -0.201784 0.206493 73 182 255
-0.132683 -0.441824 0.198625 11 244 255
-0.156367 -0.487522 0.241529 0 255 255
0.304746 -0.245571 0.203301 62 193 255
-0.127537 -0.259981 0.202793 58 197 255
-0.0565371 -0.378716 0.202123 28 227 255
-0.153225 -0.0707651 0.242052 105 149 255
0.186815 -0.460494 0.206459 7 248 255
0.308407 -0.388201 0.216209 25 230 255
0.0802533 -0.211376 0.205079 70 185 255
-0.15776 -0.421653 0.304521 17 238 255
0.08885 -0.0875627 0.198855 102 153 255
0.0845672 -0.406833 0.216866 20 235 255
-0.1615 -0.334974 0.249472 39 216 255
0.149113 -0.309653 0.208607 44 210 255
0.252563 -0.345468 0.199856 36 219 255
-0.0565614 -0.258555 0.202099 58 197 255
-0.0428211 -0.462884 0.199853 6 249 255
-0.0194099 -0.0816712 0.200147 104 151 255
0.269482 -0.225546 0.202548 67 188 255
-0.124714 -0.120547 0.20528 94 161 255
0.303525 -0.334107 0.212476 39 216 255
-0.15681 -0.236625 0.284446 64 191 255
0.0258162 -0.452801 0.200969 9 246 255
-0.0600586 -0.115183 0.199402 95 160 255
0.0552071 -0.315737 0.199001 44 211 255
0.203817 -0.200788 0.204273 73 182 255
0.100717 -0.473986 0.215522 3 252 255
0.0859202 -0.177903 0.198583 79 176 255
-0.149648 -0.315931 0.200449 44 211 255
-0.161407 -0.426376 0.21716 15 240 255
-0.112061 -0.218399 0.203571 69 186 255
0.207641 -0.27189 0.203142 55 200 255
-0.00710542 -0.390521 0.201004 25 230 255
0.302482 -0.195804 0.200653 73 181 255
0.0973126 -0.363895 0.219623 31 224 255
0.00554179 -0.242527 0.207883 62 193 255
0.244921 -0.455097 0.211129 8 247 255
0.158803 -0.0927208 0.199576 101 154 255
0.26708 -0.277707 0.206796 52 202 255
0.293096 -0.425154 0.214958 16 239 255
0.115571 -0.277651 0.200211 52 202 255
-0.164861 -0.415792 0.26458 18 237 255
0.200794 -0.376308 0.199608 28 227 255
-0.153009 -0.0966729 0.297223 100 155 255
-0.0698027 -0.0723881 0.200302 105 149 255
0.130652 -0.344735 0.200863 36 219 255
0.0799739 -0.11982 0.203605 94 161 255
0.237133 -0.177002 0.200022 79 176 255
-0.0813632 -0.398585 0.202917 22 233 255
0.0750043 -0.300002 0.237486 48 207 255
-0.0483106 -0.204948 0.199739 72 183 255
0.16976 -0.242831 0.207687 62 193 255
0.204826 -0.111925 0.203354 96 159 255
0.0668837 -0.238044 0.207581 64 191 255
0.199926 -0.3033 0.199487 47 208 255
0.115822 -0.206034 0.203432 72 183 255
-0.0131521 -0.32258 0.200846 42 213 255
0.212504 -0.362502 0.249986 32 223 255
0.312504 -0.387502 0.299986 25 230 255
-0.112496 -0.487502 0.299986 0 255 255
-0.162712 -0.0969521 0.23681 100 155 255
-0.0161126 -0.421172 0.199786 17 238 255
0.132186 -0.462035 0.211798 6 249 255
0.167379 -0.162808 0.199539 83 172 255
0.323746 -0.403933 0.200899 21 234 255
-0.14128 -0.351136 0.20255 35 220 255
0.0478915 -0.42358 0.201493 16 239 255
-0.144126 -0.479651 0.21272 2 253 255
0.171381 -0.406872 0.20317 20 235 255
-0.148059 -0.229664 0.206602 65 189 255
0.05795 -0.480062 0.215471 2 253 255
-0.1146 -0.418991 0.2 17 238 255
-0.0161373 -0.273663 0.200324 54 201 255
0.28289 -0.121932 0.20463 93 162 255
-0.0130784 -0.465714 0.200359 5 250 255
-0.0209446 -0.133706 0.199412 89 165 255
0.172083 -0.333641 0.200261 39 216 255
0.0371355 -0.35973 0.202364 32 223 255
-0.112496 -0.0375024 0.212486 115 140 255
0.115344 -0.130653 0.211602 91 163 255
0.294978 -0.300249 0.203363 48 207 255
0.260692 -0.365112 0.216353 31 224 255
0.337504 -0.375002 0.237486 28 227 255
-0.163266 -0.470999 0.302551 4 251 255
0.0568336 -0.0874264 0.202126 102 153 255
0.207233 -0.431652 0.203523 14 241 255
0.236134 -0.232549 0.208581 65 190 255
-0.158938 -0.214788 0.273723 70 185 255
-0.0480745 -0.345743 0.19959 36 219 255
0.279598 -0.174176 0.206824 80 175 255
0.0334128 -0.162837 0.204489 83 172 255
-0.100334 -0.0772573 0.200998 105 150 255
-0.152859 -0.148635 0.212279 86 169 255
0.0746665 -0.270417 0.198544 55 200 255
0.00729018 -0.0844414 0.201423 103 152 255
0.232557 -0.394472 0.216857 24 231 255
-0.155827 -0.405472 0.20228 21 234 255
0.108346 -0.0818855 0.19916 104 151 255
-0.0341108 -0.176702 0.19932 79 176 255
0.163783 -0.46151 0.20282 6 249 255
-0.0608477 -0.487077 0.210266 0 255 255
0.0156904 -0.30088 0.203411 47 208 255
0.246415 -0.105983 0.207973 97 158 255
-0.1007 -0.234754 0.203318 64 191 255
0.11407 -0.41319 0.200525 19 236 255
-0.157593 -0.316347 0.230154 44 211 255
0.161506 -0.127858 0.199902 92 163 255
-0.158674 -0.455628 0.260435 8 247 255
0.0645563 -0.341959 0.21616 36 218 255
-0.161745 -0.272547 0.212918 55 200 255
0.100004 -0.437502 0.287486 12 243 255
0.267229 -0.314891 0.21147 44 211 255
-0.0929124 -0.118177 0.199533 94 161 255
0.0227229 -0.469836 0.202909 4 251 255
0.145214 -0.20462 0.200027 72 183 255
0.171018 -0.363012 0.211828 32 223 255
0.144663 -0.292724 0.207735 50 205 255
-0.155314 -0.185108 0.221703 77 178 255
0.327523 -0.430235 0.209966 14 241 255
0.0750043 -0.387502 0.287486 25 230 255
0.010997 -0.202627 0.206505 73 182 255
-0.145966 -0.063054 0.201454 108 147 255
-0.160672 -0.460333 0.206036 7 248 255
0.302928 -0.261005 0.209329 58 197 255
0.312504 -0.0875024 0.212486 102 153 255
-0.054606 -0.406801 0.201436 20 235 255
0.0947232 -0.311317 0.203776 44 210 255
0.313734 -0.342247 0.213577 36 218 255
-0.0982661 -0.192938 0.201651 75 179 255
-0.0374956 -0.487502 0.274986 0 255 255
0.0505105 -0.393163 0.201534 24 231 255
-0.0909804 -0.452029 0.199935 9 246 255
-0.033401 -0.253648 0.202149 60 195 255
-0.165034 -0.400668 0.257326 22 233 255
0.205141 -0.227607 0.199909 65 189 255
0.0784697 -0.4603 0.203624 7 248 255
-0.162994 -0.423097 0.309997 16 239 255
-0.159811 -0.123014 0.203006 93 162 255
0.24107 -0.438152 0.204307 12 243 255
0.0443226 -0.117129 0.199575 95 160 255
-0.0363623 -0.0833053 0.200265 103 152 255
0.242203 -0.271255 0.201613 55 200 255
0.287504 -0.362502 0.249986 32 223 255
0.104478 -0.171074 0.19964 81 174 255
0.102642 -0.371258 0.202594 29 226 255
0.0125043 -0.487502 0.262486 0 255 255
0.214367 -0.176547 0.208181 79 176 255
-0.0598972 -0.225588 0.202993 67 188 255
0.0400822 -0.258603 0.208495 58 197 255
-0.14853 -0.487394 0.248583 0 255 255
0.0954747 -0.247518 0.199878 60 194 255
0.229819 -0.311559 0.201376 44 210 255
0.191309 -0.130819 0.201195 91 163 255
0.286834 -0.392876 0.213624 24 231 255
-0.00743545 -0.372006 0.199502 29 226 255
0.264857 -0.207587 0.205388 71 184 255
-0.157671 -0.361835 0.217624 32 223 255
4.1849e-06 -0.436236 0.199456 13 242 255
0.148264 -0.267459 0.207343 56 199 255
-0.154228 -0.222441 0.228113 68 187 255
-0.152147 -0.0797436 0.245277 104 151 255
0.216932 -0.0960265 0.208905 100 155 255
0.286012 -0.431561 0.202635 14 241 255
0.150065 -0.397499 0.201849 23 232 255
0.0724636 -0.137912 0.199114 89 166 255
0.133637 -0.105724 0.200097 97 158 255
0.0908201 -0.422599 0.203849 16 239 255
-0.0466956 -0.123893 0.204187 93 162 255
0.235834 -0.1423 0.205494 88 167 255
0.0455001 -0.200583 0.209502 73 182 255
0.24414 -0.370159 0.20037 30 225 255
0.0791444 -0.0766466 0.205159 105 150 255
0.0129027 -0.338268 0.198984 38 217 255
0.304448 -0.200094 0.207677 73 182 255
0.151076 -0.16821 0.210059 81 174 255
0.0190873 -0.276705 0.212189 54 201 255
0.190241 -0.306485 0.20828 46 209 255
0.179724 -0.439979 0.200039 12 243 255
0.0223855 -0.154627 0.202814 85 170 255
0.274606 -0.251873 0.206993 60 195 255
0.127771 -0.220638 0.207225 68 187 255
0.185783 -0.0877531 0.201277 102 153 255
-0.0468358 -0.460052 0.199961 7 248 255
0.182518 -0.252419 0.206488 60 195 255
0.0785653 -0.354919 0.199431 34 221 255
-0.109816 -0.46048 0.199646 7 248 255
-0.0663866 -0.190883 0.203127 76 179 255
0.282346 -0.111689 0.203989 96 159 255
-0.11338 -0.114639 0.20713 95 160 255
0.111984 -0.4674 0.216748 5 250 255
0.056122 -0.435205 0.21128 13 242 255
0.129447 -0.367389 0.216041 30 225 255
-0.0107874 -0.181479 0.199439 78 177 255
0.000593716 -0.11118 0.198269 96 159 255
-0.106168 -0.242714 0.201428 62 193 255
0.286542 -0.351513 0.200956 35 220 255
-0.0505359 -0.372076 0.201489 29 226 255
-0.157002 -0.220768 0.269696 68 187 255
0.212459 -0.400431 0.199576 22 233 255
-0.137371 -0.3254 0.20453 40 214 255
-0.161178 -0.393714 0.217569 24 231 255
0.270733 -0.159279 0.203921 84 171 255
-0.0145876 -0.247502 0.198552 60 194 255
0.0845083 -0.388689 0.216852 25 230 255
-0.0800058 -0.487039 0.208436 0 255 255
-0.16112 -0.184696 0.238739 77 178 255
0.133614 -0.315416 0.21009 44 211 255
-0.0151825 -0.474702 0.204281 3 252 255
0.202754 -0.359532 0.200353 32 223 255
0.192064 -0.182436 0.199697 78 177 255
0.262504 -0.387502 0.287486 25 230 255
0.140873 -0.447944 0.201015 10 245 255
0.0120003 -0.413765 0.207119 19 236 255
-0.08806 -0.0708409 0.203554 105 149 255
0.0826333 -0.288733 0.206602 51 204 255
0.0355716 -0.0838544 0.199696 103 152 255
0.0376247 -0.337539 0.200066 38 217 255
-0.0369249 -0.148135 0.204748 87 168 255
-0.0984762 -0.424655 0.203245 16 239 255
-0.139446 -0.0861251 0.202601 102 153 255
0.0500044 -0.462502 0.274986 6 249 255
0.031545 -0.470821 0.201727 4 251 255
0.0963085 -0.197918 0.205303 73 181 255
-0.163635 -0.46364 0.273405 6 249 255
0.0294209 -0.230381 0.207002 65 189 255
0.237839 -0.219023 0.207946 68 187 255
-0.163271 -0.305958 0.218947 46 209 255
-0.159483 -0.155724 0.203295 85 170 255
0.125004 -0.387502 0.287486 25 230 255
-0.149286 -0.246189 0.219128 60 194 255
-0.011187 -0.32556 0.200264 40 214 255
0.226153 -0.456203 0.209028 8 247 255
0.133938 -0.136398 0.199407 89 165 255
0.325153 -0.407503 0.217111 20 235 255
0.0181371 -0.377133 0.202881 28 227 255
0.177488 -0.213297 0.207478 70 185 255
0.243949 -0.297869 0.20759 48 207 255
-0.145813 -0.454588 0.198442 8 247 255
0.0415591 -0.289606 0.199885 50 205 255
0.136521 -0.0875319 0.200101 102 153 255
0.0644054 -0.171823 0.204785 81 174 255
0.279374 -0.439454 0.210329 12 243 255
-0.0739262 -0.111416 0.199936 96 159 255
0.298156 -0.222439 0.209721 68 187 255
-0.0749956 -0.487502 0.287486 0 255 255
0.0582932 -0.479771 0.214917 2 253 255
-0.164823 -0.409449 0.26487 20 235 255
0.258066 -0.104225 0.206749 97 157 255
0.175138 -0.33145 0.200253 40 215 255
0.118456 -0.264947 0.200437 56 198 255
-0.0503402 -0.345047 0.202329 36 219 255
0.162214 -0.387092 0.200196 25 230 255
0.2635 -0.330424 0.213227 40 215 255
-0.0906274 -0.200523 0.198836 73 182 255
-0.162942 -0.444188 0.310317 11 244 255
0.064955 -0.22814 0.203598 65 189 255
-0.0514297 -0.252083 0.202435 60 195 255
0.200909 -0.436842 0.215806 13 242 255
0.057783 -0.367983 0.215958 30 225 255
-0.0106804 -0.0846136 0.199984 103 152 255
0.195087 -0.140607 0.20091 89 166 255
0.109133 -0.337894 0.201426 38 217 255
0.199974 -0.275317 0.20329 54 201 255
-0.0656414 -0.391642 0.200694 24 231 255
-0.0276492 -0.192967 0.20489 75 179 255
-0.0192448 -0.423122 0.20027 16 239 255
0.250271 -0.164737 0.202477 81 173 255
-0.16187 -0.0876223 0.24752 102 153 255
0.214001 -0.334338 0.211626 39 216 255
-0.0602736 -0.0764255 0.200172 105 150 255
0.218646 -0.390373 0.217242 25 230 255
0.289708 -0.384188 0.215002 26 229 255
0.0868718 -0.106525 0.201694 97 158 255
-0.00938717 -0.133945 0.202461 89 165 255
0.0972565 -0.454692 0.202991 8 247 255
0.132241 -0.169407 0.198704 81 174 255
-0.152892 -0.402353 0.202051 21 234 255
0.283779 -0.29214 0.202176 50 205 255
-0.126102 -0.474065 0.206401 3 252 255
0.169757 -0.0879339 0.20082 102 153 255
-0.149395 -0.262982 0.202121 56 198 255
0.14454 -0.225371 0.208138 67 188 255
-0.00899815 -0.285408 0.202622 51 204 255
0.233032 -0.260381 0.204141 58 197 255
0.242505 -0.420836 0.213182 17 238 255
0.22024 -0.0879761 0.200496 102 153 255
-0.00654106 -0.225303 0.205738 67 188 255
-0.074867 -0.434788 0.201641 13 242 255
0.039669 -0.129934 0.199339 91 163 255
-0.13955 -0.207078 0.204735 71 184 255
0.153628 -0.42263 0.199797 16 239 255
0.0380745 -0.414757 0.202077 18 237 255
-0.15263 -0.132639 0.215749 91 163 255
0.0249288 -0.179671 0.19866 79 176 255
0.304913 -0.328282 0.206284 40 215 255
0.226657 -0.192751 0.207888 75 179 255
-0.0239423 -0.374878 0.202239 29 226 255
-0.160786 -0.185211 0.247709 77 178 255
0.301734 -0.254238 0.201764 59 195 255
0.0723005 -0.313482 0.20163 44 211 255
-0.105484 -0.121634 0.200282 93 162 255
-0.0455518 -0.478264 0.200721 2 253 255
0.107231 -0.388969 0.214802 25 230 255
0.280806 -0.12697 0.203784 92 163 255
0.0750043 -0.387502 0.287486 25 230 255
-0.163561 -0.477377 0.257084 2 253 255
0.0749277 -0.26248 0.21041 56 198 255
0.225004 -0.362502 0.249986 32 223 255
-0.157607 -0.330105 0.230456 40 215 255
0.172994 -0.298172 0.206973 48 207 255
0.318979 -0.436012 0.205472 13 242 255
0.154002 -0.364548 0.20006 31 224 255
-0.138418 -0.0642566 0.207454 108 147 255
0.164826 -0.24322 0.199211 62 193 255
0.170105 -0.135413 0.200075 89 165 255
0.287504 -0.387502 0.299986 25 230 255
0.0419865 -0.0837622 0.200442 103 152 255
-0.104853 -0.240288 0.203 63 192 255
0.254871 -0.349937 0.19965 35 220 255
0.00252485 -0.466286 0.201941 5 250 255
0.091542 -0.0769926 0.200341 105 150 255
0.0714194 -0.142859 0.199074 88 167 255
0.0989998 -0.214188 0.20385 70 185 255
-0.149996 -0.0750024 0.324986 105 150 255
0.300004 -0.0750024 0.199986 105 150 255
0.0625044 -0.437502 0.287486 12 243 255
0.281312 -0.160327 0.202024 83 172 255
0.0980022 -0.363889 0.219603 31 224 255
0.0915238 -0.420406 0.203793 17 238 255
-0.156209 -0.454317 0.219738 8 247 255
0.130435 -0.281353 0.206389 52 203 255
0.0494498 -0.469659 0.201175 4 251 255
-0.163191 -0.429905 0.309818 14 241 255
0.211467 -0.245759 0.202714 62 193 255
0.027937 -0.31441 0.210636 44 211 255
-0.0868373 -0.467634 0.200242 5 250 255
0.231026 -0.1345 0.204779 89 165 255
0.170305 -0.197887 0.200392 73 181 255
-0.0672645 -0.123478 0.20124 93 162 255
-0.065227 -0.227957 0.199647 65 189 255
0.197088 -0.403105 0.20054 21 234 255
0.270965 -0.217782 0.207024 69 186 255
-0.158777 -0.178749 0.207219 79 176 255
0.0146228 -0.265397 0.198583 56 198 255
0.0422194 -0.196676 0.198588 73 181 255
0.112504 -0.437502 0.287486 12 243 255
0.278082 -0.400663 0.215609 22 233 255
0.144224 -0.324669 0.207894 40 214 255
-0.0351397 -0.16662 0.204751 81 173 255
0.0607502 -0.391796 0.215933 24 231 255
-0.15909 -0.221203 0.257927 68 187 255
-0.164914 -0.407245 0.261264 20 235 255
-0.013083 -0.395495 0.200928 23 232 255
0.154258 -0.454894 0.20162 8 247 255
0.264461 -0.265785 0.205772 56 199 255
-0.0549012 -0.0813477 0.204036 104 151 255
0.119403 -0.112097 0.200461 96 159 255
0.319722 -0.384269 0.204821 26 229 255
-0.106271 -0.425541 0.200513 16 239 255
0.292836 -0.440525 0.207694 12 243 255
-0.0688557 -0.48712 0.212608 0 255 255
0.106995 -0.184655 0.204122 77 178 255
-0.150327 -0.356275 0.203071 32 222 255
0.137504 -0.400002 0.249986 22 233 255
0.120176 -0.240111 0.200137 63 192 255
0.00651636 -0.134677 0.200718 89 165 255
0.222573 -0.310387 0.207728 44 210 255
-0.130937 -0.103388 0.204384 97 157 255
0.0911174 -0.319411 0.203653 43 211 255
-0.00627021 -0.34579 0.202754 36 219 255
0.230879 -0.363855 0.215746 31 224 255
-0.00592924 -0.219036 0.198368 68 187 255
0.194185 -0.438128 0.216355 12 243 255
0.0391687 -0.241417 0.205874 63 192 255
4.35839e-06 -0.487502 0.262486 0 255 255
-0.156336 -0.281699 0.212048 52 203 255
0.168788 -0.165406 0.210092 81 173 255
0.227422 -0.091355 0.207858 101 154 255
0.148816 -0.0879844 0.201693 102 153 255
0.211892 -0.221727 0.206473 68 187 255
-0.0486264 -0.255071 0.202325 59 195 255
-0.0354799 -0.116285 0.20038 95 160 255
0.13665 -0.424529 0.199895 16 239 255
-0.0485736 -0.352833 0.19972 34 221 255
-0.0269874 -0.453394 0.200461 8 247 255
0.30539 -0.334182 0.211835 39 216 255
-0.0681627 -0.404196 0.202683 21 234 255
0.294491 -0.206261 0.200151 72 183 255
-0.145086 -0.431223 0.199081 14 241 255
0.0782352 -0.461203 0.203629 6 249 255
-0.157542 -0.459214 0.271816 7 248 255
0.228859 -0.455765 0.209166 8 247 255
0.186522 -0.340514 0.201248 36 218 255
-0.0949373 -0.0922102 0.204108 101 154 255
0.0247893 -0.0844541 0.199827 103 152 255
-0.164094 -0.332387 0.213286 39 216 255
0.228222 -0.170054 0.208286 81 174 255
-0.153203 -0.0870125 0.244367 102 153 255
-0.0505231 -0.200209 0.199574 73 182 255
0.0937495 -0.127976 0.202553 92 163 255
0.0348682 -0.417388 0.202591 18 237 255
0.250004 -0.400002 0.299986 22 233 255
0.282481 -0.307015 0.201091 46 209 255
0.050095 -0.350253 0.202353 35 220 255
0.0774236 -0.181161 0.198568 78 177 255
0.177962 -0.2741 0.204387 54 201 255
-0.152856 -0.238413 0.209764 63 192 255
0.24668 -0.42333 0.213891 16 239 255
-0.158859 -0.392202 0.211214 24 231 255
0.180749 -0.109486 0.203037 96 159 255
0.0750043 -0.300002 0.237486 48 207 255
-0.0128281 -0.277174 0.202346 54 201 255
0.0161756 -0.170563 0.204833 81 174 255
0.140923 -0.366509 0.200156 31 224 255
-0.162241 -0.166029 0.215493 81 173 255
0.0898294 -0.254435 0.199474 59 195 255
0.282979 -0.11595 0.204167 95 160 255
0.178583 -0.392035 0.200465 24 231 255
-0.159921 -0.436179 0.314461 13 242 255
0.120459 -0.458532 0.215835 7 248 255
-0.00660882 -0.0888446 0.201103 102 153 255
-0.156572 -0.0853574 0.205773 103 152 255
0.0618782 -0.114235 0.204012 95 160 255
0.275162 -0.379161 0.216717 27 228 255
0.0167957 -0.313949 0.201606 44 211 255
0.198666 -0.147642 0.200742 87 168 255
0.250052 -0.205762 0.203485 72 183 255
0.114901 -0.0810086 0.20231 104 151 255
0.0141384 -0.467473 0.203137 5 250 255
0.154045 -0.202905 0.20055 73 182 255
0.112504 -0.387502 0.287486 25 230 255
-0.0998536 -0.218267 0.202803 69 186 255
-0.158644 -0.456894 0.246515 8 247 255
0.243875 -0.281024 0.207584 52 202 255
-0.160756 -0.18247 0.245756 78 177 255
0.133106 -0.284353 0.206587 52 203 255
0.0620819 -0.22607 0.20339 67 188 255
0.0761115 -0.412921 0.201529 19 236 255
-0.0359493 -0.14764 0.199207 87 168 255
0.100381 -0.362366 0.219291 32 223 255
-0.0465821 -0.388025 0.200628 25 230 255
0.299516 -0.238922 0.209854 63 192 255
0.320804 -0.389661 0.210572 25 230 255
0.252472 -0.336264 0.200122 38 217 255
-0.00820728 -0.430501 0.199545 14 241 255
0.0316822 -0.148922 0.199322 86 169 255
0.189291 -0.233114 0.199712 65 190 255
0.0250043 -0.0500024 0.212486 112 143 255
-0.114745 -0.461065 0.199538 6 249 255
0.0398821 -0.281579 0.209244 52 203 255
0.266683 -0.138288 0.203906 89 166 255
0.178182 -0.307521 0.208744 46 209 255
0.250004 -0.362502 0.249986 32 223 255
0.00396827 -0.376736 0.199801 28 227 255
0.203869 -0.362167 0.216267 32 223 255
-0.123283 -0.119358 0.205362 94 161 255
-0.160048 -0.21539 0.224806 69 186 255
0.145011 -0.174884 0.198968 80 175 255
0.0915858 -0.305826 0.203781 46 209 255
0.203206 -0.45507 0.213786 8 247 255
0.147184 -0.123257 0.200221 93 162 255
-0.0698903 -0.487236 0.210418 0 255 255
0.213989 -0.115703 0.20298 95 160 255
0.168398 -0.417102 0.202491 18 237 255
-0.149996 -0.300002 0.324986 48 207 255
0.0152881 -0.223804 0.207166 67 188 255
0.234867 -0.245808 0.208227 62 193 255
0.0544048 -0.0866607 0.20055 102 153 255
0.325004 -0.175002 0.212486 80 175 255
0.105697 -0.420484 0.203066 17 238 255
-0.156849 -0.466102 0.284471 5 250 255
0.0483551 -0.44694 0.205482 10 245 255
0.140421 -0.326786 0.20734 40 214 255
-0.0462833 -0.0844745 0.200384 103 152 255
0.0556054 -0.37041 0.215276 30 225 255
-0.162496 -0.0375024 0.224986 115 140 255
-0.157185 -0.114213 0.225413 95 160 255
-0.0394307 -0.201595 0.201553 73 182 255
-0.0789845 -0.426846 0.202976 15 240 255
0.254769 -0.391833 0.21678 24 231 255
-0.0224668 -0.267164 0.200574 56 199 255
0.0595447 -0.182797 0.206202 78 177 255
0.207563 -0.281127 0.20272 52 202 255
-0.0366082 -0.348257 0.201866 35 220 255
0.274779 -0.2678 0.206106 56 199 255
-0.0914621 -0.0805039 0.200795 104 151 255
0.117822 -0.234925 0.200959 64 191 255
0.274857 -0.425973 0.215953 15 240 255
0.190859 -0.0897668 0.203682 102 153 255
0.092623 -0.165065 0.205375 81 173 255
0.1399 -0.394152 0.203718 24 231 255
0.191137 -0.193702 0.202884 75 179 255
-0.158166 -0.421208 0.21412 17 238 255
0.163245 -0.454046 0.213927 8 247 255
0.0670052 -0.274373 0.209384 54 201 255
0.324372 -0.410732 0.217226 19 236 255
-0.00705269 -0.108787 0.198607 97 158 255
0.0106903 -0.195153 0.198705 75 179 255
0.163754 -0.253091 0.206988 60 195 255
-0.163612 -0.340093 0.212355 36 218 255
0.292001 -0.198586 0.210553 73 181 255
-0.143809 -0.463649 0.199171 6 249 255
-0.0565539 -0.459286 0.200148 7 248 255
0.200244 -0.320221 0.201491 43 211 255
0.0528475 -0.324807 0.215084 40 214 255
0.137504 -0.450002 0.274986 9 246 255
0.233679 -0.372082 0.201393 29 226 255
0.117822 -0.454211 0.201818 8 247 255
0.23876 -0.197897 0.207427 73 181 255
0.0978266 -0.0982995 0.205868 99 156 255
0.28194 -0.330629 0.211151 40 215 255
0.0750043 -0.437502 0.287486 12 243 255
0.225749 -0.0890051 0.200729 102 153 255
0.220034 -0.43099 0.204901 14 241 255
0.0940799 -0.399349 0.216307 22 233 255
-0.00684245 -0.337893 0.200287 38 217 255
-0.106045 -0.221181 0.202294 68 187 255
0.325004 -0.350002 0.237486 35 220 255
0.117309 -0.341841 0.215441 36 218 255
-0.0122287 -0.152612 0.200041 85 170 255
0.0422673 -0.12621 0.199411 92 163 255
-0.159188 -0.143319 0.205764 88 167 255
-0.0874339 -0.112832 0.205724 96 159 255
0.249054 -0.305091 0.200555 46 209 255
0.0498363 -0.396778 0.201731 23 232 255
0.195659 -0.163053 0.200577 83 172 255
0.0160808 -0.284681 0.199487 52 203 255
-0.00685055 -0.43682 0.203224 13 242 255
0.107414 -0.197461 0.203674 73 181 255
-0.157459 -0.255463 0.216574 59 195 255
0.258045 -0.122888 0.204728 93 162 255
-0.059094 -0.389323 0.202027 25 230 255
0.270981 -0.241668 0.206038 63 192 255
-0.162453 -0.434572 0.311071 13 242 255
0.0988475 -0.131943 0.200394 91 163 255
0.191955 -0.378972 0.213511 27 228 255
0.253835 -0.443799 0.212198 11 244 255
0.102377 -0.274826 0.204252 54 201 255
-0.164444 -0.459199 0.257293 7 248 255
0.0238279 -0.367337 0.201702 30 225 255
0.0650259 -0.212059 0.205995 70 185 255
-0.0361379 -0.255863 0.201232 59 195 255
0.162635 -0.0910465 0.200222 101 154 255
-0.0623497 -0.21131 0.199454 70 185 255
0.0687252 -0.441699 0.209653 11 244 255
0.151117 -0.276594 0.199971 54 201 255
-0.150568 -0.0659021 0.209401 108 147 255
0.0353827 -0.244012 0.206252 62 193 255
0.0987133 -0.358196 0.200177 32 222 255
-0.154288 -0.176053 0.217073 79 176 255
0.300004 -0.387502 0.299986 25 230 255
0.300208 -0.428154 0.203361 15 240 255
0.149288 -0.36459 0.200023 31 224 255
0.158983 -0.133317 0.200129 89 165 255
-0.0446753 -0.130769 0.199201 91 163 255
0.241048 -0.175454 0.206917 80 175 255
0.288471 -0.36125 0.21117 32 223 255
-0.0924996 -0.423545 0.202835 16 239 255
0.00925883 -0.466022 0.206926 5 250 255
0.192625 -0.246856 0.199949 60 194 255
-0.142782 -0.345274 0.204529 36 219 255
-0.0874956 -0.487502 0.287486 0 255 255
0.215844 -0.337977 0.212084 38 217 255
0.250004 -0.400002 0.299986 22 233 255
-0.161471 -0.408387 0.215186 20 235 255
0.057689 -0.145326 0.199151 87 168 255
0.144555 -0.208028 0.200926 71 184 255
0.204661 -0.420573 0.203717 17 238 255
0.137504 -0.400002 0.249986 22 233 255
0.0311777 -0.310509 0.200331 44 210 255
0.300468 -0.237395 0.203813 64 191 255
0.00461252 -0.0905563 0.202143 101 154 255
0.168574 -0.328333 0.200768 40 215 255
-0.0684377 -0.487107 0.209153 0 255 255
-0.146965 -0.224363 0.217519 67 188 255
0.00432767 -0.410125 0.201716 20 235 255
0.111155 -0.307915 0.210397 46 209 255
0.0765142 -0.468233 0.209057 5 250 255
-0.00567564 -0.197412 0.203403 73 181 255
0.213731 -0.123217 0.204208 93 162 255
-0.108686 -0.459232 0.199754 7 248 255
0.138732 -0.0875296 0.201879 102 153 255
0.0706391 -0.364773 0.216956 31 224 255
0.126602 -0.417466 0.201122 18 237 255
0.0786571 -0.0944676 0.204766 100 155 255
0.280274 -0.299814 0.208822 48 207 255
0.102808 -0.243193 0.201321 62 193 255
-0.00184555 -0.2508 0.20669 60 195 255
0.244515 -0.222775 0.208533 67 188 255
0.0392372 -0.17657 0.205656 79 176 255
-0.0999956 -0.0375024 0.199986 115 140 255
0.279888 -0.118214 0.204897 94 161 255
0.327369 -0.42071 0.216572 17 238 255
0.264669 -0.354169 0.199438 34 221 255
-0.135412 -0.121547 0.202928 93 162 255
0.214363 -0.284728 0.202918 52 203 255
-0.124996 -0.487502 0.312486 0 255 255
-0.162187 -0.319978 0.225213 43 211 255
0.197935 -0.214662 0.204635 70 185 255
0.0875043 -0.387502 0.287486 25 230 255
-0.154204 -0.09152 0.236696 101 154 255
-0.0600236 -0.0835638 0.200388 103 152 255
0.11404 -0.171986 0.200846 80 175 255
0.0793671 -0.327453 0.201525 40 214 255
-0.0277485 -0.455309 0.20377 8 247 255
0.245857 -0.413364 0.20824 19 236 255
-0.163752 -0.468749 0.264918 4 251 255
-0.0117785 -0.372902 0.200133 29 226 255
0.171515 -0.409474 0.205804 20 235 255
-0.0540069 -0.196437 0.202197 73 181 255
0.0140567 -0.133777 0.19997 89 165 255
0.119264 -0.45302 0.214667 9 246 255
-0.102088 -0.227571 0.202302 65 189 255
0.0456996 -0.427548 0.203451 15 240 255
0.296367 -0.384785 0.214631 26 229 255
-0.00524186 -0.286934 0.202745 51 204 255
-0.163235 -0.463261 0.216833 6 249 255
0.109768 -0.390782 0.205693 24 231 255
0.124178 -0.127576 0.200261 92 163 255
0.0390369 -0.0859274 0.201548 103 152 255
0.216819 -0.385396 0.200327 26 229 255
-0.0187228 -0.170366 0.204087 81 174 255
-0.0960099 -0.118998 0.203736 94 161 255
0.250004 -0.337502 0.237486 38 217 255
-0.15087 -0.205528 0.208823 72 183 255
0.176332 -0.290229 0.200177 50 205 255
0.0375464 -0.346542 0.201025 36 219 255
0.19464 -0.151037 0.200797 86 169 255
0.240118 -0.117806 0.201905 94 161 255
0.0810737 -0.232654 0.2052 65 190 255
0.151946 -0.236697 0.207417 64 191 255
-0.0427718 -0.355306 0.202619 34 221 255
-0.142889 -0.251375 0.20266 60 195 255
-0.162496 -0.0625024 0.299986 108 147 255
-0.0132728 -0.227818 0.20007 65 189 255
-0.0881239 -0.462247 0.199801 6 249 255
0.275859 -0.2099 0.204787 71 184 255
0.230299 -0.245228 0.20314 62 193 255
0.170638 -0.198774 0.200415 73 181 255
0.228509 -0.454599 0.212142 8 247 255
0.137504 -0.387502 0.287486 25 230 255
0.0713653 -0.146847 0.199029 87 168 255
0.282366 -0.265612 0.203712 56 198 255
-0.0124956 -0.487502 0.262486 0 255 255
0.173806 -0.0899973 0.201025 101 154 255
0.294556 -0.33064 0.204488 40 215 255
-0.00321906 -0.339886 0.19954 36 218 255
0.0750043 -0.462502 0.274986 6 249 255
-0.154719 -0.159198 0.212091 84 171 255
0.129417 -0.289743 0.201699 50 205 255
0.0342691 -0.207105 0.199173 71 184 255
0.280427 -0.436889 0.210903 13 242 255
0.167943 -0.355442 0.208095 34 221 255
0.152258 -0.43256 0.199818 14 241 255
0.223179 -0.185234 0.207963 77 178 255
-0.015527 -0.11963 0.200268 94 161 255
-0.0829962 -0.419514 0.203205 17 238 255
-0.15796 -0.343726 0.224319 36 218 255
0.0846687 -0.288253 0.203975 51 204 255
0.246645 -0.303223 0.20761 47 208 255
0.0516739 -0.455895 0.200532 8 247 255
0.0647477 -0.380435 0.203205 27 228 255
-0.0616289 -0.10948 0.20292 96 159 255
-0.156735 -0.471209 0.276948 4 251 255
0.106677 -0.0907927 0.207455 101 154 255
0.0871826 -0.201748 0.200542 73 182 255
0.159073 -0.145312 0.200569 87 168 255
-0.0335249 -0.467635 0.201081 5 250 255
0.0295918 -0.256245 0.199555 59 195 255
-0.15232 -0.424151 0.203642 16 239 255
0.337504 -0.325002 0.199986 40 214 255
0.108465 -0.462983 0.203437 6 249 255
0.00356829 -0.418542 0.20469 17 238 255
0.216262 -0.365441 0.200299 31 224 255
0.193032 -0.454778 0.210346 8 247 255
-0.154202 -0.0928134 0.236093 101 154 255
0.137504 -0.425002 0.249986 16 239 255
0.213635 -0.306915 0.2076 46 209 255
0.260479 -0.376713 0.217143 28 227 255
0.22216 -0.096994 0.208545 100 155 255
0.00823252 -0.167854 0.201176 81 173 255
0.0374336 -0.109951 0.199978 96 159 255
0.155121 -0.324953 0.207139 40 214 255
0.314593 -0.356455 0.207148 32 222 255
-0.0282449 -0.256625 0.203207 59 195 255
0.177089 -0.386494 0.200372 26 229 255
-0.0910607 -0.0910779 0.201106 101 154 255
0.0914217 -0.334243 0.200643 39 216 255
-0.127238 -0.454281 0.198757 8 247 255
0.122326 -0.248261 0.205322 60 194 255
0.122482 -0.377917 0.206121 28 227 255
-0.00308193 -0.466459 0.202733 5 250 255
0.104448 -0.149171 0.200146 86 169 255
-0.159248 -0.133135 0.211345 89 165 255
0.191376 -0.256673 0.205767 59 195 255
0.2614 -0.12936 0.203303 91 163 255
0.0548603 -0.247219 0.206187 60 194 255
-0.154659 -0.263526 0.209448 56 198 255
0.0125043 -0.0500024 0.212486 112 143 255
0.0553929 -0.308833 0.200235 44 210 255
-0.0355382 -0.147168 0.199851 87 168 255
-0.153329 -0.0699394 0.210553 107 147 255
0.066873 -0.469488 0.207122 4 251 255
0.126107 -0.206689 0.203145 72 183 255
0.279031 -0.404093 0.207794 21 234 255
0.0948789 -0.426454 0.207979 15 240 255
0.325004 -0.175002 0.199986 80 175 255
0.0728073 -0.184615 0.198568 77 178 255
0.100004 -0.425002 0.287486 16 239 255
0.249143 -0.255831 0.208602 59 195 255
0.0672612 -0.0980503 0.200998 99 156 255
0.170962 -0.167677 0.199993 81 173 255
0.309787 -0.436069 0.204935 13 242 255
0.0111629 -0.295252 0.202552 48 206 255
0.0167028 -0.367797 0.202702 30 225 255
-0.0130222 -0.101449 0.20041 99 156 255
-0.163989 -0.332682 0.205875 39 216 255
0.172444 -0.108387 0.200912 97 158 255
0.23353 -0.419137 0.21145 17 238 255
0.213829 -0.147262 0.203884 87 168 255
-0.130922 -0.106004 0.203088 97 158 255
0.122865 -0.315117 0.210153 44 211 255
-0.152236 -0.195535 0.209812 73 181 255
0.0108578 -0.228533 0.198379 65 189 255
0.259366 -0.321653 0.199999 42 213 255
0.0475124 -0.389854 0.209746 25 230 255
0.129497 -0.0984675 0.206703 99 156 255
-0.0256755 -0.18105 0.199712 78 177 255
-0.15247 -0.409628 0.209238 20 235 255
0.300004 -0.337502 0.237486 38 217 255
0.165708 -0.223761 0.208023 67 188 255
0.193652 -0.32636 0.210161 40 214 255
0.148329 -0.274042 0.2001 54 201 255
0.226698 -0.216236 0.206451 69 186 255
0.125004 -0.450002 0.274986 9 246 255
0.0401508 -0.175184 0.205437 80 175 255
0.0185072 -0.45908 0.200874 7 248 255
0.325004 -0.387502 0.287486 25 230 255
-0.048552 -0.460115 0.200499 7 248 255
0.0750043 -0.300002 0.237486 48 207 255
-0.149996 -0.375002 0.324986 28 227 255
0.10926 -0.355545 0.217578 32 222 255
0.201265 -0.091266 0.203659 101 154 255
-0.0802123 -0.423523 0.201792 16 239 255
-0.159945 -0.47703 0.268459 2 253 255
0.275243 -0.220441 0.206895 68 187 255
0.135855 -0.148335 0.200221 87 168 255
-0.0628325 -0.0837507 0.200296 103 152 255
0.199517 -0.408162 0.205532 20 235 255
0.153199 -0.450695 0.208707 9 246 255
0.254568 -0.441081 0.213236 12 243 255
0.0625044 -0.400002 0.287486 22 233 255
0.312504 -0.0875024 0.199986 102 153 255
0.089426 -0.0810614 0.203267 104 151 255
0.0235881 -0.14114 0.201844 88 167 255
0.233292 -0.176288 0.201334 79 176 255
0.028786 -0.343807 0.215306 36 219 255
-0.138922 -0.461761 0.19907 6 249 255
0.140605 -0.391687 0.205988 24 231 255
0.184402 -0.28968 0.19995 50 205 255
0.0948295 -0.267586 0.205595 56 199 255
0.0821623 -0.397515 0.203711 23 232 255
0.262931 -0.279613 0.207132 52 202 255
0.231198 -0.378008 0.201615 28 227 255
-0.0122482 -0.351573 0.200923 34 221 255
0.109747 -0.19057 0.203712 76 179 255
0.0538529 -0.436012 0.203573 13 242 255
-0.149996 -0.312502 0.324986 44 211 255
0.190645 -0.35367 0.212672 34 221 255
0.081746 -0.128468 0.202788 92 163 255
0.219687 -0.447342 0.20421 10 245 255
0.288625 -0.392789 0.208675 24 231 255
0.19099 -0.185541 0.202398 77 178 255
-0.0906097 -0.45412 0.207095 8 247 255
0.227384 -0.282299 0.20273 52 203 255
0.0367749 -0.295776 0.207385 48 206 255
-0.0252546 -0.258172 0.200012 58 197 255
0.0749651 -0.470069 0.213959 4 251 255
0.0533236 -0.233339 0.203409 65 190 255
0.0769146 -0.344669 0.200044 36 219 255
-0.150229 -0.210413 0.217821 71 184 255
0.0339531 -0.0878179 0.20115 102 153 255
-0.0432398 -0.120695 0.199694 94 161 255
0.225004 -0.337502 0.237486 38 217 255
-0.155257 -0.08133 0.236854 104 151 255
0.23798 -0.111089 0.205968 96 159 255
-0.124996 -0.0375024 0.212486 115 140 255
0.256505 -0.338414 0.199816 38 217 255
-0.157955 -0.316458 0.22073 43 211 255
0.321681 -0.422869 0.202661 16 239 255
-0.115599 -0.114992 0.205764 95 160 255
0.18025 -0.134596 0.201375 89 165 255
-0.153478 -0.254547 0.208217 59 195 255
-0.00832052 -0.197048 0.202271 73 181 255
0.146457 -0.341303 0.207876 36 218 255
0.145904 -0.428737 0.199718 15 240 255
-0.0499957 -0.487502 0.274986 0 255 255
0.275004 -0.387502 0.274986 25 230 255
0.19501 -0.246573 0.206334 60 194 255
0.277434 -0.249682 0.203678 60 194 255
0.104432 -0.219376 0.203906 68 187 255
-0.155559 -0.143654 0.212071 88 167 255
-0.016652 -0.448467 0.201477 10 245 255
0.337504 -0.400002 0.249986 22 233 255
-0.00402596 -0.0991302 0.198612 99 156 255
0.100004 -0.387502 0.287486 25 230 255
0.18435 -0.443335 0.215264 11 244 255
-0.156739 -0.458184 0.220001 7 248 255
-0.0999956 -0.487502 0.287486 0 255 255
-0.0584534 -0.474387 0.200681 3 252 255
0.0578538 -0.273298 0.206534 55 200 255
0.057224 -0.202807 0.208362 73 182 255
0.114783 -0.0842234 0.200517 103 152 255
0.0581596 -0.14864 0.20267 86 169 255
0.158876 -0.373406 0.200091 29 226 255
-0.163622 -0.468814 0.266012 4 251 255
0.276925 -0.304058 0.209297 47 208 255
0.265845 -0.122975 0.204619 93 162 255
0.0750043 -0.462502 0.274986 6 249 255
0.121901 -0.454115 0.213821 8 247 255
0.158383 -0.197864 0.201838 73 181 255
-0.159533 -0.352558 0.215721 34 221 255
0.13914 -0.274059 0.200287 54 201 255
0.247707 -0.205815 0.204152 72 183 255
0.0110438 -0.327095 0.203844 40 214 255
-0.162496 -0.0375024 0.212486 115 140 255
0.125638 -0.163949 0.200036 83 172 255
0.0202935 -0.217171 0.206965 69 186 255
0.15171 -0.110391 0.200519 96 159 255
0.256571 -0.392768 0.216044 24 231 255
-0.0635304 -0.0836035 0.200309 103 152 255
0.0773442 -0.432305 0.209802 14 241 255
0.0560355 -0.353267 0.202196 34 221 255
0.310676 -0.352733 0.211087 34 221 255
0.294144 -0.436266 0.210915 13 242 255
-0.0106348 -0.134623 0.20028 89 165 255
0.292895 -0.226823 0.20507 65 189 255
-0.107405 -0.463478 0.200114 6 249 255
0.204856 -0.0913434 0.204177 101 154 255
0.0158802 -0.460211 0.200888 7 248 255
-0.15145 -0.42567 0.204049 16 239 255
0.106728 -0.367222 0.202281 30 225 255
0.22852 -0.444415 0.218397 11 244 255
0.206589 -0.222546 0.202797 68 187 255
0.0786806 -0.296746 0.203825 48 206 255
0.22002 -0.394575 0.200444 23 232 255
0.14049 -0.240005 0.199928 63 192 255
0.178122 -0.296519 0.200069 48 206 255
0.287504 -0.0750024 0.212486 105 150 255
0.056301 -0.475349 0.211031 3 252 255
-0.149996 -0.287502 0.324986 51 204 255
-0.100705 -0.0990867 0.203278 99 156 255
-0.15759 -0.171953 0.211976 80 175 255
-0.089296 -0.42497 0.200587 16 239 255
0.0768089 -0.39386 0.216219 24 231 255
0.0526965 -0.122601 0.203811 93 162 255
0.239025 -0.339557 0.204265 38 217 255
0.0113823 -0.267475 0.209248 56 199 255
0.102612 -0.252119 0.205759 60 195 255
0.325004 -0.175002 0.199986 80 175 255
0.116757 -0.412954 0.208235 19 236 255
0.0902876 -0.174432 0.205431 80 175 255
0.208284 -0.136693 0.20294 89 165 255
0.0134669 -0.175894 0.204469 79 176 255
0.23779 -0.262622 0.203694 56 198 255
0.112703 -0.117163 0.20188 95 160 255
-0.0105657 -0.35773 0.200267 32 222 255
-0.157342 -0.115634 0.210682 95 160 255
0.195965 -0.373114 0.200337 29 226 255
0.0125043 -0.0500024 0.212486 112 143 255
0.229771 -0.171832 0.206267 81 174 255
0.306905 -0.38387 0.213242 26 229 255
-0.155928 -0.216347 0.214852 69 186 255
-0.00394931 -0.220935 0.205551 68 187 255
0.138878 -0.29702 0.202919 48 207 255
0.174534 -0.25662 0.206297 59 195 255
-0.0496829 -0.123858 0.200232 93 162 255
0.172164 -0.0902936 0.202374 101 154 255
0.0796226 -0.0927431 0.199625 101 154 255
0.228388 -0.306228 0.206891 46 209 255
0.148788 -0.414817 0.210805 18 237 255
-0.149571 -0.338162 0.199818 38 217 255
0.193654 -0.428744 0.2065 15 240 255
0.260166 -0.364764 0.200029 31 224 255
-0.0214188 -0.170598 0.203787 81 174 255
0.188561 -0.173137 0.200463 80 175 255
0.101946 -0.343303 0.216176 36 218 255
0.00310908 -0.0918802 0.200094 101 154 255
0.150004 -0.387502 0.249986 25 230 255
0.125004 -0.450002 0.274986 9 246 255
0.251734 -0.441125 0.207366 12 243 255
0.225311 -0.0960501 0.208272 100 155 255
-0.0483183 -0.458111 0.201776 7 248 255
0.300004 -0.362502 0.249986 32 223 255
0.0682194 -0.21178 0.203913 70 185 255
0.049358 -0.308336 0.200232 46 209 255
-0.15141 -0.244702 0.216476 62 193 255
0.13531 -0.189477 0.205667 76 179 255
0.275595 -0.26144 0.205479 58 197 255
0.19079 -0.323264 0.201499 42 213 255
0.314093 -0.435243 0.208181 13 242 255
-0.155023 -0.0809367 0.212239 104 151 255
0.293686 -0.337574 0.204758 38 217 255
0.265829 -0.120476 0.203193 94 161 255
0.0982422 -0.462573 0.20739 6 249 255
0.0200516 -0.135362 0.201077 89 165 255
0.13478 -0.131225 0.200252 91 163 255
0.0261255 -0.361571 0.202512 32 223 255
-0.112496 -0.0375024 0.199986 115 140 255
0.188305 -0.206919 0.203621 72 183 255
0.0330843 -0.257941 0.207964 58 197 255
0.0995983 -0.295767 0.203702 48 206 255
0.0631578 -0.401736 0.201507 22 233 255
0.0667391 -0.168538 0.199086 81 174 255
-0.159883 -0.315308 0.219937 44 211 255
0.0329248 -0.46821 0.205047 5 250 255
0.226829 -0.238197 0.202771 64 191 255
0.0625044 -0.400002 0.287486 22 233 255
0.269045 -0.219746 0.207013 68 187 255
-0.149996 -0.362502 0.324986 32 223 255
-0.0816294 -0.111803 0.200878 96 159 255
0.260774 -0.410354 0.214731 19 236 255
-0.0081978 -0.462265 0.208548 6 249 255
-0.111334 -0.464417 0.207136 6 249 255
0.158089 -0.369768 0.211168 30 225 255
0.133497 -0.0912706 0.20003 101 154 255
0.114599 -0.219825 0.204929 68 187 255
0.17477 -0.131184 0.201462 91 163 255
-0.0141526 -0.242238 0.201855 62 193 255
-0.0293198 -0.143551 0.198993 88 167 255
0.0899118 -0.136005 0.203179 89 165 255
0.269791 -0.298782 0.208924 48 207 255
0.116865 -0.348568 0.201768 35 220 255
-0.148881 -0.133869 0.203158 89 165 255
0.0240062 -0.314124 0.205727 44 211 255
0.0982536 -0.425873 0.207954 15 240 255
0.182026 -0.451191 0.213539 9 246 255
-0.161422 -0.477577 0.25744 2 253 255
-0.0757287 -0.468934 0.201562 4 251 255
0.057387 -0.374184 0.214873 29 226 255
0.00189306 -0.282156 0.202958 52 203 255
0.197683 -0.349863 0.213753 35 220 255
0.0385418 -0.114622 0.201358 95 160 255
0.147147 -0.225664 0.200173 67 188 255
0.159664 -0.291767 0.206034 50 205 255
0.309842 -0.406599 0.210151 20 235 255
0.217076 -0.288778 0.202337 51 204 255
0.137504 -0.462502 0.249986 6 249 255
-0.0249956 -0.487502 0.262486 0 255 255
0.23721 -0.199493 0.207311 73 182 255
0.0945314 -0.244061 0.206261 62 193 255
-0.126685 -0.107153 0.20342 97 158 255
-0.149996 -0.187502 0.324986 76 179 255
0.0681284 -0.332833 0.201135 39 216 255
0.337504 -0.325002 0.212486 40 214 255
0.161314 -0.175859 0.201384 79 176 255
0.275004 -0.387502 0.287486 25 230 255
0.0207195 -0.204776 0.199399 72 183 255
-0.153899 -0.205657 0.219203 72 183 255
0.0701536 -0.0962725 0.201744 100 155 255
-0.0850778 -0.433412 0.200368 14 241 255
0.337504 -0.400002 0.249986 22 233 255
0.0584401 -0.272997 0.206515 55 200 255
-0.00754509 -0.0967794 0.201794 100 155 255
0.0678486 -0.434384 0.203705 13 242 255
0.048017 -0.162005 0.201054 83 172 255
0.18642 -0.254574 0.20005 59 195 255
0.278325 -0.369458 0.214344 30 225 255
0.0875043 -0.425002 0.287486 16 239 255
0.00650906 -0.359454 0.198681 32 223 255
0.288519 -0.255419 0.207642 59 195 255
0.237903 -0.109972 0.206006 96 159 255
0.225656 -0.353462 0.213147 34 221 255
0.112504 -0.312502 0.237486 44 211 255
-0.149675 -0.33737 0.199754 38 217 255
0.172863 -0.0926537 0.205879 101 154 255
0.224208 -0.170162 0.205878 81 174 255
0.105444 -0.363512 0.21866 31 224 255
0.15889 -0.409256 0.206245 20 235 255
0.105116 -0.159153 0.204017 84 171 255
0.240856 -0.401089 0.207676 22 233 255
-0.145547 -0.249325 0.206466 60 194 255
-0.157764 -0.468328 0.222356 5 250 255
-0.162496 -0.0375024 0.212486 115 140 255
0.286444 -0.436072 0.207851 13 242 255
0.11749 -0.445438 0.211902 10 245 255
0.118002 -0.26575 0.20483 56 199 255
0.215359 -0.439377 0.204059 12 243 255
0.0856165 -0.205323 0.204766 72 183 255
0.168673 -0.321214 0.207859 42 213 255
-0.149996 -0.287502 0.324986 51 204 255
0.201404 -0.386654 0.200325 26 229 255
0.0461599 -0.22451 0.206678 67 188 255
-0.0393457 -0.474065 0.204161 3 252 255
0.0326516 -0.461442 0.201442 6 249 255
0.10919 -0.407351 0.210036 20 235 255
0.201351 -0.135392 0.202802 89 165 255
0.187638 -0.203619 0.203369 72 183 255
0.0500044 -0.450002 0.274986 9 246 255
0.260083 -0.122264 0.203946 93 162 255
-0.105811 -0.116008 0.202431 95 160 255
0.305652 -0.346116 0.211785 36 219 255
0.154575 -0.149346 0.20525 86 169 255
0.244892 -0.242848 0.201974 62 193 255
-0.152965 -0.104091 0.221607 97 157 255
0.24064 -0.307651 0.202149 46 209 255
-0.0110737 -0.134132 0.200271 89 165 255
0.129039 -0.30065 0.203243 48 207 255
0.150004 -0.387502 0.287486 25 230 255
0.0913443 -0.0928212 0.206245 101 154 255
0.170762 -0.447202 0.212371 10 245 255
-0.0129844 -0.249626 0.199636 60 194 255
0.0492875 -0.417413 0.207554 18 237 255
0.199383 -0.0943619 0.200771 100 155 255
0.145153 -0.348501 0.207163 35 220 255
-0.158188 -0.464547 0.272067 6 249 255
0.0793836 -0.376814 0.203547 28 227 255
0.0637411 -0.469553 0.207587 4 251 255
0.187574 -0.293031 0.199844 48 206 255
0.0895966 -0.321527 0.203592 42 213 255
0.0235166 -0.0969445 0.201008 100 155 255
0.177 -0.377734 0.201692 28 227 255
0.29051 -0.235893 0.207982 64 191 255
0.236222 -0.444884 0.204653 11 244 255
0.0875043 -0.387502 0.287486 25 230 255
0.0200119 -0.326457 0.201322 40 214 255
0.129492 -0.0893821 0.200714 102 153 255
0.116117 -0.182074 0.201007 78 177 255
0.167034 -0.243346 0.20644 62 193 255
0.125004 -0.437502 0.287486 12 243 255
0.066695 -0.185286 0.19859 77 178 255
0.258972 -0.357801 0.199851 32 222 255
0.0599779 -0.250377 0.205654 60 195 255
-0.149996 -0.0625024 0.299986 108 147 255
0.320762 -0.41882 0.217029 17 238 255
0.0344077 -0.152826 0.201464 85 170 255
0.211475 -0.241365 0.2053 63 192 255
-0.126369 -0.462624 0.205323 6 249 255
0.0133654 -0.464418 0.203489 6 249 255
0.201901 -0.326979 0.208974 40 214 255
0.102543 -0.129012 0.202365 91 163 255
-0.112496 -0.0375024 0.199986 115 140 255
0.0154611 -0.365792 0.20087 31 224 255
0.24844 -0.276945 0.207683 54 201 255
-0.161667 -0.339188 0.222819 38 217 255
0.204081 -0.174621 0.203851 80 175 255
0.100847 -0.274588 0.20404 54 201 255
0.279019 -0.421128 0.215703 17 238 255
-0.156262 -0.212472 0.217508 70 185 255
-0.151151 -0.13565 0.204778 89 165 255
-0.0868717 -0.449056 0.199972 10 245 255
0.132325 -0.406064 0.205829 21 234 255
0.0165367 -0.221449 0.206773 68 187 255
0.057285 -0.361706 0.21575 32 223 255
0.041823 -0.286142 0.203572 51 204 255
0.20069 -0.426608 0.207047 15 240 255
0.243977 -0.21061 0.202478 71 184 255
-0.0282396 -0.150881 0.200241 86 169 255
-0.154531 -0.0828574 0.220223 103 152 255
0.302889 -0.383153 0.212135 26 229 255
0.257054 -0.321746 0.211382 42 213 255
0.14274 -0.210092 0.203847 71 184 255
0.262504 -0.387502 0.274986 25 230 255
0.15197 -0.114004 0.201212 95 160 255
0.0634324 -0.126571 0.199363 92 163 255
0.0967699 -0.450113 0.210998 9 246 255
-0.158326 -0.466388 0.23562 5 250 255
0.250236 -0.386961 0.216441 25 230 255
0.325004 -0.312502 0.224986 44 211 255
0.144861 -0.25178 0.199944 60 195 255
