ply
format ascii 1.0
comment Created by Open3D
element vertex 1187
property double x
property double y
property double z
property uchar red
property uchar green
property uchar blue
end_header
-0.158442 -0.484255 0.0889584 127 0 255
-0.204928 -0.245961 0.173428 127 0 255
-0.100327 -0.287274 -0.125054 127 0 255
-0.153783 -0.482487 -0.178791 127 0 255
-0.0736629 -0.482532 0.106953 127 0 255
-0.175028 -0.165021 0.173153 127 0 255
-0.150327 -0.287274 -5.43091e-05 127 0 255
-0.0478528 -0.105937 -0.00678324 127 0 255
-0.0859956 -0.331603 0.159617 127 0 255
-0.0358812 -0.444474 0.0661533 127 0 255
-0.0879843 -0.44149 -0.0361608 127 0 255
-0.047926 -0.182281 0.0519063 127 0 255
-0.301811 -0.370056 0.166146 127 0 255
-0.0776436 -0.108245 -0.0604264 127 0 255
-0.0434229 -0.356238 -0.147061 127 0 255
-0.0390288 -0.453548 -0.350086 127 0 255
-0.332646 -0.467495 0.0450086 127 0 255
-0.155287 -0.39965 0.0408797 127 0 255
-0.361597 -0.48228 0.107949 127 0 255
-0.228945 -0.486719 0.0419609 127 0 255
-0.387827 -0.374788 -0.125043 127 0 255
-0.0480328 -0.0562449 0.157909 127 0 255
-0.082017 -0.484792 0.0438725 127 0 255
-0.0434428 -0.0976694 -0.109215 127 0 255
-0.0472086 -0.202264 -0.239899 127 0 255
-0.122585 -0.481071 -0.215138 127 0 255
-0.0666473 -0.268148 -0.379803 127 0 255
-0.204103 -0.470045 0.16318 127 0 255
-0.044288 -0.371479 0.000889548 127 0 255
-0.0918764 -0.336458 0.0558209 127 0 255
-0.233835 -0.21015 0.157092 127 0 255
-0.0590224 -0.402542 -0.347071 127 0 255
-0.231999 -0.484407 -0.0440775 127 0 255
-0.0462274 -0.437708 -0.296612 127 0 255
-0.0501648 -0.0430863 -0.0277825 127 0 255
-0.0643549 -0.482488 -0.131214 127 0 255
-0.13565 -0.429596 -0.0150469 127 0 255
-0.0633112 -0.167055 -0.274876 127 0 255
-0.0588041 -0.110029 -0.337041 127 0 255
-0.0384166 -0.108589 0.13967 127 0 255
-0.0487566 -0.273548 -0.255633 127 0 255
-0.290008 -0.238109 0.167408 127 0 255
-0.0764198 -0.481341 0.158735 127 0 255
-0.350327 -0.349793 -0.0625373 127 0 255
-0.0664402 -0.145527 -0.10884 127 0 255
-0.26005 -0.408302 0.0686521 127 0 255
-0.0430918 -0.35963 -0.351645 127 0 255
-0.196398 -0.0661892 0.161548 127 0 255
-0.0476208 -0.200109 -0.326028 127 0 255
-0.0757151 -0.435465 -0.141651 127 0 255
-0.0464064 -0.269034 0.105038 127 0 255
-0.312532 -0.397186 0.137921 127 0 255
-0.0469283 -0.108185 0.0326846 127 0 255
-0.350327 -0.349797 -3.52191e-05 127 0 255
-0.06446 -0.157678 -0.163789 127 0 255
-0.0467045 -0.318732 -0.294371 127 0 255
-0.198589 -0.41486 0.0865176 127 0 255
-0.13195 -0.353091 0.148209 127 0 255
-0.0869681 -0.404665 0.0902903 127 0 255
-0.281994 -0.184441 0.151359 127 0 255
-0.0670635 -0.186864 -0.0722151 127 0 255
-0.0625928 -0.149907 -0.365206 127 0 255
-0.0656516 -0.458647 -0.253464 127 0 255
-0.0878187 -0.182041 0.142616 127 0 255
-0.0697856 -0.307608 -0.188227 127 0 255
-0.0430474 -0.170181 -0.003005 127 0 255
-0.0456003 -0.372107 -0.2636 127 0 255
-0.186325 -0.486148 -0.00876726 127 0 255
-0.043012 -0.339564 -0.0456811 127 0 255
-0.208951 -0.352452 0.156809 127 0 255
-0.182023 -0.484886 0.124228 127 0 255
-0.111057 -0.452476 0.0352658 127 0 255
-0.274751 -0.484614 0.0189408 127 0 255
-0.10756 -0.0230614 0.173556 127 0 255
-0.0946177 -0.481518 -0.307155 127 0 255
-0.0758924 -0.0245644 0.0361062 127 0 255
-0.047903 -0.0919767 -0.245121 127 0 255
-0.256251 -0.48248 0.16214 127 0 255
-0.0378269 -0.299774 0.174946 127 0 255
-0.0685048 -0.369037 -0.218241 127 0 255
-0.128754 -0.48212 -0.0646323 127 0 255
-0.185333 -0.255017 0.148749 127 0 255
-0.0440694 -0.298872 -0.137862 127 0 255
-0.284158 -0.407307 0.0310445 127 0 255
-0.105799 -0.379204 -0.000970268 127 0 255
-0.060671 -0.0564118 -0.119687 127 0 255
-0.0430908 -0.22853 0.148684 127 0 255
-0.0417134 -0.371974 0.110063 127 0 255
-0.0408353 -0.426477 -0.0923755 127 0 255
-0.339753 -0.455298 0.144904 127 0 255
-0.0409274 -0.271165 -0.051926 127 0 255
-0.201792 -0.486465 0.0787976 127 0 255
-0.158146 -0.304598 0.159864 127 0 255
-0.0676936 -0.246916 -0.144059 127 0 255
-0.073897 -0.325263 -0.0921354 127 0 255
-0.0396616 -0.398001 0.0621172 127 0 255
-0.050487 -0.43252 -0.0375498 127 0 255
-0.105679 -0.223608 0.161576 127 0 255
-0.193057 -0.48322 -0.0947414 127 0 255
-0.0503675 -0.450854 -0.386684 127 0 255
-0.125327 -0.149774 -0.200054 127 0 255
-0.369241 -0.481839 0.0572527 127 0 255
-0.210748 -0.396958 0.16494 127 0 255
-0.0447897 -0.0964506 -0.174523 127 0 255
-0.135931 -0.385381 0.101079 127 0 255
-0.242198 -0.0544066 0.15713 127 0 255
-0.0445479 -0.165734 0.163489 127 0 255
-0.0532304 -0.228513 -0.0884194 127 0 255
-0.160611 -0.125306 0.156834 127 0 255
-0.15656 -0.48346 0.0222466 127 0 255
-0.0709412 -0.322265 0.0843515 127 0 255
-0.0439149 -0.241324 0.0224806 127 0 255
-0.326285 -0.382334 0.105811 127 0 255
-0.114244 -0.27033 0.139889 127 0 255
-0.301297 -0.485212 0.0811692 127 0 255
-0.0495629 -0.456358 0.110431 127 0 255
-0.0429055 -0.334024 0.14408 127 0 255
-0.350327 -0.412289 -0.125042 127 0 255
-0.0501577 -0.387661 -0.111422 127 0 255
-0.0475279 -0.215129 0.0889465 127 0 255
-0.0804056 -0.328176 0.00903404 127 0 255
-0.137827 -0.387281 -0.21255 127 0 255
-0.110333 -0.433972 0.162338 127 0 255
-0.199345 -0.173151 0.154088 127 0 255
-0.156597 -0.484738 0.156562 127 0 255
-0.301411 -0.039877 0.165675 127 0 255
-0.150327 -0.312274 -0.0500543 127 0 255
-0.266178 -0.478157 -0.0795878 127 0 255
-0.0536216 -0.482505 0.056893 127 0 255
-0.112827 -0.287274 -0.237554 127 0 255
-0.281893 -0.284744 0.15139 127 0 255
-0.0725426 -0.0596219 0.0862097 127 0 255
-0.241966 -0.439334 0.130393 127 0 255
-0.122388 -0.080428 0.168396 127 0 255
-0.0503269 0.000225605 0.174946 127 0 255
-0.0795096 -0.402225 -0.0738396 127 0 255
-0.227588 -0.101279 0.154489 127 0 255
-0.475327 -0.212274 -0.400054 127 0 255
-0.0442229 -0.468201 0.00306922 127 0 255
-0.105981 -0.481264 -0.248318 127 0 255
-0.280006 -0.477558 -0.0311675 127 0 255
-0.0497542 -0.397937 -0.193622 127 0 255
-0.120786 -0.485389 -0.128953 127 0 255
-0.173682 -0.430037 0.163179 127 0 255
-0.118211 -0.14463 0.170504 127 0 255
-0.262673 -0.485427 0.105012 127 0 255
-0.178789 -0.479032 -0.158126 127 0 255
-0.351163 -0.441682 0.0649115 127 0 255
-0.125327 -0.0747744 -0.212554 127 0 255
-0.0666569 -0.224676 -0.367698 127 0 255
-0.0474036 -0.197712 -0.191698 127 0 255
-0.048267 -0.41963 0.0121207 127 0 255
-0.0677015 -0.263213 -0.211418 127 0 255
-0.0407604 -0.199579 -0.0252149 127 0 255
-0.0974073 -0.483387 0.0785885 127 0 255
-0.281842 -0.366877 0.13487 127 0 255
-0.222171 -0.295569 0.151634 127 0 255
-0.0447075 -0.116278 -0.0382254 127 0 255
-0.0469097 -0.269717 -0.292078 127 0 255
-0.0438619 -0.147731 0.114915 127 0 255
-0.0474968 -0.140462 -0.255228 127 0 255
-0.0962482 -0.38214 0.160482 127 0 255
-0.0684095 -0.250107 -0.0246474 127 0 255
-0.0667725 -0.307498 -0.339158 127 0 255
-0.0511862 -0.044424 0.0438823 127 0 255
-0.0650967 -0.486016 -0.0843238 127 0 255
-0.0597034 -0.162373 -0.328092 127 0 255
-0.137827 -0.324774 -0.200054 127 0 255
-0.31017 -0.423005 0.165331 127 0 255
-0.0441909 -0.349161 0.0587898 127 0 255
-0.0616886 -0.118906 -0.152667 127 0 255
-0.0677117 -0.0840327 0.00343471 127 0 255
-0.172208 -0.457708 0.0735762 127 0 255
-0.0492194 -0.476859 -0.279598 127 0 255
-0.122773 -0.358866 0.0651553 127 0 255
-0.384537 -0.402846 -0.00531106 127 0 255
-0.144993 -0.45929 -0.041461 127 0 255
-0.336484 -0.373948 0.0694337 127 0 255
-0.0762639 -0.0895279 0.166278 127 0 255
-0.150327 -0.299774 -0.125054 127 0 255
-0.0681437 -0.153547 -0.0553476 127 0 255
-0.0452333 -0.273817 0.0608682 127 0 255
-0.0827599 -0.484738 -0.184481 127 0 255
-0.274014 -0.32938 0.169788 127 0 255
-0.0638684 -0.422798 -0.230354 127 0 255
-0.0464262 -0.111573 0.0612702 127 0 255
-0.0466657 -0.216382 -0.263074 127 0 255
-0.0481508 -0.337907 -0.00956157 127 0 255
-0.0599467 -0.351384 -0.379902 127 0 255
-0.22199 -0.484086 -0.0171082 127 0 255
-0.247691 -0.242531 0.176877 127 0 255
-0.178302 -0.351105 0.141057 127 0 255
-0.0482599 -0.33211 -0.195745 127 0 255
-0.0883519 -0.482524 -0.00891326 127 0 255
-0.15813 -0.209919 0.167582 127 0 255
-0.10969 -0.413643 0.0353986 127 0 255
-0.0661047 -0.359852 -0.270212 127 0 255
-0.350327 -0.449793 -0.0875412 127 0 255
-0.154183 -0.0264925 0.172373 127 0 255
-0.327436 -0.460202 -0.0246352 127 0 255
-0.161204 -0.397821 0.0642089 127 0 255
-0.0517471 -0.437623 -0.16334 127 0 255
-0.111737 -0.395716 -0.0521435 127 0 255
-0.0429855 -0.117156 -0.0902866 127 0 255
-0.126119 -0.478942 0.164525 127 0 255
-0.0500059 -0.473807 -0.227642 127 0 255
-0.062796 -0.239781 -0.319534 127 0 255
-0.266223 -0.120945 0.164713 127 0 255
-0.0587414 -0.095085 -0.276977 127 0 255
-0.0708401 -0.447102 0.160988 127 0 255
-0.047336 -0.170809 0.0787527 127 0 255
-0.327201 -0.485498 0.13502 127 0 255
-0.0569733 -0.411755 -0.388739 127 0 255
-0.0682061 -0.184545 -0.111899 127 0 255
-0.0694468 -0.341571 -0.141587 127 0 255
-0.0936141 -0.31483 0.161213 127 0 255
-0.0645929 -0.157508 -0.230152 127 0 255
-0.0859021 -0.00613433 0.138412 127 0 255
-0.0492298 -0.411798 -0.277279 127 0 255
-0.132759 -0.416124 0.144045 127 0 255
-0.0617773 -0.0644933 -0.0518291 127 0 255
-0.137827 -0.237274 -0.212554 127 0 255
-0.0780988 -0.072784 0.121761 127 0 255
-0.254619 -0.362985 0.170296 127 0 255
-0.308163 -0.284923 0.162073 127 0 255
-0.274033 -0.457726 0.145361 127 0 255
-0.0437752 -0.36606 -0.0733714 127 0 255
-0.198562 -0.215502 0.153449 127 0 255
-0.135934 -0.485391 0.0972251 127 0 255
-0.138103 -0.254113 0.165302 127 0 255
-0.0688504 -0.0887718 -0.198014 127 0 255
-0.343899 -0.484567 0.0265488 127 0 255
-0.0482129 -0.289428 0.144078 127 0 255
-0.146902 -0.0739192 0.150697 127 0 255
-0.0629812 -0.457106 -0.330037 127 0 255
-0.0684487 -0.283826 -0.0539646 127 0 255
-0.26121 -0.486505 0.0461378 127 0 255
-0.0743433 -0.426981 0.0798156 127 0 255
-0.0473539 -0.312939 -0.263287 127 0 255
-0.208162 -0.458134 0.0770899 127 0 255
-0.0689957 -0.292663 0.00916748 127 0 255
-0.112827 -0.237274 0.0874457 127 0 255
-0.223723 -0.142632 0.163346 127 0 255
-0.044825 -0.33576 -0.334592 127 0 255
-0.0598662 -0.03212 -0.0148634 127 0 255
-0.133361 -0.483386 0.0321018 127 0 255
-0.228628 -0.394314 0.120151 127 0 255
-0.135668 -0.320283 0.162198 127 0 255
-0.0708105 -0.375576 -0.185015 127 0 255
-0.277707 -0.190884 0.167801 127 0 255
-0.270507 -0.406816 0.173492 127 0 255
-0.0447675 -0.193602 0.116297 127 0 255
-0.0927521 -0.456304 -0.0727194 127 0 255
-0.0751317 -0.183528 -0.0100042 127 0 255
-0.0513476 -0.252638 -0.165297 127 0 255
-0.069702 -0.28334 0.0915421 127 0 255
-0.0964634 -0.45957 0.121669 127 0 255
-0.0898666 -0.3701 -0.0722981 127 0 255
-0.236028 -0.475738 -0.105092 127 0 255
-0.0717663 -0.144909 0.0444315 127 0 255
-0.132119 -0.410833 -0.0146941 127 0 255
-0.0445967 -0.0643333 -0.113957 127 0 255
-0.319625 -0.427178 0.131609 127 0 255
-0.0473445 -0.20418 -0.370043 127 0 255
-0.0664192 -0.20823 0.0440844 127 0 255
-0.20802 -0.443587 0.150566 127 0 255
-0.0579882 -0.283702 -0.383496 127 0 255
-0.0760395 -0.362852 0.0376801 127 0 255
-0.112827 -0.324774 -0.0250543 127 0 255
-0.0599884 -0.358703 0.158306 127 0 255
-0.172084 -0.478634 -0.083313 127 0 255
-0.0831144 -0.149198 0.140507 127 0 255
-0.372181 -0.390151 -0.0410097 127 0 255
-0.239336 -0.416078 0.0543426 127 0 255
-0.0470063 -0.133523 -0.302373 127 0 255
-0.0625491 -0.375292 -0.316405 127 0 255
-0.134644 -0.4764 -0.152481 127 0 255
-0.0498472 -0.408868 -0.0480219 127 0 255
-0.301468 -0.126415 0.164422 127 0 255
-0.312723 -0.0610576 0.161958 127 0 255
-0.229478 -0.485365 0.138281 127 0 255
-0.137827 -0.112274 -0.200054 127 0 255
-0.0536087 -0.470832 -0.121625 127 0 255
-0.0756844 -0.0223044 0.0809167 127 0 255
-0.232489 -0.333709 0.152143 127 0 255
-0.174529 -0.144401 0.151185 127 0 255
-0.045085 -0.0948748 0.0897668 127 0 255
-0.0799909 -0.394668 -0.00442121 127 0 255
-0.157085 -0.371078 0.162297 127 0 255
-0.074378 -0.394602 -0.124295 127 0 255
-0.0783224 -0.252836 0.157589 127 0 255
-0.0391917 -0.437247 0.0342925 127 0 255
-0.0528244 -0.483191 0.112956 127 0 255
-0.237094 -0.270104 0.174869 127 0 255
-0.0468716 -0.123522 -0.358616 127 0 255
-0.0544551 -0.483038 -0.0555753 127 0 255
-0.0649178 -0.271769 -0.113003 127 0 255
-0.191159 -0.483981 0.0256901 127 0 255
-0.0471544 -0.210609 -0.294763 127 0 255
-0.287045 -0.398809 0.0652554 127 0 255
-0.0509142 -0.216454 -0.219719 127 0 255
-0.192529 -0.0303432 0.162693 127 0 255
-0.0888824 -0.45238 0.0090893 127 0 255
-0.0779583 -0.404375 0.159864 127 0 255
-0.0398895 -0.424204 -0.322951 127 0 255
-0.181847 -0.388019 0.109327 127 0 255
-0.133419 -0.171637 0.155832 127 0 255
-0.307928 -0.475137 0.0449333 127 0 255
-0.0671246 -0.199241 0.157963 127 0 255
-0.350327 -0.387292 -0.0875392 127 0 255
-0.0413483 -0.174119 -0.0775356 127 0 255
-0.0378269 -0.474774 0.174946 127 0 255
-0.125244 -0.48586 -0.103603 127 0 255
-0.296973 -0.224514 0.15438 127 0 255
-0.294821 -0.484858 0.118071 127 0 255
-0.0794253 -0.0502219 0.167152 127 0 255
-0.0419773 -0.27772 -0.020065 127 0 255
-0.0593033 -0.112475 0.162558 127 0 255
-0.044302 -0.212652 -0.138401 127 0 255
-0.0404154 -0.0551709 0.120523 127 0 255
-0.255178 -0.0253106 0.160676 127 0 255
-0.137827 -0.287274 0.0249457 127 0 255
-0.0712945 -0.299663 -0.296399 127 0 255
-0.0575464 -0.0750947 -0.234633 127 0 255
-0.165896 -0.421374 0.0226289 127 0 255
-0.172655 -0.278957 0.159894 127 0 255
-0.15634 -0.486309 -0.0248296 127 0 255
-0.0476691 -0.221381 -0.0691912 127 0 255
-0.0439926 -0.327566 -0.116608 127 0 255
-0.252496 -0.484587 0.00424825 127 0 255
-0.124421 -0.00803541 0.158223 127 0 255
-0.095946 -0.481466 -0.296757 127 0 255
-0.117676 -0.109659 0.167339 127 0 255
-0.0627547 -0.262872 -0.248758 127 0 255
-0.0468796 -0.235638 0.0864165 127 0 255
-0.112827 -0.324774 0.0999457 127 0 255
-0.0470159 -0.156455 -0.153517 127 0 255
-0.0739276 -0.329884 -0.0557271 127 0 255
-0.0687884 -0.270224 -0.348791 127 0 255
-0.0911131 -0.482235 -0.153631 127 0 255
-0.0425088 -0.353014 0.113572 127 0 255
-0.292468 -0.475499 0.169862 127 0 255
-0.0678101 -0.344525 -0.220915 127 0 255
-0.259658 -0.388971 0.12794 127 0 255
-0.21779 -0.481265 -0.0638176 127 0 255
-0.150088 -0.44535 0.161935 127 0 255
-0.0660183 -0.124419 -0.213398 127 0 255
-0.112807 -0.481565 -0.202289 127 0 255
-0.0455896 -0.172018 0.0209517 127 0 255
-0.154604 -0.36802 0.085189 127 0 255
-0.361856 -0.482231 0.105635 127 0 255
-0.0460317 -0.424174 0.152281 127 0 255
-0.387827 -0.349788 -0.112542 127 0 255
-0.0887286 -0.367684 0.134831 127 0 255
-0.200848 -0.0867189 0.16199 127 0 255
-0.0659846 -0.399108 -0.249303 127 0 255
-0.0441311 -0.472018 -0.0156994 127 0 255
-0.210314 -0.206626 0.17668 127 0 255
-0.182304 -0.482169 0.157376 127 0 255
-0.0697131 -0.0744967 0.0427635 127 0 255
-0.293981 -0.484796 -0.000651807 127 0 255
-0.0441025 -0.316163 0.0429366 127 0 255
-0.313568 -0.364035 0.149754 127 0 255
-0.260685 -0.163355 0.165889 127 0 255
-0.0520013 -0.4414 -0.184602 127 0 255
-0.11686 -0.449448 -0.0211849 127 0 255
-0.245271 -0.428891 0.169188 127 0 255
-0.225327 -0.487299 -0.150038 127 0 255
-0.0577461 -0.107354 -0.317036 127 0 255
-0.0678395 -0.225864 0.000137772 127 0 255
-0.132832 -0.395657 0.0183535 127 0 255
-0.137827 -0.299774 -0.0750543 127 0 255
-0.0680859 -0.310488 -0.156101 127 0 255
-0.125327 -0.42478 -0.200051 127 0 255
-0.133934 -0.485509 0.130675 127 0 255
-0.273877 -0.475904 -0.0559583 127 0 255
-0.0471071 -0.474136 0.0768139 127 0 255
-0.0459256 -0.466445 -0.353442 127 0 255
-0.0510123 -0.43043 -0.1116 127 0 255
-0.0737743 -0.388461 0.0531821 127 0 255
-0.0676146 -0.39578 -0.380993 127 0 255
-0.0378269 -0.262274 0.174946 127 0 255
-0.124439 -0.209193 0.154326 127 0 255
-0.0487232 -0.304087 -0.226447 127 0 255
-0.256551 -0.229852 0.155956 127 0 255
-0.0476838 -0.174119 -0.260813 127 0 255
-0.045367 -0.300032 0.0918755 127 0 255
-0.269753 -0.0984177 0.166397 127 0 255
-0.197338 -0.421623 0.0702748 127 0 255
-0.0437529 -0.259631 0.0310906 127 0 255
-0.0473037 -0.170317 -0.342917 127 0 255
-0.0981313 -0.480668 0.162306 127 0 255
-0.135281 -0.485555 0.0704603 127 0 255
-0.0456886 -0.0877632 -0.0615564 127 0 255
-0.0621007 -0.016989 0.147585 127 0 255
-0.313843 -0.37458 0.0935165 127 0 255
-0.125327 -0.199774 -0.212554 127 0 255
-0.0484358 -0.36724 -0.176829 127 0 255
-0.162246 -0.407014 0.135783 127 0 255
-0.0435126 -0.304698 -0.0575146 127 0 255
-0.0845573 -0.358487 -0.0340081 127 0 255
-0.182688 -0.465076 -0.055745 127 0 255
-0.046909 -0.116903 -0.00472665 127 0 255
-0.0727543 -0.249877 0.107254 127 0 255
-0.110032 -0.389279 0.0854584 127 0 255
-0.306335 -0.302216 0.155696 127 0 255
-0.112541 -0.0678169 0.147488 127 0 255
-0.052138 -0.0457363 0.0191337 127 0 255
-0.0492207 -0.415665 0.0968955 127 0 255
-0.0622662 -0.184399 -0.209221 127 0 255
-0.144968 -0.480686 -0.186677 127 0 255
-0.091409 -0.431091 0.0494666 127 0 255
-0.0697006 -0.0819009 -0.161837 127 0 255
-0.190174 -0.483536 0.111018 127 0 255
-0.100425 -0.481759 -0.254268 127 0 255
-0.121625 -0.371496 0.162845 127 0 255
-0.164961 -0.0161434 0.152174 127 0 255
-0.0785456 -0.48214 -0.329452 127 0 255
-0.213701 -0.486613 0.0507271 127 0 255
-0.184169 -0.324131 0.142946 127 0 255
-0.0576146 -0.0412307 -0.0811717 127 0 255
-0.0655666 -0.131519 -0.0923364 127 0 255
-0.0391885 -0.141025 0.144561 127 0 255
-0.0989787 -0.289769 0.158326 127 0 255
-0.0530423 -0.448862 -0.0589645 127 0 255
-0.114995 -0.483233 0.0169705 127 0 255
-0.06955 -0.233533 -0.193761 127 0 255
-0.325395 -0.485162 0.0699106 127 0 255
-0.0506966 -0.386793 -0.0231044 127 0 255
-0.0418173 -0.161939 -0.0260107 127 0 255
-0.0482508 -0.352289 -0.297604 127 0 255
-0.251231 -0.416349 0.107865 127 0 255
-0.0529973 -0.32809 -0.378689 127 0 255
-0.137827 -0.299774 -0.200054 127 0 255
-0.0835107 -0.482467 -0.114101 127 0 255
-0.0680267 -0.169133 0.0802749 127 0 255
-0.210254 -0.374326 0.158682 127 0 255
-0.0444429 -0.119528 -0.189854 127 0 255
-0.0435995 -0.355802 -0.112678 127 0 255
-0.244629 -0.0611062 0.163832 127 0 255
-0.350327 -0.349798 0.0249656 127 0 255
-0.274069 -0.485943 0.0745173 127 0 255
-0.0800986 -0.104148 0.135286 127 0 255
-0.160304 -0.485708 -0.120893 127 0 255
-0.161358 -0.109129 0.159778 127 0 255
-0.0934979 -0.482435 -0.0381263 127 0 255
-0.0437054 -0.285089 -0.092129 127 0 255
-0.0499558 -0.464639 -0.1542 127 0 255
-0.0512743 -0.445053 -0.272301 127 0 255
-0.0423355 -0.381264 -0.352035 127 0 255
-0.262094 -0.295775 0.170181 127 0 255
-0.33786 -0.461219 0.149663 127 0 255
-0.0440688 -0.238663 -0.126602 127 0 255
-0.0676174 -0.436568 0.120502 127 0 255
-0.072112 -0.242955 0.0408949 127 0 255
-0.0704809 -0.137925 0.0204267 127 0 255
-0.388398 -0.419503 -0.0292857 127 0 255
-0.0508723 -0.460683 -0.210821 127 0 255
-0.0472622 -0.228787 -0.334442 127 0 255
-0.229912 -0.478977 0.163414 127 0 255
-0.180835 -0.227711 0.152918 127 0 255
-0.043536 -0.0587354 0.073488 127 0 255
-0.0481225 -0.283785 -0.180778 127 0 255
-0.0430854 -0.229952 0.147334 127 0 255
-0.174662 -0.486013 0.0448948 127 0 255
-0.0448977 -0.126838 -0.122228 127 0 255
-0.0433619 -0.36142 0.0412099 127 0 255
-0.113834 -0.386322 -0.024928 127 0 255
-0.0677439 -0.329469 0.104336 127 0 255
-0.0507126 -0.434126 -0.387889 127 0 255
-0.309505 -0.393243 0.0531057 127 0 255
-0.203059 -0.48074 -0.112817 127 0 255
-0.0754086 -0.0978783 0.0646642 127 0 255
-0.194112 -0.423322 0.166445 127 0 255
-0.296609 -0.333759 0.166667 127 0 255
-0.0673638 -0.0868298 -0.00980618 127 0 255
-0.053593 -0.0865389 -0.269465 127 0 255
-0.0477687 -0.289091 -0.320986 127 0 255
-0.313722 -0.481121 -0.0297279 127 0 255
-0.350327 -0.34979 -0.11254 127 0 255
-0.0631868 -0.399373 -0.293563 127 0 255
-0.115015 -0.36541 0.0462365 127 0 255
-0.0706594 -0.385907 -0.144521 127 0 255
-0.0920953 -0.482725 0.0554568 127 0 255
-0.0632633 -0.237346 -0.0853432 127 0 255
-0.0560699 -0.481045 0.15263 127 0 255
-0.072188 -0.283878 0.0644041 127 0 255
-0.0501833 -0.479983 -0.302864 127 0 255
-0.121715 -0.482417 -0.080074 127 0 255
-0.0423525 -0.211112 -0.00341367 127 0 255
-0.046551 -0.237581 -0.257248 127 0 255
-0.206842 -0.25801 0.17208 127 0 255
-0.0383836 -0.0874639 0.134328 127 0 255
-0.0386732 -0.408115 0.0620404 127 0 255
-0.202199 -0.161748 0.161371 127 0 255
-0.0677028 -0.201964 -0.152693 127 0 255
-0.0474791 -0.154453 -0.363543 127 0 255
-0.166601 -0.440626 0.0138172 127 0 255
-0.0808065 -0.484827 -0.221132 127 0 255
-0.336995 -0.467076 0.0977194 127 0 255
-0.278216 -0.432617 0.169327 127 0 255
-0.0467413 -0.365794 -0.23332 127 0 255
-0.0479431 -0.433991 0.000894794 127 0 255
-0.112827 -0.324774 -0.0750543 127 0 255
-0.0378269 -0.399774 0.174946 127 0 255
-0.0480606 -0.296326 -0.00867354 127 0 255
-0.0624552 -0.136758 -0.259623 127 0 255
-0.0563253 -0.328005 0.1573 127 0 255
-0.0943907 -0.0328521 0.129864 127 0 255
-0.111841 -0.148338 0.167432 127 0 255
-0.369448 -0.385444 -0.0179912 127 0 255
-0.105978 -0.232447 0.14536 127 0 255
-0.15125 -0.486181 -0.00181246 127 0 255
-0.066716 -0.160143 0.119211 127 0 255
-0.221006 -0.410193 0.0968583 127 0 255
-0.212666 -0.29985 0.149195 127 0 255
-0.082536 -0.344344 -0.0031492 127 0 255
-0.211314 -0.0366945 0.151574 127 0 255
-0.060567 -0.0558723 -0.118469 127 0 255
-0.0678394 -0.16193 -0.0601023 127 0 255
-0.0460702 -0.208599 0.0710565 127 0 255
-0.298882 -0.381502 0.16756 127 0 255
-0.23541 -0.483127 0.106989 127 0 255
-0.246529 -0.198698 0.156003 127 0 255
-0.113889 -0.407499 0.149864 127 0 255
-0.0481116 -0.262664 -0.367439 127 0 255
-0.325327 -0.237305 0.174969 127 0 255
-0.150327 -0.287274 -0.0250543 127 0 255
-0.16524 -0.457349 0.0761623 127 0 255
-0.0491514 -0.0537375 -0.0372109 127 0 255
-0.0523775 -0.105009 -0.3385 127 0 255
-0.275134 -0.0510063 0.154833 127 0 255
-0.217762 -0.478419 -0.0247687 127 0 255
-0.061871 -0.245902 -0.299692 127 0 255
-0.33641 -0.386883 0.0819383 127 0 255
-0.346586 -0.461472 0.0365628 127 0 255
-0.0474554 -0.186298 -0.280235 127 0 255
-0.149551 -0.0715094 0.17222 127 0 255
-0.144544 -0.297421 0.159778 127 0 255
-0.0865681 -0.439773 -0.0299175 127 0 255
-0.0900891 -0.332869 0.0406905 127 0 255
-0.0738325 -0.42406 -0.118132 127 0 255
-0.0362217 -0.44756 0.0608736 127 0 255
-0.0403224 -0.201579 -0.0411572 127 0 255
-0.268087 -0.337499 0.146469 127 0 255
-0.0632302 -0.483416 0.0159338 127 0 255
-0.282237 -0.486289 0.149535 127 0 255
-0.049947 -0.0608369 0.15853 127 0 255
-0.272944 -0.407165 0.0466469 127 0 255
-0.230056 -0.113824 0.162497 127 0 255
-0.067727 -0.264708 -0.159103 127 0 255
-0.0477565 -0.0896909 -0.205218 127 0 255
-0.137827 -0.362277 -0.200052 127 0 255
-0.175663 -0.480605 -0.150877 127 0 255
-0.350327 -0.349794 -0.0500368 127 0 255
-0.114817 -0.483782 0.0998391 127 0 255
-0.0503612 -0.409967 -0.184768 127 0 255
-0.0456638 -0.150268 -0.190401 127 0 255
-0.0661567 -0.293934 -0.245379 127 0 255
-0.0598588 -0.0227136 0.0279409 127 0 255
-0.0474917 -0.0885896 -0.141426 127 0 255
-0.0817412 -0.0202517 0.167518 127 0 255
-0.0644154 -0.208055 -0.105029 127 0 255
-0.0437863 -0.360915 -0.072859 127 0 255
-0.0509045 -0.42852 -0.240889 127 0 255
-0.0476514 -0.337819 -0.273407 127 0 255
-0.0594309 -0.421051 -0.329565 127 0 255
-0.0438143 -0.123007 0.108106 127 0 255
-0.15299 -0.381369 0.0625223 127 0 255
-0.0662253 -0.37861 0.0983928 127 0 255
-0.0599301 -0.183185 0.161039 127 0 255
-0.137827 -0.149774 -0.212554 127 0 255
-0.0689327 -0.294653 0.124937 127 0 255
-0.154165 -0.168346 0.1538 127 0 255
-0.0605269 -0.189865 -0.321683 127 0 255
-0.229671 -0.480013 0.0320021 127 0 255
-0.119033 -0.480541 -0.226385 127 0 255
-0.288683 -0.142558 0.166045 127 0 255
-0.1292 -0.440141 0.00602762 127 0 255
-0.350327 -0.424789 -0.125043 127 0 255
-0.0644131 -0.308669 -0.373604 127 0 255
-0.0607622 -0.224268 -0.376744 127 0 255
-0.0465573 -0.15865 -0.131639 127 0 255
-0.17132 -0.338867 0.160998 127 0 255
-0.148781 -0.48227 -0.0598111 127 0 255
-0.0527875 -0.478341 -0.0897918 127 0 255
-0.321888 -0.442257 0.131683 127 0 255
-0.128842 -0.0258919 0.174196 127 0 255
-0.076619 -0.0267698 0.0858308 127 0 255
-0.0976986 -0.345336 0.159182 127 0 255
-0.187398 -0.382253 0.131302 127 0 255
-0.365593 -0.481983 0.0734811 127 0 255
-0.260003 -0.475022 -0.0812015 127 0 255
-0.0693642 -0.181901 0.0266098 127 0 255
-0.315975 -0.37355 0.118942 127 0 255
-0.0441497 -0.337524 -0.341695 127 0 255
-0.0440387 -0.384072 0.00853258 127 0 255
-0.088935 -0.368814 -0.0722394 127 0 255
-0.246654 -0.378244 0.166182 127 0 255
-0.325327 -0.187304 0.174968 127 0 255
-0.0470078 -0.108768 0.0300582 127 0 255
-0.0677678 -0.250183 -0.00987916 127 0 255
-0.0950996 -0.482102 -0.165803 127 0 255
-0.0499285 -0.405138 -0.0651959 127 0 255
-0.0422091 -0.319641 -0.0363409 127 0 255
-0.103866 -0.475151 0.166544 127 0 255
-0.0750547 -0.223708 0.126259 127 0 255
-0.153414 -0.240107 0.15259 127 0 255
-0.232453 -0.453684 0.167914 127 0 255
-0.301756 -0.0756123 0.166974 127 0 255
-0.0444331 -0.0940347 -0.0898381 127 0 255
-0.272447 -0.268061 0.167798 127 0 255
-0.0765212 -0.416093 0.0342041 127 0 255
-0.0475966 -0.480668 0.128975 127 0 255
-0.0437553 -0.350559 0.066918 127 0 255
-0.301063 -0.484908 0.0195019 127 0 255
-0.047159 -0.236019 -0.229618 127 0 255
-0.175746 -0.46652 0.161751 127 0 255
-0.0433439 -0.360642 -0.135729 127 0 255
-0.181945 -0.058838 0.161806 127 0 255
-0.0470307 -0.152975 -0.31022 127 0 255
-0.0570815 -0.481268 -0.278937 127 0 255
-0.0428557 -0.0511284 0.107236 127 0 255
-0.0438273 -0.281836 0.0360525 127 0 255
-0.111669 -0.485895 -0.0272226 127 0 255
-0.0673897 -0.143755 -0.0234279 127 0 255
-0.135873 -0.381353 0.100068 127 0 255
-0.0470407 -0.178156 -0.224123 127 0 255
-0.116254 -0.422712 -0.0405938 127 0 255
-0.247047 -0.484453 -0.0129831 127 0 255
-0.137827 -0.262274 -0.212554 127 0 255
-0.0525368 -0.374978 0.15573 127 0 255
-0.156214 -0.389155 0.162861 127 0 255
-0.0673592 -0.484354 0.083478 127 0 255
-0.116428 -0.130728 0.144546 127 0 255
-0.307768 -0.438679 0.167012 127 0 255
-0.225112 -0.320888 0.162593 127 0 255
-0.0669011 -0.31399 -0.123911 127 0 255
-0.0906004 -0.459364 -0.0863237 127 0 255
-0.100327 -0.312274 -0.225054 127 0 255
-0.0681541 -0.274652 -0.0440884 127 0 255
-0.21275 -0.48104 -0.0839979 127 0 255
-0.0387707 -0.438991 -0.354238 127 0 255
-0.227588 -0.426213 0.128244 127 0 255
-0.0902365 -0.434089 0.1438 127 0 255
-0.107756 -0.193116 0.149745 127 0 255
-0.0466726 -0.267892 0.112934 127 0 255
-0.069171 -0.39099 -0.216027 127 0 255
-0.0727937 -0.133532 0.0582167 127 0 255
-0.0681066 -0.198833 -0.174345 127 0 255
-0.227593 -0.263978 0.150748 127 0 255
-0.0516849 -0.354646 -0.377276 127 0 255
-0.224293 -0.486572 0.0840117 127 0 255
-0.0498839 -0.333624 -0.199951 127 0 255
-0.192096 -0.199098 0.172946 127 0 255
-0.0430344 -0.37371 -0.306079 127 0 255
-0.061801 -0.121519 -0.358514 127 0 255
-0.339148 -0.483923 0.128959 127 0 255
-0.166203 -0.421813 0.0393327 127 0 255
-0.047585 -0.122129 -0.280744 127 0 255
-0.0431415 -0.318323 0.123058 127 0 255
-0.187933 -0.483611 -0.0117737 127 0 255
-0.0596926 -0.0337363 -0.0161496 127 0 255
-0.295551 -0.236648 0.154589 127 0 255
-0.0616807 -0.123444 -0.152713 127 0 255
-0.188519 -0.117731 0.157543 127 0 255
-0.385722 -0.397615 -0.0415286 127 0 255
-0.113491 -0.284191 0.157837 127 0 255
-0.0474518 -0.299477 -0.286992 127 0 255
-0.055608 -0.484139 -0.0138203 127 0 255
-0.0738098 -0.445767 -0.147152 127 0 255
-0.33441 -0.380518 0.0522379 127 0 255
-0.0453774 -0.191367 0.113167 127 0 255
-0.0645661 -0.0753408 -0.187945 127 0 255
-0.104897 -0.0929317 0.168314 127 0 255
-0.272471 -0.485354 0.107137 127 0 255
-0.243856 -0.172135 0.163051 127 0 255
-0.111836 -0.378684 0.0202638 127 0 255
-0.0508567 -0.475406 -0.234027 127 0 255
-0.046942 -0.149033 -0.0937305 127 0 255
-0.067974 -0.362233 -0.249378 127 0 255
-0.0553827 -0.0243635 0.124889 127 0 255
-0.199526 -0.485586 0.122084 127 0 255
-0.138436 -0.432072 0.16153 127 0 255
-0.138224 -0.344455 0.160378 127 0 255
-0.0733963 -0.0740483 0.0705362 127 0 255
-0.268569 -0.0271138 0.165592 127 0 255
-0.32417 -0.481305 -0.0132291 127 0 255
-0.0619152 -0.459963 -0.370281 127 0 255
-0.189759 -0.283913 0.146293 127 0 255
-0.28048 -0.485187 0.0462539 127 0 255
-0.0474674 -0.237475 -0.0543133 127 0 255
-0.0907872 -0.481915 -0.284719 127 0 255
-0.048907 -0.441641 0.0966396 127 0 255
-0.0480813 -0.173019 0.0485821 127 0 255
-0.295416 -0.105554 0.165761 127 0 255
-0.0495708 -0.32578 0.0145602 127 0 255
-0.10848 -0.450053 0.0350927 127 0 255
-0.0616571 -0.294235 -0.19977 127 0 255
-0.125327 -0.312274 -5.43091e-05 127 0 255
-0.151506 -0.48288 0.129947 127 0 255
-0.28418 -0.190489 0.15126 127 0 255
-0.0509931 -0.327005 -0.0757794 127 0 255
-0.0589781 -0.269441 0.156962 127 0 255
-0.350327 -0.449793 -0.0875412 127 0 255
-0.0482749 -0.0848449 -0.0329377 127 0 255
-0.132112 -0.485254 -0.130321 127 0 255
-0.0625289 -0.200138 -0.351678 127 0 255
-0.0595957 -0.112632 0.162275 127 0 255
-0.316768 -0.408011 0.153974 127 0 255
-0.0648112 -0.337609 -0.313951 127 0 255
-0.191044 -0.425836 0.0754846 127 0 255
-0.125327 -0.112274 -0.212554 127 0 255
-0.17702 -0.484188 0.0688807 127 0 255
-0.0446187 -0.237414 0.0459353 127 0 255
-0.219871 -0.426013 0.169152 127 0 255
-0.0506339 -0.415785 -0.157086 127 0 255
-0.307026 -0.290853 0.162482 127 0 255
-0.0719116 -0.322042 0.0758704 127 0 255
-0.0452644 -0.438236 -0.301098 127 0 255
-0.0618995 -0.0451873 -0.0556823 127 0 255
-0.0594899 -0.485534 -0.053545 127 0 255
-0.0635983 -0.200571 -0.257159 127 0 255
-0.0516339 -0.429844 0.157247 127 0 255
-0.0408304 -0.420237 0.0296324 127 0 255
-0.0509672 -0.235895 -0.175362 127 0 255
-0.223174 -0.084621 0.163577 127 0 255
-0.0957409 -0.482653 0.132669 127 0 255
-0.125327 -0.312274 -0.112554 127 0 255
-0.0757529 -0.368813 -0.110718 127 0 255
-0.064026 -0.277838 -0.107725 127 0 255
-0.124009 -0.0075532 0.160192 127 0 255
-0.307599 -0.482923 0.16172 127 0 255
-0.0378269 -0.0122744 0.0749457 127 0 255
-0.0656498 -0.126937 -0.218078 127 0 255
-0.0669226 -0.289817 -0.341388 127 0 255
-0.153522 -0.20716 0.154688 127 0 255
-0.0537877 -0.470066 -0.194644 127 0 255
-0.0517154 -0.0695192 0.0140757 127 0 255
-0.0446 -0.471267 0.0571138 127 0 255
-0.0641346 -0.391068 0.117241 127 0 255
-0.114849 -0.483629 0.0632376 127 0 255
-0.0840443 -0.405191 -0.00147806 127 0 255
-0.133088 -0.484182 -0.184675 127 0 255
-0.254407 -0.483531 0.160505 127 0 255
-0.268096 -0.479683 -0.0463957 127 0 255
-0.0751733 -0.414414 -0.0904448 127 0 255
-0.069334 -0.100903 0.10394 127 0 255
-0.0688888 -0.285326 0.0161929 127 0 255
-0.0573873 -0.40767 -0.352405 127 0 255
-0.375327 -0.349792 -0.0750395 127 0 255
-0.0925538 -0.248046 0.158381 127 0 255
-0.0410599 -0.174325 0.138821 127 0 255
-0.280681 -0.359986 0.169931 127 0 255
-0.149245 -0.462664 -0.0453189 127 0 255
-0.0874634 -0.3148 0.136787 127 0 255
-0.0685362 -0.240684 0.0827498 127 0 255
-0.0545866 -0.355223 -0.0134762 127 0 255
-0.0618976 -0.0802386 -0.228557 127 0 255
-0.176903 -0.432482 0.144349 127 0 255
-0.350327 -0.387289 -0.125041 127 0 255
-0.108194 -0.048135 0.145748 127 0 255
-0.16185 -0.164788 0.171973 127 0 255
-0.170917 -0.37918 0.10441 127 0 255
-0.137827 -0.399781 -0.20005 127 0 255
-0.122513 -0.408654 0.0371097 127 0 255
-0.316848 -0.482631 0.0988344 127 0 255
-0.0613751 -0.264974 -0.291545 127 0 255
-0.0679205 -0.305189 -0.16352 127 0 255
-0.331489 -0.484883 0.0254485 127 0 255
-0.15927 -0.482206 -0.0924377 127 0 255
-0.0490755 -0.452026 -0.0841554 127 0 255
-0.095495 -0.165676 0.145885 127 0 255
-0.0676337 -0.185709 -0.0562969 127 0 255
-0.214055 -0.388875 0.136517 127 0 255
-0.299328 -0.366063 0.127175 127 0 255
-0.0920499 -0.372773 0.0651852 127 0 255
-0.0535922 -0.100152 -0.298838 127 0 255
-0.264538 -0.144925 0.154178 127 0 255
-0.168551 -0.268767 0.162158 127 0 255
-0.0434221 -0.207684 0.0127365 127 0 255
-0.300967 -0.0434103 0.166932 127 0 255
-0.219502 -0.0371186 0.162317 127 0 255
-0.350327 -0.349796 -0.0125356 127 0 255
-0.0620173 -0.425304 -0.262106 127 0 255
-0.112977 -0.388606 -0.040883 127 0 255
-0.133789 -0.486054 -0.00333194 127 0 255
-0.0484008 -0.260052 -0.217285 127 0 255
-0.0597268 -0.0636127 -0.143743 127 0 255
-0.0509853 -0.437274 -0.0270622 127 0 255
-0.0687076 -0.217302 -0.137942 127 0 255
-0.370238 -0.482009 0.0944108 127 0 255
-0.0457362 -0.0844427 0.0517631 127 0 255
-0.166553 -0.479565 -0.162735 127 0 255
-0.0428186 -0.158725 -0.0126456 127 0 255
-0.207548 -0.486393 0.0216472 127 0 255
-0.159588 -0.316323 0.14495 127 0 255
-0.073101 -0.484813 0.0325829 127 0 255
-0.137827 -0.199774 -0.200054 127 0 255
-0.0465995 -0.147813 0.0904226 127 0 255
-0.136567 -0.105797 0.155148 127 0 255
-0.0610307 -0.212843 -0.293158 127 0 255
-0.0378269 -0.0122744 0.174946 127 0 255
-0.149696 -0.0309683 0.151894 127 0 255
-0.0770137 -0.0551945 0.108549 127 0 255
-0.0481772 -0.112051 -0.0628513 127 0 255
-0.0500283 -0.369205 -0.181862 127 0 255
-0.0432872 -0.355113 0.104643 127 0 255
-0.045536 -0.376208 -0.270531 127 0 255
-0.102781 -0.481599 -0.072917 127 0 255
-0.350327 -0.424795 -0.050039 127 0 255
-0.0539771 -0.472747 -0.140275 127 0 255
-0.06113 -0.170919 -0.188896 127 0 255
-0.0464099 -0.256554 -0.342523 127 0 255
-0.0483032 -0.324064 -0.244789 127 0 255
-0.0820329 -0.484951 -0.195188 127 0 255
-0.275575 -0.411468 0.172781 127 0 255
-0.205995 -0.144751 0.159764 127 0 255
-0.0659682 -0.202499 0.0662424 127 0 255
-0.0476325 -0.187762 -0.111016 127 0 255
-0.0808687 -0.328325 -0.0117606 127 0 255
-0.0513891 -0.472424 0.156935 127 0 255
-0.0608541 -0.165982 -0.360582 127 0 255
-0.0432964 -0.282176 -0.0861314 127 0 255
-0.228559 -0.342604 0.151087 127 0 255
-0.273065 -0.481624 -0.00870054 127 0 255
-0.0486051 -0.421223 -0.38276 127 0 255
-0.141808 -0.463599 0.165966 127 0 255
-0.351325 -0.458253 0.0658889 127 0 255
-0.0481477 -0.10874 -0.255998 127 0 255
-0.0438464 -0.340748 -0.144031 127 0 255
-0.045051 -0.126363 -0.16294 127 0 255
-0.0454368 -0.295439 0.0661728 127 0 255
-0.04876 -0.147248 0.0302875 127 0 255
-0.136271 -0.390243 0.145052 127 0 255
-0.0903703 -0.00464255 0.146573 127 0 255
-0.247175 -0.212503 0.156251 127 0 255
-0.0923822 -0.481707 -0.308593 127 0 255
-0.0980368 -0.467815 0.108075 127 0 255
-0.235306 -0.486872 0.0654729 127 0 255
-0.116025 -0.481082 -0.231745 127 0 255
-0.150327 -0.312274 -0.0750543 127 0 255
-0.0478137 -0.221194 -0.375147 127 0 255
-0.216995 -0.481276 -0.0634425 127 0 255
-0.0576903 -0.367129 -0.350228 127 0 255
-0.043799 -0.371269 -0.06024 127 0 255
-0.0757126 -0.405266 0.159805 127 0 255
-0.0392147 -0.403132 0.0605444 127 0 255
-0.125398 -0.36161 0.0642771 127 0 255
-0.0714035 -0.315906 -0.0617423 127 0 255
-0.0663009 -0.229671 -0.0286977 127 0 255
-0.0448904 -0.0728479 -0.103363 127 0 255
-0.108644 -0.475782 -0.145632 127 0 255
-0.178485 -0.486002 -0.0312568 127 0 255
-0.055544 -0.423118 -0.20756 127 0 255
-0.0596168 -0.140185 0.161842 127 0 255
-0.203967 -0.233213 0.174351 127 0 255
-0.119062 -0.250048 0.161102 127 0 255
-0.0694497 -0.0994532 -0.0323717 127 0 255
-0.185582 -0.405778 0.164603 127 0 255
-0.0507504 -0.331811 0.154781 127 0 255
-0.0597178 -0.0255731 0.0431112 127 0 255
-0.0597477 -0.161165 -0.30221 127 0 255
-0.0440762 -0.242456 0.14446 127 0 255
-0.0904491 -0.0503244 0.169345 127 0 255
-0.253185 -0.298133 0.166757 127 0 255
-0.250307 -0.374196 0.138991 127 0 255
-0.125327 -0.287274 0.0249457 127 0 255
-0.0439111 -0.353827 0.0302199 127 0 255
-0.334966 -0.385471 0.0851019 127 0 255
-0.0503359 -0.414853 -0.103162 127 0 255
-0.159533 -0.480571 0.0997086 127 0 255
-0.237827 -0.4873 -0.137537 127 0 255
-0.155872 -0.39923 0.0477547 127 0 255
-0.0689927 -0.436313 0.0882371 127 0 255
-0.0474749 -0.299638 -0.356776 127 0 255
-0.101253 -0.127325 0.168185 127 0 255
-0.242341 -0.120622 0.155497 127 0 255
-0.185588 -0.0744587 0.161883 127 0 255
-0.113453 -0.357794 0.159663 127 0 255
-0.061751 -0.207255 -0.227534 127 0 255
-0.24362 -0.485418 0.134424 127 0 255
-0.0430764 -0.102785 0.10764 127 0 255
-0.139322 -0.483285 0.0535801 127 0 255
-0.047749 -0.0755552 -0.168687 127 0 255
-0.0517253 -0.279155 -0.145231 127 0 255
-0.0411565 -0.293402 -0.0279675 127 0 255
-0.0867081 -0.48276 0.00864666 127 0 255
-0.297362 -0.262744 0.156842 127 0 255
-0.0405788 -0.186776 -0.0639207 127 0 255
-0.283371 -0.48587 0.0680595 127 0 255
-0.304129 -0.481155 -0.0300102 127 0 255
-0.279192 -0.449765 0.169507 127 0 255
-0.183621 -0.480877 -0.119526 127 0 255
-0.105675 -0.45643 -0.0565918 127 0 255
-0.279314 -0.0848264 0.166698 127 0 255
-0.199851 -0.327434 0.161479 127 0 255
-0.125327 -0.349774 -0.212554 127 0 255
-0.041222 -0.418211 -0.318233 127 0 255
-0.288503 -0.208753 0.167407 127 0 255
-0.191298 -0.201953 0.153098 127 0 255
-0.0706396 -0.386551 -0.143753 127 0 255
-0.0813181 -0.368539 0.13141 127 0 255
-0.0468762 -0.167974 -0.141894 127 0 255
-0.391765 -0.410401 -0.029528 127 0 255
-0.186488 -0.482774 0.154868 127 0 255
-0.207295 -0.418819 0.077804 127 0 255
-0.0820925 -0.482533 -0.101803 127 0 255
-0.0798564 -0.324115 0.0460171 127 0 255
-0.116908 -0.443353 0.162813 127 0 255
-0.0641997 -0.256944 -0.0707799 127 0 255
-0.0496659 -0.474088 -0.247695 127 0 255
-0.0612272 -0.0963288 -0.12656 127 0 255
-0.0643941 -0.159966 -0.230152 127 0 255
-0.068064 -0.341955 -0.216749 127 0 255
-0.0703119 -0.127065 0.019348 127 0 255
-0.110588 -0.435208 0.0115198 127 0 255
-0.329884 -0.435576 0.149238 127 0 255
-0.126366 -0.307273 0.147946 127 0 255
-0.0462329 -0.458771 0.0266219 127 0 255
-0.121036 -0.203222 0.160489 127 0 255
-0.0621063 -0.397224 -0.0436614 127 0 255
-0.387827 -0.362288 -0.125043 127 0 255
-0.249057 -0.482255 0.0244174 127 0 255
-0.0503129 -0.265523 -0.260845 127 0 255
-0.0670815 -0.185938 0.0949688 127 0 255
-0.0526527 -0.108655 -0.34622 127 0 255
-0.0687867 -0.236392 -0.203753 127 0 255
-0.0462424 -0.249558 0.081758 127 0 255
-0.29798 -0.342324 0.165799 127 0 255
-0.167288 -0.146516 0.151956 127 0 255
-0.0464248 -0.439355 0.128884 127 0 255
-0.0540282 -0.454859 -0.381933 127 0 255
-0.0471668 -0.221018 -0.323774 127 0 255
-0.231144 -0.480437 -0.0924807 127 0 255
-0.0565956 -0.0864951 0.157347 127 0 255
-0.110146 -0.383068 -0.00151782 127 0 255
-0.244108 -0.0707508 0.15388 127 0 255
-0.0633556 -0.378385 -0.302094 127 0 255
-0.0551513 -0.370763 -0.379968 127 0 255
-0.329819 -0.480974 0.149582 127 0 255
-0.0765274 -0.199494 0.157395 127 0 255
-0.0594928 -0.0349384 -0.0223278 127 0 255
-0.375327 -0.412289 -0.125044 127 0 255
-0.167709 -0.352154 0.141066 127 0 255
-0.128542 -0.388012 0.0946302 127 0 255
-0.0490158 -0.23833 -0.103035 127 0 255
-0.0747055 -0.294071 0.157016 127 0 255
-0.0672579 -0.131269 -0.049875 127 0 255
-0.0670977 -0.223832 0.0244639 127 0 255
-0.325235 -0.387057 0.051687 127 0 255
-0.283566 -0.485539 0.128008 127 0 255
-0.242157 -0.48424 -0.0451203 127 0 255
-0.114824 -0.485906 -0.110897 127 0 255
-0.0506199 -0.0426843 0.14707 127 0 255
-0.169077 -0.482618 0.0343634 127 0 255
-0.0766701 -0.480304 0.160018 127 0 255
-0.0473325 -0.150142 -0.261514 127 0 255
-0.0443476 -0.304009 0.118209 127 0 255
-0.125327 -0.437281 -0.20005 127 0 255
-0.0477867 -0.296754 -0.239396 127 0 255
-0.0491093 -0.329771 -0.170985 127 0 255
-0.0605949 -0.0609411 -0.0846722 127 0 255
-0.0742027 -0.0987886 0.0430929 127 0 255
-0.0662494 -0.287793 -0.373925 127 0 255
-0.193941 -0.0335782 0.163095 127 0 255
-0.0393446 -0.147955 0.145655 127 0 255
-0.0480291 -0.312706 -0.30223 127 0 255
-0.0855543 -0.364061 -0.0563243 127 0 255
-0.0703927 -0.288482 0.0445097 127 0 255
-0.124252 -0.484401 0.135023 127 0 255
-0.078816 -0.371468 0.0179323 127 0 255
-0.206685 -0.486146 0.101235 127 0 255
-0.140263 -0.444028 0.00103882 127 0 255
-0.351885 -0.481915 0.0504299 127 0 255
-0.173238 -0.485885 -0.0540459 127 0 255
-0.220809 -0.172421 0.16344 127 0 255
-0.14913 -0.0855173 0.153873 127 0 255
-0.089839 -0.47974 -0.249131 127 0 255
-0.293636 -0.130362 0.166074 127 0 255
-0.0486638 -0.384261 -0.23111 127 0 255
-0.0698173 -0.364472 0.0801986 127 0 255
-0.2551 -0.398224 0.170136 127 0 255
-0.250378 -0.0295416 0.163168 127 0 255
-0.0515805 -0.433179 -0.0584488 127 0 255
-0.137827 -0.0872744 -0.200054 127 0 255
-0.0637724 -0.137506 -0.362251 127 0 255
-0.211003 -0.269609 0.170254 127 0 255
-0.0469613 -0.146202 -0.0942314 127 0 255
-0.0524386 -0.45276 -0.129287 127 0 255
-0.0799505 -0.466964 0.0750264 127 0 255
-0.219201 -0.474112 0.164063 127 0 255
-0.125327 -0.162274 -0.200054 127 0 255
-0.0689557 -0.482368 -0.315827 127 0 255
-0.0468612 -0.251378 -0.0162578 127 0 255
-0.0455691 -0.10912 0.0806506 127 0 255
-0.0726556 -0.00962034 0.129894 127 0 255
-0.0810014 -0.103388 0.136652 127 0 255
-0.326254 -0.385855 0.10677 127 0 255
-0.100327 -0.299774 -0.250054 127 0 255
-0.150327 -0.312274 -0.0375543 127 0 255
-0.0645864 -0.454023 -0.20525 127 0 255
-0.0479123 -0.105957 -0.217299 127 0 255
-0.309271 -0.0636917 0.16546 127 0 255
-0.0647256 -0.321115 -0.103201 127 0 255
-0.155885 -0.262618 0.152257 127 0 255
-0.077656 -0.482642 -0.027405 127 0 255
-0.0478499 -0.200935 -0.160325 127 0 255
-0.224448 -0.41399 0.103944 127 0 255
-0.0474552 -0.216839 0.120825 127 0 255
-0.265775 -0.240833 0.168828 127 0 255
-0.0523439 -0.417609 -0.000505864 127 0 255
-0.125327 -0.237274 -0.212554 127 0 255
-0.0502704 -0.384348 -0.117867 127 0 255
-0.0452363 -0.328101 0.0657256 127 0 255
-0.0495853 -0.0856046 -0.00777725 127 0 255
-0.0630331 -0.264378 -0.312951 127 0 255
-0.117806 -0.426461 -0.036709 127 0 255
-0.0994693 -0.412574 0.156512 127 0 255
-0.0442969 -0.0481914 0.0987192 127 0 255
-0.0497356 -0.406345 0.118749 127 0 255
-0.0661331 -0.318084 -0.337666 127 0 255
-0.0598423 -0.418513 -0.286957 127 0 255
-0.194187 -0.368691 0.156473 127 0 255
-0.125719 -0.145369 0.148632 127 0 255
-0.0407242 -0.190799 -0.0293358 127 0 255
-0.275365 -0.3077 0.151419 127 0 255
-0.158062 -0.370852 0.100413 127 0 255
-0.0574807 -0.106396 -0.310191 127 0 255
-0.175327 -0.487294 -0.200042 127 0 255
-0.0731469 -0.48258 -0.155041 127 0 255
-0.04296 -0.383026 0.0348701 127 0 255
-0.252388 -0.482622 0.0951458 127 0 255
-0.350327 -0.399792 -0.0875396 127 0 255
-0.0378269 -0.224774 0.174946 127 0 255
-0.0676021 -0.254082 -0.363454 127 0 255
-0.137827 -0.287274 -0.200054 127 0 255
-0.0386462 -0.444837 -0.33884 127 0 255
-0.0592014 -0.0276953 0.0621322 127 0 255
-0.170216 -0.224946 0.168224 127 0 255
-0.064381 -0.216646 -0.0611511 127 0 255
-0.193568 -0.447511 0.163521 127 0 255
-0.178665 -0.110222 0.15933 127 0 255
-0.277348 -0.16612 0.165958 127 0 255
-0.064248 -0.17484 -0.265735 127 0 255
-0.128905 -0.0368659 0.17229 127 0 255
-0.311771 -0.391777 0.15443 127 0 255
-0.196421 -0.480011 -0.00312837 127 0 255
-0.30921 -0.483412 0.0836271 127 0 255
-0.156512 -0.481133 -0.137602 127 0 255
-0.136313 -0.394481 0.0289322 127 0 255
-0.0663917 -0.348551 -0.26067 127 0 255
-0.0685094 -0.408158 -0.152467 127 0 255
-0.114291 -0.482664 0.0416842 127 0 255
-0.0635309 -0.365272 0.158584 127 0 255
-0.0503175 -0.422117 -0.23614 127 0 255
-0.0620148 -0.26823 -0.194005 127 0 255
-0.0506803 -0.376171 -0.0144273 127 0 255
-0.0473448 -0.19059 -0.352346 127 0 255
-0.103087 -0.481864 -0.19126 127 0 255
-0.0451226 -0.138123 -0.187165 127 0 255
-0.0683075 -0.143204 0.126217 127 0 255
-0.0493321 -0.473096 -0.27196 127 0 255
-0.0450671 -0.174554 0.0185268 127 0 255
-0.041879 -0.375799 -0.34018 127 0 255
-0.0559139 -0.483012 0.0662437 127 0 255
-0.125327 -0.237274 0.112446 127 0 255
-0.137311 -0.485438 0.100288 127 0 255
-0.344777 -0.482528 0.121293 127 0 255
-0.322411 -0.481155 -0.0246029 127 0 255
-0.100327 -0.299774 -0.0500543 127 0 255
-0.0620477 -0.0503397 0.0150593 127 0 255
-0.0651472 -0.202301 -0.108329 127 0 255
-0.0694298 -0.287293 0.0900058 127 0 255
-0.0692846 -0.432572 0.0616067 127 0 255
-0.110947 -0.312918 0.159407 127 0 255
-0.06949 -0.376448 -0.20564 127 0 255
-0.0459844 -0.112874 -0.0269791 127 0 255
-0.264511 -0.464311 0.168932 127 0 255
-0.315399 -0.473153 0.0385715 127 0 255
-0.0536812 -0.144063 0.0661177 127 0 255
-0.350327 -0.349792 -0.0875387 127 0 255
-0.0685572 -0.329825 -0.135404 127 0 255
-0.0511078 -0.241995 -0.157487 127 0 255
-0.0466948 -0.221823 -0.253551 127 0 255
-0.0612203 -0.0829559 -0.240326 127 0 255
-0.0796296 -0.326024 0.0141081 127 0 255
-0.124486 -0.481889 -0.0466028 127 0 255
-0.0591053 -0.482546 0.122719 127 0 255
-0.0856499 -0.078454 0.167756 127 0 255
-0.0672526 -0.075728 -0.179464 127 0 255
-0.0457357 -0.215193 0.0662868 127 0 255
-0.263057 -0.358056 0.142538 127 0 255
-0.137827 -0.299774 -0.125054 127 0 255
-0.144304 -0.485039 0.153044 127 0 255
-0.350327 -0.374797 -0.0125358 127 0 255
-0.059061 -0.148272 -0.316872 127 0 255
-0.0783097 -0.424863 -0.023629 127 0 255
-0.144299 -0.371043 0.163085 127 0 255
-0.0548863 -0.481243 -0.0599246 127 0 255
-0.069131 -0.16773 -0.0212774 127 0 255
-0.0774158 -0.387707 -0.0920191 127 0 255
-0.155052 -0.481717 -0.0907834 127 0 255
-0.253572 -0.279042 0.156214 127 0 255
-0.162777 -0.426126 0.0225071 127 0 255
-0.0699097 -0.436942 0.161019 127 0 255
-0.0436742 -0.099863 -0.0988972 127 0 255
-0.0530628 -0.352352 -0.378483 127 0 255
-0.265874 -0.482175 0.0288327 127 0 255
-0.161685 -0.193266 0.169073 127 0 255
-0.0440596 -0.271911 0.0378217 127 0 255
-0.0474898 -0.194834 -0.296987 127 0 255
-0.195694 -0.484594 0.0827309 127 0 255
-0.0725594 -0.0671813 0.0733562 127 0 255
-0.137113 -0.418864 0.160772 127 0 255
-0.0512428 -0.452131 -0.170679 127 0 255
-0.222566 -0.132877 0.163115 127 0 255
-0.192352 -0.311564 0.14582 127 0 255
-0.216283 -0.23081 0.158171 127 0 255
-0.0895518 -0.368063 -0.026954 127 0 255
-0.0773937 -0.254391 0.157354 127 0 255
-0.30178 -0.288685 0.151898 127 0 255
-0.0663271 -0.345089 0.117089 127 0 255
-0.0473817 -0.0638847 -0.0571029 127 0 255
-0.308897 -0.382699 0.0764128 127 0 255
-0.0643946 -0.167498 0.162884 127 0 255
-0.0501981 -0.313404 -0.200152 127 0 255
-0.071443 -0.404061 0.0905812 127 0 255
-0.0971706 -0.344521 0.044396 127 0 255
-0.044785 -0.447267 -0.382446 127 0 255
-0.0527081 -0.279022 -0.131067 127 0 255
-0.350327 -0.462294 -0.0625407 127 0 255
-0.0478324 -0.176718 -0.202473 127 0 255
-0.201008 -0.480952 -0.0988254 127 0 255
-0.157756 -0.381864 0.0690453 127 0 255
-0.237503 -0.484378 -0.00461234 127 0 255
-0.116047 -0.00656449 0.159875 127 0 255
-0.130262 -0.48459 -0.176901 127 0 255
-0.0897869 -0.477897 -0.28083 127 0 255
-0.0463526 -0.133688 -0.133104 127 0 255
-0.0943267 -0.405828 0.0373927 127 0 255
-0.348527 -0.458991 0.0739403 127 0 255
-0.2453 -0.417778 0.168927 127 0 255
-0.116166 -0.482486 0.00602099 127 0 255
-0.0479732 -0.225874 -0.375076 127 0 255
-0.051779 -0.400586 -0.380669 127 0 255
-0.0660531 -0.482538 -0.108341 127 0 255
-0.0456724 -0.334271 -0.321954 127 0 255
-0.0756026 -0.349655 -0.0745181 127 0 255
-0.202735 -0.0878964 0.156476 127 0 255
-0.0482464 -0.266962 0.11943 127 0 255
-0.150327 -0.287274 -5.43091e-05 127 0 255
-0.288501 -0.209477 0.151338 127 0 255
-0.0529001 -0.480238 0.0108215 127 0 255
-0.067941 -0.204586 0.00889263 127 0 255
-0.197344 -0.416031 0.0839401 127 0 255
-0.152036 -0.0558602 0.156845 127 0 255
-0.343403 -0.458636 0.138079 127 0 255
-0.0581321 -0.0980963 -0.285571 127 0 255
-0.120004 -0.184083 0.156749 127 0 255
-0.209577 -0.0340033 0.151473 127 0 255
-0.179192 -0.430124 0.144828 127 0 255
-0.158409 -0.295912 0.147212 127 0 255
-0.245185 -0.410139 0.109807 127 0 255
-0.292316 -0.481573 0.16551 127 0 255
-0.305141 -0.357034 0.163898 127 0 255
-0.202382 -0.482381 0.0400048 127 0 255
-0.259522 -0.481059 -0.0560993 127 0 255
-0.238575 -0.330993 0.163473 127 0 255
-0.390776 -0.406825 -0.0238184 127 0 255
-0.0459225 -0.180182 0.0968568 127 0 255
-0.049574 -0.295736 -0.00922091 127 0 255
-0.0480088 -0.0621178 -0.121544 127 0 255
-0.0795555 -0.069012 0.134818 127 0 255
-0.304775 -0.412032 0.144649 127 0 255
-0.125327 -0.399778 -0.212552 127 0 255
-0.0426315 -0.329941 0.139405 127 0 255
-0.0665322 -0.32576 -0.252563 127 0 255
-0.0401772 -0.432127 0.029358 127 0 255
-0.263882 -0.0594773 0.166006 127 0 255
-0.0378269 -0.487274 -0.350054 127 0 255
-0.0630707 -0.124286 -0.247782 127 0 255
-0.132083 -0.0987218 0.165901 127 0 255
-0.0473368 -0.266912 -0.322136 127 0 255
-0.185053 -0.38353 0.124288 127 0 255
-0.063962 -0.313055 -0.373014 127 0 255
-0.1729 -0.486168 -0.000137936 127 0 255
