ply
format ascii 1.0
comment Created by Open3D
element vertex 1192
property double x
property double y
property double z
property uchar red
property uchar green
property uchar blue
end_header
-0.0171742 -0.45884 -0.169149 7 248 255
0.123708 -0.202739 -0.0231397 73 182 255
-0.166541 -0.484879 -0.0704258 0 255 255
0.124096 -0.314641 0.299084 44 211 255
-0.405241 -0.48543 -0.0867488 0 255 255
-0.0301722 -0.484749 0.121206 0 255 255
0.0954336 -0.192912 -0.155719 75 179 255
-0.286187 -0.484182 0.245461 0 255 255
-0.199685 -0.225423 -0.0753228 67 188 255
0.123564 -0.275262 0.209919 54 201 255
0.117408 -0.248683 0.284361 60 194 255
0.124693 -0.16537 0.0782263 81 173 255
0.0896725 -0.483816 -0.137159 1 254 255
-0.350642 -0.484512 0.0725894 0 255 255
-0.288729 -0.138603 -0.14765 89 166 255
0.124315 -0.320063 0.0944906 42 213 255
-0.193562 -0.429817 -0.15732 14 241 255
0.0628154 -0.300423 0.487177 48 207 255
-0.033324 -0.276748 -0.15285 54 201 255
-0.434599 -0.484114 -0.131987 0 255 255
-0.378438 -0.416174 -0.156996 18 237 255
0.121477 -0.42795 -0.0419158 15 240 255
0.00167796 -0.334068 -0.161838 39 216 255
-0.0198072 -0.484962 -0.00805714 0 255 255
-0.0305188 -0.144308 -0.160918 87 168 255
0.0128154 -0.375423 0.337177 28 227 255
-0.362185 -0.400423 0.0996772 22 233 255
-0.122841 -0.455975 -0.170315 8 247 255
-0.261638 -0.325615 -0.159654 40 214 255
0.0703273 -0.484745 0.11146 0 255 255
0.096113 -0.142556 -0.150367 88 167 255
0.0324316 -0.47875 -0.158367 2 253 255
-0.145102 -0.17834 -0.152138 79 176 255
-0.381929 -0.132735 -0.14773 89 165 255
-0.203117 -0.233132 -0.154272 65 190 255
-0.4267 -0.342051 -0.146643 36 218 255
-0.199685 -0.287923 -0.0503228 51 204 255
-0.424046 -0.227194 -0.140794 65 189 255
0.134659 -0.417692 0.381022 17 238 255
0.125764 -0.438623 0.0187484 12 243 255
-0.0621846 -0.387923 0.0621772 25 230 255
0.110448 -0.330264 -0.0735737 40 215 255
0.11293 -0.483989 -0.0822631 1 254 255
0.124545 -0.215755 -0.13391 69 186 255
0.120637 -0.297571 0.388914 48 207 255
0.125365 -0.216992 0.11465 69 186 255
-0.354379 -0.313712 -0.139986 44 211 255
0.0591555 -0.343175 -0.157573 36 218 255
-0.131373 -0.48475 0.0959947 0 255 255
0.123463 -0.331606 0.204529 40 215 255
-0.236046 -0.48422 0.259787 0 255 255
0.122144 -0.302643 -0.00260273 47 208 255
0.125389 -0.459243 0.218359 7 248 255
-0.150386 -0.483644 0.199702 1 254 255
0.000315376 -0.400423 0.0121772 22 233 255
0.124605 -0.425624 0.12074 15 240 255
-0.268598 -0.390152 -0.147242 25 230 255
-0.13869 -0.2864 -0.160836 51 204 255
0.0128154 -0.400423 0.412177 22 233 255
-0.0552049 -0.482202 -0.085576 1 254 255
-0.249685 -0.375423 0.0871772 28 227 255
-0.284637 -0.484424 0.0293965 0 255 255
-0.443954 -0.418685 -0.134981 17 238 255
-0.374598 -0.241254 -0.14811 63 192 255
-0.303756 -0.482148 -0.157746 1 254 255
0.12194 -0.478634 0.076297 2 253 255
-0.211048 -0.308452 -0.121066 44 210 255
0.117068 -0.364281 0.301782 31 224 255
-0.0914589 -0.420047 -0.154967 17 238 255
-0.0220875 -0.484679 0.262414 0 255 255
-0.262185 -0.425423 0.337177 16 239 255
-0.024339 -0.380586 -0.164762 27 228 255
0.090857 -0.295595 -0.155724 48 206 255
0.124901 -0.1846 0.223416 77 178 255
0.120814 -0.432968 0.270314 14 241 255
-0.312185 -0.387923 0.199677 25 230 255
0.125519 -0.252194 -0.0266068 60 195 255
0.0253154 -0.412923 0.237177 19 236 255
0.124889 -0.170113 -0.0339827 81 174 255
-0.2968 -0.484614 -0.037017 0 255 255
-0.0882915 -0.124831 -0.154518 92 163 255
-0.103808 -0.242554 -0.154823 62 193 255
-0.181183 -0.484568 0.0442459 0 255 255
0.0128154 -0.312923 0.287177 44 211 255
0.124527 -0.21136 0.053228 70 185 255
0.081543 -0.393756 0.437103 24 231 255
-0.224238 -0.198623 -0.154479 73 181 255
0.0528759 -0.484794 0.312076 0 255 255
0.12636 -0.355383 -0.130232 32 222 255
0.0566618 -0.484718 0.159403 0 255 255
0.12564 -0.221892 -0.0835141 68 187 255
-0.0331175 -0.210049 -0.152363 71 184 255
-0.157626 -0.484968 -0.0988441 0 255 255
0.118671 -0.301043 0.0586125 47 208 255
0.0173275 -0.376184 0.0659238 28 227 255
-0.41092 -0.484862 -0.0510375 0 255 255
0.11381 -0.377353 -0.0584028 28 227 255
0.113381 -0.307825 0.163133 46 209 255
-0.249685 -0.425423 -0.0378228 16 239 255
-0.291605 -0.246619 -0.158172 60 194 255
-0.415983 -0.364716 -0.0925393 31 224 255
0.0794003 -0.483961 -0.0341295 1 254 255
-0.304959 -0.482433 0.148658 1 254 255
0.118861 -0.384668 0.207071 26 229 255
0.105074 -0.417645 0.381149 17 238 255
-0.249685 -0.412923 0.237177 19 236 255
-0.392023 -0.481729 0.0103144 1 254 255
-0.187185 -0.375423 -0.0503228 28 227 255
0.11962 -0.40445 0.0604179 21 234 255
-0.128068 -0.352429 -0.142277 34 221 255
0.126523 -0.210957 0.156577 70 185 255
0.128258 -0.434729 -0.135446 13 242 255
-0.244388 -0.483884 -0.144769 1 254 255
0.124927 -0.24319 0.24896 62 193 255
-0.174101 -0.484206 0.256128 0 255 255
0.0621023 -0.164226 -0.155976 81 173 255
0.116097 -0.484473 0.337505 0 255 255
0.122148 -0.211787 0.32542 70 185 255
0.127197 -0.292704 -0.0963243 48 206 255
-0.0923097 -0.484909 0.0633305 0 255 255
0.0114943 -0.251924 -0.152004 60 195 255
-0.330917 -0.452355 -0.153743 9 246 255
0.117826 -0.390641 -0.00548642 24 231 255
-0.430264 -0.275033 -0.143845 54 201 255
-0.321624 -0.135303 -0.150551 89 165 255
-0.164406 -0.423842 -0.158492 16 239 255
-0.44704 -0.461214 -0.124132 6 249 255
-0.064453 -0.479731 -0.15776 2 253 255
-0.235323 -0.336597 -0.128735 38 217 255
-0.0257681 -0.48223 0.0416734 1 254 255
0.0503154 -0.325423 0.0746772 40 214 255
-0.122204 -0.485201 -0.0204065 0 255 255
-0.291726 -0.484209 0.212326 0 255 255
0.0871012 -0.411183 -0.156555 19 236 255
-0.124685 -0.487923 0.324677 0 255 255
-0.362185 -0.225423 -0.0753228 67 188 255
-0.318269 -0.375942 -0.155343 28 227 255
0.0373475 -0.484841 0.0220739 0 255 255
0.11462 -0.268255 0.334145 56 199 255
0.123429 -0.47502 -0.0229793 3 252 255
0.124307 -0.450215 0.170564 9 246 255
0.118194 -0.287986 0.124406 51 204 255
-0.426626 -0.167575 -0.141786 81 173 255
0.115258 -0.370339 0.092941 30 225 255
0.125336 -0.405651 0.326755 21 234 255
-0.173109 -0.484444 0.167034 0 255 255
-0.306727 -0.484308 0.0855064 0 255 255
0.106715 -0.240048 -0.154506 63 192 255
0.121647 -0.1918 0.278821 75 179 255
0.123948 -0.318645 0.247197 43 211 255
0.0401532 -0.306393 -0.15713 46 209 255
0.0714089 -0.484771 0.261362 0 255 255
-0.21756 -0.455511 -0.170543 8 247 255
-0.173916 -0.484251 -0.0154179 0 255 255
0.0263591 -0.438124 -0.169556 12 243 255
-0.0708573 -0.361949 -0.147135 32 223 255
0.123868 -0.345902 0.36417 36 219 255
-0.193519 -0.138838 -0.147617 89 166 255
0.125096 -0.137496 -0.101632 89 166 255
-0.0746846 -0.350423 0.0121772 35 220 255
0.126168 -0.242663 0.187319 62 193 255
-0.153525 -0.322587 -0.16089 42 213 255
-0.107795 -0.161317 -0.150872 83 172 255
0.124771 -0.1679 0.104845 81 174 255
0.12429 -0.251539 0.0634891 60 195 255
-0.241467 -0.27644 -0.160456 54 201 255
-0.109913 -0.48381 0.231798 1 254 255
-0.378435 -0.187674 -0.145795 76 179 255
0.100907 -0.337231 -0.022978 38 217 255
0.0753154 -0.175423 0.399677 80 175 255
0.121467 -0.169043 0.0215225 81 174 255
-0.388973 -0.389282 -0.152078 25 230 255
-0.339888 -0.484594 -0.0237553 0 255 255
-0.299685 -0.300423 -0.0378228 48 207 255
-0.406812 -0.303867 -0.146682 47 208 255
-0.287185 -0.412923 0.274677 19 236 255
-0.374311 -0.469921 -0.141066 4 251 255
-0.0300811 -0.48511 -0.0380285 0 255 255
0.0921181 -0.485051 0.0670748 0 255 255
0.0229181 -0.368464 -0.158859 30 225 255
-0.169281 -0.374056 -0.156509 29 226 255
0.106337 -0.468836 -0.101124 4 251 255
-0.0353246 -0.484335 0.130425 0 255 255
-0.0323054 -0.484765 0.239574 0 255 255
-0.149203 -0.220444 -0.155111 68 187 255
0.0324062 -0.128721 -0.154646 91 163 255
-0.274615 -0.20272 -0.153138 73 182 255
0.137815 -0.175423 -0.150323 80 175 255
0.049604 -0.231152 -0.157792 65 190 255
-0.336384 -0.251045 -0.152231 60 195 255
-0.0399946 -0.298251 -0.152918 48 207 255
0.116519 -0.427605 0.410125 15 240 255
-0.264962 -0.482782 0.299633 1 254 255
-0.442211 -0.401507 -0.14792 22 233 255
-0.26234 -0.433369 -0.159224 13 242 255
0.0128154 -0.350423 0.412177 35 220 255
0.12334 -0.34873 0.0253911 35 220 255
0.122725 -0.238499 0.00155848 63 192 255
-0.249685 -0.425423 0.174677 16 239 255
0.125943 -0.373856 -0.0878119 29 226 255
-0.165674 -0.474011 -0.157999 3 252 255
0.0303886 -0.484691 0.233413 0 255 255
-0.312527 -0.302205 -0.158551 47 208 255
-0.192859 -0.281269 -0.160517 52 203 255
-0.110255 -0.484611 0.180773 0 255 255
0.12774 -0.179218 0.167948 79 176 255
0.125688 -0.193412 -0.0965881 75 179 255
0.124494 -0.243123 0.35684 62 193 255
0.125045 -0.296106 -0.0463728 48 206 255
-0.0255119 -0.127698 -0.151522 92 163 255
0.121798 -0.421081 0.201437 17 238 255
0.1245 -0.329455 0.324794 40 215 255
0.0227053 -0.381683 0.0416481 27 228 255
0.103825 -0.485175 0.210429 0 255 255
0.0878154 -0.150423 0.349677 86 169 255
-0.0638736 -0.186578 -0.156861 77 178 255
-0.114511 -0.48258 -0.148756 1 254 255
-0.234274 -0.362716 -0.159637 32 223 255
0.0912057 -0.476515 0.0138991 2 253 255
-0.254297 -0.140625 -0.149415 88 167 255
0.0978191 -0.366648 0.389636 31 224 255
-0.398084 -0.475789 -0.161293 3 252 255
-0.312185 -0.387923 -0.0378228 25 230 255
0.12486 -0.377047 0.26172 28 227 255
0.123613 -0.378733 0.16117 27 228 255
-0.360231 -0.484661 0.0575334 0 255 255
0.121066 -0.456166 0.365135 8 247 255
0.0246905 -0.484547 0.300444 0 255 255
-0.214037 -0.483519 0.240406 1 254 255
-0.0156935 -0.333649 -0.148902 39 216 255
0.124952 -0.443682 -0.0671147 11 244 255
-0.312185 -0.237923 -0.0378228 64 191 255
-0.0962512 -0.255852 -0.160674 59 195 255
0.12396 -0.307864 -0.150961 46 209 255
-0.116523 -0.484011 0.104715 1 254 255
-0.338078 -0.484691 -0.10669 0 255 255
-0.109027 -0.382126 -0.144998 27 228 255
-0.434465 -0.353887 -0.13471 34 221 255
-0.0245464 -0.482377 -0.149094 1 254 255
0.123262 -0.458644 0.273518 7 248 255
0.12191 -0.262043 -0.0865792 56 198 255
0.123575 -0.278675 0.244576 52 202 255
0.120677 -0.2795 0.38329 52 202 255
0.120082 -0.464573 -0.151406 5 250 255
0.0128154 -0.312923 0.374677 44 211 255
0.0378154 -0.300423 0.249677 48 207 255
-0.405609 -0.486053 -0.0549899 0 255 255
0.124032 -0.411648 0.10031 19 236 255
-0.323759 -0.484262 0.127573 0 255 255
-0.292082 -0.332354 -0.138322 39 216 255
-0.405846 -0.214117 -0.145039 70 185 255
-0.0447475 -0.484795 -0.0706671 0 255 255
0.125588 -0.155649 -0.0630141 85 170 255
0.100536 -0.348977 0.139817 35 220 255
-0.412185 -0.112923 -0.150323 96 159 255
0.12509 -0.287452 0.0334078 51 204 255
0.0253154 -0.337923 0.487177 38 217 255
-0.0509658 -0.484856 0.0262337 0 255 255
0.130481 -0.386606 0.409466 25 230 255
-0.150017 -0.146499 -0.151182 87 168 255
-0.331842 -0.412258 -0.158112 19 236 255
-0.280401 -0.483844 0.177179 1 254 255
-0.437814 -0.45225 -0.151686 9 246 255
0.0971287 -0.484942 0.112663 0 255 255
0.0854308 -0.387493 -0.155686 25 230 255
-0.364401 -0.339094 -0.152383 38 217 255
0.118303 -0.125493 -0.139856 92 163 255
-0.0504235 -0.426838 -0.163074 15 240 255
-0.249685 -0.375423 0.137177 28 227 255
-0.147182 -0.485174 -0.0612971 0 255 255
-0.362185 -0.437923 -0.0378228 12 243 255
-0.31865 -0.18735 -0.154918 76 179 255
-0.233756 -0.242154 -0.154973 62 193 255
0.0660252 -0.265791 -0.160155 56 199 255
0.125029 -0.183765 0.0556901 77 178 255
0.110375 -0.340441 0.0691917 36 218 255
0.125853 -0.22917 0.223363 65 189 255
-0.183877 -0.484563 0.0359754 0 255 255
0.126007 -0.428898 -0.00131291 15 240 255
-0.0621846 -0.412923 0.0121772 19 236 255
0.0503154 -0.300423 0.324677 48 207 255
-0.44271 -0.483764 -0.111034 1 254 255
-0.278314 -0.48419 0.253249 0 255 255
0.12494 -0.243033 -0.13569 62 193 255
-0.0133581 -0.16495 -0.156127 81 173 255
0.0128154 -0.437923 0.324677 12 243 255
-0.27468 -0.463477 -0.170857 6 249 255
0.125395 -0.358415 -0.0452391 32 222 255
-0.187185 -0.250423 -0.0628228 60 195 255
-0.299685 -0.387923 0.237177 25 230 255
-0.369823 -0.132897 -0.147447 89 165 255
-0.307165 -0.484447 0.0179319 0 255 255
0.062031 -0.482973 0.154151 1 254 255
-0.0456614 -0.484797 0.099404 0 255 255
-0.0347258 -0.248759 -0.15493 60 194 255
0.0595415 -0.197134 -0.15888 73 181 255
-0.124547 -0.427409 -0.156365 15 240 255
-0.181755 -0.185146 -0.154023 77 178 255
0.116778 -0.304871 0.186274 46 209 255
0.0812264 -0.384483 0.437843 26 229 255
0.0196851 -0.462795 -0.172114 6 249 255
0.0937948 -0.330892 -0.153784 40 215 255
-0.212321 -0.416618 -0.152838 18 237 255
-0.249685 -0.387923 0.299677 25 230 255
-0.393893 -0.486013 0.00285014 0 255 255
0.123468 -0.171436 -0.010054 81 174 255
0.124756 -0.22334 0.0916639 67 188 255
-0.382654 -0.271156 -0.147299 55 200 255
-0.00613816 -0.482538 -0.000921693 1 254 255
-0.261128 -0.300648 -0.160232 47 208 255
-0.0717797 -0.485227 -0.114639 0 255 255
0.0728882 -0.484816 -0.0217507 0 255 255
0.124335 -0.284204 0.112159 52 203 255
-0.393129 -0.383511 -0.0835423 26 229 255
0.123915 -0.360103 0.214723 32 223 255
0.11873 -0.302071 0.296372 47 208 255
0.114461 -0.220938 0.280895 68 187 255
0.0503154 -0.400423 -0.0378228 22 233 255
0.117534 -0.179149 0.147031 79 176 255
0.123881 -0.388789 0.331608 25 230 255
-0.118977 -0.286518 -0.160593 51 204 255
-0.123517 -0.202304 -0.153695 73 182 255
0.126317 -0.390054 0.022899 25 230 255
0.103289 -0.464703 0.313076 5 250 255
0.12435 -0.416436 0.24043 18 237 255
-0.0115512 -0.297255 -0.161246 48 207 255
-0.387185 -0.237923 -0.0503228 64 191 255
0.12154 -0.419555 0.14642 17 238 255
0.0893504 -0.437542 -0.158038 12 243 255
-0.178267 -0.328475 -0.160423 40 215 255
0.124696 -0.227557 -0.0312089 65 189 255
-0.120176 -0.483396 -0.097793 1 254 255
0.103098 -0.485245 0.244347 0 255 255
-0.296327 -0.483946 -0.0338879 1 254 255
-0.349685 -0.387923 0.124677 25 230 255
-0.401475 -0.419367 -0.146401 17 238 255
-0.0718209 -0.334537 -0.156166 39 216 255
0.121046 -0.322457 0.399081 42 213 255
-0.238321 -0.172523 -0.156652 80 175 255
0.0272374 -0.387044 -0.159211 25 230 255
-0.268344 -0.368823 -0.156715 30 225 255
0.124048 -0.397101 -0.0936984 23 232 255
0.122589 -0.252002 0.162914 60 195 255
-0.293322 -0.13384 -0.150016 89 165 255
0.0253154 -0.300423 0.412177 48 207 255
0.0128154 -0.362923 0.324677 32 223 255
-0.4125 -0.325057 -0.146323 40 214 255
-0.163442 -0.484435 0.241001 0 255 255
-0.178775 -0.250176 -0.156244 60 195 255
-0.30422 -0.482957 -0.121449 1 254 255
-0.411178 -0.14197 -0.140832 88 167 255
-0.174057 -0.48428 -0.0136349 0 255 255
-0.0186148 -0.48457 0.22952 0 255 255
-0.258818 -0.48274 0.306607 1 254 255
-0.191923 -0.482866 -0.153975 1 254 255
0.125744 -0.328384 -0.0995665 40 215 255
0.0248974 -0.484943 0.0228475 0 255 255
-0.165261 -0.484488 0.164249 0 255 255
0.102662 -0.143838 -0.153389 88 167 255
0.122153 -0.473063 0.0841233 3 252 255
0.0128154 -0.425423 0.387177 16 239 255
-0.213222 -0.309396 -0.120997 44 210 255
0.126568 -0.462133 -0.08797 6 249 255
-0.0430767 -0.392528 -0.15024 24 231 255
-0.424336 -0.231291 -0.144162 65 190 255
0.0355513 -0.163712 -0.159477 81 173 255
-0.383149 -0.485631 -0.126724 0 255 255
-0.33717 -0.484375 0.0931574 0 255 255
-0.0799662 -0.48492 0.061921 0 255 255
0.126068 -0.193019 0.229287 75 179 255
-0.237185 -0.375423 -0.0503228 28 227 255
0.117117 -0.198409 0.316322 73 181 255
0.125405 -0.18683 -0.120053 77 178 255
0.123378 -0.368124 0.1216 30 225 255
0.113095 -0.346831 0.303285 36 219 255
-0.249685 -0.375423 0.249677 28 227 255
0.124842 -0.455976 0.160524 8 247 255
-0.295914 -0.236756 -0.15357 64 191 255
0.12305 -0.420489 0.0651942 17 238 255
0.0470276 -0.484688 0.219452 0 255 255
0.0753154 -0.312923 0.487177 44 211 255
-0.337096 -0.311113 -0.143508 44 210 255
0.0438214 -0.315258 -0.159108 44 211 255
-0.18484 -0.129824 -0.150775 91 163 255
-0.127154 -0.48501 -0.0193746 0 255 255
-0.262185 -0.237923 -0.0378228 64 191 255
-0.0612814 -0.153723 -0.154543 85 170 255
-0.249685 -0.437923 0.0996772 12 243 255
0.0202943 -0.22175 -0.155814 68 187 255
0.121643 -0.164862 0.0916345 81 173 255
0.119279 -0.375934 -0.142757 28 227 255
0.11361 -0.288955 0.343926 50 205 255
0.118726 -0.294255 -0.0245401 48 206 255
-0.207296 -0.38155 -0.160541 27 228 255
-0.367738 -0.179437 -0.146968 78 177 255
0.08958 -0.483781 -0.111153 1 254 255
0.0878154 -0.175423 0.424677 80 175 255
-0.414682 -0.366313 -0.0882422 31 224 255
-0.299315 -0.484195 0.210155 0 255 255
0.120192 -0.420646 0.303551 17 238 255
-0.357667 -0.436064 -0.159011 13 242 255
-0.00879891 -0.446938 -0.161598 10 245 255
0.12206 -0.250725 0.0479724 60 195 255
-0.106432 -0.484603 0.196055 0 255 255
-0.348814 -0.369833 -0.155329 30 225 255
0.106178 -0.48539 -0.0243793 0 255 255
-0.254462 -0.484196 0.263985 0 255 255
0.123839 -0.323895 0.0270066 40 214 255
-0.428821 -0.27885 -0.138328 52 202 255
-0.0714997 -0.214883 -0.153121 69 186 255
-0.0837978 -0.424699 -0.156764 16 239 255
0.125258 -0.244885 -0.0649904 62 193 255
0.0764289 -0.484938 0.296742 0 255 255
0.126674 -0.443347 0.385256 11 244 255
0.123114 -0.335683 0.250412 38 217 255
-0.261635 -0.484569 -0.132819 0 255 255
-0.297675 -0.484401 0.0379194 0 255 255
-0.42171 -0.486298 -0.104631 0 255 255
-0.146893 -0.315697 -0.145695 44 211 255
0.0878154 -0.237923 0.462177 64 191 255
-0.376372 -0.484731 0.0152201 0 255 255
-0.374685 -0.300423 -0.0378228 48 207 255
-0.274685 -0.300423 -0.0378228 48 207 255
0.0986501 -0.266404 -0.156132 56 199 255
-0.249685 -0.437923 0.212177 12 243 255
-0.067306 -0.296119 -0.15508 48 206 255
0.121209 -0.411717 -0.0515722 19 236 255
-0.259762 -0.331128 -0.123982 40 215 255
-0.323473 -0.484258 0.147325 0 255 255
-0.139471 -0.485104 -0.119004 0 255 255
0.125853 -0.203812 0.0035557 72 183 255
0.12553 -0.285316 0.192565 51 204 255
-0.129995 -0.137281 -0.15155 89 166 255
0.0164602 -0.484686 0.290935 0 255 255
0.123704 -0.288485 0.083297 51 204 255
-0.28666 -0.415737 -0.150408 18 237 255
-0.0466543 -0.484394 -0.0667135 0 255 255
-0.39346 -0.485857 -0.0394872 0 255 255
0.127102 -0.466447 0.0342176 5 250 255
-0.439298 -0.391403 -0.148256 24 231 255
0.125197 -0.189939 -0.0617157 76 179 255
0.121393 -0.236322 0.354002 64 191 255
-0.146534 -0.400109 -0.158983 22 233 255
0.0966393 -0.398313 0.404285 22 233 255
0.101798 -0.469974 -0.161697 4 251 255
0.124149 -0.234025 0.126489 64 191 255
0.0837257 -0.204878 -0.158333 72 183 255
0.124719 -0.247545 0.270926 60 194 255
0.137815 -0.125423 -0.000322794 92 163 255
-0.420077 -0.182907 -0.134746 78 177 255
-0.287185 -0.400423 -0.0378228 22 233 255
0.124228 -0.338257 -0.0192154 38 217 255
0.00546621 -0.260081 -0.160825 58 197 255
0.127721 -0.287772 -0.133089 51 204 255
-0.283784 -0.174627 -0.156795 80 175 255
0.113273 -0.350011 0.347327 35 220 255
-0.249685 -0.375423 0.174677 28 227 255
0.11686 -0.217063 0.190392 69 186 255
-0.0338191 -0.484553 -0.00816745 0 255 255
-0.25591 -0.262832 -0.155037 56 198 255
0.023317 -0.423253 -0.166232 16 239 255
0.0440463 -0.135258 -0.153153 89 165 255
-0.330915 -0.251126 -0.154435 60 195 255
0.0664605 -0.356597 -0.156501 32 222 255
-0.0394482 -0.484745 0.124861 0 255 255
0.119102 -0.485065 0.318358 0 255 255
0.125169 -0.377362 0.0689103 28 227 255
-0.0267252 -0.12788 -0.151417 92 163 255
-0.187185 -0.375423 -0.0628228 28 227 255
0.121334 -0.164871 0.0458469 81 173 255
0.123229 -0.350019 0.172157 35 220 255
0.0128154 -0.375423 0.287177 28 227 255
-0.106681 -0.484855 0.0783419 0 255 255
-0.406903 -0.366008 -0.146409 31 224 255
-0.225323 -0.200822 -0.154469 73 182 255
-0.199554 -0.298073 -0.16044 48 207 255
-0.110183 -0.35383 -0.160863 34 221 255
-0.0788792 -0.479265 -0.158708 2 253 255
0.125169 -0.456584 0.231803 8 247 255
0.125471 -0.422362 -0.130368 16 239 255
0.0609013 -0.484639 0.153787 0 255 255
-0.0254519 -0.361036 -0.148637 32 223 255
-0.15134 -0.258618 -0.156665 58 197 255
-0.0621846 -0.425423 0.0371772 16 239 255
-0.387714 -0.311554 -0.149454 44 210 255
-0.324685 -0.387923 0.174677 25 230 255
0.0185771 -0.483082 0.0260782 1 254 255
-0.385245 -0.236085 -0.147043 64 191 255
-0.0621846 -0.487923 0.324677 0 255 255
-0.329402 -0.484712 -0.0234247 0 255 255
-0.0306208 -0.20863 -0.158598 71 184 255
0.131741 -0.39434 0.400599 23 232 255
-0.215359 -0.484265 0.253928 0 255 255
-0.218685 -0.352302 -0.145587 34 221 255
0.124847 -0.388774 0.293987 25 230 255
-0.212276 -0.155979 -0.149556 84 171 255
-0.33493 -0.152151 -0.155839 85 170 255
0.0503154 -0.325423 0.0621772 40 214 255
-0.445368 -0.472298 -0.139516 4 251 255
0.109262 -0.36296 -0.0708021 31 224 255
-0.328613 -0.477431 -0.165265 2 253 255
-0.356763 -0.484604 0.058384 0 255 255
-0.170553 -0.465631 -0.168495 5 250 255
0.102845 -0.485164 -0.0696658 0 255 255
0.125194 -0.288744 -0.0710987 50 205 255
0.124116 -0.283011 0.229547 52 203 255
-0.161862 -0.485132 -0.0581172 0 255 255
0.124041 -0.396853 0.217962 23 232 255
-0.108637 -0.190234 -0.157426 76 179 255
-0.115392 -0.484561 0.219592 0 255 255
-0.0286695 -0.484643 0.255256 0 255 255
-0.337185 -0.225423 -0.0628228 67 188 255
0.123772 -0.322153 0.109703 42 213 255
0.126396 -0.397862 -0.0110343 23 232 255
0.124721 -0.143168 -0.100588 88 167 255
0.121897 -0.262754 0.318998 56 198 255
-0.296437 -0.3454 -0.155539 36 219 255
0.0680219 -0.484722 0.211184 0 255 255
0.0128154 -0.350423 0.474677 35 220 255
0.0278807 -0.387942 -0.14453 25 230 255
-0.0746846 -0.350423 0.0246772 35 220 255
0.12276 -0.201418 -0.140201 73 182 255
-0.425253 -0.480852 -0.0721657 1 254 255
0.0530467 -0.288412 -0.157703 51 204 255
-0.231859 -0.430091 -0.158038 14 241 255
0.0916813 -0.484867 0.118385 0 255 255
-0.0246846 -0.400423 -0.000322794 22 233 255
0.120291 -0.41594 0.340239 18 237 255
0.00770633 -0.481833 -0.145654 1 254 255
0.120694 -0.254464 0.382271 59 195 255
0.126374 -0.194683 0.136853 75 179 255
-0.249685 -0.425423 0.149677 16 239 255
-0.142247 -0.483418 0.177393 1 254 255
0.123588 -0.254441 0.00685406 59 195 255
-0.237185 -0.225423 -0.0628228 67 188 255
-0.411741 -0.427911 -0.14635 15 240 255
0.0378154 -0.437923 -0.0628228 12 243 255
0.121635 -0.410326 0.150215 19 236 255
0.0560708 -0.483284 0.032764 1 254 255
-0.274685 -0.425423 0.312177 16 239 255
0.0608366 -0.430378 -0.165779 14 241 255
-0.265741 -0.13159 -0.152927 91 163 255
0.0725739 -0.48305 0.321855 1 254 255
0.125775 -0.44117 0.0307291 11 244 255
-0.388436 -0.476465 -0.163662 2 253 255
-0.386508 -0.134762 -0.145561 89 165 255
0.0391663 -0.48457 0.261052 0 255 255
-0.291581 -0.484185 0.232534 0 255 255
-0.063164 -0.485206 -0.105542 0 255 255
-0.107754 -0.260952 -0.160875 58 197 255
0.124709 -0.214819 0.0805381 69 186 255
-0.164822 -0.195268 -0.153571 73 181 255
0.124649 -0.28671 0.135324 51 204 255
-0.312242 -0.290064 -0.158464 50 205 255
0.126959 -0.341629 -0.126664 36 218 255
-0.0371846 -0.387923 0.0871772 25 230 255
0.11357 -0.309079 0.277222 44 210 255
-0.201378 -0.250304 -0.159994 60 195 255
-0.166297 -0.484499 0.243113 0 255 255
0.00179383 -0.331586 -0.161673 40 215 255
-0.335787 -0.480781 -0.136706 1 254 255
-0.249685 -0.400423 0.0871772 22 233 255
-0.253197 -0.484383 0.289489 0 255 255
0.125133 -0.20556 0.282407 72 183 255
0.122345 -0.359401 0.410294 32 223 255
-0.0398656 -0.48224 0.0404761 1 254 255
0.0753154 -0.200423 0.387177 73 182 255
0.0128154 -0.362923 0.362177 32 223 255
-0.326056 -0.384846 -0.1564 26 229 255
0.12388 -0.312879 0.354555 44 211 255
0.137815 -0.125423 0.0621772 92 163 255
0.126266 -0.243388 -0.097617 62 193 255
0.104715 -0.424813 0.382847 16 239 255
-0.298239 -0.482384 0.168808 1 254 255
0.0628154 -0.300423 0.237177 48 207 255
-0.0755166 -0.404504 -0.155217 21 234 255
-0.429496 -0.284832 -0.138002 51 204 255
-0.0881058 -0.130179 -0.154675 91 163 255
0.112844 -0.136476 -0.150225 89 166 255
-0.20318 -0.479574 -0.161394 2 253 255
0.100974 -0.34978 -0.0294102 35 220 255
-0.385671 -0.370436 -0.150998 30 225 255
0.120354 -0.434245 0.267396 13 242 255
-0.0333254 -0.254323 -0.153941 59 195 255
0.0503154 -0.300423 0.487177 48 207 255
0.107277 -0.485213 0.0631355 0 255 255
-0.0112089 -0.163737 -0.156131 81 173 255
-0.165285 -0.391693 -0.152832 24 231 255
0.123883 -0.173818 -0.0262603 80 175 255
0.123406 -0.336063 0.190128 38 217 255
-0.187185 -0.337923 -0.0378228 38 217 255
0.103471 -0.305558 -0.156993 46 209 255
0.12196 -0.427083 0.195625 15 240 255
-0.424512 -0.225212 -0.146584 67 188 255
-0.293555 -0.440602 -0.161437 12 243 255
-0.256418 -0.212442 -0.157567 70 185 255
0.125009 -0.356898 0.0650786 32 222 255
0.107435 -0.482975 -0.131258 1 254 255
-0.0977203 -0.31185 -0.154813 44 210 255
0.0378154 -0.300423 0.337177 48 207 255
-0.374087 -0.4853 -0.0199834 0 255 255
0.0253154 -0.387923 0.237177 25 230 255
0.121776 -0.199607 0.0311213 73 182 255
-0.445817 -0.439058 -0.135007 12 243 255
0.12479 -0.17462 0.16908 80 175 255
0.121216 -0.4409 -0.0398499 12 243 255
-0.249685 -0.437923 -0.0378228 12 243 255
-0.399685 -0.262923 -0.0753228 56 198 255
0.0375524 -0.242742 -0.160428 62 193 255
0.124961 -0.28185 0.028658 52 203 255
0.000315376 -0.487923 0.349677 0 255 255
0.119847 -0.416306 0.091166 18 237 255
0.110181 -0.485248 0.225252 0 255 255
0.0667052 -0.152784 -0.155535 85 170 255
0.125959 -0.224689 0.21912 67 188 255
0.118588 -0.40453 -0.138295 21 234 255
-0.266045 -0.304204 -0.160112 47 208 255
-0.331762 -0.481716 0.0781464 1 254 255
-0.152567 -0.484816 -0.121089 0 255 255
-0.0151412 -0.420301 -0.158025 17 238 255
0.0914978 -0.477802 -0.00614594 2 253 255
0.125832 -0.470555 0.294678 4 251 255
-0.333704 -0.182447 -0.152053 78 177 255
-0.155876 -0.324943 -0.160846 40 214 255
0.0982199 -0.229704 -0.155374 65 189 255
-0.118494 -0.459522 -0.170073 7 248 255
0.107206 -0.358202 0.371076 32 222 255
0.126134 -0.174427 0.104552 80 175 255
-0.311297 -0.484508 -0.00685228 0 255 255
0.117501 -0.367589 0.255925 30 225 255
-0.337185 -0.262923 -0.0378228 56 198 255
-0.362185 -0.412923 0.0996772 19 236 255
0.108954 -0.469784 0.135595 4 251 255
-0.403328 -0.184169 -0.14543 77 178 255
-0.42472 -0.346304 -0.146863 36 219 255
-0.375942 -0.274201 -0.14789 54 201 255
0.125521 -0.337077 -0.0494757 38 217 255
-0.021359 -0.481991 -0.0536143 1 254 255
0.0128154 -0.337923 0.424677 38 217 255
0.0128154 -0.325423 0.274677 40 214 255
-0.242307 -0.346267 -0.159214 36 219 255
-0.371137 -0.433327 -0.157561 13 242 255
0.12537 -0.209386 -0.0802933 71 184 255
-0.0981053 -0.234395 -0.154606 64 191 255
0.0128154 -0.400423 0.324677 22 233 255
-0.25679 -0.460653 -0.17141 6 249 255
-0.0269278 -0.484578 0.236505 0 255 255
-0.409271 -0.486049 -0.0768961 0 255 255
0.112659 -0.225259 0.321156 67 188 255
-0.00950773 -0.294227 -0.16124 48 206 255
-0.187185 -0.237923 -0.0628228 64 191 255
0.124306 -0.399248 -0.0843899 22 233 255
-0.0790468 -0.484554 0.0510633 0 255 255
0.124363 -0.253874 0.0906017 59 195 255
-0.119723 -0.380941 -0.145326 27 228 255
-0.307471 -0.136232 -0.149603 89 165 255
0.0654122 -0.374079 -0.157163 29 226 255
-0.249685 -0.425423 0.274677 16 239 255
0.125198 -0.279484 -0.0366857 52 202 255
-0.157929 -0.484501 0.163341 0 255 255
0.123001 -0.353544 0.120483 34 221 255
0.0859986 -0.388802 0.426546 25 230 255
-0.324685 -0.387923 -0.0378228 25 230 255
0.123858 -0.285793 0.372407 51 204 255
0.123744 -0.321256 0.224581 42 213 255
-0.187185 -0.425423 -0.0753228 16 239 255
0.117221 -0.222815 0.178089 67 188 255
-0.14255 -0.162115 -0.156714 83 172 255
-0.319508 -0.48425 0.15104 0 255 255
0.0317993 -0.484607 0.228883 0 255 255
0.125066 -0.379333 0.00278828 27 228 255
0.0276528 -0.477842 -0.160063 2 253 255
-0.0546245 -0.31928 -0.152068 43 211 255
-0.249685 -0.437923 0.349677 12 243 255
0.125194 -0.350009 0.308643 35 220 255
-0.209604 -0.325936 -0.127466 40 214 255
0.117315 -0.313673 0.0373915 44 211 255
-0.362283 -0.485004 -0.107221 0 255 255
-0.258637 -0.410573 -0.153027 19 236 255
-0.212185 -0.487923 0.324677 0 255 255
0.0378154 -0.400423 -0.0378228 22 233 255
0.107499 -0.485424 -0.027876 0 255 255
0.12474 -0.454598 0.0911732 8 247 255
-0.343411 -0.330549 -0.153534 40 215 255
-0.437185 -0.425423 -0.0503228 16 239 255
-0.287185 -0.225423 -0.0878228 67 188 255
-0.429188 -0.483708 -0.137304 1 254 255
0.0128154 -0.400423 0.399677 22 233 255
0.0119919 -0.143143 -0.15323 88 167 255
-0.416071 -0.149789 -0.138764 86 169 255
-0.249685 -0.375423 0.112177 28 227 255
0.125778 -0.15614 -0.0913085 84 171 255
-0.187175 -0.484325 0.249236 0 255 255
0.124067 -0.31121 0.152018 44 210 255
-0.0423018 -0.190358 -0.157337 76 179 255
0.12381 -0.221679 -0.0278489 68 187 255
0.0253154 -0.337923 0.224677 38 217 255
0.122998 -0.287106 -0.151309 51 204 255
-0.206709 -0.131622 -0.15685 91 163 255
0.0753154 -0.162923 0.337177 83 172 255
-0.160813 -0.483858 -0.0460213 1 254 255
0.123173 -0.26675 0.251681 56 199 255
0.125871 -0.343417 -0.0922792 36 219 255
0.0697541 -0.484729 0.269146 0 255 255
0.1191 -0.474111 -0.0975357 3 252 255
0.120561 -0.395277 0.35585 23 232 255
-0.282028 -0.256586 -0.158438 59 195 255
-0.0635394 -0.485231 -0.122869 0 255 255
-0.0949194 -0.158579 -0.151677 84 171 255
-0.439515 -0.405442 -0.133733 21 234 255
-0.374685 -0.437923 -0.0378228 12 243 255
0.100315 -0.350423 0.474677 35 220 255
-0.249685 -0.375423 0.237177 28 227 255
-0.202552 -0.224117 -0.155397 67 188 255
0.11771 -0.165133 -0.144534 81 173 255
0.123771 -0.390828 0.191253 24 231 255
-0.0184572 -0.484355 -0.0117363 0 255 255
-0.151802 -0.433138 -0.160788 14 241 255
0.125013 -0.16752 0.0149802 81 173 255
0.137815 -0.225423 -0.150323 67 188 255
-0.212185 -0.287923 -0.0503228 51 204 255
0.125445 -0.422093 0.0240032 16 239 255
-0.108619 -0.484599 0.194606 0 255 255
0.125256 -0.211979 0.245109 70 185 255
-0.0342382 -0.375848 -0.16251 28 227 255
0.0681799 -0.338707 -0.157584 38 217 255
0.065829 -0.484086 0.136319 0 255 255
0.122418 -0.241538 0.139356 63 192 255
0.0587275 -0.189968 -0.15855 76 179 255
-0.428728 -0.314079 -0.137058 44 211 255
0.119128 -0.443003 0.385132 11 244 255
0.120857 -0.317546 0.392113 43 211 255
0.12439 -0.441589 0.304326 11 244 255
-0.283407 -0.368364 -0.145247 30 225 255
-0.152099 -0.26291 -0.15745 56 198 255
-0.293895 -0.484192 0.224532 0 255 255
-0.397616 -0.486045 -0.0161512 0 255 255
0.112937 -0.482423 0.0213946 1 254 255
-0.332121 -0.25305 -0.152577 60 195 255
0.137815 -0.200423 0.374677 73 182 255
0.0746522 -0.430783 -0.160455 14 241 255
-0.369435 -0.141017 -0.155007 88 167 255
0.0152421 -0.2415 -0.152345 63 192 255
-0.0533133 -0.131446 -0.155256 91 163 255
-0.126142 -0.484689 -0.108559 0 255 255
-0.411791 -0.261217 -0.149624 58 197 255
0.119538 -0.397884 0.117316 23 232 255
0.124716 -0.261805 0.197324 56 198 255
-0.440408 -0.481561 -0.0980449 1 254 255
-0.381109 -0.329946 -0.135791 40 215 255
-0.0996846 -0.487923 0.324677 0 255 255
-0.218694 -0.270852 -0.160298 55 200 255
-0.0782759 -0.450238 -0.161716 9 246 255
0.0753154 -0.162923 0.387177 83 172 255
-0.281695 -0.193694 -0.153007 75 179 255
0.122446 -0.285429 0.323885 51 204 255
-0.0598261 -0.254743 -0.154598 59 195 255
-0.0526059 -0.484294 0.0236114 0 255 255
0.124626 -0.394163 0.268207 24 231 255
0.13122 -0.393279 0.40511 24 231 255
-0.375871 -0.39203 -0.154267 24 231 255
0.123555 -0.293549 0.0723391 48 206 255
0.0286384 -0.484518 0.292331 0 255 255
0.0677117 -0.273272 -0.158824 54 201 255
0.121392 -0.213291 0.0419294 70 185 255
0.122465 -0.436279 -0.0725496 13 242 255
0.119436 -0.301664 -0.0871625 47 208 255
-0.334093 -0.484346 0.0693516 0 255 255
-0.253776 -0.484338 0.286245 0 255 255
0.137815 -0.125423 -0.150323 92 163 255
-0.177591 -0.327209 -0.160441 40 214 255
-0.218542 -0.422752 -0.155238 16 239 255
0.0211021 -0.370383 -0.158652 30 225 255
0.0128154 -0.337923 0.324677 38 217 255
0.11826 -0.181541 0.12291 78 177 255
-0.126923 -0.212228 -0.155275 70 185 255
-0.332232 -0.484587 -0.0307315 0 255 255
0.0878154 -0.212923 0.449677 70 185 255
0.00709211 -0.455085 -0.170771 8 247 255
0.122934 -0.443391 0.130646 11 244 255
0.119808 -0.306496 -0.00525746 46 209 255
0.0503154 -0.325423 0.0871772 40 214 255
0.0233825 -0.298203 -0.160739 48 207 255
0.125125 -0.241934 0.305097 62 193 255
0.123886 -0.317965 0.282352 43 211 255
-0.22087 -0.48218 -0.151602 1 254 255
0.0988393 -0.364082 -0.151533 31 224 255
0.109946 -0.4852 0.311957 0 255 255
-0.37017 -0.184913 -0.149999 77 178 255
0.0128154 -0.375423 0.449677 28 227 255
-0.175421 -0.133169 -0.153639 89 165 255
-0.317803 -0.450342 -0.163703 9 246 255
-0.0496846 -0.425423 0.0746772 16 239 255
-0.374685 -0.225423 -0.0503228 67 188 255
-0.287185 -0.262923 -0.0378228 56 198 255
0.125586 -0.18386 -0.0562127 77 178 255
0.118846 -0.363389 0.0386048 31 224 255
-0.0589377 -0.48421 -0.0934087 0 255 255
0.12178 -0.426588 0.228909 15 240 255
-0.324685 -0.400423 0.187177 22 233 255
0.122146 -0.17778 0.179701 79 176 255
0.0503154 -0.325423 -0.0503228 40 214 255
-0.249685 -0.400423 0.199677 22 233 255
0.0926185 -0.483026 -0.0953956 1 254 255
-0.0705928 -0.384322 -0.152754 26 229 255
-0.21114 -0.484272 0.246501 0 255 255
-0.302456 -0.481973 0.155085 1 254 255
-0.274685 -0.437923 -0.0378228 12 243 255
-0.402083 -0.452031 -0.157511 9 246 255
0.124913 -0.376333 -0.018029 28 227 255
-0.336321 -0.293943 -0.157035 48 206 255
0.121377 -0.256892 0.380758 59 195 255
0.124184 -0.365866 0.230878 31 224 255
-0.290951 -0.132535 -0.15168 89 165 255
0.0253154 -0.300423 0.424677 48 207 255
-0.100068 -0.314419 -0.154698 44 211 255
0.0930804 -0.476995 0.0948455 2 253 255
-0.0286522 -0.484574 0.241841 0 255 255
0.113004 -0.426984 -0.154408 15 240 255
-0.424372 -0.223165 -0.146556 67 188 255
0.120094 -0.172464 0.0585875 80 175 255
0.114822 -0.305929 0.138813 46 209 255
-0.222587 -0.172765 -0.153653 80 175 255
0.125548 -0.258624 -0.0930373 58 197 255
-0.0296113 -0.432071 -0.161347 14 241 255
0.0253154 -0.475423 0.362177 3 252 255
0.0759794 -0.483755 -0.0166397 1 254 255
0.117639 -0.382058 0.158472 27 228 255
0.0509018 -0.138584 -0.15423 89 166 255
-0.265406 -0.482412 -0.151118 1 254 255
-0.318617 -0.370433 -0.154822 30 225 255
-0.349685 -0.287923 -0.0378228 51 204 255
0.0997178 -0.189191 -0.155023 76 179 255
-0.16712 -0.385522 -0.154423 26 229 255
-0.414793 -0.486112 -0.0564575 0 255 255
0.122591 -0.25139 -0.0243657 60 195 255
-0.126889 -0.135961 -0.154723 89 165 255
-0.422054 -0.382241 -0.148342 27 228 255
0.104103 -0.485234 0.236491 0 255 255
-0.120842 -0.48464 0.181486 0 255 255
0.0253154 -0.300423 0.362177 48 207 255
0.12286 -0.372228 0.357555 29 226 255
0.126617 -0.470297 0.0570059 4 251 255
-0.342254 -0.484687 -0.113024 0 255 255
-0.269874 -0.302353 -0.160043 47 208 255
-0.187185 -0.487923 -0.150323 0 255 255
-0.262185 -0.312923 -0.0378228 44 211 255
0.122057 -0.251502 0.0488824 60 195 255
-0.384861 -0.248359 -0.146537 60 194 255
0.125021 -0.13557 -0.119055 89 165 255
0.124861 -0.401444 0.0469537 22 233 255
0.0691968 -0.484717 0.157866 0 255 255
-0.148744 -0.485015 -0.0860853 0 255 255
0.0503154 -0.300423 0.262177 48 207 255
-0.0774364 -0.484582 0.0586172 0 255 255
-0.0955384 -0.478753 -0.159969 2 253 255
-0.224685 -0.412923 -0.0628228 19 236 255
0.0753154 -0.337923 0.487177 38 217 255
-0.0246846 -0.487923 0.337177 0 255 255
-0.0495839 -0.212448 -0.152605 70 185 255
0.124949 -0.207083 0.27514 71 184 255
-0.244227 -0.247821 -0.159941 60 194 255
0.125399 -0.290014 0.194072 50 205 255
0.040916 -0.222992 -0.157388 67 188 255
-0.165527 -0.289972 -0.160548 50 205 255
0.127537 -0.321723 -0.125995 42 213 255
-0.0513072 -0.315826 -0.153463 44 211 255
0.120816 -0.446288 -0.0250346 10 245 255
0.121185 -0.196624 -0.0992072 73 181 255
0.124443 -0.4166 -0.11533 18 237 255
-0.256426 -0.376601 -0.156915 28 227 255
0.125032 -0.423863 0.330589 16 239 255
-0.353114 -0.484251 0.061025 0 255 255
-0.0353326 -0.138658 -0.160534 89 166 255
-0.407693 -0.485072 -0.129032 0 255 255
-0.17816 -0.17689 -0.157034 79 176 255
-0.337541 -0.137444 -0.150141 89 166 255
0.0331757 -0.442527 -0.162267 11 244 255
-0.206312 -0.318526 -0.126017 43 211 255
0.119608 -0.225449 0.113559 67 188 255
-0.267956 -0.484165 0.263411 0 255 255
-0.420099 -0.177488 -0.136167 79 176 255
-0.249685 -0.412923 0.312177 19 236 255
0.113156 -0.30895 0.348941 44 210 255
-0.294918 -0.205918 -0.152841 72 183 255
0.0753154 -0.275423 0.474677 54 201 255
0.1223 -0.427617 0.176808 15 240 255
0.123237 -0.316777 0.0692919 43 211 255
0.102139 -0.245307 -0.154835 62 193 255
0.117596 -0.431021 0.403807 14 241 255
-0.111899 -0.275679 -0.160815 54 201 255
0.125742 -0.371141 -0.0784344 29 226 255
0.125486 -0.368277 0.311261 30 225 255
-0.3031 -0.484242 0.195757 0 255 255
0.0128154 -0.412923 0.362177 19 236 255
0.0611075 -0.480809 0.238104 1 254 255
-0.341564 -0.421359 -0.158018 17 238 255
0.123872 -0.378794 0.100556 27 228 255
0.124131 -0.300534 0.251943 47 208 255
0.122521 -0.190117 0.221283 76 179 255
-0.394989 -0.316943 -0.146738 43 211 255
0.0211133 -0.320548 -0.153562 42 213 255
0.122463 -0.354747 0.406029 34 221 255
0.0753154 -0.175423 0.424677 80 175 255
-0.169054 -0.445338 -0.163798 10 245 255
0.122713 -0.220449 0.00947381 68 187 255
-0.430734 -0.460686 -0.153604 6 249 255
-0.249685 -0.437923 0.224677 12 243 255
-0.044295 -0.480244 -0.156839 1 254 255
-0.0835194 -0.180144 -0.15523 78 177 255
-0.00185813 -0.246598 -0.160317 60 194 255
0.137815 -0.125423 0.0121772 92 163 255
0.10625 -0.485265 -0.0581743 0 255 255
0.0753154 -0.275423 0.312177 54 201 255
0.114041 -0.31466 -0.01997 44 211 255
0.123413 -0.336941 0.187784 38 217 255
-0.0838944 -0.41872 -0.161823 17 238 255
-0.337185 -0.387923 0.149677 25 230 255
-0.0746846 -0.362923 0.0371772 32 223 255
-0.377667 -0.485428 -0.0294173 0 255 255
0.122488 -0.466989 0.34527 5 250 255
-0.31375 -0.484325 0.149241 0 255 255
0.0957552 -0.292359 -0.156308 50 205 255
-0.403029 -0.408823 -0.145587 20 235 255
-0.183621 -0.484401 0.246183 0 255 255
0.121794 -0.167674 0.0992784 81 174 255
-0.284732 -0.40249 -0.15774 21 234 255
-0.249685 -0.437923 0.124677 12 243 255
0.0803714 -0.396552 -0.157778 23 232 255
0.121689 -0.443554 0.254831 11 244 255
0.0253154 -0.300423 0.474677 48 207 255
-0.141523 -0.206804 -0.154302 71 184 255
0.00972121 -0.151149 -0.154586 86 169 255
-0.0421598 -0.281369 -0.152581 52 203 255
-0.141919 -0.377602 -0.153874 28 227 255
-0.263098 -0.484474 0.300183 0 255 255
-0.326038 -0.34588 -0.154658 36 219 255
0.0789795 -0.48473 0.284055 0 255 255
0.0128154 -0.362923 0.274677 32 223 255
-0.0143149 -0.354559 -0.150598 34 221 255
0.124899 -0.24334 -0.0520327 62 193 255
-0.249685 -0.262923 -0.0628228 56 198 255
-0.154849 -0.484946 -0.0602652 0 255 255
0.123486 -0.424534 0.0765362 16 239 255
0.12409 -0.245544 0.235531 62 193 255
0.12296 -0.171157 0.00330545 81 174 255
-0.22072 -0.343084 -0.143028 36 218 255
0.0378154 -0.425423 -0.0628228 16 239 255
0.126446 -0.213452 0.15636 70 185 255
0.11154 -0.260542 0.351356 58 197 255
-0.203611 -0.22847 -0.158838 65 189 255
0.125443 -0.44753 -0.143987 10 245 255
-0.310868 -0.269253 -0.158264 55 200 255
0.124038 -0.268557 0.0875645 56 199 255
0.137815 -0.112923 -0.0503228 96 159 255
0.123406 -0.333127 0.133807 39 216 255
-0.249685 -0.375423 -0.0378228 28 227 255
-0.444623 -0.426004 -0.137679 15 240 255
-0.0741709 -0.343284 -0.156331 36 218 255
0.121663 -0.410156 -0.0403542 19 236 255
0.121948 -0.341942 0.0192484 36 218 255
0.104418 -0.419142 0.384228 17 238 255
-0.218513 -0.433452 -0.165828 13 242 255
-0.380029 -0.48551 -0.120647 0 255 255
-0.256651 -0.165263 -0.151933 81 173 255
0.11576 -0.354268 0.262435 34 221 255
-0.00696219 -0.417922 -0.157599 17 238 255
0.106329 -0.354686 0.375122 34 221 255
-0.425315 -0.327904 -0.144556 40 215 255
0.125869 -0.168337 -0.0670261 81 174 255
0.115651 -0.236335 0.290146 64 191 255
-0.0272625 -0.48477 0.243335 0 255 255
-0.439754 -0.483524 -0.100225 1 254 255
0.121944 -0.383952 -0.126976 26 229 255
0.127921 -0.294809 -0.131908 48 206 255
-0.274685 -0.387923 0.274677 25 230 255
-0.199685 -0.225423 -0.0628228 67 188 255
-0.321145 -0.482278 -0.154468 1 254 255
-0.401862 -0.142789 -0.143668 88 167 255
0.0633817 -0.317607 -0.158714 43 211 255
0.121209 -0.182199 -0.141105 78 177 255
0.124378 -0.326494 0.320361 40 214 255
0.123089 -0.444282 0.125531 11 244 255
-0.324685 -0.225423 -0.0503228 67 188 255
-0.0472571 -0.483518 -0.119375 1 254 255
-0.299685 -0.400423 0.0996772 22 233 255
-0.0777076 -0.23911 -0.155687 63 192 255
-0.424195 -0.264908 -0.147027 56 198 255
0.126789 -0.457002 -0.0676799 7 248 255
0.118648 -0.376179 0.213037 28 227 255
0.124178 -0.276218 0.0131595 54 201 255
0.124754 -0.205921 0.0754086 72 183 255
-0.385364 -0.375901 -0.151451 28 227 255
-0.120174 -0.484561 0.202489 0 255 255
-0.0621846 -0.400423 0.0621772 22 233 255
-0.349359 -0.176604 -0.150254 79 176 255
0.0697759 -0.248584 -0.159125 60 194 255
0.122976 -0.317668 -0.074926 43 211 255
0.0535392 -0.140648 -0.154166 88 167 255
0.0128154 -0.362923 0.399677 32 223 255
-0.161339 -0.261448 -0.156716 56 198 255
0.121712 -0.409829 0.27973 19 236 255
0.115316 -0.453325 0.0107823 8 247 255
-0.342846 -0.484403 0.0769249 0 255 255
0.0266171 -0.47738 -0.160734 2 253 255
-0.312185 -0.312923 -0.0378228 44 211 255
-0.0121846 -0.400423 0.0121772 22 233 255
-0.377506 -0.285943 -0.147769 51 204 255
-0.108055 -0.481585 -0.156387 1 254 255
0.123086 -0.261319 0.186437 58 197 255
0.0378154 -0.300423 0.299677 48 207 255
-0.212107 -0.155403 -0.15006 85 170 255
-0.0535476 -0.131245 -0.153978 91 163 255
0.123402 -0.170715 0.138821 81 174 255
0.104684 -0.356247 -0.0486509 32 222 255
-0.170632 -0.32921 -0.160544 40 215 255
0.121408 -0.315451 0.388311 44 211 255
0.102059 -0.463373 -0.144775 6 249 255
0.0283623 -0.400709 -0.160161 22 233 255
-0.25472 -0.482882 -0.140487 1 254 255
0.12591 -0.218243 -0.0935847 69 186 255
-0.370516 -0.436975 -0.157954 13 242 255
-0.433132 -0.377516 -0.148085 28 227 255
-0.412185 -0.237923 -0.0878228 64 191 255
0.0364973 -0.484561 0.256229 0 255 255
-0.302432 -0.320692 -0.148757 42 213 255
0.0503154 -0.325423 0.0371772 40 214 255
-0.295886 -0.222723 -0.153361 67 188 255
-0.0746846 -0.487923 0.324677 0 255 255
-0.292912 -0.484208 0.208056 0 255 255
-0.249331 -0.271196 -0.160099 55 200 255
-0.197425 -0.37163 -0.15667 29 226 255
0.118035 -0.140463 -0.146505 88 167 255
0.0888598 -0.484605 0.140894 0 255 255
0.123079 -0.328678 0.0908502 40 215 255
-0.28308 -0.134358 -0.150525 89 165 255
0.125291 -0.218138 0.30919 69 186 255
-0.407337 -0.486075 -0.056772 0 255 255
-0.116486 -0.435509 -0.160003 13 242 255
-0.00797322 -0.298119 -0.161272 48 207 255
0.100975 -0.471635 0.213678 4 251 255
0.125485 -0.169056 0.046051 81 174 255
-0.404308 -0.186052 -0.144846 77 178 255
0.125169 -0.285746 -0.0372374 51 204 255
-0.299685 -0.387923 -0.0378228 25 230 255
-0.00534535 -0.233786 -0.15238 65 190 255
0.122521 -0.190852 0.224028 76 179 255
-0.187185 -0.275423 -0.0628228 54 201 255
-0.0274895 -0.170383 -0.15433 81 174 255
-0.0757493 -0.282282 -0.15291 52 203 255
0.122659 -0.387303 0.157881 25 230 255
-0.138731 -0.147158 -0.156196 87 168 255
-0.249685 -0.425423 0.162177 16 239 255
0.124274 -0.182437 -0.0356547 78 177 255
0.123871 -0.310622 0.228367 44 210 255
-0.262185 -0.225423 -0.0628228 67 188 255
-0.0717144 -0.383586 -0.153255 26 229 255
0.0503329 -0.17502 -0.157794 80 175 255
-0.171108 -0.456221 -0.167749 8 247 255
-0.255129 -0.351182 -0.15764 35 220 255
0.125533 -0.455714 0.0820922 8 247 255
0.125709 -0.463479 0.290304 6 249 255
0.0998801 -0.485214 -0.0427644 0 255 255
0.125356 -0.260035 -0.120636 58 197 255
-0.249249 -0.211669 -0.157654 70 185 255
-0.354238 -0.136362 -0.15002 89 166 255
-0.29767 -0.430569 -0.158752 14 241 255
-0.187185 -0.437923 -0.0628228 12 243 255
0.120282 -0.420532 0.334678 17 238 255
0.120871 -0.401306 -0.0735153 22 233 255
-0.187191 -0.484326 0.248567 0 255 255
-0.0978781 -0.189674 -0.152681 76 179 255
-0.325157 -0.481222 -0.139264 1 254 255
0.119076 -0.3844 -0.00187894 26 229 255
-0.34011 -0.263439 -0.156936 56 198 255
0.122427 -0.277322 0.112254 52 202 255
0.0753154 -0.200423 0.399677 73 182 255
0.0425826 -0.348436 -0.156264 35 220 255
0.0128154 -0.387923 0.312177 25 230 255
0.0005345 -0.481583 -0.148549 1 254 255
0.123573 -0.146915 -0.0950113 87 168 255
-0.187185 -0.350423 -0.0378228 35 220 255
-0.359311 -0.373796 -0.154711 29 226 255
0.0253154 -0.350423 0.224677 35 220 255
-0.262185 -0.375423 0.0871772 28 227 255
0.121691 -0.420403 0.226905 17 238 255
-0.195439 -0.271647 -0.155624 55 200 255
-0.349685 -0.387923 -0.0378228 25 230 255
0.0128154 -0.325423 0.474677 40 214 255
-0.109769 -0.321259 -0.15303 42 213 255
0.0942624 -0.214973 -0.155615 69 186 255
0.115238 -0.306712 0.163356 46 209 255
0.0603835 -0.48407 0.298029 0 255 255
0.0503154 -0.325423 0.0996772 40 214 255
0.124964 -0.383709 0.297191 26 229 255
-0.378687 -0.465417 -0.1628 5 250 255
0.127089 -0.335346 -0.119631 39 216 255
0.0312328 -0.277637 -0.156906 52 202 255
-0.374671 -0.315228 -0.138252 44 211 255
0.120736 -0.401322 0.0509532 22 233 255
0.122591 -0.214164 0.00343254 70 185 255
0.123395 -0.272195 0.246582 55 200 255
-0.255013 -0.484422 0.293033 0 255 255
0.124126 -0.234165 0.147841 64 191 255
-0.249685 -0.437923 -0.0628228 12 243 255
-0.020141 -0.484566 0.237215 0 255 255
0.0128154 -0.425423 0.0496772 16 239 255
0.124968 -0.429502 -0.00849865 14 241 255
0.116093 -0.345223 0.0375099 36 219 255
-0.0377087 -0.430063 -0.161884 14 241 255
0.121782 -0.243964 0.0596938 62 193 255
0.121687 -0.270506 -0.0770327 55 200 255
-0.299685 -0.387923 0.224677 25 230 255
-0.398544 -0.249919 -0.145174 60 195 255
-0.249685 -0.450423 0.0871772 9 246 255
0.12342 -0.385308 0.113352 26 229 255
0.126055 -0.44349 -0.11556 11 244 255
-0.309485 -0.178256 -0.155034 79 176 255
0.0622821 -0.401749 -0.160634 22 233 255
-0.163548 -0.180413 -0.157168 78 177 255
-0.432107 -0.48597 -0.0891117 0 255 255
-0.104726 -0.133613 -0.155183 89 165 255
-0.257466 -0.429531 -0.160402 14 241 255
0.123962 -0.317633 0.32911 43 211 255
-0.132531 -0.37116 -0.155332 29 226 255
-0.380628 -0.485514 -0.027801 0 255 255
-0.225096 -0.318334 -0.123435 43 211 255
-0.313374 -0.484251 0.155224 0 255 255
0.12535 -0.362088 -0.0495682 32 223 255
-0.14022 -0.256685 -0.157317 59 195 255
0.122452 -0.421908 0.161326 16 239 255
0.0414261 -0.484652 0.230395 0 255 255
0.124478 -0.249571 0.335826 60 194 255
0.127479 -0.187763 0.168503 76 179 255
-0.34003 -0.484386 0.0645166 0 255 255
0.0866415 -0.480954 -0.0105952 1 254 255
0.0128154 -0.337923 0.349677 38 217 255
-0.425166 -0.457905 -0.154429 7 248 255
-0.423708 -0.325005 -0.14544 40 214 255
-0.424456 -0.181715 -0.141714 78 177 255
-0.143326 -0.484753 -0.120099 0 255 255
-0.0498179 -0.230785 -0.156333 65 190 255
0.137815 -0.237923 -0.150323 64 191 255
-0.286313 -0.301285 -0.15936 47 208 255
0.123276 -0.354274 0.169496 34 221 255
0.122731 -0.301047 -0.152429 47 208 255
0.10809 -0.355122 0.369115 32 222 255
-0.442888 -0.411979 -0.137487 19 236 255
0.0395499 -0.435623 -0.168126 13 242 255
0.122729 -0.341942 0.261288 36 218 255
0.122533 -0.455235 0.354336 8 247 255
0.115097 -0.4506 0.0561555 9 246 255
-0.0637338 -0.483847 -0.121377 1 254 255
0.124794 -0.273803 0.033444 54 201 255
-0.172702 -0.392941 -0.15755 24 231 255
0.100315 -0.325423 0.474677 40 214 255
-0.249214 -0.142051 -0.15433 88 167 255
-0.362185 -0.250423 -0.0378228 60 195 255
-0.00730133 -0.359857 -0.152831 32 223 255
-0.0371846 -0.425423 0.0871772 16 239 255
0.0128154 -0.450423 0.349677 9 246 255
0.00403983 -0.154133 -0.156209 85 170 255
-0.222066 -0.207308 -0.154839 71 184 255
-0.0371846 -0.400423 -0.000322794 22 233 255
-0.249685 -0.425423 0.337177 16 239 255
0.0744088 -0.322544 -0.157792 42 213 255
-0.249685 -0.387923 0.187177 25 230 255
-0.328788 -0.415098 -0.150572 18 237 255
0.0964706 -0.482861 -0.103519 1 254 255
0.0753154 -0.162923 0.349677 83 172 255
0.123209 -0.251827 0.209536 60 195 255
0.121257 -0.373503 -0.129713 29 226 255
-0.259972 -0.482708 -0.14105 1 254 255
-0.167607 -0.311086 -0.161095 44 210 255
0.119903 -0.19968 0.0895929 73 182 255
0.0211974 -0.22832 -0.154772 65 189 255
0.121898 -0.446744 0.223743 10 245 255
-0.279437 -0.357189 -0.156192 32 222 255
-0.295222 -0.484204 0.207429 0 255 255
-0.0617316 -0.329307 -0.151826 40 215 255
-0.187561 -0.468993 -0.167064 4 251 255
0.100999 -0.1549 -0.149525 85 170 255
0.125348 -0.233897 -0.0711809 65 190 255
-0.324685 -0.425423 0.199677 16 239 255
0.0825197 -0.484669 0.133476 0 255 255
0.0128154 -0.387923 0.412177 25 230 255
0.124888 -0.237841 0.266434 64 191 255
0.120588 -0.394667 0.356411 23 232 255
-0.277363 -0.247135 -0.15829 60 194 255
-0.172837 -0.149399 -0.149733 86 169 255
0.0378154 -0.312923 0.224677 44 211 255
0.0878154 -0.250423 0.462177 60 195 255
