# .PCD v0.7 - Point Cloud Data file format
VERSION 0.7
FIELDS x y z rgb
SIZE 4 4 4 4
TYPE F F F F
COUNT 1 1 1 1
WIDTH 827
HEIGHT 1
VIEWPOINT 0 0 0 1 0 0 0
POINTS 827
DATA ascii
-0.3440416157 -0.4704328179 0.01569293626 5.820783626e-39
-0.004557065666 -0.4867012501 0.08415614069 5.820783626e-39
-0.110682182 -0.3837205768 0.03770314157 5.820783626e-39
0.01670818776 -0.4860036075 0.1202325076 5.820783626e-39
0.1920311749 -0.4660414457 0.007606185973 5.820783626e-39
-0.2637157142 -0.4070008993 0.1464175135 5.820783626e-39
0.09880337864 -0.4084198177 0.1261288822 5.820783626e-39
0.1729458272 -0.391473949 -0.04942175001 5.820783626e-39
0.1070657745 -0.4855136275 0.1243031919 5.820783626e-39
-0.1125137508 -0.4110291898 -0.005244201049 5.820783626e-39
-0.2648421228 -0.4892061353 -0.06443430483 5.820783626e-39
-0.145341441 -0.4857053757 0.1271490157 5.820783626e-39
0.1768605709 -0.4851285815 0.105372645 5.820783626e-39
0.09854722768 -0.415866822 0.08300364763 5.820783626e-39
-0.07490582764 -0.4284819663 0.1227825806 5.820783626e-39
-0.007658582181 -0.4815599322 -0.1020518318 5.820783626e-39
0.1957436204 -0.4723734856 0.01285694726 5.820783626e-39
-0.1150020212 -0.4861284196 0.09583795071 5.820783626e-39
-0.1292938292 -0.3979265094 0.03421394154 5.820783626e-39
-0.04797833413 -0.4868641496 0.06168855727 5.820783626e-39
0.1853379011 -0.4242661893 -0.04088781774 5.820783626e-39
0.2574232221 -0.4260051548 0.04869761318 5.820783626e-39
0.01451274753 -0.4160599411 0.1356796026 5.820783626e-39
-0.3234239221 -0.4670240879 0.08399751037 5.820783626e-39
-0.165833056 -0.4713896513 0.1522798389 5.820783626e-39
-0.3380417526 -0.4612334967 0.03183120862 5.820783626e-39
-0.09230269492 -0.4818472564 -0.1046157703 5.820783626e-39
-0.02292175218 0.04191941023 -0.09342950583 2.898180898e-39
-0.2093904018 -0.3990742862 0.09837138653 2.898180898e-39
0.1409259737 -0.4228431582 0.04956849292 2.898180898e-39
0.1018437073 0.06123843789 0.003982907161 2.898180898e-39
-0.1585803032 -0.4185755551 0.04352785647 2.898180898e-39
0.1931742132 -0.4843103886 0.04965736717 2.898180898e-39
-0.07567630708 -0.4854758382 0.02428846434 2.898180898e-39
0.1112647429 -0.48604846 -0.05529782176 2.898180898e-39
0.1736377776 -0.4839925766 0.1375981271 2.898180898e-39
-0.3129624128 -0.4675664604 -0.06856696308 2.898180898e-39
-0.2021126747 -0.4222712815 -0.02677134238 2.898180898e-39
-0.008226495236 -0.4861513674 0.08919850737 2.898180898e-39
-0.1860865355 0.06084284186 -0.01215247624 2.898180898e-39
-0.2171672881 0.05038657784 -0.005569292232 2.898180898e-39
-0.2776697874 -0.4345498085 -0.09942821413 2.898180898e-39
0.2191865146 -0.4845144749 0.1103184596 2.898180898e-39
0.1300747395 0.05886942148 0.02435365319 2.898180898e-39
-0.1106204316 -0.4866853356 -0.0591609478 2.898180898e-39
-0.185864538 -0.04239723086 0.02547811344 2.898180898e-39
-0.1658507884 -0.4099650383 -0.06565467268 2.898180898e-39
-0.1315456033 -0.4242301881 -0.07360708714 2.898180898e-39
0.127599597 -0.4243019521 -0.08546211571 2.898180898e-39
-0.02702157944 -0.3945952058 -0.09141326696 2.898180898e-39
0.2478986084 -0.4318102002 0.04399892688 2.898180898e-39
0.1043276265 0.03151148558 -0.07483877987 2.898180898e-39
0.2008223236 -0.4858270288 -0.04421664029 2.898180898e-39
-0.1926192641 -0.4891762137 -0.1654910147 2.898180898e-39
-0.1700737774 -0.2173232287 -0.08540837467 2.898180898e-39
0.101882793 -0.4848892391 0.03999491408 2.898180898e-39
-0.1896800995 -0.4204775691 -0.06917472929 2.898180898e-39
0.1556301713 -0.02989187837 -0.03262883425 2.898180898e-39
-0.1372959614 0.05655094981 0.01066683978 2.898180898e-39
0.1508691311 -0.4230304956 0.05985634029 2.898180898e-39
-0.2524757087 -0.4805909991 -0.004443628713 2.898180898e-39
0.1403784752 -0.4159397185 0.02734676562 2.898180898e-39
0.1349982321 -0.4843840897 0.1163956076 2.898180898e-39
-0.2292308211 -0.4167117774 -0.07651867718 2.898180898e-39
0.1970466971 -0.4836912155 0.09832084179 2.898180898e-39
-0.2743941247 -0.3849655986 -0.03805756569 2.898180898e-39
-0.1672561318 -0.4164517224 -0.1349897981 2.898180898e-39
-0.2412299216 -0.4844222069 -0.04741104692 2.898180898e-39
0.128359288 -0.4883235097 -0.1013058349 2.898180898e-39
-0.08345897496 -0.4754950404 -0.02556169592 2.898180898e-39
-0.06135790795 -0.4853534698 0.02150147036 2.898180898e-39
-0.1163002849 0.06008553505 -0.03012136184 2.898180898e-39
0.06482791901 -0.4854007959 0.1195207611 2.898180898e-39
0.01506227255 0.05752035975 0.02925539203 2.898180898e-39
-0.1034525484 -0.4859805703 0.0356724821 2.898180898e-39
0.2120986581 -0.426133275 0.0567997098 2.898180898e-39
0.1904838681 -0.4842125475 0.1405941695 2.898180898e-39
-0.1308017671 -0.4857703447 0.1246440113 2.898180898e-39
-0.256382972 -0.4792537391 -0.01389362104 2.898180898e-39
-0.3029117286 -0.4091142416 0.0691389367 2.898180898e-39
-0.1288780272 -0.3987645805 -0.1100124642 2.898180898e-39
-0.1745301187 0.05843099952 -0.009125830606 2.898180898e-39
-0.03272949159 -0.4881124794 -0.1029082164 2.898180898e-39
-0.06981351972 -0.4863127768 0.07375255227 2.898180898e-39
0.2205073535 -0.4848169982 0.122256659 2.898180898e-39
0.137281388 -0.1483136564 -0.08707692474 2.898180898e-39
0.1935650706 -0.4842314124 0.05796404928 2.898180898e-39
-0.3152010739 -0.4446470737 -0.06407645345 2.898180898e-39
-0.09549678862 -0.4037521183 -0.09566257894 2.898180898e-39
0.08223869652 -0.4258601964 -0.07789160311 2.898180898e-39
0.231775552 -0.4674392939 0.09580820054 2.898180898e-39
0.007402863353 -0.4850946069 0.1221227646 2.898180898e-39
-0.3275627494 -0.415039748 0.08049573004 2.898180898e-39
-0.3093445897 -0.4389789104 -0.06668297201 2.898180898e-39
0.2057033479 -0.483923614 0.1044441238 2.898180898e-39
0.07487679273 -0.4870276749 -0.06983886659 2.898180898e-39
0.08494842798 -0.4315181375 0.03123556636 2.898180898e-39
-0.090052329 -0.4857032597 -0.009862447158 2.898180898e-39
0.1362530291 -0.4856450558 -0.007667696103 2.898180898e-39
0.1408520043 0.004753440619 -0.01754452847 2.898180898e-39
-0.2921131253 -0.4597702026 -0.1324885488 2.898180898e-39
0.001188866794 -0.3720104396 -0.06488977373 2.898180898e-39
0.05619532615 -0.485204488 0.02106671408 2.898180898e-39
-0.03365675732 -0.4851661921 0.03018115647 2.898180898e-39
-0.3021063805 -0.42513448 -0.06935873628 2.898180898e-39
-0.1962794065 0.05810281634 0.02977693453 2.898180898e-39
0.2501122653 -0.467112422 0.04795101285 2.898180898e-39
0.1144401506 -0.4858609438 -0.04984176904 2.898180898e-39
0.2617104053 -0.4816858172 0.0167713128 2.898180898e-39
-0.3060309589 -0.4075779319 0.106172584 2.898180898e-39
0.1238566414 -0.4857975841 -0.03644014895 2.898180898e-39
-0.2537003458 -0.410390228 -0.07315529138 2.898180898e-39
-0.2234670818 -0.4853945374 0.01221521944 2.898180898e-39
-0.1599499285 -0.1197197735 0.03257803619 2.898180898e-39
-0.156740725 -0.48875314 -0.08184235543 2.898180898e-39
-0.1933733821 -0.4880937338 -0.05708895624 2.898180898e-39
-0.1399838924 -0.3083814085 -0.002168146893 2.898180898e-39
0.2493403256 -0.4791909158 0.04386293143 2.898180898e-39
0.2144610584 -0.4573676586 -0.1054293886 2.898180898e-39
-0.2363258898 -0.4141654372 0.01648852974 2.898180898e-39
-0.118433252 -0.3683154285 -0.06543932855 2.898180898e-39
-0.06669564545 -0.4865090251 0.0998056978 2.898180898e-39
0.0698588267 -0.4872885346 -0.07336963713 2.898180898e-39
-0.3324969709 -0.4559928179 -0.0394410938 2.898180898e-39
0.0003576911986 -0.4863112569 -0.0526560992 2.898180898e-39
0.09410973638 -0.1200160086 -0.08885210007 2.898180898e-39
-0.310461849 -0.4094349742 -0.04702481627 2.898180898e-39
-0.2369174659 -0.4476656318 -0.1429519206 2.898180898e-39
-0.2729747593 -0.4764944017 -0.04740600288 2.898180898e-39
0.06822507828 -0.4851971269 0.02584289201 2.898180898e-39
-0.1707760096 -0.4182668924 -0.06764813513 2.898180898e-39
0.05089043826 -0.4850792289 0.04478701577 2.898180898e-39
0.2051399052 -0.4253795743 -0.05433548987 2.898180898e-39
-0.254717201 -0.4209376574 0.08337249607 2.898180898e-39
0.1450822055 -0.4226608276 0.0562274605 2.898180898e-39
0.1423756778 -0.3731349409 -0.09906748682 2.898180898e-39
0.1605032086 -0.4847794771 0.04315697402 2.898180898e-39
-0.1742924154 -0.413949281 -0.09535853565 2.898180898e-39
-0.06217172369 -0.4879337549 -0.1102654561 2.898180898e-39
-0.1156751961 -0.4861782789 0.06319278479 2.898180898e-39
0.245138973 -0.48457551 0.03992282599 2.898180898e-39
-0.02898064815 0.05564051867 0.02631333284 2.898180898e-39
-0.1284649372 -0.470880568 -0.02195886709 2.898180898e-39
0.09053631872 -0.4690254927 -0.1510545313 2.898180898e-39
0.2136828899 -0.4287548959 -0.05130539834 2.898180898e-39
-0.07896777987 -0.4859246016 0.03578076512 2.898180898e-39
-0.1991282403 -0.4252292514 -0.0723805353 2.898180898e-39
0.03694851696 -0.4853663146 0.006983838975 2.898180898e-39
0.1696776748 -0.3922739625 -0.08892413974 2.898180898e-39
0.1710166931 -0.04615262151 0.006657641381 2.898180898e-39
0.08759532124 -0.4699299634 0.1245712116 2.898180898e-39
-0.2878876626 -0.4709903598 0.01375100669 2.898180898e-39
-0.1447749436 -0.4866866171 0.1019838378 2.898180898e-39
-0.2933569849 -0.4694681168 -0.03360116482 2.898180898e-39
0.04435659945 -0.4715458453 -0.1499257684 2.898180898e-39
0.1374032497 0.06775671244 -0.0343991518 6.490113838e-41
-0.1622175872 -0.423538357 -0.0226497408 6.490113838e-41
0.2398150861 -0.4856283069 0.08907892555 6.490113838e-41
0.2507538199 0.05573770404 0.108421281 6.490113838e-41
-0.1028829217 -0.2704543471 -0.07292828709 6.490113838e-41
0.1888916492 -0.4849978089 0.02443947271 6.490113838e-41
-0.100904271 -0.4861492515 -0.02120526321 6.490113838e-41
0.1063981429 -0.4880592525 -0.1095890477 6.490113838e-41
0.158762008 -0.486263752 0.1051749438 6.490113838e-41
-0.2481527328 -0.3864461482 -0.1334445179 6.490113838e-41
-0.06713429093 0.05819484591 0.05555102974 6.490113838e-41
-0.053595718 -0.4863681197 0.0676273033 6.490113838e-41
0.07546833903 0.05457738042 0.08382123709 6.490113838e-41
0.02497609705 0.05505371094 0.07214185596 6.490113838e-41
-0.1515803039 -0.393083483 -0.103527151 6.490113838e-41
0.2485041618 -0.4851828218 0.07088978589 6.490113838e-41
0.2678768039 0.05377334356 0.1277508736 6.490113838e-41
-0.2733559608 -0.4870557189 -0.1488042623 6.490113838e-41
0.04289060086 0.05352970958 0.1101718247 6.490113838e-41
-0.1464516222 0.0616261363 -0.07508771122 6.490113838e-41
-0.1713225693 0.061047405 -0.1259059608 6.490113838e-41
0.2037059665 0.02606904507 -0.1720487922 6.490113838e-41
0.09624796361 -0.3872309327 -0.1015179828 6.490113838e-41
0.298461318 -0.4763718843 0.02459046431 6.490113838e-41
0.2304527462 0.06490793824 -0.01448596083 6.490113838e-41
0.1967858374 -0.4870945811 -0.1038374081 6.490113838e-41
-0.04432604089 -0.3677144051 -0.1684844047 6.490113838e-41
-0.0524369441 0.06275478005 -0.04626312852 6.490113838e-41
0.08289154619 -0.4852066338 0.01500985771 6.490113838e-41
-0.1865671575 0.06219294667 -0.08481782675 6.490113838e-41
0.2550197244 0.002137064934 0.01321983337 6.490113838e-41
0.1224941835 0.05231788754 0.1111759916 6.490113838e-41
0.2658916414 -0.4873491526 0.1066972315 6.490113838e-41
-0.3419815004 -0.4605207443 -0.06841038913 6.490113838e-41
0.2109253109 -0.4505595565 0.05692629144 6.490113838e-41
0.113330923 -0.4861964881 0.0793690905 6.490113838e-41
-0.2688505352 0.07069927454 -0.133586809 6.490113838e-41
0.1944012344 -0.4848623574 0.05909365416 6.490113838e-41
-0.3113229275 0.08354476094 -0.1045711562 6.490113838e-41
-0.04887001961 -0.3638261855 -0.117200695 6.490113838e-41
-0.2967651188 -0.4554457664 -0.1179775372 6.490113838e-41
0.1170371696 -0.4851371348 -0.1591470689 6.490113838e-41
-0.05809450522 0.05445203185 0.09244246036 6.490113838e-41
-0.0808416456 -0.4861735702 -0.02697003074 6.490113838e-41
0.1203696355 0.05781850219 0.07087866217 6.490113838e-41
0.03821038455 -0.4869668484 0.08630185574 6.490113838e-41
0.1976802349 0.05189299583 0.1427838504 6.490113838e-41
-0.152090162 -0.4854998291 0.004230167717 6.490113838e-41
0.2952814996 -0.4837210476 0.04692469537 6.490113838e-41
0.1972100139 -0.4859628379 0.1102484986 6.490113838e-41
-0.1801300049 -0.4871389866 0.1255185455 6.490113838e-41
-0.3296796083 -0.4547594488 -0.07891000807 6.490113838e-41
-0.213732034 -0.3899352252 -0.05508940667 6.490113838e-41
-0.02158805355 -0.3707315326 -0.1057350859 6.490113838e-41
0.09362804145 0.05403718352 0.09095197171 6.490113838e-41
-0.1188115627 -0.4823219776 -0.1793907881 6.490113838e-41
-0.1218846962 -0.4857777357 0.04894071817 6.490113838e-41
0.2500267029 -0.4854307771 0.08389911801 6.490113838e-41
0.2299493253 0.04344648123 -0.06907126307 6.490113838e-41
0.189288646 -0.4848409593 0.03122606315 6.490113838e-41
-0.2022975683 -0.3984957933 -0.1037934497 6.490113838e-41
-0.06241570786 -0.1634603888 -0.125017494 6.490113838e-41
0.1658560038 0.0183198154 -0.1818515062 6.490113838e-41
0.2735195756 -0.485737592 0.06145854294 6.490113838e-41
-0.03338568658 -0.4876284599 0.1130746901 6.490113838e-41
-0.2634731531 -0.3974717855 -0.009628152475 6.490113838e-41
-0.193950206 -0.3987766206 -0.10055729 6.490113838e-41
0.2137995362 -0.4849106669 0.06187850982 6.490113838e-41
0.070635885 -0.4885173142 -0.1216812208 6.490113838e-41
0.1620265245 -0.4731380045 0.05299287289 6.490113838e-41
-0.1327905953 -0.4863158464 -0.06263113767 6.490113838e-41
0.1298090219 -0.4856283069 -0.06220714003 6.490113838e-41
0.2648741007 0.03895744681 0.04649166018 6.490113838e-41
-0.1322446465 -0.384853065 -0.1283231825 6.490113838e-41
0.0592463091 0.07044112682 -0.09615883976 6.490113838e-41
0.03825751692 -0.4857587814 -0.03049641289 6.490113838e-41
-0.06137783825 -0.4857216477 -0.004404721782 6.490113838e-41
-0.1890842915 -0.3984549046 -0.09043106437 6.490113838e-41
0.06874600798 0.05257871747 0.1027557403 6.490113838e-41
0.2770864666 -0.4849428535 0.02551557124 6.490113838e-41
0.1099457666 -0.4878308475 -0.1049503163 6.490113838e-41
0.2639610767 -0.4834572077 -0.03797830641 6.490113838e-41
-0.2463752627 -0.3981412053 0.009296869859 6.490113838e-41
0.1200404689 -0.4870606363 -0.0911070928 6.490113838e-41
-0.2933001518 0.07616710663 -0.1271722615 6.490113838e-41
-0.3338143528 -0.4656998515 -0.05382717401 6.490113838e-41
0.04920703173 0.0530565083 0.1243081465 6.490113838e-41
-0.2792453468 -0.4699145555 -0.1723944247 6.490113838e-41
-0.2948468924 -0.4689228833 -0.1381687075 6.490113838e-41
0.02579776943 0.05416634679 0.1186283901 6.490113838e-41
0.2620979846 -0.4843990505 0.02014518343 6.490113838e-41
0.2000714839 -0.4498143494 -0.1727527678 6.490113838e-41
-0.1662896872 0.06858354807 0.02780567668 6.490113838e-41
-0.06169494614 0.06303289533 -0.06781680137 6.490113838e-41
-0.1178871468 -0.4867187142 0.08235431463 6.490113838e-41
0.06332592666 -0.4885286093 -0.1263566613 6.490113838e-41
-0.2653280199 -0.3917184174 -0.1022744402 6.490113838e-41
-0.01622300223 -0.4878903627 -0.1090968624 6.490113838e-41
0.1981519163 0.06820443273 -0.06527826935 6.490113838e-41
-0.2303879857 -0.2675143778 -0.09696171433 6.490113838e-41
-0.08602695167 -0.3773244917 -0.1222439632 6.490113838e-41
-0.2861945033 -0.4121199846 -0.113816835 6.490113838e-41
0.04799918085 -0.4856162071 -0.02167980559 6.490113838e-41
-0.1683368832 0.06169188023 -0.08972056955 6.490113838e-41
0.02640873939 -0.4852580428 0.01725899614 6.490113838e-41
0.2100409269 -0.4255109429 -0.1032775119 6.490113838e-41
-0.1797916591 -0.4275627732 -0.07308581471 6.490113838e-41
0.2531919777 -0.4866235554 0.0977416262 6.490113838e-41
0.1395733058 -0.3553161323 -0.1613262296 6.490113838e-41
0.145086199 -0.4852256775 0.0168013759 6.490113838e-41
-0.195151031 0.04673665762 -0.1492446512 6.490113838e-41
-0.1912650466 -0.4824717939 -0.1931440979 6.490113838e-41
-0.1653270274 -0.4853819013 0.03347922489 6.490113838e-41
0.2498827875 -0.4846458435 0.004844039679 6.490113838e-41
0.1858778 0.0511136651 0.1362942755 6.490113838e-41
-0.09651252627 0.07180458307 0.1025477871 6.490113838e-41
0.03730356693 -0.4224935174 -0.1819510758 6.490113838e-41
0.2159442008 -0.4316320717 -0.09937765449 6.490113838e-41
-0.1269344091 -0.4857813716 0.005560878664 6.490113838e-41
-0.2343002558 0.06264802814 -0.1134917215 6.490113838e-41
0.02245895565 -0.4859040976 -0.04431977868 6.490113838e-41
0.1643337905 -0.3868762255 -0.1603441685 6.490113838e-41
0.2609093189 -0.01203966141 0.06202097982 6.490113838e-41
0.1491503417 -0.4877675474 0.1715086997 6.490113838e-41
-0.3363475204 -0.4417979121 -0.04277452081 6.490113838e-41
-0.2036468089 -0.4860872328 0.08050956577 6.490113838e-41
-0.2918053865 -0.3954481781 -0.09686493874 6.490113838e-41
-0.001001253724 -0.4403903484 -0.1741891354 6.490113838e-41
0.1708932817 0.06553503871 -0.04309990257 3.015101038e-39
-0.1668384969 -0.4308668971 -0.09879227728 3.015101038e-39
0.2661735117 -0.4863344133 0.07034645975 3.015101038e-39
0.281288892 0.05327132344 0.09769576788 3.015101038e-39
-0.2010293007 0.08887380362 0.04778507352 3.015101038e-39
0.173278898 -0.4846727848 -0.01748810895 3.015101038e-39
-0.1344572306 -0.4859108329 -0.07395483553 3.015101038e-39
0.1055401638 -0.489010036 -0.1756432801 3.015101038e-39
0.1051370874 -0.4855694175 0.04281300306 3.015101038e-39
-0.15221259 -0.3847520947 -0.1238647178 3.015101038e-39
-0.02198811248 0.05927753448 0.05443792045 3.015101038e-39
-0.08984109759 -0.4857360423 0.03223192319 3.015101038e-39
0.1341561079 0.05525773764 0.08530128002 3.015101038e-39
0.08172985166 0.05611208081 0.07518695295 3.015101038e-39
-0.1826529503 -0.09074863791 -0.1541460305 3.015101038e-39
0.2120812535 -0.484036088 0.02168367989 3.015101038e-39
0.2978000939 0.05132937431 0.1171197817 3.015101038e-39
-0.220730871 -0.4651273489 -0.2130421698 3.015101038e-39
0.09461032599 0.05375185609 0.09973252565 3.015101038e-39
-0.05838384479 0.06554654241 -0.0597358644 3.015101038e-39
-0.09587906301 0.0642593205 -0.1200940683 3.015101038e-39
0.253655225 0.01024389267 -0.1792861223 3.015101038e-39
0.0957691595 -0.1056619287 -0.1766049862 3.015101038e-39
0.3113791347 -0.4720216393 -0.01213811897 3.015101038e-39
0.2653933167 0.0641964972 -0.02558589913 3.015101038e-39
0.1924715638 -0.4879730344 -0.1681529433 3.015101038e-39
0.04946748167 -0.3552993238 -0.1746190488 3.015101038e-39
0.01618935168 0.06630548835 -0.04295644909 3.015101038e-39
0.06526212394 -0.4854522347 -0.03875439614 3.015101038e-39
-0.1081239432 0.0641220808 -0.06261187047 3.015101038e-39
0.2701688409 -0.01773160696 -0.005273083225 3.015101038e-39
0.1791698039 0.05200877786 0.1096292138 3.015101038e-39
0.2847658992 -0.4871687591 0.08514903486 3.015101038e-39
-0.28343153 -0.3913112283 -0.130317986 3.015101038e-39
0.2316957116 -0.455268085 0.03668390214 3.015101038e-39
0.07067968696 -0.4853969216 0.03266808763 3.015101038e-39
-0.213626951 0.06233882904 -0.1257161349 3.015101038e-39
0.1582810283 -0.4841273725 0.02013482712 3.015101038e-39
-0.2768083811 0.06267911196 -0.08299220353 3.015101038e-39
0.007442135364 -0.3651148975 -0.1396671385 3.015101038e-39
-0.2045389414 -0.3895801604 -0.163575083 3.015101038e-39
0.1118979827 -0.4791240692 -0.2158902586 3.015101038e-39
-0.0411708653 0.03277149796 0.1035338715 3.015101038e-39
-0.1079319417 -0.486322403 -0.08036942035 3.015101038e-39
0.1695825756 0.05826741457 0.07245419919 3.015101038e-39
-0.005762640387 -0.4862108529 0.04557736591 3.015101038e-39
0.2274837494 0.05050444603 0.1342165321 3.015101038e-39
-0.1866855323 -0.4849624038 -0.04319915175 3.015101038e-39
0.3001159132 -0.469946146 0.01249172632 3.015101038e-39
0.1424201429 -0.4854268432 0.04463009909 3.015101038e-39
-0.2381845415 -0.4863645136 0.100099884 3.015101038e-39
-0.2654381096 -0.3869765103 -0.1399089098 3.015101038e-39
-0.3167006373 0.07278102636 -0.01091090776 3.015101038e-39
0.00172380358 -0.255841732 -0.1420472413 3.015101038e-39
0.1509971321 0.05458971858 0.09119977057 3.015101038e-39
-0.1292416304 -0.4729486704 -0.2136960775 3.015101038e-39
-0.1589935422 -0.4851955771 0.01184388623 3.015101038e-39
0.2147535682 -0.4841471314 0.02522910945 3.015101038e-39
0.2563546598 0.03426846862 -0.07732927799 3.015101038e-39
0.1666914225 -0.4844866097 0.003049267456 3.015101038e-39
-0.245806247 -0.06419420242 -0.1518772542 3.015101038e-39
-0.0502939783 0.05580568314 -0.1852379739 3.015101038e-39
0.2229145169 0.02622079849 -0.2014760673 3.015101038e-39
0.2562870681 -0.4837343395 0.01744153723 3.015101038e-39
-0.08542010188 -0.487082541 0.08021568507 3.015101038e-39
-0.2548108101 -0.2621729672 -0.07625344396 3.015101038e-39
-0.2628730237 0.01471665502 -0.1583913565 3.015101038e-39
0.1782827973 -0.4841201305 0.02112317085 3.015101038e-39
0.06503267586 -0.4878860712 -0.1924760491 3.015101038e-39
0.1843410432 -0.4847539067 0.03495816886 3.015101038e-39
-0.1844320595 -0.4863470793 -0.1220190749 3.015101038e-39
0.1257815063 -0.4871393442 -0.121965073 3.015101038e-39
0.2754501402 0.02076327801 0.02801603451 3.015101038e-39
-0.04766357318 -0.3745596111 -0.1337202489 3.015101038e-39
0.1158775911 0.06753253937 -0.09912671894 3.015101038e-39
0.02426605672 -0.4863145351 -0.08362869173 3.015101038e-39
-0.07751961797 -0.4861707091 -0.05459342897 3.015101038e-39
-0.2741423249 0.05620005727 -0.1602007151 3.015101038e-39
0.1216688976 0.05286315084 0.09933593124 3.015101038e-39
0.2724975049 -0.4844257236 -0.01083708368 3.015101038e-39
0.1087173894 -0.4887872338 -0.1688351035 3.015101038e-39
0.2557777762 -0.4861131012 -0.09400193393 3.015101038e-39
-0.2418619394 -0.4078676701 -0.06355329603 3.015101038e-39
0.1170456931 -0.4884624481 -0.1530397683 3.015101038e-39
-0.2431279421 0.06210413575 -0.1197432652 3.015101038e-39
-0.3234903812 -0.437471509 -0.1069744155 3.015101038e-39
0.09467575699 0.0545013845 0.1136208624 3.015101038e-39
-0.1615674943 -0.3993707895 -0.1954695582 3.015101038e-39
-0.1930410862 -0.4036096632 -0.1850190163 3.015101038e-39
0.07081241161 0.05581760406 0.1110405847 3.015101038e-39
0.2582729459 -0.4847364426 -0.02686127089 3.015101038e-39
0.1808847487 -0.4386184514 -0.2369256616 3.015101038e-39
-0.1332512647 0.06141355634 0.02194259875 3.015101038e-39
0.004175987095 0.06811547279 -0.06190402806 3.015101038e-39
-0.1627731025 -0.486181289 0.05122666806 3.015101038e-39
0.05735202879 -0.4866718948 -0.195587337 3.015101038e-39
-0.1993616223 -0.383830905 -0.1046902165 3.015101038e-39
-0.03123709187 -0.488491863 -0.1862959862 3.015101038e-39
0.2418330014 0.06353852153 -0.07836570591 3.015101038e-39
-0.310303241 0.07071766257 -0.1478496492 3.015101038e-39
-0.02731098235 -0.364807874 -0.1376403421 3.015101038e-39
-0.187840879 -0.3848701417 -0.1421313435 3.015101038e-39
0.03475145251 -0.4861420691 -0.07600738108 3.015101038e-39
-0.08585378528 0.06467682123 -0.06748714298 3.015101038e-39
0.002284802496 -0.4854738414 -0.01918386854 3.015101038e-39
0.244415611 -0.4419338703 -0.1759901494 3.015101038e-39
-0.2782362998 0.007586091757 -0.03776880354 3.015101038e-39
0.2774577439 -0.4871783853 0.08279898763 3.015101038e-39
0.1415202916 -0.3627117276 -0.2156044245 3.015101038e-39
0.1340948045 -0.4850466847 -0.03666950017 3.015101038e-39
-0.1404541731 0.06129765511 -0.1605189145 3.015101038e-39
-0.1208375767 -0.4495328665 -0.2017741799 3.015101038e-39
-0.2196500003 -0.4841647744 -0.004117848352 3.015101038e-39
0.2443878055 -0.4850665033 -0.0518136844 3.015101038e-39
0.2183828354 0.05072027445 0.1316055655 3.015101038e-39
-0.08048175275 0.0532515049 0.09626758844 3.015101038e-39
0.0386826843 -0.4195730388 -0.2178116292 3.015101038e-39
0.2493186295 -0.4437587261 -0.1660193503 3.015101038e-39
-0.1580575854 -0.485204339 -0.03770035505 3.015101038e-39
-0.1590048522 0.06255221367 -0.09996356815 3.015101038e-39
0.006237126887 -0.4866013527 -0.09704949707 3.015101038e-39
0.1717769206 -0.4008358121 -0.2287814319 3.015101038e-39
0.2754459977 -0.03199639916 0.04364908487 3.015101038e-39
0.1120528057 -0.4865219593 0.114960216 3.015101038e-39
-0.2952412069 -0.3808045387 -0.09839420766 3.015101038e-39
-0.2676869333 -0.4837039709 0.04393155128 3.015101038e-39
-0.2087637782 -0.3880555034 -0.1214932725 3.015101038e-39
0.001997597516 -0.4354512691 -0.2182355523 3.015101038e-39
0.2244475186 0.06100362539 -0.04735410213 5.962428276e-39
-0.3067196608 -0.04474490881 -0.05788641423 5.962428276e-39
0.2849275172 -0.4856494367 0.05853127316 5.962428276e-39
0.304133445 0.04932323098 0.07895085216 5.962428276e-39
-0.2901473045 0.08014282584 0.05228306353 5.962428276e-39
0.1580206454 -0.4848020673 -0.05636765808 5.962428276e-39
-0.1839422882 -0.4857525826 -0.1265893579 5.962428276e-39
0.06772099435 -0.4875223041 -0.2196047306 5.962428276e-39
0.06978918612 -0.4853876829 0.0228933692 5.962428276e-39
-0.1616607308 -0.227186963 -0.1461680382 5.962428276e-39
-0.02878320776 0.05994349718 0.04575756937 5.962428276e-39
-0.1466762424 -0.4861171544 0.0198197905 5.962428276e-39
0.1521155834 0.05451247096 0.06914570928 5.962428276e-39
0.1023424193 0.05555200577 0.06658879668 5.962428276e-39
-0.1959865093 0.06570509076 -0.1920816451 5.962428276e-39
0.1842925251 -0.4839374125 0.007899975404 5.962428276e-39
0.3199563324 0.04417297244 0.09720657766 5.962428276e-39
-0.1411373764 -0.3910321891 -0.1983509362 5.962428276e-39
0.0885097757 0.05510944128 0.08603429794 5.962428276e-39
-0.01286230236 0.06459635496 -0.06704583019 5.962428276e-39
-0.04908403754 0.06584525108 -0.1319376081 5.962428276e-39
0.2710927725 -0.006020396948 -0.1638114452 5.962428276e-39
0.1213113591 0.04908466339 -0.2295134664 5.962428276e-39
0.300149858 -0.4636369646 -0.04087233543 5.962428276e-39
0.2763607502 0.05446386337 -0.02216866799 5.962428276e-39
0.1594649851 -0.4892602861 -0.2190616429 5.962428276e-39
0.06686150283 -0.3675125837 -0.1832550764 5.962428276e-39
0.05128532648 0.06197080016 -0.04948151112 5.962428276e-39
0.03788420558 -0.4858611822 -0.07847560942 5.962428276e-39
-0.05460239574 0.0641720891 -0.06871502846 5.962428276e-39
0.2799760401 -0.03229594231 -0.006089447066 5.962428276e-39
0.1941820085 0.05126196146 0.09265664965 5.962428276e-39
0.2827214003 -0.4854536653 0.05436471477 5.962428276e-39
-0.2023738027 -0.3842454553 -0.1409833282 5.962428276e-39
0.2586978972 -0.4604352713 0.02247340232 5.962428276e-39
0.03746175766 -0.4851727486 0.0131734442 5.962428276e-39
-0.1685644388 0.06246164441 -0.1286859214 5.962428276e-39
0.1311014593 -0.4839664102 0.004601189867 5.962428276e-39
-0.2553985715 0.06456807256 -0.07802126557 5.962428276e-39
-0.01992698014 -0.1366313845 -0.1836706549 5.962428276e-39
-0.1450351626 -0.3805470467 -0.1535888612 5.962428276e-39
0.06754781306 -0.4697063565 -0.2288046777 5.962428276e-39
-0.1027098894 0.04663985968 0.0919034481 5.962428276e-39
-0.1586886644 -0.4862776995 -0.1323856264 5.962428276e-39
0.1966163516 0.05553653836 0.05489071459 5.962428276e-39
-0.05327733234 -0.4864894152 0.03304830939 5.962428276e-39
0.2465288639 0.04833161831 0.1135126725 5.962428276e-39
-0.237351656 -0.4841431379 -0.08576152474 5.962428276e-39
0.3020554781 -0.4663108587 -0.01181604527 5.962428276e-39
0.1032486781 -0.4848793149 0.02117564529 5.962428276e-39
-0.3075710535 -0.4855273366 0.08576869965 5.962428276e-39
-0.1859999299 -0.3840188384 -0.1388712078 5.962428276e-39
-0.3388375342 0.08471208811 -0.01923987083 5.962428276e-39
-0.02500455268 0.05951142311 -0.2080470473 5.962428276e-39
0.1666941643 0.05382183194 0.07440541685 5.962428276e-39
-0.1084250733 -0.393632561 -0.2071830481 5.962428276e-39
-0.2195637226 -0.484695673 -0.004510836676 5.962428276e-39
0.1846470535 -0.4839300513 0.01091768034 5.962428276e-39
0.2662262022 0.0163333118 -0.077115722 5.962428276e-39
0.150208503 -0.4844871461 -0.03619247675 5.962428276e-39
-0.2578954995 0.06553143263 -0.1775527894 5.962428276e-39
-0.01618348435 0.0679243207 -0.1981475651 5.962428276e-39
0.2565046251 0.01113653183 -0.1890237629 5.962428276e-39
0.2328940034 -0.4836094975 0.004967192188 5.962428276e-39
-0.1459836364 -0.4873299003 0.07336939126 5.962428276e-39
-0.3383489251 0.06117725372 -0.05285271257 5.962428276e-39
-0.2558763325 0.06645062566 -0.1753762662 5.962428276e-39
0.1503078341 -0.4839245379 0.006393782794 5.962428276e-39
0.0125156939 -0.4803227484 -0.2250138223 5.962428276e-39
0.2192716599 -0.4875304699 0.036876183 5.962428276e-39
-0.2785260975 -0.4845586121 -0.2073521912 5.962428276e-39
0.1008951887 -0.4885648489 -0.1690074205 5.962428276e-39
0.2856715024 0.007840961218 0.02352370881 5.962428276e-39
-0.0380538106 -0.359261781 -0.1491279751 5.962428276e-39
0.1534756124 0.06494799256 -0.106914781 5.962428276e-39
-0.007136888802 -0.4870831966 -0.1263786256 5.962428276e-39
-0.1195337847 -0.4860875309 -0.09899469465 5.962428276e-39
-0.2531672716 0.06819969416 -0.1661513299 5.962428276e-39
0.121215038 0.05320423841 0.08931630105 5.962428276e-39
0.2597391009 -0.4846211076 -0.04066844285 5.962428276e-39
0.07350725681 -0.4889270365 -0.2166626602 5.962428276e-39
0.2303242385 -0.4865542054 -0.1367582083 5.962428276e-39
-0.3143574297 -0.06346035004 -0.06959679723 5.962428276e-39
0.08755927533 -0.4894382358 -0.2050240189 5.962428276e-39
-0.1991422772 0.06270158291 -0.1149220839 5.962428276e-39
-0.2431504428 -0.3917752206 -0.1568017006 5.962428276e-39
0.08905570954 0.05607166886 0.09663134068 5.962428276e-39
-0.08844588697 -0.3706898093 -0.1769457757 5.962428276e-39
-0.1235203147 -0.3817356527 -0.1654923409 5.962428276e-39
0.06076445431 0.05781155825 0.09446771443 5.962428276e-39
0.2390160263 -0.4849537313 -0.06341275573 5.962428276e-39
0.1416093111 -0.4514437914 -0.2422781289 5.962428276e-39
-0.1521441191 0.06386086345 0.004664666951 5.962428276e-39
0.04200813919 0.06283345819 -0.0696683377 5.962428276e-39
-0.2320026457 -0.4859457314 0.04258451983 5.962428276e-39
0.004047773778 -0.4784149528 -0.2259483933 5.962428276e-39
-0.2879169881 0.03786760569 -0.1681994945 5.962428276e-39
-0.1275337189 -0.4807646871 -0.2363291979 5.962428276e-39
0.2654822171 0.05558007956 -0.0761596933 5.962428276e-39
-0.293905586 0.06758701801 -0.1495931 5.962428276e-39
-0.03081618436 -0.295165658 -0.1640503109 5.962428276e-39
-0.147685349 -0.3786531985 -0.1374857575 5.962428276e-39
0.001294050366 -0.4867657423 -0.1167697683 5.962428276e-39
-0.03734508902 0.06472045183 -0.07456764579 5.962428276e-39
-0.03170218691 -0.4861094356 -0.05773127079 5.962428276e-39
0.2530237138 -0.4721206725 -0.2258925438 5.962428276e-39
-0.3299815655 0.08715862036 -0.004026388749 5.962428276e-39
0.2848769724 -0.485478878 0.05906321853 5.962428276e-39
0.1157391742 -0.3790161908 -0.226941824 5.962428276e-39
0.1117390767 -0.4852321744 -0.07804551721 5.962428276e-39
-0.114602685 0.06458109617 -0.1783898175 5.962428276e-39
-0.09185865521 -0.3537791371 -0.2029628307 5.962428276e-39
-0.2803245485 -0.4834991097 -0.03133505583 5.962428276e-39
0.2202389538 -0.4853383899 -0.08764607459 5.962428276e-39
0.2360515296 0.04894095659 0.110862121 5.962428276e-39
-0.1269737482 0.06041258574 0.08454971761 5.962428276e-39
0.01094865054 -0.4301531017 -0.2356032729 5.962428276e-39
0.2557435632 -0.4784612656 -0.2197091579 5.962428276e-39
-0.1995058656 -0.4849005938 -0.08003950864 5.962428276e-39
-0.1059223115 0.0633610785 -0.09829003364 5.962428276e-39
-0.01822118089 -0.487691313 -0.1472452134 5.962428276e-39
0.1523065269 -0.4138580561 -0.2366522253 5.962428276e-39
0.2867228687 -0.04387044907 0.0406287387 5.962428276e-39
0.04894015193 -0.4865529239 0.07643201202 5.962428276e-39
-0.2299195528 -0.3851797283 -0.1184485182 5.962428276e-39
-0.3300263584 -0.4804715812 0.02996098064 5.962428276e-39
-0.1918926239 -0.3138005435 -0.1332111508 5.962428276e-39
-0.003571845591 -0.4096373916 -0.2342451215 5.962428276e-39
0.2723129988 0.05935078859 -0.03119171225 8.906165387e-39
-0.3071628511 -0.02460384369 -0.09237819165 8.906165387e-39
0.2823773921 -0.4857340455 0.03335335851 8.906165387e-39
0.3288452923 0.04932892323 0.08391850442 8.906165387e-39
-0.2342476249 0.07669430971 0.01265682653 8.906165387e-39
0.1687195003 -0.4852398038 -0.108298488 8.906165387e-39
-0.2093765736 -0.4855729938 -0.1934362501 8.906165387e-39
0.06173522025 -0.4759416282 -0.2415087223 8.906165387e-39
0.0674347654 -0.4851043224 -0.002698792145 8.906165387e-39
-0.1687786281 -0.1284884214 -0.1770731807 8.906165387e-39
0.03322002292 0.05957508087 0.02361903526 8.906165387e-39
-0.1654892862 -0.4859889746 -0.01371946745 8.906165387e-39
0.2246523798 0.05338642001 0.06513320655 8.906165387e-39
0.1611624062 0.05523726344 0.05345997214 8.906165387e-39
-0.1593530476 0.06976279616 -0.2058531046 8.906165387e-39
0.1990721226 -0.4844700396 -0.02666072734 8.906165387e-39
0.3420826197 0.0479144156 0.1006081775 8.906165387e-39
-0.1298630238 -0.3662610352 -0.2008062899 8.906165387e-39
0.1425183415 0.05387440324 0.07178212702 8.906165387e-39
0.04702474922 0.06434506178 -0.07552710176 8.906165387e-39
0.02199673653 0.06625422835 -0.1483781487 8.906165387e-39
0.2906767726 0.0003247261047 -0.1829152554 8.906165387e-39
0.1793765724 0.05956721306 -0.2496066391 8.906165387e-39
0.3024694324 -0.4607568979 -0.08608119935 8.906165387e-39
0.2955175936 0.06154626608 -0.02291009389 8.906165387e-39
0.1680200398 -0.4842334986 -0.2594775259 8.906165387e-39
0.1027469411 -0.379675597 -0.2024186552 8.906165387e-39
0.1177459434 0.06119304895 -0.0538245365 8.906165387e-39
0.0436308831 -0.4862062037 -0.1276011467 8.906165387e-39
0.004279650748 0.06592196226 -0.07974246144 8.906165387e-39
0.2907327712 -0.01622077823 -0.004548290744 8.906165387e-39
0.2621027529 0.04991325736 0.08904747665 8.906165387e-39
0.2785010636 -0.4857414365 0.02045952342 8.906165387e-39
-0.2018902898 -0.3771985173 -0.1617960334 8.906165387e-39
0.2757254541 -0.4593551159 0.01099844836 8.906165387e-39
0.03228978068 -0.484993279 -0.01368470676 8.906165387e-39
-0.103504844 0.06480911374 -0.1469156444 8.906165387e-39
0.1463071704 -0.4846021533 -0.04171233624 8.906165387e-39
-0.2049869597 0.06565201283 -0.09315601736 8.906165387e-39
0.006454050541 -0.03523215652 -0.2144818753 8.906165387e-39
-0.1404696703 -0.3720625937 -0.1610865891 8.906165387e-39
0.07670605928 -0.4566559792 -0.2399989665 8.906165387e-39
-0.02002719045 0.05083918571 0.0580653511 8.906165387e-39
-0.1721009314 -0.486166954 -0.1936608404 8.906165387e-39
0.2454393506 0.05303630233 0.06236167252 8.906165387e-39
-0.06900491565 -0.4864112735 0.002232206985 8.906165387e-39
0.2883011103 0.04663416743 0.1200570837 8.906165387e-39
-0.2775287628 -0.4840691686 -0.1473935395 8.906165387e-39
0.3034299314 -0.4605231285 -0.05089419335 8.906165387e-39
0.1059271917 -0.4849362671 -0.003116013482 8.906165387e-39
-0.3185691237 -0.484233439 0.04323321581 8.906165387e-39
-0.1908082664 -0.3748061359 -0.1555056572 8.906165387e-39
-0.3093953431 0.0833607018 -0.05199193954 8.906165387e-39
0.02517741174 0.06441253424 -0.232306838 8.906165387e-39
0.2378999889 0.05232456326 0.07118339092 8.906165387e-39
-0.09607043862 -0.3546353877 -0.2216390818 8.906165387e-39
-0.2449156344 -0.4845416546 -0.04451989383 8.906165387e-39
0.1958215535 -0.4844297171 -0.01729196869 8.906165387e-39
0.2846675515 0.0273039937 -0.09406222403 8.906165387e-39
0.1658359468 -0.4850307405 -0.08764347434 8.906165387e-39
-0.2201898694 0.06753879786 -0.1879271269 8.906165387e-39
0.04853619635 0.07076278329 -0.2086643577 8.906165387e-39
0.2830659747 0.01391816139 -0.203362003 8.906165387e-39
0.2494878471 -0.4839720726 -0.0345935002 8.906165387e-39
-0.1671542823 -0.4871864915 0.03928155079 8.906165387e-39
-0.334290117 0.07498410344 -0.07663188875 8.906165387e-39
-0.2166003883 0.06723770499 -0.186183542 8.906165387e-39
0.1654816568 -0.4845129251 -0.03440045565 8.906165387e-39
0.01039154828 -0.4660783112 -0.2362597585 8.906165387e-39
0.2820548117 -0.4863775373 0.06022004038 8.906165387e-39
-0.2702618241 -0.4757556915 -0.2407070398 8.906165387e-39
0.1029744372 -0.4885577261 -0.2239057124 8.906165387e-39
0.3013675809 0.02502605319 0.02630318888 8.906165387e-39
-0.02579180896 -0.294916451 -0.1782980561 8.906165387e-39
0.2285848558 0.06525832415 -0.1215266809 8.906165387e-39
0.0006434619427 -0.4877014458 -0.1821837276 8.906165387e-39
-0.1329134703 -0.4864486456 -0.1589183062 8.906165387e-39
-0.2115897834 0.06787237525 -0.1789455116 8.906165387e-39
0.1784840524 0.0527972281 0.07169502228 8.906165387e-39
0.2716490328 -0.4850605726 -0.08949440718 8.906165387e-39
0.06864444911 -0.4786667824 -0.2425644398 8.906165387e-39
0.2397193909 -0.4867873192 -0.1950734705 8.906165387e-39
-0.3132103384 -0.04448568821 -0.07943924516 8.906165387e-39
0.08501785249 -0.484519273 -0.2454684973 8.906165387e-39
-0.1372249424 0.06431561708 -0.129299134 8.906165387e-39
-0.2207039595 -0.3820509017 -0.1824789345 8.906165387e-39
0.1437422037 0.05393472314 0.08103554696 8.906165387e-39
-0.06942413747 -0.3564129472 -0.1912040859 8.906165387e-39
-0.1134972423 -0.3698952198 -0.1698980182 8.906165387e-39
0.1158318147 0.05577290058 0.07545628399 8.906165387e-39
0.2504959404 -0.485321939 -0.1182920262 8.906165387e-39
0.1592719257 -0.428117156 -0.2511584759 8.906165387e-39
-0.1022481769 0.06483742595 -0.02255055122 8.906165387e-39
0.1083830222 0.0619584024 -0.08342722058 8.906165387e-39
-0.2549207509 -0.4852936864 0.01215760875 8.906165387e-39
0.002553708851 -0.4642052948 -0.2356853485 8.906165387e-39
-0.2696731985 0.05216452479 -0.1836232096 8.906165387e-39
-0.1304719001 -0.4692359269 -0.2357537448 8.906165387e-39
0.2858451307 0.06216281652 -0.08227425814 8.906165387e-39
-0.253760457 0.06591850519 -0.1565789729 8.906165387e-39
-0.02034472302 -0.2159036994 -0.1902339906 8.906165387e-39
-0.146289587 -0.3599903882 -0.1477284431 8.906165387e-39
0.006859727204 -0.4874593914 -0.1673974395 8.906165387e-39
0.02339091152 0.06552091241 -0.09009341151 8.906165387e-39
-0.02465375699 -0.4865421653 -0.1129026785 8.906165387e-39
0.2588064075 -0.4529942274 -0.2656606138 8.906165387e-39
-0.3227962852 0.0868729949 -0.02783323266 8.906165387e-39
0.2805355191 -0.4856942296 0.02908423916 8.906165387e-39
0.1286729276 -0.3589576483 -0.2403126061 8.906165387e-39
0.122915335 -0.4856666923 -0.1277286708 8.906165387e-39
-0.04075666517 0.068000108 -0.1877047569 8.906165387e-39
-0.06213606521 -0.3538981378 -0.2121988535 8.906165387e-39
-0.3122838438 -0.4825458229 -0.0817264244 8.906165387e-39
0.2277230322 -0.4856328666 -0.1432389766 8.906165387e-39
0.2851675153 0.04723456502 0.1145747006 8.906165387e-39
-0.05572572351 0.06131222844 0.05450773239 8.906165387e-39
0.0306180343 -0.4307805598 -0.248693645 8.906165387e-39
0.2634028196 -0.458989203 -0.2652835846 8.906165387e-39
-0.2326996624 -0.4847334325 -0.1382876188 8.906165387e-39
-0.04001881927 0.06543636322 -0.1138396189 8.906165387e-39
-0.01306389645 -0.4880888462 -0.2042182684 8.906165387e-39
0.1616513729 -0.3913626075 -0.2474550903 8.906165387e-39
0.2958309352 -0.02499625087 0.04400593787 8.906165387e-39
0.0469666943 -0.4856750667 0.03575122729 8.906165387e-39
-0.2292685211 -0.3680087924 -0.1371240467 8.906165387e-39
-0.3454917073 -0.4822150171 -0.0005107149482 8.906165387e-39
-0.223885715 -0.1779391915 -0.1694415957 8.906165387e-39
0.01749136299 -0.4083937705 -0.2420531511 8.906165387e-39
0.291514039 0.06094709039 -0.1044208929 1.184631237e-38
-0.3438551724 -0.0500433147 -0.08634898067 1.184631237e-38
0.3161272109 -0.3940693438 0.05459550023 1.184631237e-38
0.3380199671 0.05535957217 0.03636159003 1.184631237e-38
-0.3112419844 0.06874236465 0.0002246070653 1.184631237e-38
0.1079296544 -0.4859009385 -0.1051580533 1.184631237e-38
-0.305729717 -0.4710231125 -0.2260017395 1.184631237e-38
-0.04077396542 -0.4646682143 -0.2372818887 1.184631237e-38
0.05294647813 -0.485819459 0.01318946388 1.184631237e-38
-0.2000992298 0.04731953144 -0.2264987528 1.184631237e-38
-0.02700843103 0.06236964464 -0.01288374327 1.184631237e-38
-0.2078922689 -0.4867556691 -0.01518757828 1.184631237e-38
0.1925133169 0.05529251695 0.01503081247 1.184631237e-38
0.1157405451 0.05644455552 0.010114545 1.184631237e-38
-0.1406861693 0.05724480748 -0.2166275978 1.184631237e-38
0.1901807189 -0.4841380119 -0.01225974597 1.184631237e-38
0.3491654098 0.05513763428 0.05163919926 1.184631237e-38
-0.1059868336 -0.3286169171 -0.1932342649 1.184631237e-38
0.09725596756 0.05579295754 0.03832884878 1.184631237e-38
0.07529667765 0.06148400903 -0.1416700035 1.184631237e-38
0.06614532322 0.06013479829 -0.1855265647 1.184631237e-38
0.323014468 0.03726515174 -0.2156716883 1.184631237e-38
0.218359977 0.06073659658 -0.2502569854 1.184631237e-38
0.3000406325 -0.4639854729 -0.05145653337 1.184631237e-38
0.3265088797 0.05991587043 -0.09353247285 1.184631237e-38
0.06978574395 -0.4754730463 -0.2496830523 1.184631237e-38
0.10647773 -0.3558512032 -0.1784548312 1.184631237e-38
0.1227601096 0.06140491366 -0.1214945987 1.184631237e-38
-0.01835051924 -0.4867608845 -0.1358635426 1.184631237e-38
0.03487604111 0.06108990312 -0.1425550729 1.184631237e-38
0.3253027797 0.03360682726 -0.07518973202 1.184631237e-38
0.2302389145 0.05369397998 0.04210484028 1.184631237e-38
0.3164474368 -0.3991252184 0.05270842463 1.184631237e-38
-0.1858685017 -0.3335642517 -0.1664344221 1.184631237e-38
0.3131225705 -0.377502352 0.04929991066 1.184631237e-38
-0.0002847202122 -0.4857647121 -0.009186947718 1.184631237e-38
-0.03901580721 0.05886259675 -0.1765205413 1.184631237e-38
0.117591165 -0.4848995805 -0.03334558755 1.184631237e-38
-0.1659552455 0.06168136001 -0.1289163679 1.184631237e-38
0.02725488693 0.06394472718 -0.2443068326 1.184631237e-38
-0.1713343561 -0.211517632 -0.1898278296 1.184631237e-38
-0.03013936616 -0.44545421 -0.2395327985 1.184631237e-38
-0.1100017726 0.06035766006 0.05045619607 1.184631237e-38
-0.2859317958 -0.4727731347 -0.2284978926 1.184631237e-38
0.2449869812 0.05716469884 0.002672769129 1.184631237e-38
-0.1223963052 -0.4872491062 0.008618522435 1.184631237e-38
0.2869315445 0.05265152454 0.06720005721 1.184631237e-38
-0.3654783964 -0.4836483598 -0.2098531872 1.184631237e-38
0.3045996726 -0.4200813174 -0.0001582559198 1.184631237e-38
0.09576573223 -0.4855512381 0.0152961947 1.184631237e-38
-0.3524505198 -0.4846197963 0.06555441022 1.184631237e-38
-0.2016879022 -0.2316091359 -0.178226307 1.184631237e-38
-0.3322902024 0.07255730033 -0.06347314268 1.184631237e-38
0.08153053373 0.06018707156 -0.2412631512 1.184631237e-38
0.2077702582 0.05478742719 0.02154094353 1.184631237e-38
-0.02509930916 -0.3314879537 -0.2082325667 1.184631237e-38
-0.2901566625 -0.4852366447 -0.07372260094 1.184631237e-38
0.1964917481 -0.4839916825 -0.0008401852101 1.184631237e-38
0.3272301853 0.0536877811 -0.1598917991 1.184631237e-38
0.116660051 -0.485421896 -0.077274777 1.184631237e-38
-0.2035703957 0.05787456036 -0.2073477358 1.184631237e-38
0.1128021106 0.06418633461 -0.2313711047 1.184631237e-38
0.3139078319 0.04593396187 -0.2285786569 1.184631237e-38
0.238969177 -0.478363663 -0.01737037115 1.184631237e-38
-0.198947072 -0.4880675673 0.05307345837 1.184631237e-38
-0.3493021727 0.07236492634 -0.101381205 1.184631237e-38
-0.1961911321 0.05715602636 -0.2050522268 1.184631237e-38
0.1465421319 -0.4848357141 -0.02289257385 1.184631237e-38
-0.1060652584 -0.4428608716 -0.2313680649 1.184631237e-38
0.3066893518 -0.416539073 0.06001438946 1.184631237e-38
-0.2217555046 -0.3929625154 -0.2218870521 1.184631237e-38
0.003120560199 -0.4846631885 -0.2351327837 1.184631237e-38
0.3326439559 0.05603438616 -0.04849416763 1.184631237e-38
-0.09920111299 0.05589053035 -0.2377317846 1.184631237e-38
0.2568762302 0.06045418978 -0.1825235933 1.184631237e-38
-0.09775696695 -0.4857217371 -0.2089908123 1.184631237e-38
-0.2318620086 -0.4841654301 -0.1930393577 1.184631237e-38
-0.1794775426 0.05526021123 -0.1965807527 1.184631237e-38
0.1253527105 0.05493104458 0.03577595577 1.184631237e-38
0.2293384969 -0.4854773283 -0.07937858999 1.184631237e-38
-0.03543265909 -0.4672623873 -0.2364112735 1.184631237e-38
0.1713261604 -0.488476336 -0.215177834 1.184631237e-38
-0.3296029866 -0.03740522265 -0.09345416725 1.184631237e-38
-0.01914951205 -0.4738991857 -0.236266166 1.184631237e-38
-0.0811329782 0.05907708406 -0.1626815945 1.184631237e-38
-0.1927884519 -0.3697959483 -0.1679571122 1.184631237e-38
0.09681720287 0.05585926771 0.05024142563 1.184631237e-38
-0.08177822083 -0.3247136474 -0.1849774867 1.184631237e-38
-0.1230240315 -0.3294008672 -0.1726420373 1.184631237e-38
0.06559175253 0.05795514584 0.04565420002 1.184631237e-38
0.1936484277 -0.4864007831 -0.1124249771 1.184631237e-38
0.09630490094 -0.4344860911 -0.2439881563 1.184631237e-38
-0.1361124814 0.06468611956 -0.04427316785 1.184631237e-38
0.1170740649 0.0606353879 -0.1490890682 1.184631237e-38
-0.2883030176 -0.4861962497 0.01841000468 1.184631237e-38
-0.1066912264 -0.4366673231 -0.2317861617 1.184631237e-38
-0.2650084496 0.05911791325 -0.210970059 1.184631237e-38
-0.1481735855 -0.3886140883 -0.2221336514 1.184631237e-38
0.3231024146 0.06004148722 -0.1503508091 1.184631237e-38
-0.2222922742 0.05702501535 -0.1775127947 1.184631237e-38
-0.05136147514 0.0630697906 -0.2425629199 1.184631237e-38
-0.2218533754 0.02117329836 -0.2235961258 1.184631237e-38
-0.08187320828 -0.4868071079 -0.1946858317 1.184631237e-38
0.05532352626 0.06102094054 -0.1525477469 1.184631237e-38
-0.09654010832 -0.4870409369 -0.1302472949 1.184631237e-38
0.2264664173 -0.4818042517 -0.2583749294 1.184631237e-38
-0.3575281203 0.07502090931 -0.04530853033 1.184631237e-38
0.3165435791 -0.3973115683 0.05445747823 1.184631237e-38
0.08704506606 -0.3447113931 -0.2243028283 1.184631237e-38
0.05311053246 -0.4863913655 -0.1321817786 1.184631237e-38
0.01870413125 0.06341823936 -0.2099678963 1.184631237e-38
-0.01915886253 -0.335831672 -0.2014387548 1.184631237e-38
-0.3661724925 -0.4830613136 -0.1280753911 1.184631237e-38
0.1608066261 -0.4871422648 -0.1439522952 1.184631237e-38
0.2809425294 0.05286547542 0.06201414019 1.184631237e-38
-0.1220496967 0.06162464619 0.03835741803 1.184631237e-38
0.0259276554 -0.4057078958 -0.2398481369 1.184631237e-38
0.2274349332 -0.483469367 -0.258489877 1.184631237e-38
-0.3261321187 -0.4835118353 -0.1971022338 1.184631237e-38
0.002724383026 0.06007528305 -0.1658545136 1.184631237e-38
-0.132455796 -0.4805952013 -0.2238387465 1.184631237e-38
0.1281312406 -0.3859505355 -0.2350448072 1.184631237e-38
0.3235847652 0.03378164768 -0.03697360307 1.184631237e-38
0.04442478716 -0.4864087105 0.06178120524 1.184631237e-38
-0.249199003 -0.1830087304 -0.177985698 1.184631237e-38
-0.3769729435 -0.4829699099 -0.003297293559 1.184631237e-38
-0.2590645552 0.04298365116 -0.2195686847 1.184631237e-38
0.09785843641 -0.3987110257 -0.2316439748 1.184631237e-38
0.2617275119 0.0640604794 -0.1844540536 1.478322936e-38
-0.2755252719 -0.438375771 -0.09649253637 1.478322936e-38
0.3080905676 -0.3558625877 0.06662136316 1.478322936e-38
0.3036801219 0.0566740036 0.0005515981466 1.478322936e-38
-0.3553029597 0.0009212195873 -0.1043606922 1.478322936e-38
0.1453820467 -0.4865448475 -0.1142761484 1.478322936e-38
-0.2497922182 -0.4833904505 -0.2328233123 1.478322936e-38
0.03809098154 -0.4690046608 -0.250836283 1.478322936e-38
0.1727650762 -0.4848733246 0.02554971352 1.478322936e-38
-0.158836633 -0.3046513796 -0.1860493571 1.478322936e-38
-0.1987980604 0.07044789195 -0.08273367584 1.478322936e-38
-0.1954906881 -0.4881915748 -0.0352531299 1.478322936e-38
0.034930408 0.0611666739 -0.0594869405 1.478322936e-38
-0.05293937027 0.06442177296 -0.07299008965 1.478322936e-38
-0.1771052182 0.02523255348 -0.2376709878 1.478322936e-38
0.2787474096 -0.4605681002 0.006454551592 1.478322936e-38
0.3134483099 0.0558026433 0.01945399493 1.478322936e-38
-0.1200843155 -0.3303420544 -0.2232111394 1.478322936e-38
-0.07128229737 0.06750902534 -0.0488563031 1.478322936e-38
-0.0185549818 0.0634469986 -0.1896211207 1.478322936e-38
-0.007663622499 0.06473982334 -0.2282972634 1.478322936e-38
0.3008230925 -0.01586389542 -0.2469207942 1.478322936e-38
0.1889761686 0.05033299327 -0.2714064717 1.478322936e-38
0.2773094475 -0.4062748253 -0.05079542845 1.478322936e-38
0.313128233 0.05472886562 -0.1722338051 1.478322936e-38
0.1539800167 -0.4778504968 -0.2662899494 1.478322936e-38
0.136252135 -0.3674166501 -0.1947957873 1.478322936e-38
0.05317558348 0.06232184172 -0.1862887144 1.478322936e-38
0.01542358845 -0.4869994223 -0.151654169 1.478322936e-38
-0.06998623908 0.06434324384 -0.1873484254 1.478322936e-38
0.3172901869 -0.02136492729 -0.1520311683 1.478322936e-38
0.08150612563 0.05989795923 -0.03789941221 1.478322936e-38
