# .PCD v0.7 - Point Cloud Data file format
VERSION 0.7
FIELDS x y z rgb
SIZE 4 4 4 4
TYPE F F F F
COUNT 1 1 1 1
WIDTH 828
HEIGHT 1
VIEWPOINT 0 0 0 1 0 0 0
POINTS 828
DATA ascii
-0.1841856539 -0.307220757 -0.1864996105 5.820783626e-39
-0.1585559398 -0.3432123363 -0.1890959889 5.820783626e-39
-0.2732082307 -0.4779192507 -0.2291172445 5.820783626e-39
0.1095662192 -0.4244399071 -0.1868036985 5.820783626e-39
-0.1952780932 -0.349266082 -0.1852328479 5.820783626e-39
-0.271468848 -0.4815929234 -0.2418505102 5.820783626e-39
0.01904015243 -0.3924523592 -0.175967887 5.820783626e-39
0.157002762 -0.3622123003 -0.188163951 5.820783626e-39
-0.197303772 -0.4453165829 -0.1818760633 5.820783626e-39
-0.2264685184 -0.4665334821 -0.1874114275 5.820783626e-39
-0.3168836236 -0.4750058055 -0.2624202669 5.820783626e-39
0.02582970075 -0.4516893029 -0.1649096757 5.820783626e-39
-0.2393230945 -0.4810211658 -0.2220045179 5.820783626e-39
0.09569727629 -0.4284497499 -0.1900781989 5.820783626e-39
-0.02158092894 -0.4579020739 -0.1637175977 5.820783626e-39
-0.3060607016 -0.4472560585 -0.3530465662 5.820783626e-39
-0.1725029498 -0.4759921134 -0.1685740203 5.820783626e-39
-0.2972337306 -0.4766718447 -0.2326722145 5.820783626e-39
-0.2849324346 -0.4651619196 -0.1939255744 5.820783626e-39
-0.0649119392 -0.464969188 -0.1660437584 5.820783626e-39
-0.3147009611 -0.479147017 -0.2725202441 5.820783626e-39
-0.03119654022 -0.4446209073 -0.198624298 5.820783626e-39
0.2049982846 -0.3733929098 -0.2177026123 5.820783626e-39
-0.3213677406 -0.4729557931 -0.3107363284 5.820783626e-39
0.06540867686 -0.4365538657 -0.1703458577 5.820783626e-39
-0.1740980446 -0.4346117377 -0.1796045601 5.820783626e-39
-0.2473987192 -0.4758541286 -0.2917161882 5.820783626e-39
0.1918274462 -0.323585093 -0.1933237314 5.820783626e-39
-0.2686403394 -0.4435955286 -0.3058077395 5.820783626e-39
-0.03691977262 -0.4570983052 -0.1722651571 5.820783626e-39
0.1327103823 -0.4162570238 -0.175414741 5.820783626e-39
0.1013512388 -0.3017134666 -0.1947280616 5.820783626e-39
-0.2968123853 -0.4840050936 -0.2954796255 5.820783626e-39
-0.1687304378 -0.4770019352 -0.1736445427 5.820783626e-39
-0.2299550921 -0.3931031823 -0.1826164573 5.820783626e-39
-0.2718735933 -0.4342662096 -0.2149078548 5.820783626e-39
0.08445682377 -0.4090654552 -0.2163792104 5.820783626e-39
-0.3019148409 -0.4766673148 -0.2329217792 5.820783626e-39
-0.3071041703 -0.4576254487 -0.342535615 5.820783626e-39
-0.2327863127 -0.42158252 -0.1848083735 5.820783626e-39
0.0848852247 -0.3215876222 -0.1928877383 5.820783626e-39
-0.02167397551 -0.4539876878 -0.1578314304 5.820783626e-39
-0.2210136652 -0.4789049923 -0.2567369044 5.820783626e-39
-0.1430537552 -0.4618484974 -0.2091363221 5.820783626e-39
0.205841884 -0.3639011681 -0.2131032348 5.820783626e-39
-0.196702227 -0.4692954123 -0.2186505646 5.820783626e-39
-0.02471040748 -0.4527451396 -0.1785338223 5.820783626e-39
0.01202190388 -0.4243497849 -0.2013763189 5.820783626e-39
-0.2443314344 -0.4788567424 -0.2640144229 5.820783626e-39
-0.1803065091 -0.4759535491 -0.1705969721 5.820783626e-39
-0.2729495764 -0.4762575328 -0.2141304463 5.820783626e-39
-0.01207992248 -0.3813728988 -0.1824535578 5.820783626e-39
-0.2628650665 -0.4761841297 -0.3116405606 5.820783626e-39
-0.1180312485 -0.3373710215 -0.1944256425 5.820783626e-39
-0.1629986614 -0.4604256153 -0.1707542837 5.820783626e-39
-0.07965108752 -0.4675551653 -0.1529082507 5.820783626e-39
-0.1840979308 -0.3642582595 -0.1857517213 5.820783626e-39
-0.2751384974 -0.4343013763 -0.2511848807 5.820783626e-39
-0.04717937857 -0.4574436843 -0.1752662361 5.820783626e-39
-0.2340968102 -0.4798442423 -0.2757876515 5.820783626e-39
-0.3237937987 -0.4788711071 -0.2893726826 5.820783626e-39
-0.2351764888 -0.4798012972 -0.2749923766 5.820783626e-39
-0.3158375621 -0.4812735617 -0.3042319119 5.820783626e-39
-0.1990200877 -0.3912406862 -0.1831074506 5.820783626e-39
0.03184555471 -0.4433040023 -0.1827325523 5.820783626e-39
-0.1407456249 -0.4538629651 -0.1991673857 5.820783626e-39
-0.2718175352 -0.4792324603 -0.233967647 5.820783626e-39
-0.3178772628 -0.4614914954 -0.2543453872 5.820783626e-39
-0.1954709142 -0.4764420092 -0.175309062 5.820783626e-39
0.1323787719 -0.4197004437 -0.177276969 5.820783626e-39
-0.1573642641 -0.4767670333 -0.1698867679 5.820783626e-39
-0.1420876235 -0.3359162509 -0.1918497235 5.820783626e-39
-0.2211510241 -0.4798997343 -0.2037906796 5.820783626e-39
-0.01703179441 -0.4567395449 -0.1652881503 5.820783626e-39
0.1842178404 -0.3642117977 -0.1853246987 5.820783626e-39
-0.275319308 -0.4763541222 -0.2165885568 5.820783626e-39
-0.3142456412 -0.4660221636 -0.3258964717 5.820783626e-39
-0.1724302471 -0.4638741314 -0.2145729214 5.820783626e-39
-0.2603984177 -0.4779738784 -0.2185945958 5.820783626e-39
-0.2742923498 -0.4765248597 -0.2185550183 5.820783626e-39
0.0202869419 -0.3761480451 -0.1857812405 6.490113838e-41
0.07127245516 -0.3658575416 -0.1872218996 6.490113838e-41
0.006477275863 -0.2729026675 -0.1945576072 6.490113838e-41
-0.04859406501 -0.3749269545 -0.1824192107 6.490113838e-41
-0.03544288874 -0.3600183725 -0.1840996593 6.490113838e-41
-0.03208872676 -0.2915262282 -0.1929849237 6.490113838e-41
0.2354395837 -0.3476760089 -0.2036871314 6.490113838e-41
0.09742875397 -0.3815165758 -0.1837817878 6.490113838e-41
-0.1379013956 -0.4008918405 -0.1772082597 6.490113838e-41
-0.1696104407 -0.3501190245 -0.1969641149 6.490113838e-41
-0.1799313575 -0.4197549224 -0.1787257046 6.490113838e-41
-0.1997414976 -0.3521879017 -0.222921744 6.490113838e-41
-0.1295428276 -0.3537207246 -0.1848522574 6.490113838e-41
-0.2559259236 -0.4244246781 -0.2041727751 6.490113838e-41
-0.3087465763 -0.4252024293 -0.2275802493 6.490113838e-41
0.1039167568 -0.3750578761 -0.1877561659 6.490113838e-41
-0.2450546473 -0.4150253832 -0.2104807496 6.490113838e-41
-0.1018180847 -0.2747310698 -0.1935544014 6.490113838e-41
-0.2182676196 -0.3170008063 -0.2420025021 6.490113838e-41
0.140254885 -0.3306491375 -0.1980650425 6.490113838e-41
-0.1764723212 -0.2964383662 -0.2175384611 6.490113838e-41
-0.1974253058 -0.3057650626 -0.2305081785 6.490113838e-41
0.268152833 -0.3689969182 -0.2008592784 6.490113838e-41
-0.1589427888 -0.3896048963 -0.1813569963 6.490113838e-41
0.01228051446 -0.312148571 -0.1914183199 6.490113838e-41
0.1186319441 -0.3427664638 -0.1980832368 6.490113838e-41
-0.3179620206 -0.4171719551 -0.2249781936 6.490113838e-41
-0.3067924678 -0.4175979495 -0.1867565364 6.490113838e-41
-0.3008913398 -0.4309254289 -0.188314423 6.490113838e-41
0.2338866293 -0.3899012804 -0.1906440705 6.490113838e-41
-0.1911086142 -0.427631855 -0.1816413105 6.490113838e-41
-0.02215545811 -0.1609580219 -0.1731727719 6.490113838e-41
-0.1800837219 -0.3314163983 -0.2154092938 6.490113838e-41
-0.02696654387 -0.3816285133 -0.1841273606 6.490113838e-41
0.01177866012 -0.3913598657 -0.1841430813 6.490113838e-41
0.04043968767 -0.3180369437 -0.1915163249 6.490113838e-41
0.004370680079 -0.3049512208 -0.191686675 6.490113838e-41
0.1674988419 -0.4028877318 -0.1838273555 6.490113838e-41
-0.2107269168 -0.4423090518 -0.1833219081 6.490113838e-41
-0.2982825637 -0.4160889983 -0.2868421674 6.490113838e-41
0.03653233498 -0.348969847 -0.1883658618 6.490113838e-41
-0.3064875007 -0.4233191609 -0.2833907604 6.490113838e-41
-0.03348847479 -0.3422046602 -0.1865198612 6.490113838e-41
0.05756914616 -0.1885393858 -0.191433847 6.490113838e-41
0.1426118463 -0.2587758005 -0.1991633624 6.490113838e-41
-0.3116030693 -0.4228468239 -0.2314987928 6.490113838e-41
-0.04585103691 -0.3936922252 -0.1826164126 6.490113838e-41
-0.09075888991 -0.2736480236 -0.1923438162 6.490113838e-41
0.1358387768 -0.2730625272 -0.1971069872 6.490113838e-41
-0.08135299385 -0.4299899638 -0.1845894158 6.490113838e-41
-0.07794043422 -0.3970003128 -0.1807035059 6.490113838e-41
0.07762178034 -0.2687997818 -0.197683841 6.490113838e-41
-0.05034139752 -0.376744628 -0.1823369265 6.490113838e-41
-0.1246320009 -0.2230422646 -0.1969771832 6.490113838e-41
-0.06105642021 -0.3616653383 -0.1828645319 6.490113838e-41
0.02319304831 -0.1734848917 -0.1856865287 6.490113838e-41
-0.05219939351 -0.409633249 -0.1816887408 6.490113838e-41
-0.158827126 -0.2997537851 -0.2114399076 6.490113838e-41
0.05228196084 -0.3563457429 -0.1874900609 6.490113838e-41
-0.06260475516 -0.4040035605 -0.181115225 6.490113838e-41
-0.3112592399 -0.3850363195 -0.2902835608 6.490113838e-41
-0.3143475056 -0.4154402316 -0.2404972166 6.490113838e-41
-0.0002112314105 -0.384789288 -0.1843817383 6.490113838e-41
-0.3164588213 -0.3009106815 -0.2773180008 6.490113838e-41
0.04215295613 -0.3322986066 -0.1919103265 6.490113838e-41
-0.007902996615 -0.2952236533 -0.1921426654 6.490113838e-41
0.08704825491 -0.37975806 -0.1833929569 6.490113838e-41
-0.1323556155 -0.2787328959 -0.2009835094 6.490113838e-41
0.1238302141 -0.2392119169 -0.1987009495 6.490113838e-41
-0.2804141939 -0.424936533 -0.2415401042 6.490113838e-41
-0.04125574976 -0.4093753994 -0.1822401583 6.490113838e-41
-0.1897928119 -0.3580030501 -0.2100248337 6.490113838e-41
0.164422974 -0.3472248018 -0.1984104365 6.490113838e-41
-0.163637355 -0.4220681787 -0.1790494919 6.490113838e-41
-0.3153325319 -0.4089766741 -0.2732127905 6.490113838e-41
-0.1977773309 -0.4414387345 -0.1824281812 6.490113838e-41
-0.1193196774 -0.2122169882 -0.1918142289 6.490113838e-41
-0.2500345409 -0.4010614157 -0.1928779781 6.490113838e-41
-0.1628369838 -0.385686934 -0.1826989204 6.490113838e-41
-0.05119739473 -0.2621918321 -0.1928395182 6.490113838e-41
-0.1381756067 -0.2581410408 -0.202309832 6.490113838e-41
-0.1857052147 -0.4227424264 -0.1800541729 6.490113838e-41
0.01287561748 -0.3809051812 -0.1848276705 6.490113838e-41
-0.1145460159 -0.4133033752 -0.1785278618 6.490113838e-41
-0.2779455781 -0.4342067242 -0.1976649612 6.490113838e-41
0.147925362 -0.2998866141 -0.1952804327 6.490113838e-41
-0.05996162444 -0.2213335186 -0.1861193031 6.490113838e-41
-0.01619509421 -0.382817775 -0.1846989244 6.490113838e-41
0.2601615489 -0.3519425392 -0.2091307938 6.490113838e-41
0.06303850561 -0.2213431001 -0.1951892525 6.490113838e-41
0.04756075889 -0.3965015709 -0.1840616763 6.490113838e-41
0.03759556636 -0.3729491234 -0.1858185828 6.490113838e-41
-0.1683788449 -0.3259814084 -0.209252134 6.490113838e-41
-0.2624562979 -0.2598196864 -0.2920793295 6.490113838e-41
0.04723443091 -0.4053662419 -0.1848392338 6.490113838e-41
-0.3069649935 -0.4367723763 -0.2057982236 6.490113838e-41
0.2219990343 -0.3733510375 -0.1935764402 6.490113838e-41
-0.1918232888 -0.4089220464 -0.1935565472 6.490113838e-41
-0.1526553482 -0.3236716986 -0.2018691599 6.490113838e-41
-0.02459974401 -0.3536085188 -0.1857225001 6.490113838e-41
-0.05211263895 -0.3937420249 -0.1822101027 6.490113838e-41
-0.3100129068 -0.4042719901 -0.3001921475 6.490113838e-41
-0.2563237846 -0.4104737639 -0.2381169945 6.490113838e-41
0.1177104414 -0.3155313432 -0.1971600503 6.490113838e-41
0.06699686497 -0.1932053864 -0.1924693584 6.490113838e-41
-0.06082891673 -0.3595525622 -0.1830300987 6.490113838e-41
-0.2886166275 -0.3334243894 -0.3024974465 6.490113838e-41
-0.2952034175 -0.424792856 -0.2685955167 6.490113838e-41
-0.2473991364 -0.3684667647 -0.2638483047 6.490113838e-41
-0.1332267374 -0.4191469848 -0.1895432323 6.490113838e-41
-0.3086935282 -0.3569765091 -0.3029924631 6.490113838e-41
-0.02163829841 -0.4122401476 -0.18428348 6.490113838e-41
0.1479099542 -0.2779275775 -0.1970449835 6.490113838e-41
-0.2804833949 -0.3366443515 -0.2991247475 6.490113838e-41
-0.05087515712 -0.2316358984 -0.1875571311 6.490113838e-41
-0.2019160688 -0.3301839828 -0.2259141505 6.490113838e-41
0.07929302007 -0.2555179298 -0.1994851083 6.490113838e-41
-0.2589204907 -0.3478574157 -0.2778535485 6.490113838e-41
-0.2654301226 -0.399282515 -0.2667390704 6.490113838e-41
-0.3023647964 -0.4179750383 -0.290091306 6.490113838e-41
0.06436207891 -0.3332720995 -0.1943999678 6.490113838e-41
0.07344759256 -0.3473082185 -0.1933808774 6.490113838e-41
0.07585413009 -0.212143898 -0.1959600598 6.490113838e-41
-0.3102555871 -0.3883832395 -0.2966477573 6.490113838e-41
-0.2097679824 -0.4151817262 -0.1916343719 6.490113838e-41
0.07139324397 -0.1892963201 -0.1912866682 6.490113838e-41
-0.2208515555 -0.4138408005 -0.1855360866 6.490113838e-41
-0.3114067614 -0.3902091384 -0.2927019 6.490113838e-41
-0.312910229 -0.4175881147 -0.2507499754 6.490113838e-41
-0.2799547911 -0.4273367822 -0.2255589664 6.490113838e-41
0.0006799791008 -0.375222683 -0.1856954098 6.490113838e-41
-0.1690557897 -0.4156202972 -0.1776422709 6.490113838e-41
-0.2013449669 -0.2779552937 -0.2382522225 6.490113838e-41
-0.2672171593 -0.2491589189 -0.2965430021 6.490113838e-41
0.09518149495 -0.3738042116 -0.1870807111 6.490113838e-41
-0.3109326959 -0.3400914073 -0.2986551523 6.490113838e-41
-0.108177036 -0.4370195866 -0.1837449819 6.490113838e-41
-0.3099325299 -0.4192464352 -0.2503325641 6.490113838e-41
-0.2815703154 -0.4461252987 -0.1909938306 6.490113838e-41
-0.3091280162 -0.417755276 -0.2952177525 6.490113838e-41
-0.1373381764 -0.4345377982 -0.1825042516 6.490113838e-41
-0.2791241407 -0.4331125617 -0.1997307241 6.490113838e-41
0.1133109257 -0.3868075907 -0.1833922416 6.490113838e-41
0.1935832053 -0.3570472598 -0.1964722127 6.490113838e-41
0.0934220925 -0.3079585433 -0.1940407902 6.490113838e-41
-0.2064011842 -0.4157532156 -0.1814080775 6.490113838e-41
-0.2642223835 -0.4159028828 -0.2402046919 6.490113838e-41
-0.2907375991 -0.2888759077 -0.3072200119 6.490113838e-41
0.2065416873 -0.3739277124 -0.1929245144 6.490113838e-41
-0.08475131541 -0.2305569053 -0.1894510835 6.490113838e-41
-0.2735101581 -0.2850188911 -0.2960157692 6.490113838e-41
-0.04266599566 -0.4255595505 -0.188793242 6.490113838e-41
-0.252851516 -0.4249772131 -0.1984715909 6.490113838e-41
-0.2093360275 -0.3565132022 -0.2279558331 6.490113838e-41
-0.02485487051 -0.3827547133 -0.1841561496 6.490113838e-41
-0.2413655072 -0.4153470099 -0.1909120977 6.490113838e-41
-0.006168685853 -0.1631827354 -0.174226746 6.490113838e-41
-0.04096386582 -0.2354382426 -0.188747704 6.490113838e-41
-0.1992283314 -0.309470892 -0.2306970805 6.490113838e-41
-0.3052326143 -0.3262263238 -0.3039992452 6.490113838e-41
0.2497398853 -0.3483864963 -0.2074511051 6.490113838e-41
0.07863646746 -0.350071758 -0.1938524991 6.490113838e-41
-0.3081653714 -0.3955361545 -0.3021177948 6.490113838e-41
-0.2402042896 -0.3815028965 -0.2511059344 6.490113838e-41
-0.3111290634 -0.3212630749 -0.3017391264 6.490113838e-41
-0.1822813749 -0.4025700092 -0.1820193231 6.490113838e-41
0.1275435984 -0.3116838038 -0.196774289 6.490113838e-41
-0.1393672526 -0.3952158689 -0.1781910211 6.490113838e-41
0.1088879928 -0.1997580826 -0.1932998002 6.490113838e-41
-0.2274405509 -0.404946357 -0.1952946186 6.490113838e-41
-0.2711116672 -0.3032508194 -0.2937806845 6.490113838e-41
-0.2938924432 -0.2808973789 -0.3092146516 6.490113838e-41
-0.1511770636 -0.4266645312 -0.1815780401 6.490113838e-41
-0.05623600632 -0.31165272 -0.1906875074 6.490113838e-41
-0.1470566094 -0.4142200947 -0.1774612963 6.490113838e-41
0.1896119118 -0.3044191599 -0.204978019 6.490113838e-41
-0.2489251643 -0.4056063592 -0.1921913475 6.490113838e-41
-0.1936735213 -0.4278206825 -0.1857068688 6.490113838e-41
-0.2823528349 -0.4270925224 -0.2316950262 6.490113838e-41
0.1047584042 -0.3221213222 -0.1971902996 6.490113838e-41
-0.2382715195 -0.4278962314 -0.187794283 6.490113838e-41
-0.2246216983 -0.3838714361 -0.228257075 6.490113838e-41
-0.01161408238 -0.4052585363 -0.1835143119 6.490113838e-41
0.1506048441 -0.3770721257 -0.1900940388 6.490113838e-41
-0.2200739235 -0.4384731054 -0.1863339692 6.490113838e-41
-0.2557424307 -0.4346247613 -0.1927327067 6.490113838e-41
-0.3128200769 -0.4128149748 -0.2883538008 6.490113838e-41
0.03235500306 -0.3640577793 -0.1874024123 6.490113838e-41
-0.1900229901 -0.3645673096 -0.2012009323 6.490113838e-41
0.09284193069 -0.3191733658 -0.1957191527 6.490113838e-41
0.01119420212 -0.3617560267 -0.1863618195 6.490113838e-41
-0.2695991695 -0.2778192461 -0.2935352921 6.490113838e-41
-0.160591349 -0.4135757983 -0.1772185266 6.490113838e-41
-0.3109045029 -0.4186172187 -0.2466739118 6.490113838e-41
-0.3138168156 -0.4263916314 -0.2133423239 6.490113838e-41
-0.02332802676 -0.3636921346 -0.1845023781 6.490113838e-41
-0.306622535 -0.420506984 -0.2913346887 6.490113838e-41
0.02582284622 -0.2915955484 -0.192158103 6.490113838e-41
0.2512624562 -0.3532026112 -0.2042787522 6.490113838e-41
-0.298902005 -0.3786389232 -0.3056895435 6.490113838e-41
0.05771691352 -0.3583194315 -0.1882929206 6.490113838e-41
-0.1905758381 -0.4349691868 -0.1820457429 6.490113838e-41
-0.1679025292 -0.2799318135 -0.2135589868 6.490113838e-41
0.2186994255 -0.4111655653 -0.1843741238 6.490113838e-41
-0.1802693009 -0.2430466413 -0.2253159285 6.490113838e-41
0.007796404883 -0.3485072255 -0.1872968525 6.490113838e-41
0.1222413406 -0.3362103701 -0.1982934624 6.490113838e-41
0.08393224329 -0.4047498107 -0.186683014 6.490113838e-41
-0.2400033027 -0.3617718518 -0.257802844 6.490113838e-41
-0.1428313106 -0.39216429 -0.1790837795 6.490113838e-41
-0.2768691182 -0.44310534 -0.1896726936 6.490113838e-41
-0.06875363737 -0.1570542753 -0.1706994474 6.490113838e-41
0.1029284075 -0.2166929543 -0.1980159581 6.490113838e-41
-0.3127662539 -0.4179255366 -0.2483672798 6.490113838e-41
-0.2735012174 -0.3020684719 -0.2954877913 6.490113838e-41
-0.2748674154 -0.4448009133 -0.1904589087 6.490113838e-41
0.05979961157 -0.4065265059 -0.185589239 6.490113838e-41
-0.01660058461 -0.3872395456 -0.18411313 6.490113838e-41
-0.1177874506 -0.2667179406 -0.197687462 6.490113838e-41
-0.06411628425 -0.2942433059 -0.1944376081 6.490113838e-41
0.2757358253 -0.3905543983 -0.1958882362 6.490113838e-41
-0.1174034029 -0.310205251 -0.1977254301 6.490113838e-41
0.02053034864 -0.3382430673 -0.1889163405 6.490113838e-41
0.0721006766 -0.216621995 -0.1960110068 6.490113838e-41
-0.1194482446 -0.2468214333 -0.1960884333 6.490113838e-41
-0.1704622507 -0.4185493588 -0.1776813269 6.490113838e-41
-0.2997983992 -0.4260879457 -0.2224146128 6.490113838e-41
-0.04906826466 -0.4200556278 -0.1841774583 6.490113838e-41
-0.2032964379 -0.3020637631 -0.2353377789 6.490113838e-41
-0.152362749 -0.4289892912 -0.1844943017 6.490113838e-41
-0.1723803878 -0.4279567301 -0.1807463467 6.490113838e-41
-0.06889974326 -0.4004512429 -0.1813797355 6.490113838e-41
-0.2117076069 -0.4342166185 -0.1847297847 6.490113838e-41
-0.1210812032 -0.1892659664 -0.1837459654 6.490113838e-41
0.0009681768715 -0.3430270255 -0.1881071031 6.490113838e-41
-0.1490221024 -0.2866913974 -0.2079924643 6.490113838e-41
-0.3020691276 -0.4094870389 -0.3005654514 6.490113838e-41
-0.1397992671 -0.2746709585 -0.2040418088 6.490113838e-41
-0.2845281363 -0.3855945766 -0.2874339819 6.490113838e-41
-0.2228513509 -0.4401571751 -0.1846858412 6.490113838e-41
0.0529070124 -0.3301553726 -0.1934423149 6.490113838e-41
-0.01811842062 -0.2140668184 -0.1874254048 6.490113838e-41
-0.2603545189 -0.4178389311 -0.2257122099 6.490113838e-41
-0.3136052191 -0.3968141079 -0.2800401449 6.490113838e-41
-0.1927923262 -0.4238013625 -0.180875048 6.490113838e-41
0.1222389042 -0.3315595388 -0.1983460337 6.490113838e-41
-0.1281198114 -0.3878974617 -0.1782456636 6.490113838e-41
-0.1794672906 -0.4261906743 -0.1855852604 6.490113838e-41
-0.1750324816 -0.3682965934 -0.1899290085 6.490113838e-41
0.01674942672 -0.3582054079 -0.1867861599 6.490113838e-41
0.187605083 -0.3791832924 -0.1920296252 6.490113838e-41
-0.3002987802 -0.4252692163 -0.2245999128 6.490113838e-41
-0.2862187326 -0.3487251103 -0.3004402518 6.490113838e-41
-0.08825676888 -0.2991297245 -0.1963738203 6.490113838e-41
-0.2660624087 -0.4255129993 -0.2151448429 6.490113838e-41
-0.2985610962 -0.4247048497 -0.2241910845 6.490113838e-41
0.05593348294 -0.279442817 -0.1933225542 5.962428276e-39
0.1025502384 -0.2831062376 -0.1960290521 5.962428276e-39
0.05203482509 -0.1760849655 -0.1892638505 5.962428276e-39
-0.01217103563 -0.2574389279 -0.1873127371 5.962428276e-39
-0.0024430044 -0.2407457232 -0.1899496466 5.962428276e-39
-0.00181193836 -0.1846385449 -0.1894143969 5.962428276e-39
0.2499477118 -0.2802631557 -0.2035662234 5.962428276e-39
0.1215625554 -0.3112990558 -0.1942528486 5.962428276e-39
-0.0958699435 -0.2755474448 -0.1787390262 5.962428276e-39
-0.1344914436 -0.225533247 -0.1875756383 5.962428276e-39
-0.1331062466 -0.3091617525 -0.1760480702 5.962428276e-39
-0.1756766438 -0.2189113498 -0.1859899908 5.962428276e-39
-0.09672837704 -0.2331939638 -0.1841391623 5.962428276e-39
-0.2099088728 -0.32578969 -0.1863154322 5.962428276e-39
-0.2865037918 -0.3808778226 -0.203385368 5.962428276e-39
0.1301802844 -0.3049630523 -0.1936680228 5.962428276e-39
-0.2073133886 -0.3097417653 -0.1855964959 5.962428276e-39
-0.07280579954 -0.1593070626 -0.1853026748 5.962428276e-39
-0.2080902159 -0.1842627525 -0.2035849541 5.962428276e-39
0.1748633087 -0.2539569736 -0.1930435151 5.962428276e-39
-0.1600082666 -0.1564408094 -0.1870714426 5.962428276e-39
-0.1887232959 -0.167405203 -0.1964382976 5.962428276e-39
0.2666331828 -0.3066566885 -0.2096470445 5.962428276e-39
-0.1229287237 -0.2665610611 -0.1769042164 5.962428276e-39
0.05107224733 -0.2018769383 -0.1904862374 5.962428276e-39
0.1571909785 -0.2694219947 -0.1917107403 5.962428276e-39
-0.3016014099 -0.3814207315 -0.2018675953 5.962428276e-39
-0.2941164672 -0.4144094586 -0.1817311794 5.962428276e-39
-0.2849397361 -0.4089569449 -0.1822545677 5.962428276e-39
0.2402003556 -0.3317798078 -0.19507882 5.962428276e-39
-0.150939405 -0.3352552354 -0.1787222177 5.962428276e-39
0.05862241983 -0.09413607419 -0.1836010516 5.962428276e-39
-0.1570472717 -0.1949454844 -0.1843482852 5.962428276e-39
0.005636684597 -0.2745928168 -0.190458715 5.962428276e-39
0.04021571577 -0.3020807505 -0.1921612471 5.962428276e-39
0.07741187513 -0.2101010084 -0.191754654 5.962428276e-39
0.04489437491 -0.1973698139 -0.1899241209 5.962428276e-39
0.1731956452 -0.3477367759 -0.1937701106 5.962428276e-39
-0.1806061417 -0.3768042624 -0.1813428998 5.962428276e-39
-0.2688464224 -0.317288667 -0.2384941131 5.962428276e-39
0.07022812963 -0.247785002 -0.1947249174 5.962428276e-39
-0.2825692296 -0.3408479989 -0.2475282699 5.962428276e-39
-0.001551687717 -0.2250872254 -0.1902043521 5.962428276e-39
0.1155753881 -0.1130136177 -0.1855356097 5.962428276e-39
0.1812882125 -0.1739425659 -0.1986182779 5.962428276e-39
-0.2938484848 -0.3806602955 -0.2075266689 5.962428276e-39
-0.009554957971 -0.2917174697 -0.1900737435 5.962428276e-39
-0.06455562264 -0.1605777889 -0.1864935905 5.962428276e-39
0.1731152683 -0.1811995506 -0.1974399686 5.962428276e-39
-0.03938641399 -0.3512810767 -0.19059591 5.962428276e-39
-0.04102271795 -0.2847925425 -0.1864850223 5.962428276e-39
0.1220247522 -0.1764542162 -0.1921264529 5.962428276e-39
-0.01359465905 -0.2601492405 -0.1873113066 5.962428276e-39
-0.1187099218 -0.09616351873 -0.1755404472 5.962428276e-39
-0.0246441979 -0.2395991087 -0.1887429953 5.962428276e-39
0.07782695442 -0.1007230803 -0.1840293556 5.962428276e-39
-0.01346660219 -0.3158633411 -0.1908320487 5.962428276e-39
-0.1400722861 -0.1668403447 -0.1823904961 5.962428276e-39
0.08659910411 -0.2633627951 -0.1957736462 5.962428276e-39
-0.02410847135 -0.3050259054 -0.1894050688 5.962428276e-39
-0.3065211475 -0.3241501749 -0.2725286484 5.962428276e-39
-0.3006578982 -0.376857698 -0.2220612913 5.962428276e-39
0.03098103777 -0.2890171707 -0.1915605813 5.962428276e-39
-0.3062441647 -0.2126016319 -0.2697115839 5.962428276e-39
0.07908026874 -0.2250088453 -0.1921020597 5.962428276e-39
0.03332879767 -0.1897623986 -0.1892466247 5.962428276e-39
0.1134033948 -0.3061294258 -0.1947356313 5.962428276e-39
-0.1117050648 -0.1518060565 -0.1822100729 5.962428276e-39
0.165130645 -0.1591003835 -0.1941451281 5.962428276e-39
-0.2424527258 -0.3243207633 -0.1974175125 5.962428276e-39
-0.003277054057 -0.3178640902 -0.1916146576 5.962428276e-39
-0.1635417342 -0.2351509333 -0.1853084117 5.962428276e-39
0.1986943185 -0.2789878845 -0.1938894987 5.962428276e-39
-0.1237763166 -0.3166373968 -0.1773196757 5.962428276e-39
-0.3040765524 -0.3598722816 -0.2603445947 5.962428276e-39
-0.1679918319 -0.3739469945 -0.181250602 5.962428276e-39
-0.1118387282 -0.09190054238 -0.1746788919 5.962428276e-39
-0.2383631021 -0.4155094922 -0.1877439618 5.962428276e-39
-0.1280262768 -0.2638592422 -0.1770894229 5.962428276e-39
-0.02516607381 -0.1574857235 -0.1865561455 5.962428276e-39
-0.1225296557 -0.124030225 -0.1794147342 5.962428276e-39
-0.1396482289 -0.3182402551 -0.1767963916 5.962428276e-39
0.04618076235 -0.2858603597 -0.1923072487 5.962428276e-39
-0.0765569061 -0.3038849831 -0.1835587323 5.962428276e-39
-0.2401650995 -0.3733547926 -0.1869130582 5.962428276e-39
0.1810509413 -0.2075179368 -0.1958595514 5.962428276e-39
-0.03011169098 -0.1239509806 -0.1779437214 5.962428276e-39
0.01489942707 -0.2780500948 -0.1912245452 5.962428276e-39
0.2641986609 -0.2858968079 -0.2113120407 5.962428276e-39
0.1049990058 -0.1423889995 -0.187719509 5.962428276e-39
0.07062985003 -0.3223363161 -0.1944966167 5.962428276e-39
0.07124943286 -0.2811430991 -0.195084095 5.962428276e-39
-0.1439331621 -0.1917507797 -0.1851039082 5.962428276e-39
-0.251868546 -0.146959573 -0.2660832107 5.962428276e-39
0.0607355386 -0.3488684297 -0.1952581853 5.962428276e-39
-0.2828563452 -0.3917004168 -0.1885066032 5.962428276e-39
0.2339178026 -0.3191540539 -0.196626097 5.962428276e-39
-0.1643703282 -0.4157069027 -0.1904562116 5.962428276e-39
-0.1231345832 -0.193285346 -0.1875776052 5.962428276e-39
0.007192356512 -0.2365354449 -0.1910461783 5.962428276e-39
-0.01446189545 -0.2897747457 -0.1896180362 5.962428276e-39
-0.3056662977 -0.3305967152 -0.281313628 5.962428276e-39
-0.2262489349 -0.3023546338 -0.1899821907 5.962428276e-39
0.1550555825 -0.220074296 -0.1926897615 5.962428276e-39
0.1270289719 -0.1181303039 -0.1856233329 5.962428276e-39
-0.02467658557 -0.237763077 -0.189111352 5.962428276e-39
-0.2763906717 -0.2075715065 -0.2870568931 5.962428276e-39
-0.2617325187 -0.3272572756 -0.22084786 5.962428276e-39
-0.2319264263 -0.2522008419 -0.2145708501 5.962428276e-39
-0.08665864915 -0.4028672278 -0.1896205693 5.962428276e-39
-0.2915479243 -0.2512927055 -0.3004111052 5.962428276e-39
0.01258480642 -0.3368893266 -0.1945405006 5.962428276e-39
0.1814602166 -0.1874400675 -0.1991066039 5.962428276e-39
-0.2689602077 -0.2093455493 -0.2757312655 5.962428276e-39
-0.02389889397 -0.1319521517 -0.1798983961 5.962428276e-39
-0.1836515218 -0.1952926219 -0.1878889501 5.962428276e-39
0.124811545 -0.1686678529 -0.1913544834 5.962428276e-39
-0.2390828282 -0.21793136 -0.231351167 5.962428276e-39
-0.242814377 -0.2930053771 -0.21409899 5.962428276e-39
-0.2741014361 -0.3221854866 -0.2447968274 5.962428276e-39
0.1032043844 -0.2366117239 -0.1930985153 5.962428276e-39
0.1056019664 -0.2571150064 -0.1947327256 5.962428276e-39
0.1215333045 -0.1372143626 -0.1877537966 5.962428276e-39
-0.3051430285 -0.3226287067 -0.2798348367 5.962428276e-39
-0.1908084452 -0.4173668027 -0.1863046587 5.962428276e-39
0.1342095733 -0.1146036685 -0.1854218096 5.962428276e-39
-0.1818561703 -0.3065614402 -0.1808543652 5.962428276e-39
-0.3048844934 -0.3264013231 -0.2767209709 5.962428276e-39
-0.2988021672 -0.3782865107 -0.2304732502 5.962428276e-39
-0.2401983887 -0.3428002 -0.196095556 5.962428276e-39
0.02987635322 -0.2704149485 -0.1921049654 5.962428276e-39
-0.1226231456 -0.2964307964 -0.1755821407 5.962428276e-39
-0.1987804174 -0.1390228868 -0.2043792456 5.962428276e-39
-0.2556750178 -0.1377123445 -0.2799394727 5.962428276e-39
0.1228000894 -0.3014968634 -0.1943601519 5.962428276e-39
-0.2973933518 -0.23505871 -0.3002066016 5.962428276e-39
-0.06621871144 -0.3639055789 -0.1893375665 5.962428276e-39
-0.2926261425 -0.3797541559 -0.2300330102 5.962428276e-39
-0.2527109683 -0.3937117457 -0.181531474 5.962428276e-39
-0.3028458655 -0.3434937298 -0.2688574195 5.962428276e-39
-0.09650158882 -0.3528195918 -0.1859031022 5.962428276e-39
-0.2419753522 -0.3725622296 -0.1873777062 5.962428276e-39
0.1319377124 -0.3232322335 -0.1936658621 5.962428276e-39
0.2164276093 -0.3013492823 -0.1962992996 5.962428276e-39
0.1342480481 -0.2076787651 -0.192474097 5.962428276e-39
-0.1642357558 -0.3067312539 -0.1774752289 5.962428276e-39
-0.2306743115 -0.3085272312 -0.1915133893 5.962428276e-39
-0.2816618979 -0.1697687656 -0.3012562394 5.962428276e-39
0.2206353992 -0.3192673922 -0.194833383 5.962428276e-39
-0.05836683512 -0.1237375066 -0.1782415211 5.962428276e-39
-0.2594731152 -0.1680731177 -0.2722213864 5.962428276e-39
0.001624342054 -0.370713681 -0.1949388832 5.962428276e-39
-0.2052530646 -0.3322043419 -0.1853932589 5.962428276e-39
-0.1851972044 -0.2267860621 -0.1880144775 5.962428276e-39
0.007569413632 -0.2768982649 -0.1907669753 5.962428276e-39
-0.2275046855 -0.4195854664 -0.1842052788 5.962428276e-39
0.06795649976 -0.09615427256 -0.1842100173 5.962428276e-39
-0.01066414081 -0.1377763897 -0.1814132929 5.962428276e-39
-0.189986214 -0.1720105261 -0.1959184855 5.962428276e-39
-0.2902245522 -0.2074002326 -0.2977536917 5.962428276e-39
0.2589415908 -0.2816836834 -0.2079006135 5.962428276e-39
0.1125525534 -0.2617628872 -0.1944669634 5.962428276e-39
-0.3051484525 -0.3208061755 -0.286849618 5.962428276e-39
-0.2228315622 -0.2732038796 -0.2022991925 5.962428276e-39
-0.2963603139 -0.2093742192 -0.3005443811 5.962428276e-39
-0.1472316384 -0.2830347121 -0.1757414788 5.962428276e-39
0.1633968055 -0.2169379294 -0.1936283857 5.962428276e-39
-0.09973481297 -0.2696368694 -0.1782424301 5.962428276e-39
0.1627237648 -0.1285360456 -0.1910925061 5.962428276e-39
-0.2119879127 -0.4156931639 -0.188744396 5.962428276e-39
-0.2556010485 -0.1829180121 -0.2611728013 5.962428276e-39
-0.2836847603 -0.1645338684 -0.3049806654 5.962428276e-39
-0.1103470773 -0.3321316838 -0.1811974943 5.962428276e-39
-0.02702056803 -0.1978719532 -0.1884174347 5.962428276e-39
-0.1046657413 -0.2957885265 -0.1786628515 5.962428276e-39
0.2191052139 -0.2245837152 -0.2070787102 5.962428276e-39
-0.2368299514 -0.4171662033 -0.1864737123 5.962428276e-39
-0.1689707488 -0.4016030133 -0.1840625256 5.962428276e-39
-0.2436403483 -0.3405230939 -0.1975401342 5.962428276e-39
0.1445785165 -0.2283005714 -0.1917365491 5.962428276e-39
-0.2220194042 -0.4105919302 -0.1826474369 5.962428276e-39
-0.2012835592 -0.2744002044 -0.1858989447 5.962428276e-39
0.0192428045 -0.3215632141 -0.1935410202 5.962428276e-39
0.1731813401 -0.3159737587 -0.193534568 5.962428276e-39
-0.1827422082 -0.36244151 -0.1811819077 5.962428276e-39
-0.220417738 -0.3688141108 -0.1842945814 5.962428276e-39
-0.3044982851 -0.3528458476 -0.2700859904 5.962428276e-39
0.06401111931 -0.2650699615 -0.1962286234 5.962428276e-39
-0.1626722217 -0.2479342818 -0.1836036593 5.962428276e-39
0.133725822 -0.2196120322 -0.1916042119 5.962428276e-39
0.04012930766 -0.2531944513 -0.1929523945 5.962428276e-39
-0.2553141117 -0.1626295745 -0.2669763863 5.962428276e-39
-0.1152474135 -0.2913753986 -0.1765134484 5.962428276e-39
-0.2951445282 -0.379526794 -0.2261000723 5.962428276e-39
-0.2977895439 -0.3902210891 -0.1919822246 5.962428276e-39
0.00694266893 -0.2465669513 -0.1897243559 5.962428276e-39
-0.2837356031 -0.3329881728 -0.253831774 5.962428276e-39
0.06472332031 -0.1897860765 -0.1906248331 5.962428276e-39
0.2597246468 -0.2889905572 -0.2072042972 5.962428276e-39
-0.2840462625 -0.2725465 -0.2822172344 5.962428276e-39
0.09100995958 -0.2683538795 -0.1960646659 5.962428276e-39
-0.1508112699 -0.351450026 -0.1799207777 5.962428276e-39
-0.15207991 -0.138855055 -0.187760964 5.962428276e-39
0.2206645012 -0.3550959229 -0.1934386492 5.962428276e-39
-0.1776485592 -0.1104360297 -0.2003680468 5.962428276e-39
0.04219439626 -0.234641552 -0.1923003346 5.962428276e-39
0.1593658328 -0.2605576813 -0.1921235919 5.962428276e-39
0.0928952843 -0.3655531704 -0.1956068277 5.962428276e-39
-0.2253564745 -0.2400075197 -0.2104201913 5.962428276e-39
-0.1049816757 -0.2670752108 -0.1779948771 5.962428276e-39
-0.2544514239 -0.4001938105 -0.1814389527 5.962428276e-39
-0.03703772277 -0.08338295668 -0.1821757257 5.962428276e-39
0.1461756825 -0.1444244981 -0.1900502294 5.962428276e-39
-0.2988017797 -0.3783198297 -0.2283266634 5.962428276e-39
-0.2592328787 -0.1818249822 -0.2681624591 5.962428276e-39
-0.243554309 -0.3907249272 -0.1815956533 5.962428276e-39
0.06910333037 -0.3573236763 -0.1952866763 5.962428276e-39
0.01471613534 -0.2864899337 -0.1914463639 5.962428276e-39
-0.09748966992 -0.1437978745 -0.1813000143 5.962428276e-39
-0.03773091733 -0.1831505597 -0.189671278 5.962428276e-39
0.2656756938 -0.327701807 -0.2042289823 5.962428276e-39
-0.09077833593 -0.1894533038 -0.1908290088 5.962428276e-39
0.05585608631 -0.2254661173 -0.1917043924 5.962428276e-39
0.1163696274 -0.1404395252 -0.1884126067 5.962428276e-39
-0.1035775989 -0.1213922873 -0.1798416376 5.962428276e-39
-0.1259226948 -0.3045485914 -0.175830543 5.962428276e-39
-0.2709951401 -0.3765040636 -0.1973987669 5.962428276e-39
-0.006971148774 -0.3398391902 -0.1930422187 5.962428276e-39
-0.1965892613 -0.163797155 -0.1999085695 5.962428276e-39
-0.1125553697 -0.3915244937 -0.1872645766 5.962428276e-39
-0.1315325499 -0.3355443478 -0.1792224646 5.962428276e-39
-0.02912620269 -0.2942114174 -0.188273102 5.962428276e-39
-0.1934133917 -0.4001773298 -0.1810266078 5.962428276e-39
-0.1002713293 -0.08848505467 -0.1730330437 5.962428276e-39
0.03898621351 -0.2272208631 -0.191478312 5.962428276e-39
-0.1303142905 -0.1531013399 -0.1817879826 5.962428276e-39
-0.2803829312 -0.3141884208 -0.2575520873 5.962428276e-39
-0.1208433807 -0.1431129724 -0.1810036749 5.962428276e-39
-0.2570321262 -0.2717574239 -0.2431397736 5.962428276e-39
-0.2013239264 -0.3913538158 -0.1816196442 5.962428276e-39
0.09058961272 -0.22577703 -0.1921853423 5.962428276e-39
0.02382404171 -0.1283158809 -0.180038631 5.962428276e-39
-0.2240599394 -0.3140673637 -0.1884161383 5.962428276e-39
-0.3060720563 -0.3412284553 -0.2673024833 5.962428276e-39
-0.1461112052 -0.3225894868 -0.1772312969 5.962428276e-39
0.1588321924 -0.253808409 -0.1920416951 5.962428276e-39
-0.08950608224 -0.2620671093 -0.1801487058 5.962428276e-39
-0.147176221 -0.3992523551 -0.1853165478 5.962428276e-39
-0.1431934386 -0.2511691749 -0.1823274046 5.962428276e-39
0.04545793682 -0.2502118647 -0.193720758 5.962428276e-39
0.2043384463 -0.3209084272 -0.1936036795 5.962428276e-39
-0.2720797658 -0.3763912618 -0.1994328052 5.962428276e-39
-0.2742958665 -0.2206658721 -0.2799015045 5.962428276e-39
-0.06598285586 -0.1810994148 -0.1918382049 5.962428276e-39
-0.2221947014 -0.32994017 -0.1893915832 5.962428276e-39
-0.2691507339 -0.374578476 -0.1987031996 5.962428276e-39
0.03989644349 -0.2291320115 -0.2015929967 1.184631237e-38
0.1165644005 -0.2356781512 -0.1964089423 1.184631237e-38
-0.01985152997 -0.0973707661 -0.1942354888 1.184631237e-38
-0.05966545641 -0.1954140663 -0.1955373436 1.184631237e-38
-0.04501287639 -0.1732010841 -0.1967501789 1.184631237e-38
-0.08029957861 -0.1088599041 -0.1970261186 1.184631237e-38
0.2808688581 -0.2579207122 -0.2138626277 1.184631237e-38
0.1361741275 -0.2630729973 -0.196546182 1.184631237e-38
-0.1640639007 -0.2306266427 -0.18486242 1.184631237e-38
-0.2297065109 -0.1795520782 -0.214262709 1.184631237e-38
-0.2048444152 -0.26703462 -0.185367465 1.184631237e-38
-0.2633934319 -0.17317307 -0.2491597682 1.184631237e-38
-0.1842795312 -0.1752770245 -0.1965127289 1.184631237e-38
-0.2653714716 -0.2948810756 -0.2270300835 1.184631237e-38
-0.2905887365 -0.3445109129 -0.2425617278 1.184631237e-38
0.1524962634 -0.2573834956 -0.1932302862 1.184631237e-38
-0.2656396627 -0.2780776024 -0.233634457 1.184631237e-38
-0.2021645457 -0.09675858915 -0.2031805813 1.184631237e-38
-0.2852755487 -0.112124294 -0.2833441496 1.184631237e-38
0.212842375 -0.2095592916 -0.194060564 1.184631237e-38
-0.2693150043 -0.08952327073 -0.2468603849 1.184631237e-38
-0.2794051468 -0.09723613411 -0.2699659765 1.184631237e-38
0.2912708223 -0.2981353998 -0.2186669409 1.184631237e-38
-0.1983044893 -0.22264193 -0.1873193532 1.184631237e-38
0.005669943988 -0.1328699887 -0.1970934868 1.184631237e-38
0.1972129494 -0.2254596353 -0.1900719702 1.184631237e-38
-0.2917568982 -0.3447063267 -0.2227517664 1.184631237e-38
-0.2849619687 -0.375808388 -0.1864165664 1.184631237e-38
-0.2826426923 -0.3735496998 -0.1903383732 1.184631237e-38
0.2659514844 -0.3138195574 -0.1979421079 1.184631237e-38
-0.2112798393 -0.2879004776 -0.1858024001 1.184631237e-38
-0.04589485377 -0.04471226782 -0.2024133652 1.184631237e-38
-0.2569626868 -0.1428573132 -0.2344852388 1.184631237e-38
-0.02763224579 -0.214746207 -0.1964335144 1.184631237e-38
0.02237358689 -0.2489186227 -0.2004211694 1.184631237e-38
0.06390927732 -0.1486324817 -0.1957311034 1.184631237e-38
-0.01008003391 -0.124456428 -0.1966102123 1.184631237e-38
0.1955873668 -0.3147908449 -0.1920015514 1.184631237e-38
-0.2299444228 -0.3272983134 -0.1828661561 1.184631237e-38
-0.3029763401 -0.2677055895 -0.3067311347 1.184631237e-38
0.07058615237 -0.1881655157 -0.1955431402 1.184631237e-38
-0.3051531911 -0.2976512313 -0.3051087558 1.184631237e-38
-0.05968263 -0.1554257572 -0.195867002 1.184631237e-38
0.05866938084 -0.04924238473 -0.1932420135 1.184631237e-38
0.2115549296 -0.1299212277 -0.203846395 1.184631237e-38
-0.2900889516 -0.3430121839 -0.2433190942 1.184631237e-38
-0.05838286877 -0.2342191488 -0.1919858307 1.184631237e-38
-0.1919305623 -0.09573696554 -0.2006643862 1.184631237e-38
0.204068929 -0.1353486329 -0.2030019015 1.184631237e-38
-0.09162306041 -0.2975693047 -0.1868023425 1.184631237e-38
-0.1016208529 -0.2298762202 -0.1889133304 1.184631237e-38
0.1194207445 -0.1095452532 -0.20324485 1.184631237e-38
-0.06177576631 -0.1985019445 -0.1950795949 1.184631237e-38
-0.2476442009 -0.02192313969 -0.2440151423 1.184631237e-38
-0.08292602748 -0.172949791 -0.1938039362 1.184631237e-38
-0.02866785787 -0.0301906392 -0.1953090131 1.184631237e-38
-0.06457099319 -0.2604021728 -0.1895795465 1.184631237e-38
-0.2529224455 -0.1071741208 -0.2296768278 1.184631237e-38
0.09859858453 -0.2113528997 -0.1957134902 1.184631237e-38
-0.08216716349 -0.2494304776 -0.1895289719 1.184631237e-38
-0.3042536676 -0.2439660728 -0.2905950546 1.184631237e-38
-0.2913880646 -0.3331573904 -0.2509834468 1.184631237e-38
0.006211852655 -0.2335859388 -0.1997280121 1.184631237e-38
-0.3102973104 -0.1212072223 -0.2943189442 1.184631237e-38
0.08003284037 -0.1622437537 -0.1937580556 1.184631237e-38
-0.03424804658 -0.1134067327 -0.1962510943 1.184631237e-38
0.1250042319 -0.2557254136 -0.1970615983 1.184631237e-38
-0.2366880327 -0.09126354754 -0.2188149989 1.184631237e-38
0.1850167662 -0.1077344567 -0.2017294019 1.184631237e-38
-0.2883099318 -0.3000266552 -0.2665764093 1.184631237e-38
-0.05149913579 -0.2608195245 -0.1903752089 1.184631237e-38
-0.2484318465 -0.1947063506 -0.2296868414 1.184631237e-38
0.2409269214 -0.2447880805 -0.1964647472 1.184631237e-38
-0.1857380271 -0.2692223787 -0.1853994429 1.184631237e-38
-0.2987442613 -0.2976493537 -0.2814632058 1.184631237e-38
-0.2145816982 -0.3216372132 -0.1821725667 1.184631237e-38
-0.2420673817 -0.01664622128 -0.2404655963 1.184631237e-38
-0.274258405 -0.3993005455 -0.1832702458 1.184631237e-38
-0.2037146986 -0.2186177373 -0.1915627718 1.184631237e-38
-0.1456698179 -0.08712041378 -0.1990427375 1.184631237e-38
-0.2535109818 -0.05559694394 -0.2338516712 1.184631237e-38
-0.2096548826 -0.27531901 -0.1857944876 1.184631237e-38
0.02930587344 -0.2341806293 -0.2017110735 1.184631237e-38
-0.1361602843 -0.2514973879 -0.1853952408 1.184631237e-38
-0.2745192647 -0.3373371363 -0.2077134103 1.184631237e-38
0.2150685191 -0.1662610322 -0.2024227977 1.184631237e-38
-0.1800215542 -0.050753057 -0.1921936721 1.184631237e-38
-0.01263836212 -0.219650805 -0.1980285645 1.184631237e-38
0.2907077968 -0.2711443305 -0.2202278078 1.184631237e-38
0.06498337537 -0.07017008215 -0.1998864412 1.184631237e-38
0.05553920567 -0.2767959535 -0.199925825 1.184631237e-38
0.06726774573 -0.2312087566 -0.2002767175 1.184631237e-38
-0.2498665303 -0.1393549144 -0.2236006111 1.184631237e-38
-0.2978788018 -0.04594945908 -0.353479892 1.184631237e-38
0.04132512957 -0.3025312722 -0.2002437711 1.184631237e-38
-0.2851146758 -0.3551925719 -0.2117708474 1.184631237e-38
0.2646175921 -0.2935684323 -0.1999489963 1.184631237e-38
-0.2031772435 -0.3885399699 -0.1863368601 1.184631237e-38
-0.2351812869 -0.1397358626 -0.2110352814 1.184631237e-38
-0.03228712827 -0.1668722928 -0.1965977848 1.184631237e-38
-0.06616841257 -0.2322826236 -0.1915240735 1.184631237e-38
-0.3054538965 -0.2524514496 -0.3137015998 1.184631237e-38
-0.2803450823 -0.2699446976 -0.2618026733 1.184631237e-38
0.1895665377 -0.1750812531 -0.1958327591 1.184631237e-38
0.08102036268 -0.05628737435 -0.1940017939 1.184631237e-38
-0.08477558196 -0.1705256253 -0.1939040124 1.184631237e-38
-0.3017969429 -0.1231676117 -0.3487671316 1.184631237e-38
-0.3011748493 -0.2986764312 -0.290558815 1.184631237e-38
-0.2916435003 -0.1917923987 -0.2931480706 1.184631237e-38
-0.1338354945 -0.3581201434 -0.1862807423 1.184631237e-38
-0.3117973804 -0.1587962508 -0.3431067765 1.184631237e-38
-0.0235017594 -0.2806857228 -0.1928132921 1.184631237e-38
0.2153908759 -0.1444802731 -0.2054763734 1.184631237e-38
-0.2987941802 -0.1255227029 -0.3429065943 1.184631237e-38
-0.1655439287 -0.0613024123 -0.1954863816 1.184631237e-38
-0.2702562809 -0.1362371743 -0.2575288713 1.184631237e-38
0.1157384813 -0.1013937742 -0.2029933929 1.184631237e-38
-0.2946536541 -0.1430024803 -0.3144393563 1.184631237e-38
-0.293166995 -0.2468473315 -0.2886218131 1.184631237e-38
-0.3039259911 -0.2699192464 -0.3112048507 1.184631237e-38
0.1170445308 -0.1775448769 -0.1904300302 1.184631237e-38
0.1279306263 -0.2048171908 -0.1909071058 1.184631237e-38
0.09083022922 -0.06968992949 -0.1986191571 1.184631237e-38
-0.305174917 -0.2401238382 -0.3020741343 1.184631237e-38
-0.2349626273 -0.3830714226 -0.183065176 1.184631237e-38
0.0925969705 -0.05615893751 -0.1942397803 1.184631237e-38
-0.2477310449 -0.274404496 -0.207780391 1.184631237e-38
-0.3046751916 -0.2495374382 -0.2947712839 1.184631237e-38
-0.2935863137 -0.3288345635 -0.2628407478 1.184631237e-38
-0.2817001641 -0.3093379736 -0.2427126616 1.184631237e-38
0.01006724779 -0.2134447098 -0.20046404 1.184631237e-38
-0.1940044612 -0.2565232217 -0.1852054149 1.184631237e-38
-0.2875287533 -0.06050103903 -0.2975779772 1.184631237e-38
-0.2980858386 -0.03616419435 -0.3602920473 1.184631237e-38
0.141851753 -0.2523112297 -0.1942976117 1.184631237e-38
-0.3143413067 -0.1401256621 -0.3427197635 1.184631237e-38
-0.117291376 -0.3122009635 -0.1841935813 1.184631237e-38
-0.2955129147 -0.3290975392 -0.2711685896 1.184631237e-38
-0.2751711309 -0.359010458 -0.1945553869 1.184631237e-38
-0.3055295944 -0.2803298533 -0.3101267815 1.184631237e-38
-0.1464039087 -0.3001882136 -0.1810611784 1.184631237e-38
-0.2755795419 -0.3371533155 -0.210553661 1.184631237e-38
0.1461259723 -0.2784459293 -0.1956791431 1.184631237e-38
0.2548520565 -0.2643371224 -0.1989317536 1.184631237e-38
0.1635080874 -0.1571037024 -0.1950447559 1.184631237e-38
-0.2313891202 -0.2705113888 -0.1927801073 1.184631237e-38
-0.283985585 -0.2787283361 -0.2658802867 1.184631237e-38
-0.3039066195 -0.07516041398 -0.3690606356 1.184631237e-38
0.255625248 -0.2877491713 -0.1969198138 1.184631237e-38
-0.2093547285 -0.05040269345 -0.1962796003 1.184631237e-38
-0.2980085909 -0.06760139763 -0.3533429205 1.184631237e-38
-0.03952283412 -0.3274276257 -0.1926454753 1.184631237e-38
-0.2626155913 -0.2985215485 -0.2179982513 1.184631237e-38
-0.267154932 -0.1795578152 -0.2570596933 1.184631237e-38
-0.02480807342 -0.2178406417 -0.1964129359 1.184631237e-38
-0.2712096274 -0.3898333013 -0.1818346083 1.184631237e-38
-0.03251178563 -0.04519560933 -0.1988068819 1.184631237e-38
-0.1446600258 -0.06576490402 -0.1962714344 1.184631237e-38
-0.2792160213 -0.1021197289 -0.2695714235 1.184631237e-38
-0.3105900884 -0.1186736375 -0.3515278399 1.184631237e-38
0.2877790332 -0.2634786963 -0.2178290188 1.184631237e-38
0.1375169009 -0.2128626406 -0.190598622 1.184631237e-38
-0.3050617278 -0.2315146625 -0.3216150105 1.184631237e-38
-0.2821570635 -0.2258137167 -0.2731147707 1.184631237e-38
-0.3149835169 -0.1169564873 -0.3470433354 1.184631237e-38
-0.217257455 -0.2442021966 -0.1918528974 1.184631237e-38
0.1983414143 -0.1737232506 -0.197829321 1.184631237e-38
-0.1705162525 -0.2235332429 -0.1848603487 1.184631237e-38
0.162231043 -0.07630635798 -0.1989991218 1.184631237e-38
-0.2524310946 -0.3972076774 -0.1843011081 1.184631237e-38
-0.2981541157 -0.08820243925 -0.3450622857 1.184631237e-38
-0.3055556715 -0.06973823905 -0.3721829355 1.184631237e-38
-0.1669306904 -0.2829501331 -0.1835670322 1.184631237e-38
-0.1113519222 -0.1306304038 -0.1956465244 1.184631237e-38
-0.1701754034 -0.2522721887 -0.1852024347 1.184631237e-38
0.2520446777 -0.1864905953 -0.2108934671 1.184631237e-38
-0.2746065557 -0.3961357772 -0.1827301681 1.184631237e-38
-0.2177242637 -0.3587454259 -0.1815550327 1.184631237e-38
-0.2851701081 -0.3095264435 -0.2486891598 1.184631237e-38
0.1763859689 -0.1788874269 -0.1914509535 1.184631237e-38
-0.2666829526 -0.3765383363 -0.1818168759 1.184631237e-38
-0.2665479779 -0.2349976301 -0.2508847415 1.184631237e-38
-0.01339686103 -0.267097652 -0.1941706985 1.184631237e-38
0.2104967684 -0.275298208 -0.1889868975 1.184631237e-38
-0.2345176786 -0.3129632771 -0.1863187551 1.184631237e-38
-0.2640246153 -0.3287135959 -0.1973275244 1.184631237e-38
-0.3023372591 -0.2861438394 -0.2958942652 1.184631237e-38
0.06182096153 -0.2126601934 -0.1993163675 1.184631237e-38
-0.2437057346 -0.2101601362 -0.2257489711 1.184631237e-38
0.1634269953 -0.1701858938 -0.1904511899 1.184631237e-38
0.01886542141 -0.1950825751 -0.2005041391 1.184631237e-38
-0.2978657484 -0.06116854027 -0.3519375026 1.184631237e-38
-0.1856367886 -0.2516291738 -0.1851933002 1.184631237e-38
-0.2938683927 -0.331415236 -0.2647343576 1.184631237e-38
-0.289840579 -0.3547826111 -0.205081895 1.184631237e-38
-0.02696864866 -0.182545647 -0.198252812 1.184631237e-38
-0.3054903746 -0.2828399241 -0.31405738 1.184631237e-38
0.01786831766 -0.1172416881 -0.1970593482 1.184631237e-38
0.2877526581 -0.2718662918 -0.2171654254 1.184631237e-38
-0.3021872938 -0.186003238 -0.3380154371 1.184631237e-38
0.1054722592 -0.2193598747 -0.1958699375 1.184631237e-38
-0.2033109069 -0.3000998497 -0.1827096641 1.184631237e-38
-0.2689410746 -0.07029601932 -0.2453863919 1.184631237e-38
0.248319 -0.3306221366 -0.1865238249 1.184631237e-38
-0.2848128676 -0.0238725096 -0.3028005958 1.184631237e-38
0.01244295295 -0.1699458361 -0.1985565722 1.184631237e-38
0.1976868212 -0.2143150866 -0.1911018938 1.184631237e-38
0.07990378141 -0.3241185248 -0.2021340281 1.184631237e-38
-0.289198786 -0.1800055802 -0.2908300459 1.184631237e-38
-0.1773886085 -0.2204780579 -0.1849226356 1.184631237e-38
-0.2752702832 -0.3665300012 -0.1906563938 1.184631237e-38
-0.1875081211 -0.02661529928 -0.2036910951 1.184631237e-38
0.1462185234 -0.08460883796 -0.199330464 1.184631237e-38
-0.2931678593 -0.3303220272 -0.2610122859 1.184631237e-38
-0.2981882393 -0.08651015162 -0.3481838405 1.184631237e-38
-0.2722646296 -0.3535491228 -0.1931631118 1.184631237e-38
0.04928682372 -0.3123931587 -0.2011439651 1.184631237e-38
-0.01569777168 -0.2276485264 -0.1968404055 1.184631237e-38
-0.229188785 -0.08282024413 -0.212491259 1.184631237e-38
-0.1355795562 -0.115829058 -0.1968137622 1.184631237e-38
0.2890047431 -0.3239878118 -0.2116941214 1.184631237e-38
-0.1994375587 -0.1290559173 -0.1994336993 1.184631237e-38
0.03155423701 -0.1597179472 -0.196928978 1.184631237e-38
0.0836956948 -0.07133600861 -0.1992690563 1.184631237e-38
-0.2407972068 -0.05124092102 -0.2238634825 1.184631237e-38
-0.1957654059 -0.2623158097 -0.1853330135 1.184631237e-38
-0.2885849774 -0.3400967121 -0.2397793382 1.184631237e-38
-0.05595033616 -0.2840732932 -0.1902328283 1.184631237e-38
-0.2836285532 -0.09235682338 -0.277748853 1.184631237e-38
-0.160071075 -0.3398388624 -0.1835008264 1.184631237e-38
-0.189592585 -0.2857444286 -0.1835975796 1.184631237e-38
-0.09009613097 -0.2384689599 -0.1895027608 1.184631237e-38
-0.2415580302 -0.3557851911 -0.1814254522 1.184631237e-38
-0.2343388051 -0.009542234242 -0.2423171401 1.184631237e-38
-0.0008507873863 -0.159590587 -0.1986511648 1.184631237e-38
-0.2506199777 -0.09030339122 -0.2288431227 1.184631237e-38
