# .PCD v0.7 - Point Cloud Data file format
VERSION 0.7
FIELDS x y z rgb
SIZE 4 4 4 4
TYPE F F F F
COUNT 1 1 1 1
WIDTH 830
HEIGHT 1
VIEWPOINT 0 0 0 1 0 0 0
POINTS 830
DATA ascii
-0.3234009147 0.03547661006 -0.195376873 1.771655483e-38
-0.2705497146 -0.3725202084 -0.2444934696 1.771655483e-38
-0.06845443696 -0.4599626064 0.04477237538 1.771655483e-38
0.1824530065 -0.4363212585 -0.2032749057 1.771655483e-38
-0.339145422 -0.07997471094 -0.2010775208 1.771655483e-38
-0.363900125 0.05396647751 -0.198696956 1.771655483e-38
0.1892815232 -0.3675421476 -0.2266307026 1.771655483e-38
-0.325060308 -0.07054390013 -0.1980109662 1.771655483e-38
-0.07127901167 -0.2214835733 -0.2307634354 1.771655483e-38
-0.1963895112 -0.4147561789 0.08100000024 1.771655483e-38
0.04099114239 -0.4507680237 0.1313712448 1.771655483e-38
0.1851628721 -0.41512537 -0.2141127884 1.771655483e-38
0.2517992854 -0.2129103094 -0.2147082239 1.771655483e-38
-0.1654254794 -0.3186023235 -0.2365082204 1.771655483e-38
0.1700965613 -0.4032141566 -0.2258263379 1.771655483e-38
0.1280798018 -0.4139780402 -0.2407451272 1.771655483e-38
0.1249974668 -0.3624094129 -0.2403233945 1.771655483e-38
-0.03928719461 -0.2306830734 -0.08577127755 1.771655483e-38
0.1709563285 -0.4767327905 -0.1085306928 1.771655483e-38
0.2339942902 -0.450999558 0.09162668884 1.771655483e-38
0.2773129344 -0.3856073022 -0.0780871734 1.771655483e-38
-0.1312416643 -0.4654922485 -0.1341353357 1.771655483e-38
0.1766567379 -0.2333527952 -0.2274885327 1.771655483e-38
0.1565205306 -0.3920398951 0.2800506651 1.771655483e-38
-0.06596405059 -0.1882718354 -0.1248810738 1.771655483e-38
-0.3461834192 -0.4641484618 -0.2218945473 1.771655483e-38
0.1938708574 -0.4074052274 0.2582741678 1.771655483e-38
-0.2747900486 -0.4025101662 -0.2401694804 1.771655483e-38
-0.3280620575 -0.4465423226 0.02172477916 1.771655483e-38
0.05823604017 -0.2527689934 -0.2370835245 1.771655483e-38
0.2074127942 -0.295670718 0.1544705629 1.771655483e-38
0.2073424906 -0.4659054875 -0.1650062799 1.771655483e-38
-0.05618587881 -0.1954309344 -0.2303556055 1.771655483e-38
-0.2238034457 0.001546218991 -0.1961553991 1.771655483e-38
-0.07865734398 -0.4597731829 0.03838859126 1.771655483e-38
-0.1593676805 -0.1814834028 -0.222986117 1.771655483e-38
0.2028750926 -0.4187901914 -0.2008649558 1.771655483e-38
-0.2259830683 -0.3865245581 -0.04779680073 1.771655483e-38
-0.2543959618 -0.4674549103 -0.1649047583 1.771655483e-38
-0.02893123031 -0.4526697993 0.1082148403 1.771655483e-38
0.01297335699 -0.4097778499 0.2474656999 1.771655483e-38
-0.2664853334 -0.3883937001 -0.2430212796 1.771655483e-38
0.1331273019 -0.4620754719 0.09734757245 1.771655483e-38
-0.1753593832 -0.4707012773 -0.199604854 1.771655483e-38
0.2034958005 -0.2558196783 -0.2288541347 1.771655483e-38
-0.3238441348 0.08133240044 -0.1969406456 1.771655483e-38
-0.3164856434 -0.4663777947 -0.2236482948 1.771655483e-38
-0.3748346567 -0.3196564913 -0.2075839937 1.771655483e-38
-0.3645342588 -0.4599818289 -0.2172379345 1.771655483e-38
-0.1258770823 -0.4478459954 -0.2386912853 1.771655483e-38
0.2076100558 -0.4775938988 -0.145285219 1.771655483e-38
0.1049652994 -0.4728503227 -0.08656151593 1.771655483e-38
-0.01080707833 -0.1887983084 -0.2319168299 1.771655483e-38
0.2124062479 -0.4684452415 -0.03416604549 1.771655483e-38
0.01601296291 -0.4806556702 -0.2264380455 1.771655483e-38
0.2010523677 -0.4184802175 0.2310186327 1.771655483e-38
-0.08910820633 -0.3566400707 -0.2350568771 1.771655483e-38
-0.3742505908 -0.3208453059 -0.2069710344 1.771655483e-38
-0.06646800041 -0.1924333423 -0.2298461795 1.771655483e-38
-0.05333524197 -0.190153569 -0.2300922722 1.771655483e-38
0.08073207736 -0.2650117278 -0.2364891022 1.771655483e-38
0.1121748909 -0.1027921513 -0.07042125612 1.771655483e-38
-0.2006378621 -0.4647210538 -0.1221265644 1.771655483e-38
0.2243777066 -0.4367526174 0.1578605473 1.771655483e-38
-0.3842353225 -0.4408093691 -0.1723692715 1.771655483e-38
-0.2950828671 0.07828418911 -0.1953058094 1.771655483e-38
0.2506124973 -0.4317028522 0.0313664116 1.771655483e-38
-0.2906290293 -0.2832270563 -0.1651477218 1.771655483e-38
0.03936319053 -0.4806246758 -0.2225196958 1.771655483e-38
-0.0931404233 -0.4060864151 0.1579550058 1.771655483e-38
0.01653448492 -0.377237618 -0.2480599582 1.771655483e-38
-0.3077523708 -0.4534856081 -0.2322157323 1.771655483e-38
0.2706926763 -0.3718935251 0.0005287639797 1.771655483e-38
0.02450772747 -0.4093509912 -0.2494426519 1.771655483e-38
-0.2925236821 -0.05300778151 -0.2000855803 2.06466517e-38
0.2757079601 -0.281440556 -0.2054406404 2.06466517e-38
0.07945485413 -0.4777163863 -0.1941945255 2.06466517e-38
-0.3716412187 0.06998537481 -0.1942125559 2.06466517e-38
0.05498038977 -0.3648146093 -0.2429656237 2.06466517e-38
0.2603528798 -0.4008058906 -0.2003450543 2.06466517e-38
-0.1745054126 -0.2833956182 -0.2217192352 2.06466517e-38
-0.4180464745 -0.3988556862 -0.2125496566 2.06466517e-38
-0.2243648916 -0.227153033 -0.22307612 2.06466517e-38
0.1764167696 -0.4768236279 -0.2037897408 2.06466517e-38
-0.2746574283 -0.2551209927 -0.2273142934 2.06466517e-38
-0.41418612 -0.4025223255 -0.2100375891 2.06466517e-38
-0.2330579013 -0.4016700983 -0.2303556502 2.06466517e-38
-0.1558271497 -0.2307130545 -0.1547017992 2.06466517e-38
-0.197412461 -0.2619325519 -0.2228910923 2.06466517e-38
0.1012478396 -0.4140015841 0.258572638 2.06466517e-38
0.0709296912 -0.2681264281 -0.2345778048 2.06466517e-38
0.1275872439 -0.4758812785 -0.2009971142 2.06466517e-38
0.06275726855 -0.4655279219 0.04407623038 2.06466517e-38
0.2071599215 -0.4607656002 0.1111159027 2.06466517e-38
0.03072132543 -0.06113904715 -0.1696439385 2.06466517e-38
-0.04831368476 -0.2651823163 -0.2271969169 2.06466517e-38
0.1920428723 -0.2853153348 -0.2350411117 2.06466517e-38
0.1206269711 -0.3062807918 -0.2368363142 2.06466517e-38
-0.002424098551 -0.2653473318 -0.2325154841 2.06466517e-38
-0.07693742216 -0.4624193609 -0.03330015391 2.06466517e-38
0.04731491953 -0.4740214944 -0.1338082254 2.06466517e-38
-0.4285019636 -0.07139185071 -0.2082708329 2.06466517e-38
0.225595057 -0.4567960799 0.1254589111 2.06466517e-38
-0.3580810428 0.02087594569 -0.1952692419 2.06466517e-38
-0.06430731714 0.02464051545 -0.2054662704 2.06466517e-38
-0.2187506407 -0.4665525556 -0.2164581418 2.06466517e-38
-0.1874809712 -0.4686073065 -0.1774689406 2.06466517e-38
0.07287633419 -0.4718420506 -0.09551392496 2.06466517e-38
-0.3547443748 -0.2850598693 -0.19154948 2.06466517e-38
-0.2449848503 0.07773838937 -0.2000797093 2.06466517e-38
-0.4256336093 -0.1384736896 -0.2106373608 2.06466517e-38
-0.1263089478 -0.178142637 -0.2133615762 2.06466517e-38
0.2707151771 -0.4624451697 -0.04128229618 2.06466517e-38
-0.06523468345 -0.1996921897 -0.1497927159 2.06466517e-38
-0.1029791087 -0.3823621273 0.004055596888 2.06466517e-38
0.2764775157 -0.4504467249 -0.0485650152 2.06466517e-38
-0.1674434841 -0.4621747434 -0.1127473339 2.06466517e-38
-0.3311120272 0.06553475559 -0.1953551769 2.06466517e-38
0.2482693195 -0.2718666792 -0.2252784222 2.06466517e-38
-0.255869925 -0.007322087884 -0.202244848 2.06466517e-38
-0.02593915164 -0.4641278386 -0.02903347835 2.06466517e-38
-0.4012688398 -0.4411923289 -0.2203053385 2.06466517e-38
-0.4547952414 0.02157725394 -0.208814621 2.06466517e-38
0.1804443151 -0.1253682077 -0.05967574939 2.06466517e-38
0.02994416095 -0.4562400579 0.1055381149 2.06466517e-38
0.23415564 -0.476952374 -0.1385289729 2.06466517e-38
0.2800762057 -0.330437392 -0.1884049028 2.06466517e-38
-0.392873168 -0.4432364106 -0.1402311921 2.06466517e-38
-0.3985325098 0.06408016384 -0.1969987005 2.06466517e-38
-0.3553107381 -0.3690035939 -0.2266823947 2.06466517e-38
-0.1752105802 -0.4581596553 0.03092077747 2.06466517e-38
0.1380871385 -0.4715749025 -0.2308109552 2.06466517e-38
-0.4098385572 -0.0256113112 -0.201849997 2.06466517e-38
-0.4338813424 0.07347007096 -0.1997414529 2.06466517e-38
0.1477712244 -0.3979389668 -0.2422566861 2.06466517e-38
-0.3969637752 -0.01953260601 -0.1992719471 2.06466517e-38
-0.1319476366 -0.218635425 -0.2137655467 2.06466517e-38
-0.2114100754 -0.3627701402 -0.0935491845 2.06466517e-38
-0.06074943393 -0.4502226412 0.1319668144 2.06466517e-38
0.1419231892 -0.4470859766 -0.2374509424 2.06466517e-38
0.2159901112 -0.2534794807 -0.2290528715 2.06466517e-38
-0.2276385874 -0.3020317554 -0.2285858244 2.06466517e-38
0.1236958727 -0.4349983633 -0.2430692017 2.06466517e-38
0.07163333893 -0.4435521662 -0.2487532347 2.06466517e-38
0.06560336053 -0.3897061646 -0.2453090698 2.06466517e-38
-0.1014488041 -0.1270899177 -0.1778126508 2.06466517e-38
0.113545835 -0.4730754495 -0.1145515293 2.06466517e-38
0.1826532483 -0.4600538015 0.1152420044 2.06466517e-38
0.2671141028 -0.4656036496 -0.1055871695 2.06466517e-38
-0.2352080494 -0.4664218426 -0.1543299854 2.06466517e-38
0.1394354254 -0.2720324993 -0.2344617248 2.06466517e-38
0.1468917131 -0.3939890862 0.2058833539 2.06466517e-38
-0.1294951588 -0.08934761584 -0.1914714426 2.06466517e-38
-0.4155213237 -0.4251444936 -0.2189001143 2.06466517e-38
0.1415090412 -0.4120695591 0.2716864645 2.06466517e-38
-0.3604881167 -0.4029295444 -0.2252858281 2.06466517e-38
-0.3553060293 -0.4071747065 -0.1271826923 2.06466517e-38
0.007028955966 -0.2797895968 -0.2355292439 2.06466517e-38
0.215338096 -0.2560411096 0.05475707725 2.06466517e-38
0.1583967507 -0.4771305919 -0.1860501468 2.06466517e-38
-0.1074668169 -0.1949229687 -0.2163094431 2.06466517e-38
-0.3119398952 0.03807099164 -0.1976609081 2.06466517e-38
-0.1846082807 -0.4587469101 0.02091528848 2.06466517e-38
-0.2188723534 -0.1678262353 -0.2194731236 2.06466517e-38
0.1596105844 -0.4569098949 -0.2295041531 2.06466517e-38
-0.254312098 -0.2690464556 -0.1637730896 2.06466517e-38
-0.3533678651 -0.4617864788 -0.1992027313 2.06466517e-38
-0.1500615478 -0.4504259229 0.1028968394 2.06466517e-38
-0.03719352186 -0.411019206 0.1825016886 2.06466517e-38
-0.3516724706 -0.3848264515 -0.2261109203 2.06466517e-38
0.06012048945 -0.4568063021 0.1091659963 2.06466517e-38
-0.2720527053 -0.4684444368 -0.2090791166 2.06466517e-38
0.1703484952 -0.3029486239 -0.2360815555 2.06466517e-38
-0.4040814042 0.09712229669 -0.1950169951 2.06466517e-38
-0.3952856064 -0.4446456432 -0.2210791707 2.06466517e-38
-0.4108930826 -0.1830566078 -0.2091270536 2.06466517e-38
-0.4219506979 -0.4075256586 -0.2165086269 2.06466517e-38
-0.2046183348 -0.4317675233 -0.2262072563 2.06466517e-38
0.1587678492 -0.4776375294 -0.1675772667 2.06466517e-38
0.03431505337 -0.46971035 -0.08938881755 2.06466517e-38
-0.05693584681 -0.1995747536 -0.2210214138 2.06466517e-38
0.1687435359 -0.4710360765 -0.03020227514 2.06466517e-38
-0.04446682334 -0.4784264565 -0.2241274416 2.06466517e-38
0.1424834877 -0.4217685461 0.2490255833 2.06466517e-38
-0.161457181 -0.3470263481 -0.2288497984 2.06466517e-38
-0.4100582004 -0.1832885146 -0.208652094 2.06466517e-38
-0.1226315945 -0.1914893836 -0.214177683 2.06466517e-38
-0.1031282693 -0.189866662 -0.2166261226 2.06466517e-38
0.02223700844 -0.2910421789 -0.2375528812 2.06466517e-38
0.0737965405 -0.03849130869 -0.1622152925 2.06466517e-38
-0.3077195883 -0.4642355442 -0.1553762108 2.06466517e-38
0.1598373801 -0.4446737468 0.1849312782 2.06466517e-38
-0.4054592252 -0.3324994445 -0.2050247639 2.06466517e-38
-0.38032341 0.09700171649 -0.1935456693 2.06466517e-38
0.2329117209 -0.4663053751 0.03112418577 2.06466517e-38
-0.3296884298 -0.1494395733 -0.1996063441 2.06466517e-38
-0.01490760222 -0.4790778756 -0.2219216526 2.06466517e-38
-0.09735183418 -0.3791268468 0.001498639584 2.06466517e-38
-0.03663417697 -0.3770880997 -0.2369643748 2.06466517e-38
-0.3878800869 -0.4447550774 -0.2260547876 2.06466517e-38
0.2717169523 -0.4584031105 -0.02896823734 2.06466517e-38
-0.0300469771 -0.4093619585 -0.2386093885 2.06466517e-38
-0.3163630962 -0.05410504341 -0.2035907805 2.348204041e-38
0.2830585241 -0.2864446938 -0.2090020776 2.348204041e-38
0.07909230888 -0.474881053 -0.2011428773 2.348204041e-38
-0.3958465457 0.0699223727 -0.1969382614 2.348204041e-38
0.05768769234 -0.3772904277 -0.2501596212 2.348204041e-38
0.2723605633 -0.398966074 -0.2021595985 2.348204041e-38
-0.1886042506 -0.2988323867 -0.2266386598 2.348204041e-38
-0.4316148162 -0.3897626996 -0.214692831 2.348204041e-38
-0.2398942858 -0.2417330593 -0.2249804139 2.348204041e-38
0.1835369021 -0.4730916619 -0.2076343149 2.348204041e-38
-0.2947907448 -0.2703507245 -0.2292962968 2.348204041e-38
-0.4269804358 -0.3932824135 -0.2114160359 2.348204041e-38
-0.2526320219 -0.4135113358 -0.2342999578 2.348204041e-38
-0.1729745418 -0.2250494361 -0.188974008 2.348204041e-38
-0.2111705244 -0.2774983346 -0.2262442559 2.348204041e-38
0.1508166492 -0.4236803651 0.2377335131 2.348204041e-38
0.06978945434 -0.2833388448 -0.2425180376 2.348204041e-38
0.1271151602 -0.4722245336 -0.2089535743 2.348204041e-38
0.077407673 -0.4642233253 0.04248038307 2.348204041e-38
0.2340700626 -0.4594081044 0.1091655046 2.348204041e-38
0.01406841911 -0.06355004013 -0.207951054 2.348204041e-38
-0.05314774066 -0.2775651813 -0.2291848958 2.348204041e-38
0.2022479773 -0.2958675623 -0.2440025359 2.348204041e-38
0.1219472811 -0.3197275698 -0.2455139458 2.348204041e-38
-0.006088312715 -0.2795755267 -0.2360109687 2.348204041e-38
-0.09124132991 -0.4624735713 -0.04746834934 2.348204041e-38
0.04907306284 -0.4723277092 -0.1439258456 2.348204041e-38
-0.4456620216 -0.07194948196 -0.206978336 2.348204041e-38
0.2511003017 -0.4571793973 0.127452448 2.348204041e-38
-0.3831320405 0.02037863433 -0.1957511306 2.348204041e-38
-0.08686196804 0.02239845693 -0.2222529352 2.348204041e-38
-0.243921712 -0.4682440758 -0.2212558091 2.348204041e-38
-0.2185001224 -0.4670605659 -0.1872203052 2.348204041e-38
0.07967661321 -0.4695807695 -0.1067761406 2.348204041e-38
-0.3648918271 -0.2706214786 -0.2028309405 2.348204041e-38
-0.2665327787 0.07821939886 -0.2007197589 2.348204041e-38
-0.4419631362 -0.1403864175 -0.2100529969 2.348204041e-38
-0.1440306306 -0.1906338483 -0.2163265198 2.348204041e-38
0.2893695831 -0.4553538561 -0.03451720625 2.348204041e-38
-0.08317994326 -0.1962362677 -0.1885543615 2.348204041e-38
-0.09325835109 -0.3862169385 -0.06619247049 2.348204041e-38
0.2920401096 -0.4419534802 -0.04129367322 2.348204041e-38
-0.2012959123 -0.4635747075 -0.1240165383 2.348204041e-38
-0.3580797911 0.06624932587 -0.1952802688 2.348204041e-38
0.2552789152 -0.2795803845 -0.2317447364 2.348204041e-38
-0.2812016606 -0.005940631032 -0.2051236331 2.348204041e-38
-0.03019195795 -0.4620873332 -0.04204630479 2.348204041e-38
-0.421946764 -0.4404988885 -0.2214305997 2.348204041e-38
-0.4742316604 0.01889930665 -0.2066170573 2.348204041e-38
0.2026091367 -0.1259796321 -0.0963781029 2.348204041e-38
0.04363719374 -0.4630591571 0.09841056168 2.348204041e-38
0.2507688999 -0.473133266 -0.1388433576 2.348204041e-38
0.2876105309 -0.3241137266 -0.1836728454 2.348204041e-38
-0.4077640176 -0.4482943118 -0.1694644541 2.348204041e-38
-0.4207955003 0.06318120658 -0.1980935335 2.348204041e-38
-0.3781906962 -0.3958536983 -0.2298011482 2.348204041e-38
-0.2009468526 -0.4656426907 0.01053571329 2.348204041e-38
0.1393518746 -0.4696893096 -0.2402637899 2.348204041e-38
-0.4293968081 -0.0254740417 -0.202109158 2.348204041e-38
-0.4547682405 0.07251732051 -0.2021137923 2.348204041e-38
0.1564143896 -0.4041313529 -0.2511730492 2.348204041e-38
-0.4184142351 -0.01819100976 -0.2001485527 2.348204041e-38
-0.1492785662 -0.2327678651 -0.2182923257 2.348204041e-38
-0.2193741053 -0.3593165874 -0.1473380923 2.348204041e-38
-0.06190511584 -0.4600582421 0.11558339 2.348204041e-38
0.1458464563 -0.4522966146 -0.2495761961 2.348204041e-38
0.2266739905 -0.2636424005 -0.2378388196 2.348204041e-38
-0.2448463291 -0.313596487 -0.2289919406 2.348204041e-38
0.1275863945 -0.4418488741 -0.2530739307 2.348204041e-38
0.07217008621 -0.4518376589 -0.2555590868 2.348204041e-38
0.0682067275 -0.4008747637 -0.2531076968 2.348204041e-38
-0.119588092 -0.1222727969 -0.2109477669 2.348204041e-38
0.1228095666 -0.4720306993 -0.1240690947 2.348204041e-38
0.2108024806 -0.45966959 0.1101671308 2.348204041e-38
0.28469944 -0.4598302245 -0.1025567949 2.348204041e-38
-0.2687106729 -0.4666350484 -0.1661169678 2.348204041e-38
0.1446341574 -0.2847476006 -0.2425628901 2.348204041e-38
0.1977203786 -0.4014180005 0.1646561623 2.348204041e-38
-0.1485983878 -0.08842100203 -0.2182262242 2.348204041e-38
-0.4327827096 -0.42133075 -0.2196738571 2.348204041e-38
0.1904564947 -0.4190958142 0.249641031 2.348204041e-38
-0.3834751248 -0.4269972444 -0.2293847054 2.348204041e-38
-0.3593016267 -0.4054400921 -0.1681419462 2.348204041e-38
0.00373041071 -0.2945649028 -0.2394667268 2.348204041e-38
0.2566754818 -0.2470307946 0.0215174295 2.348204041e-38
0.1659558415 -0.4731375575 -0.1903361529 2.348204041e-38
-0.1236760616 -0.20609124 -0.2179723978 2.348204041e-38
-0.3399105072 0.03851209581 -0.1984256506 2.348204041e-38
-0.2121786922 -0.465754509 -0.0006003417075 2.348204041e-38
-0.2333004624 -0.1809717566 -0.2227232754 2.348204041e-38
0.1666109115 -0.4574148059 -0.2396005094 2.348204041e-38
-0.2714847326 -0.2586969733 -0.1916028708 2.348204041e-38
-0.3809397221 -0.4641081691 -0.2065684795 2.348204041e-38
-0.1636438519 -0.4608985186 0.07754950225 2.348204041e-38
-0.003996800631 -0.4267439246 0.1315898448 2.348204041e-38
-0.3748268485 -0.4114686251 -0.2295723706 2.348204041e-38
0.07829597592 -0.4620912969 0.1007604897 2.348204041e-38
-0.3027349114 -0.4711483121 -0.2141126543 2.348204041e-38
0.1799224168 -0.3113978207 -0.2452774942 2.348204041e-38
-0.4251594543 0.09609644115 -0.1951338649 2.348204041e-38
-0.4165573716 -0.4447569847 -0.2220903486 2.348204041e-38
-0.4252842665 -0.1877544522 -0.209913969 2.348204041e-38
-0.4361473918 -0.4021996856 -0.2184929252 2.348204041e-38
-0.2264154404 -0.4415642619 -0.2321387678 2.348204041e-38
0.1677404195 -0.4737038612 -0.1712817401 2.348204041e-38
0.03702839836 -0.467020154 -0.1005349457 2.348204041e-38
-0.06471168995 -0.2108555287 -0.2227633595 2.348204041e-38
0.1878839731 -0.4683311582 -0.03228988498 2.348204041e-38
-0.0598333329 -0.4770813584 -0.2318280935 2.348204041e-38
0.1851707548 -0.4284339547 0.2343869805 2.348204041e-38
-0.1747540981 -0.3608885109 -0.23393704 2.348204041e-38
-0.424290657 -0.1878352314 -0.2096256614 2.348204041e-38
-0.1399961263 -0.2039897144 -0.2171506882 2.348204041e-38
-0.1194207817 -0.2013607025 -0.2182697505 2.348204041e-38
0.0216725748 -0.3078003228 -0.2440258712 2.348204041e-38
0.05967999995 -0.04219718277 -0.2017439306 2.348204041e-38
-0.3394589424 -0.4634164572 -0.1734311879 2.348204041e-38
0.1929799765 -0.448846817 0.1769546568 2.348204041e-38
-0.4159783721 -0.3233521879 -0.2089850605 2.348204041e-38
-0.4017335176 0.09568886459 -0.1924480796 2.348204041e-38
0.2577057183 -0.4647723734 0.03321646526 2.348204041e-38
-0.3491132855 -0.1456342638 -0.2051714957 2.348204041e-38
-0.02505692467 -0.4776450992 -0.2282772511 2.348204041e-38
-0.08745268732 -0.3831968904 -0.06938247383 2.348204041e-38
-0.04428718984 -0.3901559114 -0.2409916371 2.348204041e-38
-0.4102327228 -0.4461378455 -0.2276010066 2.348204041e-38
0.2896159887 -0.4504573941 -0.02219670266 2.348204041e-38
-0.03919101506 -0.4208359122 -0.2424142659 2.348204041e-38
-0.3230677843 -0.02596864104 -0.2020113766 2.346801622e-38
0.2537777424 -0.3718197346 -0.2149506211 2.346801622e-38
-0.01771341637 -0.4675305486 -0.1645775735 2.346801622e-38
-0.4112622142 0.08008344471 -0.2028107643 2.346801622e-38
-0.007415451109 -0.4230931997 -0.2515093088 2.346801622e-38
0.2125692666 -0.4666430354 -0.2002590746 2.346801622e-38
-0.2308029979 -0.3239242136 -0.2482516617 2.346801622e-38
-0.4227982163 -0.307256639 -0.2350549996 2.346801622e-38
-0.2886874676 -0.2628705502 -0.2450693101 2.346801622e-38
0.08803473413 -0.4714397192 -0.1914818734 2.346801622e-38
-0.3405121565 -0.2933702469 -0.2473898828 2.346801622e-38
-0.4177110791 -0.309197247 -0.2313077599 2.346801622e-38
-0.3066380024 -0.4476602972 -0.2467299849 2.346801622e-38
-0.1489010453 -0.1216160804 -0.2148656547 2.346801622e-38
-0.2589134574 -0.3012568951 -0.2461316735 2.346801622e-38
0.1730800569 -0.4088023305 0.07064239681 2.346801622e-38
-0.003528662026 -0.3475240469 -0.2500896156 2.346801622e-38
0.03886833787 -0.4697112441 -0.1816511303 2.346801622e-38
-0.0765619576 -0.469504416 0.08428530395 2.346801622e-38
0.1343886852 -0.4640648365 0.1526881307 2.346801622e-38
0.02559623308 -0.002729296684 -0.2343064547 2.346801622e-38
-0.1200029105 -0.3125674427 -0.2367465496 2.346801622e-38
0.1379508376 -0.3842713833 -0.2524510622 2.346801622e-38
0.03858152032 -0.3919421434 -0.2569493353 2.346801622e-38
-0.06311687827 -0.3203158379 -0.2402118444 2.346801622e-38
-0.2557612062 -0.4699626863 -0.0007893927395 2.346801622e-38
-0.08546976745 -0.464194715 -0.09116926789 2.346801622e-38
-0.4440228939 -0.04773558676 -0.2198426574 2.346801622e-38
0.1657350659 -0.459623754 0.1652197689 2.346801622e-38
-0.3882849813 0.03588218987 -0.204785794 2.346801622e-38
-0.0910955891 0.04562433064 -0.2197648436 2.346801622e-38
-0.3346778154 -0.4644113779 -0.2092248946 2.346801622e-38
-0.3252632022 -0.4672992826 -0.1650063992 2.346801622e-38
-0.05562953651 -0.4619637728 -0.05740643665 2.346801622e-38
-0.3517155647 -0.1852446795 -0.2065601796 2.346801622e-38
-0.2816029787 0.08639486134 -0.1971980631 2.346801622e-38
-0.4380424619 -0.1077108458 -0.2293320894 2.346801622e-38
-0.2017185837 -0.2217754722 -0.2341466546 2.346801622e-38
0.2373308539 -0.469355911 -0.007763080299 2.346801622e-38
-0.05360139161 -0.09076145291 -0.2312208116 2.346801622e-38
-0.06497317553 -0.2756837904 -0.1952808946 2.346801622e-38
0.2515279651 -0.468891263 -0.02680110559 2.346801622e-38
-0.3332897425 -0.47239393 -0.08076910675 2.346801622e-38
-0.3689925671 0.07673762739 -0.2002703696 2.346801622e-38
0.194736436 -0.3719063997 -0.2477944493 2.346801622e-38
-0.2886841893 0.01190109551 -0.2063918412 2.346801622e-38
-0.1899726689 -0.467191577 0.005658339709 2.346801622e-38
-0.4220012426 -0.3921856284 -0.2331827879 2.346801622e-38
-0.4742967486 0.03666009009 -0.2217814177 2.346801622e-38
0.2083987892 -0.03944127262 -0.1855394095 2.346801622e-38
-0.1140947342 -0.4681970775 0.1187060773 2.346801622e-38
0.1650797278 -0.4703278542 -0.1277644336 2.346801622e-38
0.2604701519 -0.4064780474 -0.1764304191 2.346801622e-38
-0.3895600438 -0.3750046492 -0.2018335611 2.346801622e-38
-0.4341697693 0.07451154292 -0.2086560428 2.346801622e-38
-0.4003793597 -0.436142385 -0.2405894995 2.346801622e-38
-0.3350058198 -0.4706032276 -0.002095263451 2.346801622e-38
0.05416806042 -0.4736832976 -0.2177952975 2.346801622e-38
-0.4283461571 -0.004740491509 -0.2108507454 2.346801622e-38
-0.4660820961 0.08491705358 -0.21544002 2.346801622e-38
0.07585354149 -0.4728721976 -0.2535161078 2.346801622e-38
-0.4194971919 0.001855880022 -0.2096203268 2.346801622e-38
-0.2012756467 -0.262837708 -0.2382172644 2.346801622e-38
-0.1962005496 -0.2451644391 -0.1925502717 2.346801622e-38
-0.1833450496 -0.4605897963 0.0691203326 2.346801622e-38
0.06191869825 -0.4741099477 -0.2343771905 2.346801622e-38
0.1681923866 -0.3609789908 -0.2503068149 2.346801622e-38
-0.2964277267 -0.3345265388 -0.2496194988 2.346801622e-38
0.0506099388 -0.4736850262 -0.2417761534 2.346801622e-38
0.006737517193 -0.4728859067 -0.2425020635 2.346801622e-38
0.003206761554 -0.4468081594 -0.2528124154 2.346801622e-38
-0.1042302549 -0.05152651668 -0.2313324064 2.346801622e-38
-0.001012951136 -0.461019963 -0.08241632581 2.346801622e-38
0.09981808066 -0.4651477039 0.1541761309 2.346801622e-38
0.2215112746 -0.4732387066 -0.09730114043 2.346801622e-38
-0.3700243831 -0.4681388438 -0.1501825452 2.346801622e-38
0.05604190379 -0.3665498197 -0.2555938959 2.346801622e-38
0.2447743863 -0.3182174563 -0.05345818773 2.346801622e-38
-0.1445150524 -0.03275446594 -0.2238697708 2.346801622e-38
-0.4254857302 -0.3548081815 -0.2356943488 2.346801622e-38
0.2228232622 -0.4028119445 0.088537395 2.346801622e-38
-0.4061152339 -0.438172698 -0.2358553857 2.346801622e-38
-0.336463809 -0.2944457233 -0.1941658705 2.346801622e-38
-0.05377216637 -0.3365672827 -0.2430185676 2.346801622e-38
0.292339325 -0.1440047622 -0.1158340573 2.346801622e-38
0.0669170469 -0.46902439 -0.1735902131 2.346801622e-38
-0.1874456257 -0.2411692441 -0.2333298475 2.346801622e-38
-0.3468671441 0.05302782357 -0.2021058202 2.346801622e-38
-0.3412101865 -0.4703378081 -0.01246268302 2.346801622e-38
-0.2750767469 -0.2065769881 -0.2438127846 2.346801622e-38
0.07833691686 -0.4738066792 -0.224758774 2.346801622e-38
-0.2606523037 -0.1595116556 -0.2045450658 2.346801622e-38
-0.4122127891 -0.4377481341 -0.2095704675 2.346801622e-38
-0.2688979506 -0.4607681036 0.01740617678 2.346801622e-38
0.02836310305 -0.3733474016 -0.09603562206 2.346801622e-38
-0.3986574411 -0.4399178326 -0.2384229898 2.346801622e-38
-0.07345771044 -0.4680266976 0.1279085577 2.346801622e-38
-0.379160285 -0.4663946629 -0.204873234 2.346801622e-38
0.09960152209 -0.3947556019 -0.2554412782 2.346801622e-38
-0.4406215549 0.1063543111 -0.2049257159 2.346801622e-38
-0.4204520583 -0.4019806683 -0.2326091975 2.346801622e-38
-0.4187916517 -0.1358270049 -0.2281569242 2.346801622e-38
-0.4271041751 -0.3216590583 -0.2366199791 2.346801622e-38
-0.2927671075 -0.4621965885 -0.2364296466 2.346801622e-38
0.06176011264 -0.4661723077 -0.1536469162 2.346801622e-38
-0.1135417819 -0.4623211026 -0.04632152617 2.346801622e-38
-0.1297696382 -0.2470681816 -0.2292021662 2.346801622e-38
0.05262592807 -0.4649640024 0.0206557177 2.346801622e-38
-0.1716368943 -0.4730163217 -0.2157258838 2.346801622e-38
0.1836603582 -0.4182902575 0.1231676638 2.346801622e-38
-0.2205104381 -0.3851054907 -0.2536125779 2.346801622e-38
-0.4179128408 -0.1357061863 -0.2279473096 2.346801622e-38
-0.1978865415 -0.2362882644 -0.2347797006 2.346801622e-38
-0.1846999079 -0.2368311882 -0.2324576974 2.346801622e-38
-0.04004307836 -0.351442039 -0.2467063367 2.346801622e-38
0.06738000363 0.01089629531 -0.2328676283 2.346801622e-38
-0.4050511718 -0.455706656 -0.1754087806 2.346801622e-38
0.1102359593 -0.4534769058 0.1848163009 2.346801622e-38
-0.4033823609 -0.2354724258 -0.2275584489 2.346801622e-38
-0.4193601012 0.1042803377 -0.2005420774 2.346801622e-38
0.1651079506 -0.4635365605 0.08986279368 2.346801622e-38
-0.3495343924 -0.09517981112 -0.2059651911 2.346801622e-38
-0.1399978697 -0.4739536643 -0.2059669197 2.346801622e-38
-0.06016898155 -0.2711105943 -0.1965161264 2.346801622e-38
-0.1206921488 -0.4234316349 -0.250877887 2.346801622e-38
-0.4219322801 -0.4117756486 -0.2337806076 2.346801622e-38
0.2418016046 -0.4687206447 0.009911768138 2.346801622e-38
-0.1173795313 -0.449731648 -0.2522668839 2.346801622e-38
-0.3452490568 -0.004722595215 -0.2060168684 2.345219836e-38
0.2537021041 -0.3881512582 -0.2412400544 2.345219836e-38
-0.09707598388 -0.4666959941 -0.1867948771 2.345219836e-38
-0.4259477854 0.08108262718 -0.2102030814 2.345219836e-38
-0.04149100929 -0.4217383564 -0.2425418347 2.345219836e-38
0.1960015297 -0.4671340287 -0.2349701226 2.345219836e-38
-0.2708743215 -0.3235698342 -0.2487238944 2.345219836e-38
-0.4301558137 -0.2554445863 -0.241128847 2.345219836e-38
-0.3300467134 -0.2705192864 -0.2454400361 2.345219836e-38
0.0541209802 -0.4694412947 -0.2098328173 2.345219836e-38
-0.3725889921 -0.3065968752 -0.2483938932 2.345219836e-38
-0.4245037436 -0.2527002394 -0.240896225 2.345219836e-38
-0.3432284594 -0.4569016993 -0.2411348522 2.345219836e-38
-0.1720963269 -0.05032138526 -0.2259339839 2.345219836e-38
-0.3002685308 -0.3035568595 -0.2459050864 2.345219836e-38
0.1623815447 -0.367167443 -0.108526051 2.345219836e-38
-0.02249881253 -0.3498881459 -0.2364998758 2.345219836e-38
-0.01150109246 -0.4664096832 -0.1977142245 2.345219836e-38
-0.1967808455 -0.4595775306 -0.002380419523 2.345219836e-38
0.05565628037 -0.4540724754 0.08674773574 2.345219836e-38
-0.009802721441 0.04215835035 -0.240227446 2.345219836e-38
-0.1593380719 -0.3200476468 -0.2358312011 2.345219836e-38
0.1066312268 -0.3910486102 -0.2589910924 2.345219836e-38
0.01376456209 -0.3867458105 -0.2483154237 2.345219836e-38
-0.1004277319 -0.3248884678 -0.2311979234 2.345219836e-38
-0.3371558785 -0.4697990716 -0.05203611404 2.345219836e-38
-0.1782633662 -0.4646408558 -0.1143324673 2.345219836e-38
-0.4570192695 -0.03244385123 -0.2284295261 2.345219836e-38
0.1033641547 -0.4505957663 0.1004917622 2.345219836e-38
-0.4050907493 0.04712454975 -0.2107380033 2.345219836e-38
-0.1195862293 0.06784392893 -0.2077905685 2.345219836e-38
-0.3682102561 -0.4653799236 -0.2154610008 2.345219836e-38
-0.3695522547 -0.4686270356 -0.1888801455 2.345219836e-38
-0.1573790014 -0.4606880546 -0.08805380762 2.345219836e-38
-0.3679332733 -0.1339624822 -0.2175171673 2.345219836e-38
-0.2988528609 0.09593187273 -0.1943195164 2.345219836e-38
-0.4534795284 -0.08250156045 -0.2371379286 2.345219836e-38
-0.2326893657 -0.2246910781 -0.2368165553 2.345219836e-38
0.2012563348 -0.4675637484 -0.06677546352 2.345219836e-38
-0.08726476878 -0.02131892741 -0.2420921624 2.345219836e-38
-0.08680556715 -0.1515676975 -0.2403942645 2.345219836e-38
0.2228113711 -0.467987746 -0.0814601779 2.345219836e-38
-0.3783903718 -0.4658219814 -0.1385370344 2.345219836e-38
-0.3897545934 0.0811932534 -0.2035622299 2.345219836e-38
0.1825964451 -0.3767413497 -0.2527891695 2.345219836e-38
-0.3123903275 0.03111590445 -0.2027559876 2.345219836e-38
-0.2885629535 -0.4702873826 -0.03818780184 2.345219836e-38
-0.4258853793 -0.3308629096 -0.24153772 2.345219836e-38
-0.4828436375 0.03590019047 -0.2288859189 2.345219836e-38
0.1907612383 0.02419517934 -0.2182190865 2.345219836e-38
-0.1979580075 -0.4442538619 -0.02900993824 2.345219836e-38
0.1103740335 -0.4643330574 -0.1683707535 2.345219836e-38
0.2656962872 -0.4287298322 -0.2196303755 2.345219836e-38
-0.3913680911 -0.2906050086 -0.2185867727 2.345219836e-38
-0.445686996 0.07636724412 -0.2151016593 2.345219836e-38
-0.4270330071 -0.423067987 -0.2352434993 2.345219836e-38
-0.3493985534 -0.4363413453 -0.112144053 2.345219836e-38
0.02204401791 -0.4719185233 -0.2267741412 2.345219836e-38
-0.438852489 0.009855926037 -0.2190490961 2.345219836e-38
-0.4760347605 0.08279676735 -0.2194419056 2.345219836e-38
0.05067496747 -0.4714871645 -0.252928704 2.345219836e-38
-0.4302073717 0.01627492905 -0.2173411846 2.345219836e-38
-0.2317239195 -0.2636786401 -0.2413766682 2.345219836e-38
-0.2125703394 -0.135619238 -0.223135367 2.345219836e-38
-0.2211064249 -0.4209150076 -0.102505669 2.345219836e-38
0.03449936956 -0.4725740552 -0.2376135737 2.345219836e-38
0.1475606561 -0.3640931845 -0.25544101 2.345219836e-38
-0.3337743878 -0.3435670435 -0.2476208806 2.345219836e-38
0.02149300463 -0.4718010426 -0.2413780093 2.345219836e-38
-0.0379441604 -0.4705655575 -0.242667973 2.345219836e-38
-0.03188141435 -0.444632411 -0.2448913306 2.345219836e-38
-0.1322911531 0.004545718431 -0.2271663696 2.345219836e-38
-0.09658642113 -0.4597973228 -0.110905841 2.345219836e-38
0.01094961911 -0.4535960555 0.07677803934 2.345219836e-38
0.1866235584 -0.4681694806 -0.1426513195 2.345219836e-38
-0.3970102072 -0.4604041576 -0.1902069598 2.345219836e-38
0.03265401348 -0.3653224707 -0.249877423 2.345219836e-38
0.2313206792 -0.2225006223 -0.159056738 2.345219836e-38
-0.1696978956 0.01179498434 -0.219006598 2.345219836e-38
-0.4297952652 -0.2984960973 -0.2424416542 2.345219836e-38
0.218292892 -0.3661601543 -0.08915868402 2.345219836e-38
-0.4284510016 -0.415838331 -0.2348980606 2.345219836e-38
-0.3467920423 -0.2128049731 -0.2109047621 2.345219836e-38
-0.08902621269 -0.3404396176 -0.2305183262 2.345219836e-38
0.2634233236 -0.0554921031 -0.1886356622 2.345219836e-38
0.0274278 -0.4650029838 -0.1909229606 2.345219836e-38
-0.217970714 -0.2444799095 -0.2372406721 2.345219836e-38
-0.3697673082 0.06262014806 -0.2025775164 2.345219836e-38
-0.3536589742 -0.4362995028 -0.1193370074 2.345219836e-38
-0.3190238476 -0.2135066986 -0.2441477627 2.345219836e-38
0.05137939006 -0.4730014205 -0.2324049324 2.345219836e-38
-0.2788264751 -0.09347958863 -0.2141753882 2.345219836e-38
-0.4100404978 -0.3916236758 -0.2298238575 2.345219836e-38
-0.2906681895 -0.4146555364 -0.1243525445 2.345219836e-38
0.02081075311 -0.2727257609 -0.2201360762 2.345219836e-38
-0.4244710803 -0.4239079952 -0.2342722714 2.345219836e-38
-0.1691347063 -0.4476063848 -0.006006088108 2.345219836e-38
-0.3970439434 -0.4539266229 -0.2183098346 2.345219836e-38
0.07243920863 -0.3979555964 -0.2577284575 2.345219836e-38
-0.4546634555 0.1040675789 -0.2107828259 2.345219836e-38
-0.4257104993 -0.3437896371 -0.2411600053 2.345219836e-38
-0.4367285371 -0.1059781164 -0.2322915047 2.345219836e-38
-0.4330490828 -0.2716709971 -0.2420098037 2.345219836e-38
-0.3336644173 -0.4599816203 -0.232365191 2.345219836e-38
0.01357571408 -0.4617915154 -0.1744041592 2.345219836e-38
-0.2116222382 -0.4639913142 -0.07608799636 2.345219836e-38
-0.1695532501 -0.2591351569 -0.2308778614 2.345219836e-38
-0.03596185148 -0.4635921121 -0.02722078376 2.345219836e-38
-0.2204020172 -0.4665686786 -0.2242097557 2.345219836e-38
0.1643495411 -0.392857641 -0.05297107249 2.345219836e-38
-0.261459589 -0.3809623718 -0.2512907088 2.345219836e-38
-0.4357103109 -0.1056165025 -0.2319290489 2.345219836e-38
-0.2285198718 -0.238314122 -0.2378592044 2.345219836e-38
-0.2150378078 -0.2409571707 -0.236379534 2.345219836e-38
-0.07017307729 -0.3568409085 -0.2316663116 2.345219836e-38
0.03293744847 0.05312521756 -0.2414342165 2.345219836e-38
-0.4005798697 -0.4212290645 -0.2132102698 2.345219836e-38
0.07174938917 -0.4215447307 0.02713256702 2.345219836e-38
-0.4193331599 -0.1828500628 -0.2357164472 2.345219836e-38
-0.4352428913 0.1034436673 -0.2071859539 2.345219836e-38
0.09885440767 -0.4687113762 0.03821050748 2.345219836e-38
-0.3646384478 -0.05772086978 -0.2144273967 2.345219836e-38
-0.1989628822 -0.4689692259 -0.2158683389 2.345219836e-38
-0.08185021579 -0.1473266482 -0.2413027585 2.345219836e-38
-0.15800488 -0.4219018519 -0.246575892 2.345219836e-38
-0.4315734506 -0.3695281148 -0.2411092371 2.345219836e-38
0.205822289 -0.4672632813 -0.04689022899 2.345219836e-38
-0.1567199528 -0.4455038905 -0.2495799512 2.345219836e-38
-0.3076308966 -0.09763806313 -0.2224181592 2.343458544e-38
0.2852109671 -0.4144858718 -0.2280598283 2.343458544e-38
-0.08007220924 -0.462439388 -0.1805617362 2.343458544e-38
-0.4161916375 -0.03248426318 -0.2114943564 2.343458544e-38
-0.03443805873 -0.4182826281 -0.2335899323 2.343458544e-38
0.2341889441 -0.4687315226 -0.2158002108 2.343458544e-38
-0.2778324485 -0.3219565153 -0.2279304564 2.343458544e-38
-0.4329076409 -0.3365817666 -0.2237894982 2.343458544e-38
-0.3368556499 -0.2673102617 -0.2260507643 2.343458544e-38
0.07593721151 -0.4643293321 -0.2003167272 2.343458544e-38
-0.3830276132 -0.296192944 -0.2278668433 2.343458544e-38
-0.4289472699 -0.3379276693 -0.2222333997 2.343458544e-38
-0.3420675993 -0.4423009157 -0.2285836786 2.343458544e-38
-0.08953168988 -0.1684154272 -0.2687853873 2.343458544e-38
-0.3066504002 -0.3024385273 -0.2270946503 2.343458544e-38
0.2490258813 -0.4106059074 -0.06995711476 2.343458544e-38
-0.01261710376 -0.3525640965 -0.2241369337 2.343458544e-38
0.003417706117 -0.4636332393 -0.1913810223 2.343458544e-38
-0.1430628896 -0.4679294825 0.03681651875 2.343458544e-38
0.141573295 -0.4499996901 0.1188004464 2.343458544e-38
0.1044710651 -0.07177484035 -0.2691631913 2.343458544e-38
-0.1571418196 -0.3167031705 -0.2185442448 2.343458544e-38
0.1392316073 -0.4167147279 -0.2528852522 2.343458544e-38
0.03375092149 -0.3941117525 -0.2404939383 2.343458544e-38
-0.09489315748 -0.3287390471 -0.2157334238 2.343458544e-38
-0.30919379 -0.4729501009 -0.03768483177 2.343458544e-38
-0.1588489562 -0.4586794972 -0.104209803 2.343458544e-38
-0.4529022574 -0.1400480568 -0.2127614617 2.343458544e-38
0.1905275881 -0.4396226406 0.1216766685 2.343458544e-38
-0.396122694 -0.05623546243 -0.2107413411 2.343458544e-38
-0.01828505471 -0.01634865999 -0.2436716408 2.343458544e-38
-0.3600152135 -0.4698831439 -0.2106217593 2.343458544e-38
-0.3625158668 -0.4718006253 -0.1866807044 2.343458544e-38
-0.13590011 -0.4581221044 -0.07387206703 2.343458544e-38
-0.3668397665 -0.245229274 -0.2115100771 2.343458544e-38
-0.2486976832 -0.006338253617 -0.2146447748 2.343458544e-38
-0.4552274942 -0.1909974068 -0.2192841619 2.343458544e-38
-0.2316399366 -0.2273000181 -0.21828641 2.343458544e-38
0.243305847 -0.4719314575 -0.001268360764 2.343458544e-38
0.0198119618 -0.1437733471 -0.2804852724 2.343458544e-38
0.01769242249 -0.2832317948 -0.2696272135 2.343458544e-38
0.2606606781 -0.4718116522 -0.01917922869 2.343458544e-38
-0.3732727766 -0.4755442739 -0.1191203147 2.343458544e-38
-0.3624761701 -0.02786207199 -0.2138685286 2.343458544e-38
0.2065734416 -0.3993224502 -0.2476863116 2.343458544e-38
-0.2576947212 -0.06255155802 -0.2277906388 2.343458544e-38
-0.2580686212 -0.4706346989 -0.02582813427 2.343458544e-38
-0.4314584136 -0.3871847391 -0.2227852046 2.343458544e-38
-0.4799947739 -0.08026497066 -0.2116436809 2.343458544e-38
0.2849880457 -0.09819152951 -0.2247867733 2.343458544e-38
-0.1418520957 -0.444599092 0.009437832981 2.343458544e-38
0.153190136 -0.4645351171 -0.1352940053 2.343458544e-38
0.2972359657 -0.4514175057 -0.1983122826 2.343458544e-38
-0.4082494378 -0.3781299591 -0.2036729753 2.343458544e-38
-0.4426254034 -0.03819899261 -0.2111893594 2.343458544e-38
-0.4298394322 -0.4034029543 -0.2228481174 2.343458544e-38
-0.3552848101 -0.4526580572 -0.08264356852 2.343458544e-38
0.04336407408 -0.4701172113 -0.2234370708 2.343458544e-38
-0.43605268 -0.09726900607 -0.2091432959 2.343458544e-38
-0.4724037051 -0.03425212204 -0.2122144252 2.343458544e-38
0.07235819101 -0.4676421285 -0.2468981296 2.343458544e-38
-0.4283290505 -0.08809217811 -0.2091757953 2.343458544e-38
-0.2311436981 -0.262364924 -0.2206707448 2.343458544e-38
-0.1499594003 -0.2610500455 -0.2520743906 2.343458544e-38
-0.1731017083 -0.4288675785 -0.06718149781 2.343458544e-38
0.05591720715 -0.4695708752 -0.2357355803 2.343458544e-38
0.1714507788 -0.3887001276 -0.2491732985 2.343458544e-38
-0.3418110013 -0.3412241042 -0.2292445153 2.343458544e-38
0.04207519069 -0.4691563249 -0.2392818183 2.343458544e-38
-0.02416928858 -0.4676727653 -0.2359430492 2.343458544e-38
-0.02325939387 -0.4409244061 -0.2368126661 2.343458544e-38
-0.03505616635 -0.1092091799 -0.2711167037 2.343458544e-38
-0.0793184042 -0.4559745193 -0.09451056272 2.343458544e-38
0.09595501423 -0.4476017356 0.1023116708 2.343458544e-38
0.2226561457 -0.4709723592 -0.09983019531 2.343458544e-38
-0.3979075551 -0.4702180624 -0.1787263602 2.343458544e-38
0.0520363003 -0.3777305484 -0.2422149032 2.343458544e-38
0.310205996 -0.340092063 -0.1501212418 2.343458544e-38
-0.07585823536 -0.09304171801 -0.2611370385 2.343458544e-38
-0.435423553 -0.3657044172 -0.2247095853 2.343458544e-38
0.2892318964 -0.4089018106 -0.04296218231 2.343458544e-38
-0.4274113178 -0.4304895997 -0.2236391157 2.343458544e-38
-0.3454229236 -0.3183782101 -0.2069094181 2.343458544e-38
-0.08278858662 -0.3435606062 -0.2165699303 2.343458544e-38
0.3376300335 -0.1786527783 -0.1747302264 2.343458544e-38
0.03803486004 -0.4605842233 -0.18369326 2.343458544e-38
-0.2173876017 -0.2437333167 -0.2173290402 2.343458544e-38
-0.3371044397 -0.03822259605 -0.2146309167 2.343458544e-38
-0.3643870354 -0.4535160661 -0.08783208579 2.343458544e-38
-0.3253887892 -0.2173293084 -0.2285677344 2.343458544e-38
0.07396876067 -0.469569087 -0.2297204584 2.343458544e-38
-0.225888893 -0.2113360316 -0.238603875 2.343458544e-38
-0.4272995591 -0.429618001 -0.2085768431 2.343458544e-38
-0.2653444409 -0.4291491508 -0.09932355583 2.343458544e-38
0.1252667606 -0.3803492188 -0.2117740959 2.343458544e-38
-0.4243552089 -0.4205480516 -0.2239807695 2.343458544e-38
-0.1076989919 -0.4467433691 0.02877052501 2.343458544e-38
-0.3921884298 -0.4632991552 -0.2101966441 2.343458544e-38
0.1028277576 -0.419475317 -0.2515785992 2.343458544e-38
-0.4492550492 -0.01503483951 -0.2118685842 2.343458544e-38
-0.431019187 -0.3940698206 -0.2225348353 2.343458544e-38
-0.4354160428 -0.2133060098 -0.2195345014 2.343458544e-38
-0.4362520576 -0.3479532003 -0.2254844159 2.343458544e-38
-0.3237273693 -0.4592669606 -0.2268529683 2.343458544e-38
0.02222040668 -0.4569267929 -0.1628480107 2.343458544e-38
-0.1875766814 -0.4617097378 -0.06256502122 2.343458544e-38
-0.1687876135 -0.2585650086 -0.2137544453 2.343458544e-38
-0.003813337535 -0.4660022259 0.01863723621 2.343458544e-38
-0.2154492736 -0.4629037976 -0.2086532712 2.343458544e-38
0.2460169643 -0.4151897728 -0.013963148 2.343458544e-38
-0.2695904374 -0.3800910115 -0.2313637733 2.343458544e-38
-0.4343164563 -0.2131978422 -0.2194791734 2.343458544e-38
-0.2277199477 -0.2390055805 -0.218496263 2.343458544e-38
-0.2150686085 -0.2404199839 -0.2167105228 2.343458544e-38
-0.06303147227 -0.3558756113 -0.2174446583 2.343458544e-38
0.1474903524 -0.05918127298 -0.2618834972 2.343458544e-38
-0.4218882322 -0.4490653872 -0.190037623 2.343458544e-38
0.1657351404 -0.4262935519 0.05275148526 2.343458544e-38
-0.4205132723 -0.2832420468 -0.22293064 2.343458544e-38
-0.4217778444 -0.01539033651 -0.2120663822 2.343458544e-38
0.1669935584 -0.4683261514 0.08642433584 2.343458544e-38
-0.3580560684 -0.1652227938 -0.2161135226 2.343458544e-38
-0.1928956807 -0.4652242064 -0.2027369887 2.343458544e-38
0.02358095162 -0.2789498866 -0.270460099 2.343458544e-38
-0.1568311304 -0.4191613793 -0.2303850651 2.343458544e-38
-0.4386401176 -0.4048780799 -0.22191751 2.343458544e-38
0.2482369989 -0.4715226889 0.01745311543 2.343458544e-38
-0.156216979 -0.4460238814 -0.2339957505 2.343458544e-38
-0.3622661233 -0.1284531653 -0.2282164842 2.341805152e-38
0.1647625118 -0.4596439004 -0.1884185076 2.341805152e-38
-0.2813039422 -0.4621037841 -0.1206938624 2.341805152e-38
-0.4421976209 -0.08234193921 -0.2204271704 2.341805152e-38
-0.1880879849 -0.4592402577 -0.249178797 2.341805152e-38
0.05071443319 -0.4605131745 -0.1576055437 2.341805152e-38
-0.3767499328 -0.3497042954 -0.2407092303 2.341805152e-38
-0.4637700915 -0.2917063534 -0.2368284464 2.341805152e-38
-0.4190873504 -0.2959368527 -0.237240836 2.341805152e-38
-0.1495132893 -0.4525231123 -0.1471640021 2.341805152e-38
-0.4578692913 -0.3365278244 -0.2336996645 2.341805152e-38
-0.458180964 -0.2889179885 -0.2355343103 2.341805152e-38
-0.4257565737 -0.4527227879 -0.2404798269 2.341805152e-38
-0.1574771851 -0.1931872517 -0.2683169246 2.341805152e-38
-0.3970063329 -0.329264015 -0.2387634814 2.341805152e-38
0.2090764195 -0.423184514 -0.1360257566 2.341805152e-38
-0.1677817702 -0.4041420221 -0.2383961082 2.341805152e-38
-0.2182997018 -0.4541964829 -0.1337154359 2.341805152e-38
-0.2643011808 -0.4389348626 -0.05851350725 2.341805152e-38
0.03467949107 -0.4396832883 0.03669597581 2.341805152e-38
0.02861897461 -0.1363501996 -0.2656392157 2.341805152e-38
-0.2752056122 -0.3570455611 -0.2507571578 2.341805152e-38
-0.03722186387 -0.4604636431 -0.2415284365 2.341805152e-38
-0.1320459098 -0.4399766326 -0.2408769131 2.341805152e-38
-0.2285643369 -0.3783535957 -0.2458658963 2.341805152e-38
-0.4015788436 -0.44996351 -0.1316594929 2.341805152e-38
-0.3472397923 -0.4754312634 -0.08396200836 2.341805152e-38
-0.4813718796 -0.1700931191 -0.2255475372 2.341805152e-38
0.09875912219 -0.4381539226 0.05101711676 2.341805152e-38
-0.4276357293 -0.1021313146 -0.221498698 2.341805152e-38
-0.09732300043 -0.09082575142 -0.2446081638 2.341805152e-38
-0.4316436648 -0.4528368115 -0.230063647 2.341805152e-38
-0.4385954738 -0.4545739591 -0.212360844 2.341805152e-38
-0.3258346915 -0.4762963653 -0.0567842871 2.341805152e-38
-0.3939412832 -0.2177967131 -0.2281683087 2.341805152e-38
-0.3037104607 -0.06205956638 -0.2230239809 2.341805152e-38
-0.4796741009 -0.2028372735 -0.2299055308 2.341805152e-38
-0.3439538479 -0.2652167082 -0.2473913729 2.341805152e-38
0.08492819965 -0.4656134844 0.08492100239 2.341805152e-38
-0.05010482669 -0.1848963201 -0.2774214745 2.341805152e-38
-0.04336046427 -0.2787265182 -0.2854005694 2.341805152e-38
0.1099340096 -0.4667778611 0.0846786648 2.341805152e-38
-0.4329369664 -0.4529477656 -0.1887650937 2.341805152e-38
-0.403598547 -0.08013351262 -0.220411852 2.341805152e-38
0.0510449037 -0.4595503211 -0.2343499959 2.341805152e-38
-0.3221687675 -0.1054805741 -0.2308356315 2.341805152e-38
-0.3753644824 -0.4543660879 -0.1013330817 2.341805152e-38
-0.4655990005 -0.3468778133 -0.2396357507 2.341805152e-38
-0.5055897832 -0.1248451248 -0.2214364111 2.341805152e-38
0.2128533125 -0.1614919901 -0.2388638258 2.341805152e-38
-0.2014468014 -0.4366266727 -0.117770493 2.341805152e-38
-0.07500644028 -0.456199795 -0.040178895 2.341805152e-38
0.1866404116 -0.4636758268 -0.1297665834 2.341805152e-38
-0.4215914607 -0.3140060604 -0.2261576056 2.341805152e-38
-0.4624810219 -0.08695571125 -0.2217560261 2.341805152e-38
-0.4860083461 -0.4064600468 -0.2403331697 2.341805152e-38
-0.3902730942 -0.4128841758 -0.1899186522 2.341805152e-38
-0.1839403361 -0.4588082135 -0.1878567487 2.341805152e-38
-0.4662243724 -0.1354066133 -0.2249471247 2.341805152e-38
-0.4924483895 -0.08522029221 -0.2229384482 2.341805152e-38
-0.1321544945 -0.4630651474 -0.2267194837 2.341805152e-38
-0.4582415819 -0.1277576089 -0.2247683853 2.341805152e-38
-0.3441328406 -0.2940509319 -0.2478113472 2.341805152e-38
-0.2036156058 -0.2499515563 -0.266132772 2.341805152e-38
-0.1981982887 -0.4252581596 -0.1989464909 2.341805152e-38
-0.1644046307 -0.4619575739 -0.2067751586 2.341805152e-38
0.007568625733 -0.4598731995 -0.2428890318 2.341805152e-38
-0.425989747 -0.3712721765 -0.2357975692 2.341805152e-38
-0.1710700691 -0.4638282061 -0.2182140201 2.341805152e-38
-0.2059672922 -0.4674043059 -0.2277790159 2.341805152e-38
-0.1869455427 -0.4685940742 -0.247482568 2.341805152e-38
-0.1090762764 -0.1562075317 -0.2708140314 2.341805152e-38
-0.275624752 -0.4725194573 -0.05192397162 2.341805152e-38
-0.007386669517 -0.4418511987 0.008473429829 2.341805152e-38
0.0359454006 -0.4660480618 0.02253812179 2.341805152e-38
-0.4430602193 -0.4328529537 -0.2123873085 2.341805152e-38
-0.1115823984 -0.4268899262 -0.2377709597 2.341805152e-38
0.2598057985 -0.3373885453 -0.1732350141 2.341805152e-38
-0.1532631665 -0.1430310607 -0.2611635029 2.341805152e-38
-0.4691374898 -0.326390624 -0.2391599417 2.341805152e-38
0.251914084 -0.4243805408 -0.1046046615 2.341805152e-38
-0.4820614457 -0.3978847861 -0.2408315092 2.341805152e-38
-0.3760616183 -0.2785071135 -0.2276327163 2.341805152e-38
-0.2199716419 -0.3901524544 -0.2462019175 2.341805152e-38
0.2814022005 -0.2209931165 -0.1886726469 2.341805152e-38
-0.1868389845 -0.4527015686 -0.1193555593 2.341805152e-38
-0.330070734 -0.2817785442 -0.2484757155 2.341805152e-38
-0.3811542392 -0.08893574774 -0.2221155912 2.341805152e-38
-0.3977539539 -0.412583828 -0.1902677268 2.341805152e-38
-0.4105712771 -0.2434941232 -0.2406385392 2.341805152e-38
-0.1475812495 -0.4594117999 -0.191359818 2.341805152e-38
-0.280449748 -0.2034771591 -0.2509692311 2.341805152e-38
-0.4426953197 -0.3734170198 -0.23500292 2.341805152e-38
-0.288623929 -0.4125750065 -0.2170856297 2.341805152e-38
0.06956071407 -0.3637027144 -0.2545289993 2.341805152e-38
-0.4818652868 -0.4043499827 -0.2411068976 2.341805152e-38
-0.1728301495 -0.4401107132 -0.09347891808 2.341805152e-38
-0.43960464 -0.4280032516 -0.2323948294 2.341805152e-38
-0.07254559547 -0.4610455036 -0.242154628 2.341805152e-38
-0.4665153027 -0.06816199422 -0.2228925079 2.341805152e-38
-0.4659512043 -0.3526417017 -0.2398186177 2.341805152e-38
-0.4621005654 -0.2098736465 -0.2266582549 2.341805152e-38
-0.4687985182 -0.30534935 -0.2380999476 2.341805152e-38
-0.414898932 -0.4618114531 -0.2398851663 2.341805152e-38
-0.1993954629 -0.4544106424 -0.0922806412 2.341805152e-38
-0.360456109 -0.4736641645 -0.07240247726 2.341805152e-38
-0.2838896513 -0.3008483052 -0.2455255389 2.341805152e-38
-0.189884901 -0.4629194736 0.01854100451 2.341805152e-38
-0.3536908031 -0.4725465775 -0.2102767825 2.341805152e-38
0.211265102 -0.4382551312 -0.09514799714 2.341805152e-38
-0.3732129931 -0.4070796371 -0.2433453798 2.341805152e-38
-0.4611911178 -0.2093350589 -0.226302132 2.341805152e-38
-0.340092361 -0.2758182585 -0.2478702366 2.341805152e-38
-0.3275700212 -0.2794558406 -0.2480613142 2.341805152e-38
-0.2069390118 -0.402942121 -0.2463537008 2.341805152e-38
0.07442440093 -0.1260324568 -0.2641375661 2.341805152e-38
