# .PCD v0.7 - Point Cloud Data file format
VERSION 0.7
FIELDS x y z rgb
SIZE 4 4 4 4
TYPE F F F F
COUNT 1 1 1 1
WIDTH 830
HEIGHT 1
VIEWPOINT 0 0 0 1 0 0 0
POINTS 830
DATA ascii
0.07796884328 -0.3395877481 0.268160671 1.771655483e-38
0.07210232317 -0.3232747018 0.1293855011 1.771655483e-38
-0.1702601612 -0.4359736443 0.222507745 1.771655483e-38
0.00494864583 -0.3489627242 0.137758106 1.771655483e-38
0.03790739924 -0.2902696729 0.1002169997 1.771655483e-38
-0.04625638574 -0.4632875919 -0.05599651486 1.771655483e-38
0.0868024826 -0.4506461322 -0.05349806696 1.771655483e-38
-0.05882970244 -0.2358427346 0.1398540139 1.771655483e-38
-0.08450178802 -0.4266012013 0.04234932363 1.771655483e-38
-0.1277770251 -0.2695720792 0.01304343343 1.771655483e-38
0.04599732906 -0.3437843025 0.09221969545 1.771655483e-38
0.1292562485 -0.3825988173 -0.1429755092 1.771655483e-38
0.05707361549 -0.2811316848 0.1282398552 1.771655483e-38
-0.07856498659 -0.2371850014 0.05190696567 1.771655483e-38
-0.1220195368 -0.2659548521 0.02693705261 1.771655483e-38
-0.06723465025 -0.4099788368 -0.1445629299 1.771655483e-38
0.1489263773 -0.4202824235 0.2693447769 1.771655483e-38
0.206002444 -0.3652820587 0.1021212041 1.771655483e-38
0.2079004049 -0.387589097 0.1479103863 1.771655483e-38
0.04478821903 -0.4696953297 0.06485947967 1.771655483e-38
0.168337971 -0.3361508846 -0.1361481845 1.771655483e-38
-0.1522211134 -0.3507278562 0.1769600064 1.771655483e-38
0.07581180334 -0.2185485959 0.1032906324 1.771655483e-38
-0.09621162713 -0.3962462842 -0.06113281474 1.771655483e-38
0.02372870222 -0.2920825481 0.0420383215 1.771655483e-38
-0.06603324413 -0.4403553307 -0.1413677037 1.771655483e-38
-0.01648451947 -0.3156113327 -0.01236082613 1.771655483e-38
-0.09466834366 -0.247440815 0.0008354485035 1.771655483e-38
0.04151624441 -0.4699087441 0.06247751415 1.771655483e-38
-0.1873058677 -0.320414722 0.06945022941 1.771655483e-38
-0.01807571761 -0.2216970026 -0.06152592227 1.771655483e-38
0.1441979408 -0.3965134621 0.2637163401 1.771655483e-38
0.02784093842 -0.3029651046 0.1052040756 1.771655483e-38
0.1793188751 -0.3333582878 0.1913949549 1.771655483e-38
0.222145319 -0.4409177899 0.1487984359 1.771655483e-38
0.1596405208 -0.3360230327 0.2267205715 1.771655483e-38
0.02960959077 -0.2931928337 -0.1272626221 1.771655483e-38
0.08462417126 -0.4512730241 -0.05921423435 1.771655483e-38
0.1073160842 -0.4481006563 -0.03221417964 1.771655483e-38
0.08553652465 -0.4636832476 0.05688010901 1.771655483e-38
-0.08791224658 -0.2825713158 -0.1435301304 1.771655483e-38
-0.0310204383 -0.4193500578 0.1737959981 1.771655483e-38
-0.1028177366 -0.4138669372 -0.04560539499 1.771655483e-38
-0.0697118938 -0.357589066 -0.07148020715 1.771655483e-38
-0.0122969728 -0.2139817476 0.06712412834 1.771655483e-38
-0.05710919946 -0.2384941876 0.1554387212 1.771655483e-38
-0.02411827818 -0.3371706903 0.03827253729 1.771655483e-38
-0.03163055331 -0.3284214139 -0.06081784517 1.771655483e-38
-0.05726491287 -0.2272629142 0.09207853675 1.771655483e-38
-0.1133263558 -0.3095097542 -0.1395570636 1.771655483e-38
0.0205218941 -0.4698766768 -0.04385809228 1.771655483e-38
-0.1838536859 -0.443449229 -0.07008778304 1.771655483e-38
-0.07197552919 -0.2328713834 0.04464429617 1.771655483e-38
0.08015985042 -0.3323150873 0.2651095092 1.771655483e-38
-0.1806815565 -0.3377155662 0.1133758128 1.771655483e-38
0.0327732265 -0.2533253431 -0.05216591805 1.771655483e-38
0.1374839246 -0.2938271165 0.2265395224 1.771655483e-38
-0.07365874946 -0.2813295424 -0.1478672624 1.771655483e-38
-0.0670350939 -0.2472944856 0.1700012237 1.771655483e-38
0.1359101236 -0.2811972201 -0.05139318854 1.771655483e-38
0.06457027793 -0.3261784017 0.1175208986 1.771655483e-38
0.01908696815 -0.4668175578 0.08234964311 1.771655483e-38
0.1581270993 -0.3368068933 -0.1392189562 1.771655483e-38
0.108999826 -0.4456869662 0.01355612278 1.771655483e-38
0.08481879532 -0.4634394646 0.05135133862 1.771655483e-38
0.1992271841 -0.4322936535 0.2037752569 1.771655483e-38
0.1506500244 -0.4400607347 0.04128368944 1.771655483e-38
-0.04456879944 -0.399071753 0.1047610193 1.771655483e-38
0.1859241724 -0.3015299439 0.05563251674 1.771655483e-38
0.1752967536 -0.4512472451 -0.01355500147 1.771655483e-38
-0.0945938006 -0.2475648522 0.1010181159 1.771655483e-38
0.1607293785 -0.3692441583 0.2413764 1.771655483e-38
-0.1167846024 -0.4105732739 0.2708050609 1.771655483e-38
0.05462480336 -0.2774249911 -0.1025484651 1.771655483e-38
0.004249900579 -0.3452904224 0.1288993657 1.771655483e-38
0.06704878062 -0.4435613155 -0.137892887 1.771655483e-38
0.05041950941 -0.4633320272 -0.0290915072 1.771655483e-38
0.07872832566 -0.4663139284 0.1682292074 1.771655483e-38
-0.187361896 -0.3127862811 -0.03858392686 1.771655483e-38
0.069628492 -0.3120429218 0.1201732457 1.771655483e-38
-0.1800211966 -0.4615208805 -0.04892567545 1.771655483e-38
0.1082061008 -0.3427772522 -0.144733727 1.771655483e-38
-0.2010134161 -0.3988747299 -0.06735581905 1.771655483e-38
-0.132019937 -0.4403496087 -0.07757977396 1.771655483e-38
0.07576919347 -0.4650890529 0.04328834265 1.771655483e-38
-0.1161942035 -0.4450995028 -0.01661179587 1.771655483e-38
0.1883118749 -0.3083847761 0.03608936071 1.771655483e-38
-0.1034016833 -0.3514600694 -0.1473406553 1.771655483e-38
0.1283694804 -0.2568820119 0.003914222121 1.771655483e-38
0.1767513156 -0.3557597101 0.2098560333 1.771655483e-38
0.1238207743 -0.232745409 0.09324504435 1.771655483e-38
-0.009066993371 -0.2149524242 0.08843430877 1.771655483e-38
-0.07720214874 -0.3741410375 -0.04967187345 1.771655483e-38
-0.1410062313 -0.4679347277 0.0509397313 1.771655483e-38
0.008385065943 -0.3187050819 -0.1453382671 1.771655483e-38
-0.07358719409 -0.2335555404 -0.07370550185 1.771655483e-38
0.06283617765 -0.3180853128 -0.1474274695 1.771655483e-38
0.0003933832049 -0.4717080593 -0.02191293985 1.771655483e-38
0.2164218128 -0.3853556812 0.0003653019667 1.771655483e-38
0.03563596308 -0.2122346759 0.09677296877 1.771655483e-38
-0.1415537745 -0.3404616714 0.1829761714 1.771655483e-38
-0.04745713249 -0.3658707738 0.03018365055 1.771655483e-38
0.07934871316 -0.4530645013 0.2041656971 1.771655483e-38
-0.1879793108 -0.3742372096 0.1416898817 1.771655483e-38
-0.1203448698 -0.3035192788 0.1697096825 1.771655483e-38
0.09287186712 -0.277851522 -0.07900306582 1.771655483e-38
-0.0864109993 -0.4396106303 0.0667732954 1.771655483e-38
-0.06725051999 -0.4519404471 0.1582192928 1.771655483e-38
-0.1962725222 -0.3510972857 0.1025231183 1.771655483e-38
-0.1341898739 -0.3910445869 0.2349854112 1.771655483e-38
-0.0427008383 -0.2134006619 -0.003882624209 1.771655483e-38
-0.04244739935 -0.4246014357 0.1578121036 1.771655483e-38
0.07793718576 -0.4668467641 0.08134795725 1.771655483e-38
-0.1185474545 -0.2631346583 0.008789427578 1.771655483e-38
0.04871756583 -0.258869648 -0.06300929189 1.771655483e-38
-0.08655695617 -0.3393710852 -0.1512272209 1.771655483e-38
0.2052820623 -0.3566832542 0.04140162468 1.771655483e-38
-0.08012019098 -0.3694298267 -0.07385313511 1.771655483e-38
0.1379062235 -0.3846745789 0.263127923 1.771655483e-38
-0.1997393668 -0.4446298778 -0.0469424203 1.771655483e-38
-0.1740055084 -0.4261288941 0.2095010281 1.771655483e-38
0.1356769204 -0.2473191172 0.1685407013 1.771655483e-38
0.1367843151 -0.3585771322 0.2548520863 1.771655483e-38
0.1341426969 -0.4424120784 0.005398020148 1.771655483e-38
0.07790392637 -0.4658687711 0.1744591743 1.771655483e-38
-0.09781073779 -0.444996953 0.04340519756 1.771655483e-38
0.0827524513 -0.4624783099 0.03785242885 1.771655483e-38
0.06318869442 -0.4520302117 -0.07343348861 1.771655483e-38
-0.1470698863 -0.2826218903 0.04433004558 1.771655483e-38
-0.08000041544 -0.2379458547 0.03449354321 1.771655483e-38
0.02707658708 -0.3675823212 -0.1564770788 1.771655483e-38
-0.002804132178 -0.2568179965 -0.07526468486 1.771655483e-38
-0.1163014919 -0.345145762 0.2219158709 1.771655483e-38
0.02583571151 -0.254740715 0.2229805887 1.771655483e-38
-0.08888663352 -0.2439136207 0.022114411 1.771655483e-38
0.1284613907 -0.451446712 -0.1169562191 1.771655483e-38
0.02680583671 -0.4689102173 0.07450315356 1.771655483e-38
0.03010725975 -0.4517241418 -0.1033919156 1.771655483e-38
-0.16643399 -0.3954604268 0.1932973564 1.771655483e-38
-0.02178873122 -0.3493605256 -0.03569804132 1.771655483e-38
0.02075982466 -0.366274178 0.05473338813 1.771655483e-38
0.05775114894 -0.4690980911 0.08837547898 1.771655483e-38
0.158841759 -0.4582176208 0.1480447948 1.771655483e-38
-0.01190702617 -0.3401095867 0.0768724829 1.771655483e-38
-0.04149052501 -0.4081522226 0.1299842298 1.771655483e-38
0.1782520711 -0.2946840525 -0.002131968737 1.771655483e-38
0.1950921118 -0.3414168358 0.1517996937 1.771655483e-38
-0.1798434258 -0.3177417517 0.07953819633 1.771655483e-38
-0.02123523317 -0.4522741735 -0.1418600678 1.771655483e-38
-0.1296456009 -0.4070971012 0.2535203397 1.771655483e-38
-0.008086549118 -0.4698373079 0.01372686028 1.771655483e-38
-0.1600798666 -0.3610729873 0.174327746 1.771655483e-38
-0.2144155204 -0.4178640544 -0.03876008093 1.771655483e-38
0.01674746722 -0.4215475023 0.07555496693 1.771655483e-38
0.02274806052 -0.468944639 0.06772215664 1.771655483e-38
0.1624446213 -0.3838775754 0.245727092 1.771655483e-38
0.07773070782 -0.2504721284 -0.02886406332 1.771655483e-38
0.1679370999 -0.3084536791 -0.07643017173 1.771655483e-38
-0.155295521 -0.3665623665 0.1862410903 1.771655483e-38
-0.01468060166 -0.3545970321 0.2826415598 1.771655483e-38
0.06681761146 -0.3156472445 0.2621439099 1.771655483e-38
-0.01907667704 -0.2633791268 0.2313050926 1.771655483e-38
0.1938547492 -0.323603332 0.1025848985 1.771655483e-38
0.01289409027 -0.3611943722 -0.156773299 1.771655483e-38
0.1343225241 -0.2900898159 0.2259882987 1.771655483e-38
-0.03895922378 -0.4097041488 0.1396182328 1.771655483e-38
0.1282787621 -0.3153716922 -0.1334217489 1.771655483e-38
-0.00581199117 -0.348523736 0.1092597246 1.771655483e-38
-0.07629580796 -0.3196499944 0.2436276376 1.771655483e-38
-0.130192697 -0.318919301 0.1750227213 1.771655483e-38
0.01911526546 -0.3938602209 0.06577090919 1.771655483e-38
0.05434337258 -0.2935613692 0.2549140453 1.771655483e-38
0.1602169871 -0.3374985456 -0.1392705142 1.771655483e-38
-0.1879501045 -0.4164018929 0.1812009066 1.771655483e-38
0.1475310028 -0.3992268443 0.2627565265 1.771655483e-38
-0.03844083846 -0.3694501519 0.06449502707 1.771655483e-38
0.01991456747 -0.2051999271 0.03775759041 1.771655483e-38
0.1967718005 -0.3428863287 0.1397549361 1.771655483e-38
0.2149111032 -0.3856773674 0.04214222729 2.348204041e-38
0.2000908554 -0.3395104706 0.009336806834 2.348204041e-38
0.174574703 -0.2736573815 0.1220967472 2.348204041e-38
0.2175267935 -0.3881640136 0.001220151782 2.348204041e-38
-0.1408845186 -0.2817543149 0.08974096179 2.348204041e-38
0.05852539837 -0.4116714299 0.2972111702 2.348204041e-38
0.1549381912 -0.4351950586 0.2699449956 2.348204041e-38
0.2266878486 -0.4197485149 0.07537451386 2.348204041e-38
0.02668570355 -0.4699956179 -0.02536634728 2.348204041e-38
-0.1732938886 -0.4283154905 0.2122301757 2.348204041e-38
-0.06873074174 -0.2318759859 0.06995096803 2.348204041e-38
0.2137850225 -0.4016796052 0.1289270371 2.348204041e-38
0.03799513727 -0.3820754588 0.2897995114 2.348204041e-38
-0.1687016189 -0.3060610294 -0.06900716573 2.348204041e-38
0.01023612171 -0.4703851342 -0.05896477029 2.348204041e-38
-0.1982983947 -0.3909034431 -0.07338099182 2.348204041e-38
-0.1953032911 -0.3221922219 0.05629737675 2.348204041e-38
-0.0106409248 -0.4310330451 0.222171694 2.348204041e-38
0.1019619331 -0.2287934124 0.1260222495 2.348204041e-38
-0.1127503216 -0.263769269 0.1115995198 2.348204041e-38
0.08722793311 -0.267660737 -0.05880223587 2.348204041e-38
-0.05214427412 -0.3074764907 0.2523057163 2.348204041e-38
0.1684660017 -0.4413502216 0.05140566826 2.348204041e-38
0.09686987847 -0.4185608625 0.2896923721 2.348204041e-38
-0.1158048362 -0.465051353 0.1022880673 2.348204041e-38
0.03809066117 -0.2256398797 0.1519775689 2.348204041e-38
0.2120532095 -0.4405022264 0.08453717828 2.348204041e-38
0.1803318858 -0.2874718904 0.1437356025 2.348204041e-38
0.21845752 -0.4229000211 0.1388419718 2.348204041e-38
0.1346797645 -0.3745064735 0.261316061 2.348204041e-38
0.1252760887 -0.2842963338 -0.06697619706 2.348204041e-38
0.1154270396 -0.2371211946 0.04828946292 2.348204041e-38
-0.05295595154 -0.2274825871 -0.09649317712 2.348204041e-38
0.01692881063 -0.3159559965 0.1045844406 2.348204041e-38
0.1790831387 -0.3312827051 0.1905615926 2.348204041e-38
-0.05250793323 -0.4096080065 -0.07028529793 2.348204041e-38
0.2235997915 -0.4076307714 0.04629792273 2.348204041e-38
0.1032718644 -0.3766367435 0.2730903029 2.348204041e-38
-0.1699211895 -0.4645306468 -0.02523623034 2.348204041e-38
-0.08386410773 -0.2388899177 -0.0476802811 2.348204041e-38
0.08120046556 -0.4676658213 0.1484806836 2.348204041e-38
-0.06065187603 -0.2253475785 0.01776031405 2.348204041e-38
0.07673748583 -0.2189346403 0.05346862227 2.348204041e-38
0.1186965033 -0.3923044205 -0.144459486 2.348204041e-38
0.1137632057 -0.3614769876 0.2647119462 2.348204041e-38
-0.07828888297 -0.3002851009 -0.1515343189 2.348204041e-38
0.07855477184 -0.240989849 -0.009223666042 2.348204041e-38
0.05555730313 -0.4498451948 -0.1187457144 2.348204041e-38
-0.1175278053 -0.461878866 0.06163029373 2.348204041e-38
0.08167049289 -0.3731892109 0.2783643007 2.348204041e-38
0.2025018632 -0.34482795 -0.03642271832 2.348204041e-38
0.09830474108 -0.2850826979 0.1601709276 2.348204041e-38
0.1270042956 -0.2951096296 -0.09140729159 2.348204041e-38
0.1806090474 -0.2854902446 0.1261450499 2.348204041e-38
-0.01990861446 -0.3969193995 -0.1547152251 2.348204041e-38
0.2242517471 -0.4353182018 0.125404194 2.348204041e-38
0.2210282683 -0.4231138527 0.1220355928 2.348204041e-38
0.1075265631 -0.4568211436 0.06421603262 2.348204041e-38
-0.1071006432 -0.3595747948 0.2451344728 2.348204041e-38
-0.09421100467 -0.2472512126 0.004268541932 2.348204041e-38
-0.07847513258 -0.2632860541 0.1793486476 2.348204041e-38
-0.08250465989 -0.3921845853 -0.1411682814 2.348204041e-38
0.2207915485 -0.4654318094 0.1760085523 2.348204041e-38
0.08814973384 -0.4664963186 0.1024997681 2.348204041e-38
0.01369215921 -0.3557198644 0.2824589908 2.348204041e-38
0.1503681242 -0.2466901988 0.07592760026 2.348204041e-38
-0.1056739837 -0.2585349679 -0.06663218886 2.348204041e-38
0.08393785357 -0.2344838977 0.01628524065 2.348204041e-38
-0.1293055713 -0.3652232289 0.2213620543 2.348204041e-38
0.02978007495 -0.2661337852 0.2362346053 2.348204041e-38
0.02163666859 -0.2791655064 0.249132663 2.348204041e-38
0.0185847953 -0.4560223222 0.09710916877 2.348204041e-38
-0.203825742 -0.3275642395 -0.03619147837 2.348204041e-38
-0.1419263035 -0.3925630152 0.2256606817 2.348204041e-38
0.02886609733 -0.3660902977 0.2101038694 2.348204041e-38
0.1311989427 -0.4099080265 -0.1407850683 2.348204041e-38
0.1173231378 -0.2914805114 -0.09161294997 2.348204041e-38
0.09372999519 -0.4636491239 0.1815988421 2.348204041e-38
0.07796884328 -0.3395877481 0.268160671 2.348204041e-38
0.07210232317 -0.3232747018 0.1293855011 2.348204041e-38
-0.1702601612 -0.4359736443 0.222507745 2.348204041e-38
0.00494864583 -0.3489627242 0.137758106 2.348204041e-38
0.03790739924 -0.2902696729 0.1002169997 2.348204041e-38
-0.04625638574 -0.4632875919 -0.05599651486 2.348204041e-38
0.0868024826 -0.4506461322 -0.05349806696 2.348204041e-38
-0.05882970244 -0.2358427346 0.1398540139 2.348204041e-38
-0.08450178802 -0.4266012013 0.04234932363 2.348204041e-38
-0.1277770251 -0.2695720792 0.01304343343 2.348204041e-38
0.04599732906 -0.3437843025 0.09221969545 2.348204041e-38
0.1292562485 -0.3825988173 -0.1429755092 2.348204041e-38
0.05707361549 -0.2811316848 0.1282398552 2.348204041e-38
-0.07856498659 -0.2371850014 0.05190696567 2.348204041e-38
-0.1220195368 -0.2659548521 0.02693705261 2.348204041e-38
-0.06723465025 -0.4099788368 -0.1445629299 2.348204041e-38
0.1489263773 -0.4202824235 0.2693447769 2.348204041e-38
0.206002444 -0.3652820587 0.1021212041 2.348204041e-38
0.2079004049 -0.387589097 0.1479103863 2.348204041e-38
0.04478821903 -0.4696953297 0.06485947967 2.348204041e-38
0.168337971 -0.3361508846 -0.1361481845 2.348204041e-38
-0.1522211134 -0.3507278562 0.1769600064 2.348204041e-38
0.07581180334 -0.2185485959 0.1032906324 2.348204041e-38
-0.09621162713 -0.3962462842 -0.06113281474 2.348204041e-38
0.02372870222 -0.2920825481 0.0420383215 2.348204041e-38
-0.06603324413 -0.4403553307 -0.1413677037 2.348204041e-38
-0.01648451947 -0.3156113327 -0.01236082613 2.348204041e-38
-0.09466834366 -0.247440815 0.0008354485035 2.348204041e-38
0.04151624441 -0.4699087441 0.06247751415 2.348204041e-38
-0.1873058677 -0.320414722 0.06945022941 2.348204041e-38
-0.01807571761 -0.2216970026 -0.06152592227 2.348204041e-38
0.1441979408 -0.3965134621 0.2637163401 2.348204041e-38
0.02784093842 -0.3029651046 0.1052040756 2.348204041e-38
0.1793188751 -0.3333582878 0.1913949549 2.348204041e-38
0.222145319 -0.4409177899 0.1487984359 2.348204041e-38
0.1596405208 -0.3360230327 0.2267205715 2.348204041e-38
0.02960959077 -0.2931928337 -0.1272626221 2.348204041e-38
0.08462417126 -0.4512730241 -0.05921423435 2.348204041e-38
0.1073160842 -0.4481006563 -0.03221417964 2.348204041e-38
0.08553652465 -0.4636832476 0.05688010901 2.348204041e-38
-0.08791224658 -0.2825713158 -0.1435301304 2.348204041e-38
-0.0310204383 -0.4193500578 0.1737959981 2.348204041e-38
-0.1028177366 -0.4138669372 -0.04560539499 2.348204041e-38
-0.0697118938 -0.357589066 -0.07148020715 2.348204041e-38
-0.0122969728 -0.2139817476 0.06712412834 2.348204041e-38
-0.05710919946 -0.2384941876 0.1554387212 2.348204041e-38
-0.02411827818 -0.3371706903 0.03827253729 2.348204041e-38
-0.03163055331 -0.3284214139 -0.06081784517 2.348204041e-38
-0.05726491287 -0.2272629142 0.09207853675 2.348204041e-38
-0.1133263558 -0.3095097542 -0.1395570636 2.348204041e-38
0.0205218941 -0.4698766768 -0.04385809228 2.348204041e-38
-0.1838536859 -0.443449229 -0.07008778304 2.348204041e-38
-0.07197552919 -0.2328713834 0.04464429617 2.348204041e-38
0.08015985042 -0.3323150873 0.2651095092 2.348204041e-38
-0.1806815565 -0.3377155662 0.1133758128 2.348204041e-38
0.0327732265 -0.2533253431 -0.05216591805 2.348204041e-38
0.1374839246 -0.2938271165 0.2265395224 2.348204041e-38
-0.07365874946 -0.2813295424 -0.1478672624 2.348204041e-38
-0.0670350939 -0.2472944856 0.1700012237 2.348204041e-38
0.1359101236 -0.2811972201 -0.05139318854 2.348204041e-38
0.06457027793 -0.3261784017 0.1175208986 2.348204041e-38
0.01908696815 -0.4668175578 0.08234964311 2.348204041e-38
0.1581270993 -0.3368068933 -0.1392189562 2.348204041e-38
0.108999826 -0.4456869662 0.01355612278 2.348204041e-38
0.08481879532 -0.4634394646 0.05135133862 2.348204041e-38
0.1992271841 -0.4322936535 0.2037752569 2.348204041e-38
0.1506500244 -0.4400607347 0.04128368944 2.348204041e-38
-0.04456879944 -0.399071753 0.1047610193 2.348204041e-38
0.1859241724 -0.3015299439 0.05563251674 2.348204041e-38
0.1752967536 -0.4512472451 -0.01355500147 2.348204041e-38
-0.0945938006 -0.2475648522 0.1010181159 2.348204041e-38
0.1607293785 -0.3692441583 0.2413764 2.348204041e-38
-0.1167846024 -0.4105732739 0.2708050609 2.348204041e-38
0.05462480336 -0.2774249911 -0.1025484651 2.348204041e-38
0.004249900579 -0.3452904224 0.1288993657 2.348204041e-38
0.06704878062 -0.4435613155 -0.137892887 2.348204041e-38
0.05041950941 -0.4633320272 -0.0290915072 2.348204041e-38
0.07872832566 -0.4663139284 0.1682292074 2.348204041e-38
-0.187361896 -0.3127862811 -0.03858392686 2.348204041e-38
0.069628492 -0.3120429218 0.1201732457 2.348204041e-38
-0.1800211966 -0.4615208805 -0.04892567545 2.348204041e-38
0.1082061008 -0.3427772522 -0.144733727 2.348204041e-38
-0.2010134161 -0.3988747299 -0.06735581905 2.348204041e-38
-0.132019937 -0.4403496087 -0.07757977396 2.348204041e-38
0.07576919347 -0.4650890529 0.04328834265 2.348204041e-38
-0.1161942035 -0.4450995028 -0.01661179587 2.348204041e-38
0.1883118749 -0.3083847761 0.03608936071 2.348204041e-38
-0.1034016833 -0.3514600694 -0.1473406553 2.348204041e-38
0.1283694804 -0.2568820119 0.003914222121 2.348204041e-38
0.1767513156 -0.3557597101 0.2098560333 2.348204041e-38
0.1238207743 -0.232745409 0.09324504435 2.348204041e-38
-0.009066993371 -0.2149524242 0.08843430877 2.348204041e-38
-0.07720214874 -0.3741410375 -0.04967187345 2.348204041e-38
-0.1410062313 -0.4679347277 0.0509397313 2.348204041e-38
0.008385065943 -0.3187050819 -0.1453382671 2.348204041e-38
-0.07358719409 -0.2335555404 -0.07370550185 2.348204041e-38
0.06283617765 -0.3180853128 -0.1474274695 2.348204041e-38
0.0003933832049 -0.4717080593 -0.02191293985 2.348204041e-38
0.2164218128 -0.3853556812 0.0003653019667 2.348204041e-38
0.03563596308 -0.2122346759 0.09677296877 2.348204041e-38
-0.1415537745 -0.3404616714 0.1829761714 2.348204041e-38
-0.04745713249 -0.3658707738 0.03018365055 2.348204041e-38
0.07934871316 -0.4530645013 0.2041656971 2.348204041e-38
-0.1879793108 -0.3742372096 0.1416898817 2.348204041e-38
-0.1203448698 -0.3035192788 0.1697096825 2.348204041e-38
0.09287186712 -0.277851522 -0.07900306582 2.348204041e-38
-0.0864109993 -0.4396106303 0.0667732954 2.348204041e-38
-0.06725051999 -0.4519404471 0.1582192928 2.348204041e-38
-0.1962725222 -0.3510972857 0.1025231183 2.348204041e-38
-0.1341898739 -0.3910445869 0.2349854112 2.348204041e-38
-0.0427008383 -0.2134006619 -0.003882624209 2.348204041e-38
-0.04244739935 -0.4246014357 0.1578121036 2.348204041e-38
0.07793718576 -0.4668467641 0.08134795725 2.348204041e-38
-0.1185474545 -0.2631346583 0.008789427578 2.348204041e-38
0.04871756583 -0.258869648 -0.06300929189 2.348204041e-38
-0.08655695617 -0.3393710852 -0.1512272209 2.348204041e-38
0.2052820623 -0.3566832542 0.04140162468 2.348204041e-38
-0.08012019098 -0.3694298267 -0.07385313511 2.348204041e-38
0.1379062235 -0.3846745789 0.263127923 2.348204041e-38
-0.1997393668 -0.4446298778 -0.0469424203 2.348204041e-38
-0.1740055084 -0.4261288941 0.2095010281 2.348204041e-38
0.1356769204 -0.2473191172 0.1685407013 2.348204041e-38
0.1367843151 -0.3585771322 0.2548520863 2.348204041e-38
0.1341426969 -0.4424120784 0.005398020148 2.348204041e-38
0.07790392637 -0.4658687711 0.1744591743 2.348204041e-38
-0.09781073779 -0.444996953 0.04340519756 2.348204041e-38
0.0827524513 -0.4624783099 0.03785242885 2.348204041e-38
0.06318869442 -0.4520302117 -0.07343348861 2.348204041e-38
-0.1470698863 -0.2826218903 0.04433004558 2.348204041e-38
-0.08000041544 -0.2379458547 0.03449354321 2.348204041e-38
0.02707658708 -0.3675823212 -0.1564770788 2.348204041e-38
-0.002804132178 -0.2568179965 -0.07526468486 2.348204041e-38
-0.1163014919 -0.345145762 0.2219158709 2.348204041e-38
0.02583571151 -0.254740715 0.2229805887 2.348204041e-38
-0.08888663352 -0.2439136207 0.022114411 2.348204041e-38
0.1284613907 -0.451446712 -0.1169562191 2.348204041e-38
0.02680583671 -0.4689102173 0.07450315356 2.348204041e-38
0.03010725975 -0.4517241418 -0.1033919156 2.348204041e-38
-0.16643399 -0.3954604268 0.1932973564 2.348204041e-38
-0.02178873122 -0.3493605256 -0.03569804132 2.348204041e-38
0.02075982466 -0.366274178 0.05473338813 2.348204041e-38
0.05775114894 -0.4690980911 0.08837547898 2.348204041e-38
0.158841759 -0.4582176208 0.1480447948 2.348204041e-38
-0.01190702617 -0.3401095867 0.0768724829 2.348204041e-38
-0.04149052501 -0.4081522226 0.1299842298 2.348204041e-38
0.1782520711 -0.2946840525 -0.002131968737 2.348204041e-38
0.1950921118 -0.3414168358 0.1517996937 2.348204041e-38
-0.1798434258 -0.3177417517 0.07953819633 2.348204041e-38
-0.02123523317 -0.4522741735 -0.1418600678 2.348204041e-38
-0.1296456009 -0.4070971012 0.2535203397 2.348204041e-38
-0.008086549118 -0.4698373079 0.01372686028 2.348204041e-38
-0.1600798666 -0.3610729873 0.174327746 2.348204041e-38
-0.2144155204 -0.4178640544 -0.03876008093 2.348204041e-38
0.01674746722 -0.4215475023 0.07555496693 2.348204041e-38
0.02274806052 -0.468944639 0.06772215664 2.348204041e-38
0.1624446213 -0.3838775754 0.245727092 2.348204041e-38
0.07773070782 -0.2504721284 -0.02886406332 2.348204041e-38
0.1679370999 -0.3084536791 -0.07643017173 2.348204041e-38
-0.155295521 -0.3665623665 0.1862410903 2.348204041e-38
-0.01468060166 -0.3545970321 0.2826415598 2.348204041e-38
0.06681761146 -0.3156472445 0.2621439099 2.348204041e-38
-0.01907667704 -0.2633791268 0.2313050926 2.348204041e-38
0.1938547492 -0.323603332 0.1025848985 2.348204041e-38
0.01289409027 -0.3611943722 -0.156773299 2.348204041e-38
0.1343225241 -0.2900898159 0.2259882987 2.348204041e-38
-0.03895922378 -0.4097041488 0.1396182328 2.348204041e-38
0.1282787621 -0.3153716922 -0.1334217489 2.348204041e-38
-0.00581199117 -0.348523736 0.1092597246 2.348204041e-38
-0.07629580796 -0.3196499944 0.2436276376 2.348204041e-38
-0.130192697 -0.318919301 0.1750227213 2.348204041e-38
0.01911526546 -0.3938602209 0.06577090919 2.348204041e-38
0.05434337258 -0.2935613692 0.2549140453 2.348204041e-38
0.1602169871 -0.3374985456 -0.1392705142 2.348204041e-38
-0.1879501045 -0.4164018929 0.1812009066 2.348204041e-38
0.1475310028 -0.3992268443 0.2627565265 2.348204041e-38
-0.03844083846 -0.3694501519 0.06449502707 2.348204041e-38
0.01991456747 -0.2051999271 0.03775759041 2.348204041e-38
0.1967718005 -0.3428863287 0.1397549361 2.348204041e-38
0.1753967702 -0.3959813416 -0.02809512988 2.345219836e-38
0.1496509612 -0.3728399873 -0.05760480464 2.345219836e-38
0.1142139062 -0.3255546689 0.03174131364 2.345219836e-38
0.180279851 -0.3949462473 -0.06356873363 2.345219836e-38
-0.1418735683 -0.3562985957 0.06611984968 2.345219836e-38
0.05167301744 -0.4511294663 0.2449954152 2.345219836e-38
0.1332469583 -0.4469358325 0.202772975 2.345219836e-38
0.1913721263 -0.4212858379 0.0001431107521 2.345219836e-38
0.07779508084 -0.4473119974 0.08706262708 2.345219836e-38
-0.1717143953 -0.4660451412 0.1795540154 2.345219836e-38
-0.08168803155 -0.3389011025 0.03964596242 2.345219836e-38
0.1746566892 -0.4112121761 0.04686366022 2.345219836e-38
0.03599683195 -0.4299962819 0.237454921 2.345219836e-38
-0.1708281338 -0.4024361372 -0.01642505825 2.345219836e-38
0.062895827 -0.4491932094 0.06724593043 2.345219836e-38
-0.1906986833 -0.4401839972 0.01691240817 2.345219836e-38
-0.1937525272 -0.3762528598 0.04229769856 2.345219836e-38
-0.05590692163 -0.4533020258 0.2735447586 2.345219836e-38
0.06526403874 -0.3083930314 0.05222694576 2.345219836e-38
-0.1143007651 -0.3428239226 0.08034698665 2.345219836e-38
0.03580891341 -0.3667964637 -0.08188961446 2.345219836e-38
-0.0565077737 -0.3845655322 0.1953252256 2.345219836e-38
0.2091909051 -0.4223812819 0.1027566642 2.345219836e-38
0.08311871439 -0.4493554235 0.2339614034 2.345219836e-38
-0.1348059326 -0.4634715319 0.1743652523 2.345219836e-38
0.0294181332 -0.3089718819 0.09123399854 2.345219836e-38
0.2489910424 -0.4127621353 0.1262870431 2.345219836e-38
0.1225476936 -0.3299580216 0.04861484468 2.345219836e-38
0.1827238798 -0.4274281859 0.05702035874 2.345219836e-38
0.1132485792 -0.4028630257 0.1887149811 2.345219836e-38
0.07130729407 -0.3785229325 -0.08949778974 2.345219836e-38
0.0546335429 -0.3199576437 -0.01052953675 2.345219836e-38
-0.08308637887 -0.396841228 -0.04702856019 2.345219836e-38
-0.02877601236 -0.440960288 0.1870217621 2.345219836e-38
0.1355365813 -0.3590295911 0.09208236635 2.345219836e-38
-0.03376669064 -0.4672369659 0.07936808467 2.345219836e-38
0.1868068576 -0.4110300541 -0.02410629392 2.345219836e-38
0.08906447142 -0.4129863679 0.209397316 2.345219836e-38
-0.1647338867 -0.4613845646 0.07727541029 2.345219836e-38
-0.1034036502 -0.3686222434 -0.0382813774 2.345219836e-38
0.1222329214 -0.4479342699 0.2124052048 2.345219836e-38
-0.08117222786 -0.3392227292 -0.006204426289 2.345219836e-38
0.03059175611 -0.3221879005 -0.001460075378 2.345219836e-38
0.1344614923 -0.4417740703 -0.06540549546 2.345219836e-38
0.09700476378 -0.3982565105 0.1951496005 2.345219836e-38
-0.0799819231 -0.4567254484 -0.0115808472 2.345219836e-38
0.02117642015 -0.3333085179 -0.04863124341 2.345219836e-38
0.1034141704 -0.4408016205 0.002761274576 2.345219836e-38
-0.1319076419 -0.4634812176 0.1448458582 2.345219836e-38
0.07063735276 -0.4161960185 0.2181328535 2.345219836e-38
0.1531616151 -0.3787543774 -0.0975850001 2.345219836e-38
0.05985023826 -0.4108288884 0.2429683506 2.345219836e-38
0.08498494327 -0.3954669535 -0.08760415763 2.345219836e-38
0.1222175881 -0.3321194053 0.03389372677 2.345219836e-38
0.01498557255 -0.4538450539 -0.01404026896 2.345219836e-38
0.1914452016 -0.4344081581 0.04657866061 2.345219836e-38
0.1858254075 -0.4257081449 0.04192776233 2.345219836e-38
0.1516127884 -0.4308843613 0.1284847409 2.345219836e-38
-0.1069770455 -0.4253752232 0.195545733 2.345219836e-38
-0.1091631502 -0.346847415 -0.004942502826 2.345219836e-38
-0.08341674507 -0.3477326035 0.1276000887 2.345219836e-38
-0.05860809982 -0.4697656035 0.02596337348 2.345219836e-38
0.1951348484 -0.4572479427 0.09148417413 2.345219836e-38
0.1332016885 -0.4437091649 0.1729219854 2.345219836e-38
0.01382591948 -0.4123344719 0.2296955884 2.345219836e-38
0.08631585538 -0.3159220815 0.0011677742 2.345219836e-38
-0.1201566532 -0.377837956 -0.03988403082 2.345219836e-38
0.02778669447 -0.3270712495 -0.02993296087 2.345219836e-38
-0.1292160451 -0.4273945987 0.1741032749 2.345219836e-38
0.02282673493 -0.338712275 0.1657520682 2.345219836e-38
0.01573020592 -0.3525710106 0.1791226715 2.345219836e-38
0.04979660362 -0.4539842606 0.1856641769 2.345219836e-38
-0.2013030052 -0.3917784393 0.006970621645 2.345219836e-38
-0.1396674514 -0.4455864429 0.1836916953 2.345219836e-38
-0.02430257946 -0.4404099584 0.2692913711 2.345219836e-38
0.1507163942 -0.4412162304 -0.06504740566 2.345219836e-38
0.07617021352 -0.3959618509 -0.08514416963 2.345219836e-38
0.1312475204 -0.4479621947 0.2340589762 2.345219836e-38
0.06623195857 -0.3905875683 0.2012463808 2.345219836e-38
0.04067472368 -0.4389220476 0.218818754 2.345219836e-38
-0.1693140268 -0.4700912535 0.1887787879 2.345219836e-38
-0.04693130404 -0.4529579878 0.2076683342 2.345219836e-38
-0.003708949313 -0.4314621687 0.1899546683 2.345219836e-38
-0.00162807852 -0.4637823701 0.09048590064 2.345219836e-38
0.1334207356 -0.4304695725 0.03981278092 2.345219836e-38
-0.06708140671 -0.3310948014 0.09676016867 2.345219836e-38
-0.1035953835 -0.4616712034 0.1353754401 2.345219836e-38
-0.1381435394 -0.3530837297 0.006943807006 2.345219836e-38
0.02242038772 -0.4505438507 0.1895048916 2.345219836e-38
0.1390819848 -0.4415069222 -0.07306906581 2.345219836e-38
0.01496089622 -0.4237052798 0.21429649 2.345219836e-38
-0.0918013826 -0.3404663205 0.0270916298 2.345219836e-38
-0.1316622198 -0.3477697968 0.01550354809 2.345219836e-38
-0.03842416406 -0.4706697166 0.01541621238 2.345219836e-38
0.1267974675 -0.4353316128 0.2008891702 2.345219836e-38
0.1627647281 -0.386831224 0.01996829361 2.345219836e-38
0.1658660173 -0.4025040865 0.0634252727 2.345219836e-38
0.09192434698 -0.4521279037 0.1539270878 2.345219836e-38
0.1491661966 -0.4262355864 -0.1073767319 2.345219836e-38
-0.1519236267 -0.4187587798 0.1368126273 2.345219836e-38
0.04347904772 -0.3105119467 0.03977181017 2.345219836e-38
-0.09882857651 -0.465744108 0.06023414433 2.345219836e-38
-0.007844092324 -0.4323600233 0.146783188 2.345219836e-38
-0.0237608701 -0.4689252377 0.02719096094 2.345219836e-38
-0.0380070582 -0.4448708296 0.1027830392 2.345219836e-38
-0.1096726134 -0.3482583165 -0.006754353642 2.345219836e-38
0.0886714384 -0.4524436295 0.1527774632 2.345219836e-38
-0.1845999956 -0.3778855801 0.05259005725 2.345219836e-38
-0.06247681752 -0.373426944 -0.05742134154 2.345219836e-38
0.1223233119 -0.4173271358 0.1921585202 2.345219836e-38
-0.01727007516 -0.436503917 0.1902341843 2.345219836e-38
0.136199683 -0.3605241179 0.09307271242 2.345219836e-38
0.1895611882 -0.4407365024 0.06788057089 2.345219836e-38
0.1297548115 -0.361965239 0.131456241 2.345219836e-38
0.01925408095 -0.4243528247 -0.06065092981 2.345219836e-38
0.1311825216 -0.4311955273 0.03631302714 2.345219836e-38
0.1523142457 -0.4288281798 0.04735206068 2.345219836e-38
0.1329603493 -0.4356026351 0.1332986504 2.345219836e-38
-0.09419329464 -0.4457406104 -0.02450150624 2.345219836e-38
-0.07109464705 -0.461512506 0.2377327681 2.345219836e-38
-0.1076555997 -0.4657016695 0.07022945583 2.345219836e-38
-0.07314804196 -0.4624778032 0.05797248334 2.345219836e-38
-0.03477528691 -0.3206956983 0.02498944104 2.345219836e-38
-0.06443724781 -0.3293682635 0.1091821343 2.345219836e-38
-0.05643243343 -0.4496318102 0.1336092353 2.345219836e-38
-0.0441317521 -0.4526645243 0.0756444931 2.345219836e-38
-0.06981472671 -0.3352577686 0.05656702816 2.345219836e-38
-0.1142542884 -0.4452132583 -0.02559994906 2.345219836e-38
0.07227602601 -0.4474240839 0.07523702085 2.345219836e-38
-0.1739158034 -0.4628601074 0.03907544166 2.345219836e-38
-0.08665542305 -0.3403571248 0.01988524944 2.345219836e-38
0.06782851368 -0.3839939535 0.1961514652 2.345219836e-38
-0.1778307557 -0.4010312259 0.08800877631 2.345219836e-38
-0.01709786057 -0.3661927283 -0.06934142858 2.345219836e-38
0.1101273522 -0.3346402645 0.1300615072 2.345219836e-38
-0.08066280186 -0.4491505027 -0.01995180175 2.345219836e-38
-0.07322090864 -0.3337413371 0.1204698682 2.345219836e-38
0.07694702595 -0.3644085526 -0.08963315189 2.345219836e-38
0.03460521251 -0.4414538145 0.2095835805 2.345219836e-38
0.06123106927 -0.4524347186 0.1729646176 2.345219836e-38
0.1439494789 -0.4311831594 -0.09982994199 2.345219836e-38
0.155457139 -0.424883008 0.08343036473 2.345219836e-38
0.1325683892 -0.4343993962 0.1285553277 2.345219836e-38
0.1715384722 -0.434171766 0.1134380698 2.345219836e-38
0.1922483742 -0.4252920449 0.09696441889 2.345219836e-38
-0.08052845299 -0.4633255005 0.1839006841 2.345219836e-38
0.1261335909 -0.349488169 -0.02256874368 2.345219836e-38
0.2120446861 -0.427770406 0.03985755891 2.345219836e-38
-0.09937173128 -0.3375043869 0.06889840961 2.345219836e-38
0.1335577667 -0.3887314796 0.155503273 2.345219836e-38
-0.1122104824 -0.4621046185 0.2294505537 2.345219836e-38
0.02665319294 -0.4017793834 -0.07279931754 2.345219836e-38
-0.04655965418 -0.4517329335 0.2007336915 2.345219836e-38
0.1109608486 -0.4422297478 -0.01890067384 2.345219836e-38
0.09950690717 -0.4363322556 0.07478384674 2.345219836e-38
0.1171835586 -0.4477460682 0.2277801931 2.345219836e-38
-0.1885167956 -0.3882573247 -0.005310598761 2.345219836e-38
0.0361084938 -0.4340177774 0.2123776972 2.345219836e-38
-0.1707247794 -0.4619369507 0.05989239365 2.345219836e-38
0.1079309061 -0.4362468123 -0.07092987001 2.345219836e-38
-0.1936426163 -0.4410872459 0.02166301757 2.345219836e-38
-0.1249077767 -0.470541209 0.04997830838 2.345219836e-38
0.1247766092 -0.4351592064 0.1263675988 2.345219836e-38
-0.1203893498 -0.4671113193 0.09182779491 2.345219836e-38
0.1293924451 -0.3550777137 -0.03806464374 2.345219836e-38
-0.08945322782 -0.4679073989 0.002490900457 2.345219836e-38
0.06491681188 -0.3287928402 -0.05149628967 2.345219836e-38
0.1405252516 -0.3770422935 0.1139578968 2.345219836e-38
0.06751787663 -0.3122483492 0.02383559197 2.345219836e-38
-0.02544219792 -0.3207451105 0.04563567042 2.345219836e-38
-0.08596529067 -0.4655092359 0.06888212264 2.345219836e-38
-0.1504698992 -0.4598128796 0.1344770193 2.345219836e-38
0.0138768442 -0.4389146268 -0.04772953689 2.345219836e-38
-0.09470126033 -0.3805193305 -0.04995045438 2.345219836e-38
0.06183259189 -0.4369168282 -0.06126038358 2.345219836e-38
0.04984400421 -0.4537441432 0.09838093817 2.345219836e-38
0.1788310111 -0.3932546973 -0.06447536498 2.345219836e-38
0.01633540541 -0.3104929328 0.04341333359 2.345219836e-38
-0.1422892511 -0.4118459225 0.1391046494 2.345219836e-38
-0.07525549829 -0.4545440078 0.1237718016 2.345219836e-38
0.1026209965 -0.4442280829 0.259665817 2.345219836e-38
-0.1858840287 -0.4306176603 0.1163394898 2.345219836e-38
-0.1220646277 -0.3797338903 0.1239323765 2.345219836e-38
0.04734546691 -0.3859679103 -0.08378960937 2.345219836e-38
-0.1064299792 -0.4628519714 0.153846398 2.345219836e-38
-0.09860929102 -0.4679808319 0.2212096453 2.345219836e-38
-0.1967725456 -0.407983005 0.07995609939 2.345219836e-38
-0.1318062991 -0.4436223805 0.1905946732 2.345219836e-38
-0.07132022083 -0.3398589194 -0.02676586062 2.345219836e-38
-0.07930958271 -0.463581115 0.2254087329 2.345219836e-38
0.12544927 -0.4416888058 0.158489868 2.345219836e-38
-0.1303195655 -0.3522648215 0.002897590399 2.345219836e-38
0.001508407295 -0.3725741506 -0.07504049689 2.345219836e-38
-0.07583810389 -0.463373512 0.01015826315 2.345219836e-38
0.1602513492 -0.3771348894 -0.02909247205 2.345219836e-38
-0.08223468065 -0.4661808014 0.05494867265 2.345219836e-38
0.1165378615 -0.410241127 0.1913597584 2.345219836e-38
-0.1912016571 -0.4530839324 0.04978146404 2.345219836e-38
-0.1722437739 -0.464869976 0.1770993918 2.345219836e-38
0.09133710712 -0.3049153686 0.07513961196 2.345219836e-38
0.1142659411 -0.3885122538 0.1765734553 2.345219836e-38
0.1758734882 -0.4264198244 0.06719328463 2.345219836e-38
0.115573518 -0.4475699067 0.232619524 2.345219836e-38
-0.1128727645 -0.4625325799 0.1358103454 2.345219836e-38
0.1311229169 -0.4315523803 0.1171945781 2.345219836e-38
0.1126387045 -0.4346417487 0.03543732315 2.345219836e-38
-0.1506307274 -0.3483473659 0.03169335425 2.345219836e-38
-0.09455280006 -0.3412881792 0.01417420805 2.345219836e-38
0.05127033591 -0.4510838389 -0.03607780486 2.345219836e-38
-0.04656583443 -0.3885857463 -0.05948098749 2.345219836e-38
-0.1182010546 -0.4131482244 0.1704458296 2.345219836e-38
0.0191068165 -0.3293058872 0.1555410624 2.345219836e-38
-0.1032489687 -0.3421979547 0.006174504757 2.345219836e-38
0.1619223356 -0.437504828 -0.03558567911 2.345219836e-38
0.07135184854 -0.4523668587 0.1658965945 2.345219836e-38
0.0819054544 -0.4416419566 0.02380079031 2.345219836e-38
-0.1641652286 -0.4485909045 0.1596277803 2.345219836e-38
-0.0319381766 -0.4603942037 0.09606474638 2.345219836e-38
0.007898580283 -0.4593896568 0.1622660905 2.345219836e-38
0.1040501818 -0.4503577054 0.1696944237 2.345219836e-38
0.1967654526 -0.4331866801 0.1911824942 2.345219836e-38
-0.05215785652 -0.4490475059 0.1615742594 2.345219836e-38
-0.07959706336 -0.4647557139 0.2038324475 2.345219836e-38
0.1146792099 -0.3522234559 -0.06919788569 2.345219836e-38
0.1467454135 -0.3692467213 0.0617159605 2.345219836e-38
-0.1773185432 -0.3783714771 0.05981423706 2.345219836e-38
0.0365062952 -0.4510619938 0.01385775208 2.345219836e-38
-0.1262595803 -0.4564245939 0.2105994225 2.345219836e-38
0.0363356024 -0.4548401833 0.1279495656 2.345219836e-38
-0.1587601602 -0.4247785211 0.1368109584 2.345219836e-38
-0.2071903348 -0.4360010028 0.04146892577 2.345219836e-38
0.02417469025 -0.4572740495 0.1742400378 2.345219836e-38
0.06750883162 -0.4520438313 0.1615055352 2.345219836e-38
0.1359985769 -0.4002213776 0.1622380614 2.345219836e-38
0.02205079421 -0.3433994651 -0.06386023015 2.345219836e-38
0.1134280339 -0.3896196187 -0.1072145849 2.345219836e-38
-0.1539164186 -0.4285915494 0.1469498277 2.345219836e-38
-0.01391753927 -0.4146884382 0.2339259684 2.345219836e-38
0.05591692775 -0.373572588 0.1919521391 2.345219836e-38
-0.02594920993 -0.3451971412 0.1690168083 2.345219836e-38
0.1428248584 -0.356789887 0.01518849283 2.345219836e-38
0.03582433611 -0.4507911205 -0.03475116566 2.345219836e-38
0.1077123359 -0.3321265578 0.1295642853 2.345219836e-38
-0.07783451676 -0.4644277394 0.2110456228 2.345219836e-38
0.1116748825 -0.4247761369 -0.08346316218 2.345219836e-38
-0.05248437077 -0.4527453184 0.1854947507 2.345219836e-38
-0.0799652338 -0.3950571716 0.1884971559 2.345219836e-38
-0.1316160411 -0.3941677213 0.1301401407 2.345219836e-38
0.01550265402 -0.4600664973 0.1685953587 2.345219836e-38
0.04423182458 -0.3578690588 0.1822092831 2.345219836e-38
0.1456238329 -0.4306187928 -0.1013690978 2.345219836e-38
-0.1858992279 -0.4561665654 0.1535082608 2.345219836e-38
0.1250208318 -0.4182399511 0.1906988323 2.345219836e-38
-0.07289227843 -0.4578045011 0.1509032845 2.345219836e-38
-0.01961303316 -0.318748951 -0.003627505153 2.345219836e-38
0.1491411626 -0.3705272079 0.05082146823 2.345219836e-38
0.1752001047 -0.3172214031 0.02668222785 2.341805152e-38
0.1553657353 -0.2587947249 -0.005178622901 2.341805152e-38
0.1233379915 -0.1806114763 0.0800716728 2.341805152e-38
0.1760380566 -0.3196188211 -0.008934684098 2.341805152e-38
-0.1422914714 -0.2228631675 0.03091007471 2.341805152e-38
0.04085315764 -0.3257761896 0.2501034439 2.341805152e-38
0.1312141716 -0.3595372438 0.2305263579 2.341805152e-38
0.1877005994 -0.3596593738 0.05837812275 2.341805152e-38
0.0001542530954 -0.4576501846 0.03202579916 2.341805152e-38
-0.1739816368 -0.3829641342 0.1612662673 2.341805152e-38
-0.07959277928 -0.1747463644 0.004545837641 2.341805152e-38
0.1795798242 -0.3338332176 0.1012353003 2.341805152e-38
0.01944927871 -0.2915780544 0.2401504219 2.341805152e-38
-0.1518647075 -0.3448896408 -0.05228090659 2.341805152e-38
-0.01367657073 -0.45841676 0.006588742137 2.341805152e-38
-0.1626337469 -0.4234793484 -0.008175630122 2.341805152e-38
-0.1879479885 -0.2807704508 0.008438088 2.341805152e-38
-0.006451051682 -0.38770473 0.2365089357 2.341805152e-38
0.04224730283 -0.1383962631 0.06467145681 2.341805152e-38
-0.1182208732 -0.202472955 0.04473243654 2.341805152e-38
0.01829372346 -0.2259011567 -0.07132460177 2.341805152e-38
-0.06883279979 -0.2152037323 0.1857025921 2.341805152e-38
0.130099535 -0.423677206 0.1015057713 2.341805152e-38
0.07561751455 -0.3344605863 0.2465284765 2.341805152e-38
-0.08199575543 -0.4261466563 0.1472382843 2.341805152e-38
-0.002956317738 -0.1359841228 0.08306369185 2.341805152e-38
0.1707308292 -0.4199854136 0.1309027672 2.341805152e-38
0.134213388 -0.1926832795 0.1019221097 2.341805152e-38
0.1851176322 -0.3585292399 0.1106717587 2.341805152e-38
0.1079493687 -0.287909627 0.2182600796 2.341805152e-38
0.04804733396 -0.223731786 -0.08366131783 2.341805152e-38
0.04661300778 -0.1667669415 0.0132888481 2.341805152e-38
-0.06716394424 -0.2099304795 -0.09613540769 2.341805152e-38
0.01393494755 -0.2900646031 0.1230109036 2.341805152e-38
0.1479482949 -0.2423697561 0.1456846744 2.341805152e-38
-0.0232347846 -0.3333261013 -0.02634064853 2.341805152e-38
0.1834957898 -0.3444978893 0.03259542584 2.341805152e-38
0.0788821131 -0.2873808742 0.2288709879 2.341805152e-38
-0.1223021001 -0.4212721288 0.05599770695 2.341805152e-38
-0.09269866347 -0.218021512 -0.0830322206 2.341805152e-38
0.05793046206 -0.4424833059 0.1662983149 2.341805152e-38
-0.07392212749 -0.1694975495 -0.04358011484 2.341805152e-38
0.01977491751 -0.1530264616 0.01661708206 2.341805152e-38
0.05102981627 -0.3930426836 -0.1058045998 2.341805152e-38
0.0869621411 -0.2690859735 0.2197393775 2.341805152e-38
-0.07325752079 -0.2837702632 -0.1030451357 2.341805152e-38
0.01671260223 -0.1959376633 -0.02611013129 2.341805152e-38
0.01797879487 -0.4331453741 -0.05131027848 2.341805152e-38
-0.07950224727 -0.4055922925 0.1177283376 2.341805152e-38
0.05944828689 -0.2823743522 0.2323561311 2.341805152e-38
0.1525495946 -0.2692690492 -0.04573306069 2.341805152e-38
0.08713125437 -0.2447071075 0.1570553333 2.341805152e-38
0.0495185405 -0.2475085557 -0.09999418259 2.341805152e-38
0.1328915954 -0.193165645 0.08675976098 2.341805152e-38
-0.05610005558 -0.4389520884 -0.09327232838 2.341805152e-38
0.1902934015 -0.3760121465 0.1011336744 2.341805152e-38
0.1866987646 -0.3604591489 0.09707956016 2.341805152e-38
0.07689441741 -0.4388232231 0.1109550446 2.341805152e-38
-0.1135675684 -0.2925494313 0.1839866638 2.341805152e-38
-0.1054255962 -0.2016634792 -0.05439980328 2.341805152e-38
-0.08956955373 -0.1878668517 0.1060135663 2.341805152e-38
-0.0537455976 -0.3306186497 -0.07700359076 2.341805152e-38
0.1927615404 -0.4119854569 0.1441155374 2.341805152e-38
0.05816353112 -0.4488655329 0.138845101 2.341805152e-38
-0.008557923138 -0.2578883469 0.2302665114 2.341805152e-38
0.08758311719 -0.1642072946 0.03040863574 2.341805152e-38
-0.1094705611 -0.2598066926 -0.08184594661 2.341805152e-38
0.02275213227 -0.1800641119 -0.006498683244 2.341805152e-38
-0.1340421736 -0.3047703505 0.1615036875 2.341805152e-38
-0.009349964559 -0.1558316052 0.163282901 2.341805152e-38
-0.01354891807 -0.1703829765 0.1782619655 2.341805152e-38
0.03293894231 -0.3971108496 0.1056452841 2.341805152e-38
-0.1845740378 -0.3779064417 -0.01986049488 2.341805152e-38
-0.1463099122 -0.3391263187 0.1699650437 2.341805152e-38
0.02194856107 -0.3390266597 0.2178010941 2.341805152e-38
0.06808927655 -0.4038772583 -0.09586787224 2.341805152e-38
0.03992199898 -0.2475576103 -0.09954641759 2.341805152e-38
0.0711870715 -0.4381795526 0.1907664537 2.341805152e-38
0.05182572454 -0.2381240427 0.2188397944 2.341805152e-38
0.07745714486 -0.2650840878 0.1269512177 2.341805152e-38
-0.1715825796 -0.3904236555 0.171772778 2.341805152e-38
0.002994354814 -0.3230519295 0.1535410285 2.341805152e-38
0.03177568316 -0.2660097778 0.1155632138 2.341805152e-38
-0.02592869103 -0.3958750665 -0.003939174116 2.341805152e-38
0.04736556858 -0.4322182238 0.004685260355 2.341805152e-38
-0.07210855186 -0.1712013185 0.06804537773 2.341805152e-38
-0.05512289703 -0.3589405417 0.09283381701 2.341805152e-38
-0.1338528693 -0.2232251316 -0.04472254962 2.341805152e-38
0.05555209517 -0.2861527801 0.09198601544 2.341805152e-38
0.06025826186 -0.3870154917 -0.1075486168 2.341805152e-38
0.04630907625 -0.2627497315 0.1369533539 2.341805152e-38
-0.08837448061 -0.1807463467 -0.01127340272 2.341805152e-38
-0.127440691 -0.2118723541 -0.03138641268 2.341805152e-38
-0.06395870447 -0.377009511 -0.08235033602 2.341805152e-38
0.1250005662 -0.3408460617 0.2286868393 2.341805152e-38
0.169059962 -0.2937535048 0.07518710196 2.341805152e-38
0.1740488112 -0.3159648776 0.1159959733 2.341805152e-38
0.02192632109 -0.4522626698 0.1021730602 2.341805152e-38
0.09976618737 -0.3283616006 -0.1113970056 2.341805152e-38
-0.1535312235 -0.2964414954 0.1197755337 2.341805152e-38
0.02089709789 -0.1374032348 0.04794541001 2.341805152e-38
-0.06436699629 -0.3275895715 0.005984798074 2.341805152e-38
0.02073620632 -0.2544811964 0.06157281995 2.341805152e-38
-0.06054938212 -0.3999595344 -0.06707173586 2.341805152e-38
-0.01201615483 -0.272046268 0.0225160569 2.341805152e-38
-0.1057923958 -0.2038057446 -0.0566765368 2.341805152e-38
0.01962461323 -0.451731503 0.09954680502 2.341805152e-38
-0.1803701222 -0.2726362646 0.02017626911 2.341805152e-38
-0.0492092967 -0.1765842289 -0.08017508686 2.341805152e-38
0.12024533 -0.3140512109 0.2222117186 2.341805152e-38
0.02306871116 -0.2794041038 0.1215647012 2.341805152e-38
0.1484425962 -0.2451047301 0.1465890408 2.341805152e-38
0.1896509528 -0.3816044629 0.1208254993 2.341805152e-38
0.131527245 -0.2453706563 0.1811182946 2.341805152e-38
-0.02211608924 -0.3307121098 -0.0997422412 2.341805152e-38
0.0448199138 -0.4321809709 -0.0007593333721 2.341805152e-38
0.06684384495 -0.425213486 0.02415506542 2.341805152e-38
0.05544031411 -0.4480659068 0.1019763649 2.341805152e-38
-0.08384242654 -0.2791054547 -0.09806884825 2.341805152e-38
-0.02157448046 -0.3824698627 0.1928058863 2.341805152e-38
-0.06872868538 -0.3406435251 0.02127896249 2.341805152e-38
-0.04866573215 -0.2992295027 -0.01245526597 2.341805152e-38
-0.03681490198 -0.1420793384 0.01380357146 2.341805152e-38
-0.07160824537 -0.1709705889 0.08091308177 2.341805152e-38
-0.01864349097 -0.2992871404 0.07104629278 2.341805152e-38
-0.02026229165 -0.2702112794 -0.01529086009 2.341805152e-38
-0.06947268546 -0.1680715084 0.02576244622 2.341805152e-38
-0.1003008857 -0.3115259409 -0.08582170308 2.341805152e-38
-0.005265837535 -0.457982868 0.01840873808 2.341805152e-38
-0.1381478459 -0.422804445 0.01691007614 2.341805152e-38
-0.08285337687 -0.1759555191 -0.01783237606 2.341805152e-38
0.05281012505 -0.2287364155 0.2151517272 2.341805152e-38
-0.176664263 -0.2876979709 0.06233476102 2.341805152e-38
-0.01916059479 -0.2188076675 -0.0634194538 2.341805152e-38
0.09836133569 -0.1919633597 0.1712552011 2.341805152e-38
-0.07317170501 -0.2708047628 -0.104763113 2.341805152e-38
-0.0809552148 -0.1782372296 0.09347394109 2.341805152e-38
0.06078317016 -0.2155275941 -0.06906498969 2.341805152e-38
0.07100832462 -0.2684631348 0.116117686 2.341805152e-38
0.02278016135 -0.4231885672 0.1002046317 2.341805152e-38
