# .PCD v0.7 - Point Cloud Data file format
VERSION 0.7
FIELDS x y z rgb
SIZE 4 4 4 4
TYPE F F F F
COUNT 1 1 1 1
WIDTH 825
HEIGHT 1
VIEWPOINT 0 0 0 1 0 0 0
POINTS 825
DATA ascii
-0.2249616086 -0.07549673319 -0.09460145235 6.490113838e-41
0.125120759 -0.4300116003 0.1439862996 6.490113838e-41
-0.2304676771 -0.3719682693 0.1176616848 6.490113838e-41
-0.09467408806 -0.4879456162 0.06797917187 6.490113838e-41
-0.1996600032 0.06229969859 0.2326903641 6.490113838e-41
-0.1677938104 0.06828394532 0.2057109177 6.490113838e-41
-0.2336928546 -0.2811286449 0.02021318674 6.490113838e-41
0.1505880058 0.0715379715 -0.1940315217 6.490113838e-41
0.1322322488 0.0632776022 -0.2116586417 6.490113838e-41
-0.03683388233 -0.4865560234 0.01835710742 6.490113838e-41
-0.223351717 0.05001869798 -0.09957888722 6.490113838e-41
-0.1927671432 -0.3546211123 0.1858195364 6.490113838e-41
0.1365323663 -0.4241190553 0.05625841022 6.490113838e-41
-0.2226217091 -0.1494197696 0.1195703149 6.490113838e-41
-0.2296012938 -0.3230314553 0.1032531708 6.490113838e-41
-0.232272774 -0.3142479062 -0.008691630326 6.490113838e-41
-0.2070190609 0.06057319045 0.08552798629 6.490113838e-41
-0.2240116596 0.04722806811 0.01027467661 6.490113838e-41
-0.235022217 0.04021516442 -0.1911174059 6.490113838e-41
-0.2335578799 -0.3606814146 0.04715117812 6.490113838e-41
-0.2272330523 -0.02560424805 -0.04785624519 6.490113838e-41
-0.2308369279 -0.1895061731 0.07784841955 6.490113838e-41
-0.2272565365 0.009679377079 -0.1719377637 6.490113838e-41
-0.2358342707 -0.4784075022 -0.1325253099 6.490113838e-41
-0.2294037938 -0.2999274731 0.05364430696 6.490113838e-41
-0.2262515426 -0.1073066592 0.1216326505 6.490113838e-41
-0.2346566319 -0.1980720609 0.001986871241 6.490113838e-41
-0.2192235589 -0.3116879165 0.1470118314 6.490113838e-41
-0.2364193201 -0.07241807878 0.03324507922 6.490113838e-41
-0.1686255038 -0.216992721 0.2640102804 6.490113838e-41
-0.08465778828 -0.4638002813 0.1406025887 6.490113838e-41
0.04525841027 0.07374283671 -0.1405506581 6.490113838e-41
-0.2294027507 0.03406637907 0.2682135999 6.490113838e-41
-0.07812851667 -0.4408513904 -0.1753377765 6.490113838e-41
-0.2284694314 -0.4087100923 0.1079793274 6.490113838e-41
-0.1425541937 -0.4809037447 -0.1238639355 6.490113838e-41
0.03790000081 0.07511559129 -0.1062155664 6.490113838e-41
-0.04667985439 -0.2823467851 -0.08671759069 6.490113838e-41
-0.2204951346 -0.3253411949 0.144806549 6.490113838e-41
-0.234855473 -0.3872259855 0.04508265853 6.490113838e-41
-0.0635740608 0.02413478494 0.0132428091 6.490113838e-41
-0.2252852619 0.03279557824 0.2461754829 6.490113838e-41
0.09246698022 -0.4502283335 -0.05923533812 6.490113838e-41
-0.03723713383 -0.4848987758 -0.06789378822 6.490113838e-41
-0.005150366575 0.0386634171 -0.1888461262 6.490113838e-41
-0.1838361621 -0.3240720034 0.02742079273 6.490113838e-41
-0.2172862291 -0.3300141096 0.1572565734 6.490113838e-41
-0.2197017074 -0.1895142794 0.1856940687 6.490113838e-41
-0.2380424142 -0.4694008827 -0.06413988769 6.490113838e-41
-0.2024684846 -0.3383302689 0.2305830568 6.490113838e-41
-0.2341707349 -0.2715568542 -0.02997613326 6.490113838e-41
-0.02752181329 -0.4848865271 -0.0351380147 6.490113838e-41
-0.2247060537 -0.4851709604 -0.02086999454 6.490113838e-41
-0.2376895845 -0.4411048889 -0.004877263214 6.490113838e-41
0.1285617352 0.06136521697 -0.2126997709 6.490113838e-41
-0.1858499944 0.06873682141 -0.1132046878 6.490113838e-41
-0.2169840038 0.03703165054 0.153600812 6.490113838e-41
-0.2235830128 -0.2748368979 -0.1704574078 6.490113838e-41
-0.2117605805 -0.281850934 0.2000247985 6.490113838e-41
-0.2151794434 0.02108669281 0.1569989473 6.490113838e-41
-0.2291852236 -0.4079560339 -0.004859091248 6.490113838e-41
-0.2018711865 -0.3253868222 0.2089316249 6.490113838e-41
-0.2172667086 -0.2378484607 0.1909651011 6.490113838e-41
-0.2226429284 0.01092001796 0.04010498524 6.490113838e-41
-0.2247431576 0.04578828812 0.2253660858 6.490113838e-41
-0.2185546756 -0.1368367225 0.1871794462 6.490113838e-41
-0.2236136198 -0.1787483841 0.1116413176 6.490113838e-41
-0.2329241037 -0.380781889 0.09972968698 6.490113838e-41
0.06871557981 -0.4844842553 -0.1025942117 6.490113838e-41
-0.2280601561 -0.4054458141 -0.09630541503 6.490113838e-41
-0.2101097703 -0.433570236 0.1907602996 6.490113838e-41
-0.1602678895 -0.3297504485 -0.1910395473 6.490113838e-41
-0.2253963649 0.02402764559 0.2573032081 6.490113838e-41
-0.1680748463 -0.2273810804 0.2594238222 6.490113838e-41
-0.08789619803 0.0397656858 -0.01810190268 6.490113838e-41
-0.2244068086 -0.1711948663 0.1083593965 6.490113838e-41
-0.2273071706 -0.3753574193 -0.05151638761 6.490113838e-41
-0.2119367421 -0.1355239004 0.1639056057 6.490113838e-41
-0.1013878286 -0.4817530513 -0.1144251227 6.490113838e-41
-0.231785953 -0.1564496458 0.07507269084 6.490113838e-41
-0.2337698638 -0.08679637313 0.06123206019 6.490113838e-41
-0.2027511597 -0.2688081861 0.1334700286 6.490113838e-41
-0.1221820116 0.06813520193 -0.1607577801 6.490113838e-41
-0.1693859994 -0.2485950589 0.2018510997 6.490113838e-41
-0.1293552518 0.0710862875 0.06479088962 6.490113838e-41
-0.1811514199 0.01303732395 -0.1737370193 6.490113838e-41
0.05556832999 0.04575285316 -0.1977897733 6.490113838e-41
-0.2217660248 -0.1616237313 0.13378869 6.490113838e-41
-0.09154312313 -0.4542033672 0.1588038653 6.490113838e-41
-0.2251358926 0.01663190126 0.0264969226 6.490113838e-41
-0.2038930953 -0.3448118567 0.2340999544 6.490113838e-41
-0.219492197 -0.1307298988 -0.1788423359 3.015101038e-39
-0.2237213254 -0.1412154436 -0.0332878679 3.015101038e-39
-0.1815270782 -0.3473256826 0.1658631116 3.015101038e-39
-0.225833863 -0.04918533564 0.1823745072 3.015101038e-39
-0.04006957263 -0.3889783025 0.3052568436 3.015101038e-39
-0.100103043 -0.4858718812 0.02093683742 3.015101038e-39
0.05182671547 -0.4226583242 0.05911365524 3.015101038e-39
-0.2311958075 -0.3848137558 -0.1156389564 3.015101038e-39
-0.1546097994 -0.4868791401 0.08956629038 3.015101038e-39
-0.2280838788 -0.2740430534 0.03511461243 3.015101038e-39
-0.1488741338 -0.4758447409 0.122887224 3.015101038e-39
-0.1421656311 -0.4865211546 -0.08786839247 3.015101038e-39
-0.2110212445 -0.178327471 -0.1758934706 3.015101038e-39
0.012578886 -0.04744103551 -0.1360762268 3.015101038e-39
-0.2168650329 -0.2396147847 0.1679319292 3.015101038e-39
-0.2126815021 -0.4485257268 -0.205514878 3.015101038e-39
-0.110786438 -0.3833631873 0.2722913027 3.015101038e-39
0.14913854 0.07323378325 -0.1563855708 3.015101038e-39
0.04111819714 0.04620832205 -0.1849836409 3.015101038e-39
-0.01806069538 0.02926501632 -0.1136443466 3.015101038e-39
0.1292457879 0.07222664356 -0.09885451198 3.015101038e-39
-0.2251636088 -0.1299689412 0.2054921091 3.015101038e-39
0.02456331998 0.05790823698 -0.182385534 3.015101038e-39
-0.2177299261 -0.3734628558 -0.1766185313 3.015101038e-39
-0.2261030972 -0.03513488173 -0.003487827722 3.015101038e-39
-0.2102065384 -0.4352590442 0.2025574148 3.015101038e-39
-0.2297103107 -0.2449819744 0.1323205233 3.015101038e-39
-0.2447613776 -0.4813196063 -0.1220448166 3.015101038e-39
-0.1717214882 -0.4609789848 -0.2009207457 3.015101038e-39
-0.2273705006 0.01070082188 0.009853335097 3.015101038e-39
-0.2246643305 -0.1210106909 0.1081810892 3.015101038e-39
-0.2283021808 -0.1312064379 0.2049512267 3.015101038e-39
0.08317894489 -0.3787210882 0.3253925443 3.015101038e-39
-0.2243336439 -0.1701218486 0.1897156984 3.015101038e-39
-0.1159924567 -0.4098831415 -0.2089231163 3.015101038e-39
-0.2285873592 -0.1958724558 0.04125826433 3.015101038e-39
-0.04595763981 0.07293626666 -0.09590986371 3.015101038e-39
-0.2057884336 0.02026093006 -0.1198389977 3.015101038e-39
-0.001289825886 -0.4023371935 0.2825146019 3.015101038e-39
-0.231531322 -0.2530295849 0.1191274077 3.015101038e-39
-0.2115406692 -0.4410594702 0.1940332651 3.015101038e-39
-0.1050187945 0.06896275282 0.07385356724 3.015101038e-39
-0.07505378127 0.07116687298 0.05456952378 3.015101038e-39
-0.2254115343 -0.1721145362 0.0005731438287 3.015101038e-39
-0.02402411215 -0.2693833113 -0.1020997167 3.015101038e-39
-0.04014499485 -0.3338657618 -0.1190262884 3.015101038e-39
-0.2089295089 -0.4677508473 0.142933175 3.015101038e-39
-0.2185010612 -0.0971519351 -0.1797568202 3.015101038e-39
-0.2112340629 -0.2796069384 0.145581305 3.015101038e-39
0.04675852507 -0.4261052012 0.2471911758 3.015101038e-39
-0.2225443423 -0.08611795306 0.1189803928 3.015101038e-39
-0.2307108939 -0.2121602148 0.09190145135 3.015101038e-39
-0.2236406207 -0.1858444065 -0.02915087342 3.015101038e-39
-0.1744423807 0.07214173675 -0.076723665 3.015101038e-39
-0.2240343392 0.04033076763 -0.1342021227 3.015101038e-39
-0.2151447237 -0.225539133 -0.1766980588 3.015101038e-39
-0.2268113196 -0.2356595397 0.04268557951 3.015101038e-39
-0.2158889174 0.03341060877 -0.07224395871 3.015101038e-39
-0.2313394547 -0.1047303677 0.05356700718 3.015101038e-39
-0.2119903564 -0.3183044195 -0.1808572263 3.015101038e-39
-0.2230297923 -0.2994422615 -0.05880562589 3.015101038e-39
-0.228263706 -0.1855544895 0.03828151152 3.015101038e-39
-0.2231820524 -0.04897469282 0.1208829731 3.015101038e-39
-0.2243947685 -0.1054833978 -0.02221509255 3.015101038e-39
-0.225551039 -0.2056221664 0.1557696313 3.015101038e-39
-0.2289135158 -0.001939952374 0.02147218585 3.015101038e-39
-0.1893173158 -0.1885680705 0.2330721319 3.015101038e-39
-0.1873362362 -0.4121513963 0.2408574224 3.015101038e-39
-0.1074333489 -0.09499247372 -0.1785565019 3.015101038e-39
-0.195341289 0.06362682581 0.1549616158 3.015101038e-39
-0.2019172609 -0.4846981466 -0.05349865556 3.015101038e-39
-0.2336255908 -0.2920355201 0.1223880649 3.015101038e-39
-0.2308829129 -0.4399517775 0.01242810953 3.015101038e-39
-0.09467560798 -0.04774186015 -0.1784303486 3.015101038e-39
0.01906389743 -0.4838955402 -0.1154952049 3.015101038e-39
-0.2266943455 -0.2201190293 0.1542667001 3.015101038e-39
-0.2277387083 -0.2560718358 0.0481204018 3.015101038e-39
-0.04664570093 0.07487630844 -0.0470803529 3.015101038e-39
-0.2016876638 0.06250116229 0.1349632889 3.015101038e-39
0.02558555454 -0.4632480741 0.1193978637 3.015101038e-39
-0.2159872651 -0.4793833494 0.06189895049 3.015101038e-39
-0.1227764711 -0.318688035 -0.1728154123 3.015101038e-39
-0.2021383047 -0.2117283642 0.06336818635 3.015101038e-39
-0.2264471352 -0.2261711657 0.1690761894 3.015101038e-39
-0.2248992324 -0.1093727052 0.1906009465 3.015101038e-39
-0.2263622284 -0.3208656609 0.00619844906 3.015101038e-39
-0.2175640464 -0.2605955005 0.2184376568 3.015101038e-39
-0.2220395207 -0.1367455125 -0.06020024046 3.015101038e-39
-0.2095276415 -0.4829903543 0.09680056572 3.015101038e-39
-0.2326114476 -0.3827645183 0.06542435288 3.015101038e-39
-0.230281651 -0.3079407811 0.03888824582 3.015101038e-39
-0.04063858837 -0.3441926837 -0.1217648238 3.015101038e-39
-0.190123111 -0.0792542547 -0.1728546023 3.015101038e-39
-0.2082316875 0.06401458383 0.03559785336 3.015101038e-39
-0.2295648158 -0.4192182124 -0.1652252674 3.015101038e-39
-0.2255289257 -0.1543494165 0.2086728364 3.015101038e-39
-0.2152433097 0.06028953195 0.05777665228 3.015101038e-39
-0.225333631 -0.2677717805 0.008427524939 3.015101038e-39
-0.2207189798 -0.223200351 0.2121063173 3.015101038e-39
-0.2232173085 -0.1416387856 0.1947295368 3.015101038e-39
-0.2206571698 0.02173498273 -0.04375692084 3.015101038e-39
-0.1932821274 0.06536692381 0.08971136808 3.015101038e-39
-0.229055196 -0.04636728764 0.1994958669 3.015101038e-39
-0.2250729203 -0.1031581461 0.1038017422 3.015101038e-39
-0.2336792946 -0.2550333142 0.0958853662 3.015101038e-39
-0.1653823555 -0.4865034819 0.06028459966 3.015101038e-39
-0.2236003876 -0.2386472821 -0.07921862602 3.015101038e-39
-0.225769788 -0.3344587684 0.2235518545 3.015101038e-39
-0.2478484511 -0.4752910137 -0.1370345503 3.015101038e-39
-0.2042005062 0.06104320288 0.1575009078 3.015101038e-39
-0.1883746088 -0.2011351585 0.2279210687 3.015101038e-39
-0.08915311098 -0.4113692045 0.05971780419 3.015101038e-39
-0.2259573638 -0.09718033671 0.1000819653 3.015101038e-39
-0.2233605385 -0.2363562435 -0.05409669876 3.015101038e-39
-0.2313075364 -0.03338336945 0.2042405158 3.015101038e-39
-0.2253390253 -0.4650202692 0.03300704807 3.015101038e-39
-0.2317954302 -0.08140571415 0.05101064593 3.015101038e-39
-0.2307465672 -0.02160045505 0.04262572899 3.015101038e-39
-0.2226835787 -0.1519488245 0.1685259789 3.015101038e-39
-0.1696724296 -0.1312887222 -0.1819756925 3.015101038e-39
-0.1950386763 -0.2206851989 0.1785181165 3.015101038e-39
-0.02087341435 0.073225528 -0.1035392582 3.015101038e-39
-0.1606184542 -0.3107793331 -0.1857593209 3.015101038e-39
-0.1051523834 -0.3311907053 -0.1591624469 3.015101038e-39
-0.2222807109 -0.09995678067 0.1384179294 3.015101038e-39
-0.1862848103 -0.4028990269 0.2473009974 3.015101038e-39
-0.219317019 0.01944822073 -0.06832154095 3.015101038e-39
-0.2161956728 -0.2739854455 0.2217773199 3.015101038e-39
-0.2103792429 -0.234893322 -0.177306816 5.962428276e-39
-0.214160949 -0.0734385848 -0.1162854731 5.962428276e-39
-0.1866778731 -0.3001166284 0.1873863935 5.962428276e-39
-0.2128116488 -0.05396315455 0.1457356215 5.962428276e-39
-0.1434542537 -0.4271431267 0.195310846 5.962428276e-39
-0.1002128795 -0.4868118763 -0.05840107054 5.962428276e-39
-0.1239017248 -0.4183325768 -0.02078246698 5.962428276e-39
-0.2168394327 -0.3667227626 -0.1737300605 5.962428276e-39
-0.1452958882 -0.487261802 0.01829141565 5.962428276e-39
-0.2161901295 -0.2536740303 -0.03916843608 5.962428276e-39
-0.145866096 -0.4877584577 0.04785166681 5.962428276e-39
-0.1140591279 -0.4776239395 -0.1341493875 5.962428276e-39
-0.2042084932 -0.2151348889 -0.1893226206 5.962428276e-39
0.1128650829 0.01919320226 -0.1832302958 5.962428276e-39
-0.2074213028 -0.1728643477 0.1978682429 5.962428276e-39
-0.2068204582 -0.4235821366 -0.2011910826 5.962428276e-39
-0.1675810814 -0.3999773562 0.2259301543 5.962428276e-39
0.166280359 0.073338449 -0.1137693375 5.962428276e-39
0.03923256695 0.04579120874 -0.1809511483 5.962428276e-39
0.1257377863 0.05357047915 -0.1588248312 5.962428276e-39
0.1504354179 0.0757124126 -0.02947388217 5.962428276e-39
-0.2169955969 -0.1268225312 0.1745067537 5.962428276e-39
0.01580846682 0.0535723865 -0.1834256798 5.962428276e-39
-0.2089731991 -0.3852680326 -0.1827067584 5.962428276e-39
-0.2168439031 -0.01706641912 -0.05392156914 5.962428276e-39
-0.1976692677 -0.4606311917 0.1254040152 5.962428276e-39
-0.2245823145 -0.2454013079 0.07429970801 5.962428276e-39
-0.2450364828 -0.4781281948 -0.1648750752 5.962428276e-39
-0.1700705886 -0.4435378611 -0.2129212469 5.962428276e-39
-0.2170293629 0.01513200998 -0.03817037866 5.962428276e-39
-0.2194300294 -0.1344700903 0.05653367937 5.962428276e-39
-0.2164560854 -0.1066289842 0.1844549626 5.962428276e-39
-0.1015229374 -0.4086636603 0.1570770741 5.962428276e-39
-0.216035217 -0.17204687 0.1582934856 5.962428276e-39
-0.1146649048 -0.3997889459 -0.2050270289 5.962428276e-39
-0.2149882019 -0.1766325831 -0.0173378028 5.962428276e-39
-0.04868239909 0.07614475489 -0.1117068529 5.962428276e-39
-0.198181361 0.05323204398 -0.172649622 5.962428276e-39
-0.1287883669 -0.4683852196 0.1336149722 5.962428276e-39
-0.2266565859 -0.2529987991 0.05537133291 5.962428276e-39
-0.1980664432 -0.4672293067 0.116783917 5.962428276e-39
-0.09117095172 0.07036563754 0.0729174912 5.962428276e-39
-0.05032610893 0.07200366259 0.0666256249 5.962428276e-39
-0.2149633765 -0.1381127387 -0.07849247754 5.962428276e-39
0.01198368147 -0.1209854186 -0.14169164 5.962428276e-39
-0.02715008892 -0.2018868327 -0.141203925 5.962428276e-39
-0.1913115978 -0.4868001342 0.07209995389 5.962428276e-39
-0.2081808448 -0.157769829 -0.1889578253 5.962428276e-39
-0.2021319866 -0.2132082731 0.1830324382 5.962428276e-39
-0.1007298604 -0.4845995903 0.05708318204 5.962428276e-39
-0.2160233259 -0.09585016966 0.06872421503 5.962428276e-39
-0.2250673175 -0.2124693096 0.03005963005 5.962428276e-39
-0.214595139 -0.1231175661 -0.1142781079 5.962428276e-39
-0.1460866034 0.07499787211 -0.1115646064 5.962428276e-39
-0.2169885337 -0.02093988657 -0.1373472661 5.962428276e-39
-0.2086834013 -0.2545692027 -0.1867853999 5.962428276e-39
-0.2157455981 -0.2138703465 -0.02396380156 5.962428276e-39
-0.1980484724 0.05856919289 -0.1463483721 5.962428276e-39
-0.217105031 -0.1070275754 -0.001554680988 5.962428276e-39
-0.2068274021 -0.310675025 -0.1890500784 5.962428276e-39
-0.2132379115 -0.2660310566 -0.1275433898 5.962428276e-39
-0.2148171067 -0.1685667187 -0.02035165764 5.962428276e-39
-0.2156615257 -0.05700275302 0.07200165093 5.962428276e-39
-0.2121403217 -0.04389384389 -0.1013554633 5.962428276e-39
-0.2190939486 -0.2095419466 0.108028084 5.962428276e-39
-0.2179017663 -0.00162345171 -0.02725303732 5.962428276e-39
-0.1978231668 -0.2319559753 0.2099493742 5.962428276e-39
-0.1843044758 -0.4298638105 0.1774826646 5.962428276e-39
-0.09329620749 -0.09985992312 -0.1862464249 5.962428276e-39
-0.1779650152 0.06448966265 0.1404313892 5.962428276e-39
-0.2015287876 -0.4841759205 -0.1002091914 5.962428276e-39
-0.2266589403 -0.2834065855 0.05413910002 5.962428276e-39
-0.2379892468 -0.4382196367 -0.04013689235 5.962428276e-39
-0.08993515372 -0.05646941066 -0.187317431 5.962428276e-39
-0.03158310056 -0.4001303911 -0.1409223527 5.962428276e-39
-0.2202545106 -0.2204296589 0.1036692113 5.962428276e-39
-0.2167602479 -0.2357742935 -0.01864667423 5.962428276e-39
0.1112479791 0.08558511734 -0.02846319228 5.962428276e-39
-0.1993078887 0.06508240104 0.1172217429 5.962428276e-39
-0.06756989658 -0.4944974184 -0.021486599 5.962428276e-39
-0.2016314268 -0.4856516719 0.007591748144 5.962428276e-39
-0.1031092331 -0.2953783274 -0.181153059 5.962428276e-39
-0.1865984797 -0.09850712121 0.1157385558 5.962428276e-39
-0.2192848325 -0.2256881893 0.1261386424 5.962428276e-39
-0.2148582935 -0.1166338623 0.152976349 5.962428276e-39
-0.2182200849 -0.3057917058 -0.06618893147 5.962428276e-39
-0.2111976147 -0.2115111649 0.2116992623 5.962428276e-39
-0.2143008113 -0.06687456369 -0.1331314147 5.962428276e-39
-0.1954551637 -0.4870080948 0.03295906633 5.962428276e-39
-0.2328315079 -0.370146513 -0.008995876648 5.962428276e-39
-0.2192921638 -0.2878420055 -0.03192657605 5.962428276e-39
-0.03412870318 -0.2234631777 -0.1385563612 5.962428276e-39
-0.1821724772 -0.09806269407 -0.1872192919 5.962428276e-39
-0.2138481438 0.06612062454 0.01228776295 5.962428276e-39
-0.2155710459 -0.3762205541 -0.197385326 5.962428276e-39
-0.2180572152 -0.1479129195 0.1807757914 5.962428276e-39
-0.2205668688 0.04829522967 0.03874351457 5.962428276e-39
-0.2147196233 -0.2489462346 -0.07088431716 5.962428276e-39
-0.2112331092 -0.1717271805 0.2014354467 5.962428276e-39
-0.2162856162 -0.1454449147 0.160001263 5.962428276e-39
-0.221192807 -0.0374212265 -0.06253002584 5.962428276e-39
-0.1795921028 0.06713938713 0.06975293159 5.962428276e-39
-0.2172808647 -0.04899102449 0.1727063209 5.962428276e-39
-0.2189403176 -0.1173730493 0.05109813809 5.962428276e-39
-0.2264577448 -0.2537687123 0.03174235672 5.962428276e-39
-0.1486882716 -0.4870401621 -0.01531812735 5.962428276e-39
-0.2154349685 -0.1775731295 -0.140232265 5.962428276e-39
-0.2224165201 -0.3407014012 0.1909508258 5.962428276e-39
-0.2432122529 -0.4747091532 -0.176400587 5.962428276e-39
-0.2068704069 0.06374821067 0.1408800334 5.962428276e-39
-0.1956171691 -0.2492682934 0.2052310258 5.962428276e-39
-0.05751238763 -0.04263457656 -0.08597503603 5.962428276e-39
-0.2194263339 -0.1112532914 0.04567700252 5.962428276e-39
-0.2156728208 -0.1771154255 -0.1306533813 5.962428276e-39
-0.217489332 -0.02529135346 0.179076761 5.962428276e-39
-0.2284153998 -0.4782397449 -0.03007316589 5.962428276e-39
-0.2176619768 -0.08336916566 -0.002958631609 5.962428276e-39
-0.2181917727 -0.02296286821 -0.007080887444 5.962428276e-39
-0.2125478387 -0.09867592156 0.1891222745 5.962428276e-39
-0.161016494 -0.1588095278 -0.1904107928 5.962428276e-39
-0.1909064949 -0.2920211554 0.1535776556 5.962428276e-39
-0.02832715213 0.07600110769 -0.1143433303 5.962428276e-39
-0.1527516246 -0.3047046363 -0.1966009438 5.962428276e-39
-0.0855576992 -0.2863519192 -0.1734184921 5.962428276e-39
-0.213722527 -0.1095385253 0.09442874789 5.962428276e-39
-0.1853248477 -0.4190337062 0.197290808 5.962428276e-39
-0.2156884372 -0.04242247343 -0.08144713938 5.962428276e-39
-0.2112123668 -0.2318990827 0.2142258435 5.962428276e-39
-0.20733428 -0.2089481056 -0.1774110943 8.906165387e-39
-0.2139369249 -0.06799314916 -0.1278787851 8.906165387e-39
-0.1679961979 -0.3763921857 0.1753935665 8.906165387e-39
-0.2062409818 -0.05709254742 0.1092186868 8.906165387e-39
-0.04979948699 -0.4215987623 0.1799405515 8.906165387e-39
-0.07764616609 -0.4854043424 -0.1121686101 8.906165387e-39
0.06632386893 -0.467438221 -0.09711499512 8.906165387e-39
-0.2122588456 -0.3612095118 -0.1847597808 8.906165387e-39
-0.1203311458 -0.4871868491 -0.06180112436 8.906165387e-39
-0.2178962827 -0.2395204753 -0.06681904197 8.906165387e-39
-0.1129085645 -0.4882119 -0.02666699328 8.906165387e-39
-0.1179907992 -0.484583497 -0.1826560348 8.906165387e-39
-0.1923763752 -0.1955634356 -0.1859193295 8.906165387e-39
0.1495347321 0.002215474844 -0.2032802254 8.906165387e-39
-0.1858707666 -0.2903208733 0.1215610951 8.906165387e-39
-0.1821019948 -0.4085884392 -0.1957139969 8.906165387e-39
-0.1219069138 -0.4206329584 0.2008853406 8.906165387e-39
0.1771588922 0.06690838933 -0.1478799134 8.906165387e-39
0.04367854446 0.03406900167 -0.172195375 8.906165387e-39
0.1403989196 0.04638519883 -0.1930384487 8.906165387e-39
0.1559086144 0.0716047585 -0.08133268356 8.906165387e-39
-0.1998274326 -0.1530788392 0.1279480904 8.906165387e-39
0.01658772305 0.04531386495 -0.175322786 8.906165387e-39
-0.2032124102 -0.3631905913 -0.1864837706 8.906165387e-39
-0.216139704 -0.01848214865 -0.07558612525 8.906165387e-39
-0.1885079145 -0.4764964283 0.0596216172 8.906165387e-39
-0.2166284323 -0.2503892183 0.03470877558 8.906165387e-39
-0.2228734791 -0.475145787 -0.1916449517 8.906165387e-39
-0.1499135494 -0.4261500239 -0.2047813237 8.906165387e-39
-0.2168220878 0.01594084501 -0.05864462256 8.906165387e-39
-0.214838475 -0.1255921423 0.02381616645 8.906165387e-39
-0.1964981258 -0.1715990007 0.1511969566 8.906165387e-39
0.08297540992 -0.3944613039 0.2444258332 8.906165387e-39
-0.2033758461 -0.1977182031 0.1055041254 8.906165387e-39
-0.09598264098 -0.3791383505 -0.1892879605 8.906165387e-39
-0.2170845568 -0.1628207117 -0.06066766009 8.906165387e-39
-0.02577823214 0.06987041235 -0.1322264522 8.906165387e-39
-0.1986193955 0.05696040392 -0.1678945571 8.906165387e-39
-0.00427762419 -0.4556650519 0.1238594353 8.906165387e-39
-0.2188155055 -0.2543494403 0.01723317802 8.906165387e-39
-0.1887069643 -0.4820844531 0.04839546978 8.906165387e-39
-0.05687105656 0.07132160664 0.04075948149 8.906165387e-39
-0.01529975142 0.07242116332 0.03222293407 8.906165387e-39
-0.2162230015 -0.1286813617 -0.101835832 8.906165387e-39
0.09022847563 -0.1287940145 -0.1743483543 8.906165387e-39
0.06919007748 -0.1790681183 -0.1804378927 8.906165387e-39
-0.1790263951 -0.4876293838 -0.001555509865 8.906165387e-39
-0.1949602067 -0.1479166597 -0.1867253929 8.906165387e-39
-0.1844516993 -0.3162146211 0.1302205771 8.906165387e-39
0.06594800204 -0.474488318 0.0790117085 8.906165387e-39
-0.2114512324 -0.08765795827 0.04041719809 8.906165387e-39
-0.2188758254 -0.2096441984 -0.001159724314 8.906165387e-39
-0.2132599354 -0.1208040416 -0.1260541081 8.906165387e-39
-0.1315501928 0.06700104475 -0.1340199411 8.906165387e-39
-0.204643786 -0.02407944202 -0.1607981473 8.906165387e-39
-0.1980963051 -0.232858777 -0.1863313615 8.906165387e-39
-0.2162207365 -0.1989326924 -0.05866931379 8.906165387e-39
-0.2006397545 0.0657325685 -0.1425238848 8.906165387e-39
-0.218726486 -0.09734909236 -0.02774163336 8.906165387e-39
-0.1910974085 -0.2900519669 -0.1853001416 8.906165387e-39
-0.2117390335 -0.2498172224 -0.1366131157 8.906165387e-39
-0.2173248529 -0.1530917585 -0.06432080269 8.906165387e-39
-0.2098426819 -0.04860639572 0.0439007394 8.906165387e-39
-0.2148042619 -0.03686472774 -0.1142773181 8.906165387e-39
-0.2108925581 -0.2186912149 0.0622869581 8.906165387e-39
-0.2178476453 0.00477707386 -0.04992584139 8.906165387e-39
-0.1983990669 -0.2118293643 0.1866086125 8.906165387e-39
-0.1751894355 -0.4568634629 0.1161130667 8.906165387e-39
-0.0807294026 -0.1036457121 -0.187347576 8.906165387e-39
-0.1483837664 0.06526902318 0.1012374163 8.906165387e-39
-0.1928392053 -0.482607007 -0.1493725926 8.906165387e-39
-0.2221572995 -0.2853528559 0.01603315771 8.906165387e-39
-0.2170382738 -0.4324436784 -0.08673200011 8.906165387e-39
-0.07538990676 -0.06765042245 -0.1873321384 8.906165387e-39
0.05853249133 -0.3777680397 -0.184432745 8.906165387e-39
-0.2119778097 -0.2324592471 0.06145875156 8.906165387e-39
-0.2184351683 -0.2214365005 -0.05315370858 8.906165387e-39
0.1489970386 0.08132123947 -0.1166942418 8.906165387e-39
-0.1680815518 0.06513637304 0.07791523635 8.906165387e-39
0.05364333093 -0.4802204072 -0.04481190816 8.906165387e-39
-0.1914198995 -0.4863496721 -0.07458788157 8.906165387e-39
-0.08043644577 -0.2649940252 -0.1852606088 8.906165387e-39
-0.1689009368 -0.2709239125 0.01362578571 8.906165387e-39
-0.2102235258 -0.2478573322 0.07986909151 8.906165387e-39
-0.2040275037 -0.1260673553 0.1134230942 8.906165387e-39
-0.2165533304 -0.2856844366 -0.09372863173 8.906165387e-39
-0.188401252 -0.2936998308 0.1529264599 8.906165387e-39
-0.214373529 -0.06517317891 -0.1372718066 8.906165387e-39
-0.1726492643 -0.4870601296 -0.05346248671 8.906165387e-39
-0.2183177769 -0.3660645485 -0.03969976678 8.906165387e-39
-0.2206665874 -0.2737703919 -0.05980613083 8.906165387e-39
0.06768663973 -0.1923497021 -0.1797387451 8.906165387e-39
-0.1566854715 -0.1005156487 -0.186921522 8.906165387e-39
-0.1979089677 0.06659942865 -0.02633736655 8.906165387e-39
-0.2043918669 -0.3676450849 -0.1939381957 8.906165387e-39
-0.1968720853 -0.1886523664 0.1290942132 8.906165387e-39
-0.2044225335 0.05136620998 0.00298860576 8.906165387e-39
-0.2143489718 -0.2327435613 -0.09883576632 8.906165387e-39
-0.1893023849 -0.2741723657 0.1451892257 8.906165387e-39
-0.2024517655 -0.1623207927 0.1126580536 8.906165387e-39
-0.2052495778 -0.03045874834 -0.07964937389 8.906165387e-39
-0.1484433711 0.06734117866 0.03101311438 8.906165387e-39
-0.2064422369 -0.0684838593 0.1390498877 8.906165387e-39
-0.2158372104 -0.1067412198 0.02147233114 8.906165387e-39
-0.2226228714 -0.2435818911 0.0006798020331 8.906165387e-39
-0.1268152297 -0.4866677523 -0.08087444305 8.906165387e-39
-0.2150134146 -0.1684233844 -0.1453456879 8.906165387e-39
-0.1987849474 -0.3689721823 0.1481808871 8.906165387e-39
-0.2221082151 -0.4627574384 -0.1877640188 8.906165387e-39
-0.1750093699 0.06427937746 0.1006602645 8.906165387e-39
-0.1975630224 -0.2263983935 0.1810373813 8.906165387e-39
-0.008955636993 -0.1826039255 -0.09588237107 8.906165387e-39
-0.2165119946 -0.1004549563 0.01712114736 8.906165387e-39
-0.2154129744 -0.169374004 -0.1374376565 8.906165387e-39
-0.2046433985 -0.06898394227 0.144898206 8.906165387e-39
-0.2105850279 -0.4683074355 -0.07788462937 8.906165387e-39
-0.2197040021 -0.07567712665 -0.02563685551 8.906165387e-39
-0.2188311219 -0.01631328464 -0.02727830037 8.906165387e-39
-0.1902746856 -0.1981717795 0.1171090156 8.906165387e-39
-0.1406924129 -0.1341213137 -0.1867090464 8.906165387e-39
-0.1955323517 -0.2661657929 0.1226470768 8.906165387e-39
-0.008682368323 0.06940868497 -0.1348019093 8.906165387e-39
-0.1324854642 -0.287568748 -0.1915967166 8.906165387e-39
-0.04308553785 -0.2624087334 -0.1861841232 8.906165387e-39
-0.2073207498 -0.1034935862 0.06214061007 8.906165387e-39
-0.1783570647 -0.4508827329 0.1349693984 8.906165387e-39
-0.2055942118 -0.03580519557 -0.1085164249 8.906165387e-39
-0.1886835396 -0.2998399138 0.1576911062 8.906165387e-39
-0.2097529173 -0.1859269142 -0.1155575365 1.184631237e-38
-0.1975025237 -0.1494915932 -0.1741486192 1.184631237e-38
-0.1492618024 -0.4131624103 0.1409276575 1.184631237e-38
-0.1940802932 -0.1137168556 0.06750880182 1.184631237e-38
-0.01087341271 -0.4872338176 -0.07526560128 1.184631237e-38
-0.00078490749 -0.3147370219 -0.174760893 1.184631237e-38
0.153970331 0.029117167 -0.1996473968 1.184631237e-38
-0.164267689 -0.2603890598 -0.2105456144 1.184631237e-38
0.01205831021 -0.4024544954 -0.1767024398 1.184631237e-38
-0.2043779194 -0.3870347142 -0.1326157451 1.184631237e-38
0.02107740194 -0.4181621373 -0.1664296389 1.184631237e-38
-0.05198359489 -0.2610824704 -0.195775792 1.184631237e-38
-0.1952318549 -0.03201386333 -0.2161556482 1.184631237e-38
0.23418805 0.07464200258 -0.08677902818 1.184631237e-38
-0.1760465801 -0.3164744079 0.09795959294 1.184631237e-38
-0.1480792463 -0.1426533461 -0.2148133963 1.184631237e-38
-0.08903251588 -0.488243103 -0.009445522912 1.184631237e-38
0.07556913048 0.07379058003 0.07302549481 1.184631237e-38
0.1034568474 0.07760170102 -0.07023756206 1.184631237e-38
0.1719183326 0.06967592239 0.02060375363 1.184631237e-38
0.01883573085 0.07269209623 0.1117459238 1.184631237e-38
-0.1958092749 -0.2475038916 0.07608656585 1.184631237e-38
0.0230646506 0.07555025816 -0.05410707369 1.184631237e-38
-0.1884531379 -0.147318542 -0.2042751759 1.184631237e-38
-0.1896321177 -0.07152295113 -0.1469932348 1.184631237e-38
-0.07216423005 -0.4859684408 -0.09896588326 1.184631237e-38
-0.2083876431 -0.3845642209 -0.03146426752 1.184631237e-38
-0.1239422038 -0.2642183602 -0.2148607671 1.184631237e-38
-0.1168069318 -0.171077311 -0.2077464759 1.184631237e-38
-0.1932215095 -0.04508009553 -0.1252164394 1.184631237e-38
-0.1989788413 -0.2293158472 -0.01754669659 1.184631237e-38
-0.1908858716 -0.2284886688 0.0826279521 1.184631237e-38
-0.01615495607 -0.4338661134 -0.07950812578 1.184631237e-38
-0.1986969709 -0.3166549504 0.06790217757 1.184631237e-38
-0.1047990397 -0.1268742085 -0.2056924254 1.184631237e-38
-0.1909557283 -0.2819061279 -0.111110419 1.184631237e-38
-0.1050594226 0.07161182165 0.03106975555 1.184631237e-38
-0.1910276711 0.02993264794 -0.2157116085 1.184631237e-38
0.01728191227 -0.4549378455 -0.1365986764 1.184631237e-38
-0.2105056345 -0.3908017278 -0.04947110638 1.184631237e-38
-0.06297856569 -0.4858602285 -0.1124185473 1.184631237e-38
-0.148744449 0.0580996871 0.1922431141 1.184631237e-38
-0.1095732301 0.06412351131 0.17601569 1.184631237e-38
-0.1913847029 -0.2252841443 -0.1540163308 1.184631237e-38
0.2172471583 0.06167539954 -0.1909249574 1.184631237e-38
0.1834243834 0.05194735527 -0.1865910888 1.184631237e-38
-0.009438849986 -0.4786405563 -0.1638510525 1.184631237e-38
-0.2011120617 -0.05001455545 -0.1824630499 1.184631237e-38
-0.1685383916 -0.3407883048 0.1042402387 1.184631237e-38
-0.03682826832 -0.4250116944 -0.09660451114 1.184631237e-38
-0.1988582313 -0.1861029565 -0.009638762102 1.184631237e-38
-0.2015177906 -0.3366306126 -0.05969023705 1.184631237e-38
-0.1949081421 -0.2191175073 -0.1762201637 1.184631237e-38
-0.1848238707 0.05473929644 0.02441642061 1.184631237e-38
-0.2073095143 -0.04378753901 -0.06771354377 1.184631237e-38
-0.1909891665 -0.07135500014 -0.2122478187 1.184631237e-38
-0.195161134 -0.3313756585 -0.1121425927 1.184631237e-38
-0.1865771413 0.05752572417 -0.1916378289 1.184631237e-38
-0.1892936528 -0.1990262568 -0.0847196281 1.184631237e-38
-0.1878972352 -0.06943412125 -0.2101960778 1.184631237e-38
-0.1857709587 -0.411686182 -0.2046336085 1.184631237e-38
-0.1907208562 -0.2729792595 -0.1138021946 1.184631237e-38
-0.1974311769 -0.1342091411 -0.01093393285 1.184631237e-38
-0.1953825653 -0.1042375267 -0.1628621966 1.184631237e-38
-0.1997027099 -0.3445633054 0.01448641066 1.184631237e-38
-0.193257153 -0.06236168742 -0.1104267389 1.184631237e-38
-0.1533394158 -0.332321465 0.1869743317 1.184631237e-38
-0.07103615999 -0.4868893623 -0.05023144558 1.184631237e-38
0.01602282375 0.06407439709 -0.1963588744 1.184631237e-38
-0.1942102015 -0.005229443312 0.2275123596 1.184631237e-38
-0.08661285043 -0.336743623 -0.1960921586 1.184631237e-38
-0.2169376016 -0.4278499484 -0.05785379186 1.184631237e-38
-0.09966827184 -0.4143182039 -0.2141658068 1.184631237e-38
0.03387885541 0.07184746861 -0.1771526337 1.184631237e-38
0.1153698787 -0.03327745199 -0.1875968575 1.184631237e-38
-0.2020881474 -0.3578736484 0.006580539513 1.184631237e-38
-0.1981478631 -0.3611451685 -0.1089574993 1.184631237e-38
0.07416141778 0.06489270926 0.1343874037 1.184631237e-38
-0.1962142289 -0.01322445273 0.2053941041 1.184631237e-38
-0.008373811841 -0.3166204691 -0.1024570912 1.184631237e-38
-0.03984171152 -0.4337878227 -0.195755437 1.184631237e-38
-0.05470632762 -0.03292903304 -0.198330164 1.184631237e-38
-0.1499978006 -0.2658240795 -0.04483562335 1.184631237e-38
-0.1992790997 -0.3693425357 0.02831533924 1.184631237e-38
-0.1953483224 -0.2115515321 0.06927728653 1.184631237e-38
-0.2124524117 -0.470495075 -0.2079885155 1.184631237e-38
-0.1867200434 -0.3770327866 0.120514065 1.184631237e-38
-0.2002334297 -0.1486015916 -0.1834658235 1.184631237e-38
-0.01587599143 -0.4478699565 -0.187976867 1.184631237e-38
-0.1973958015 -0.4796021581 -0.1739938557 1.184631237e-38
-0.2155101001 -0.4392224848 -0.1449783295 1.184631237e-38
0.1793836355 0.04972597957 -0.1872751117 1.184631237e-38
-0.1891288757 0.04362544417 -0.1854881048 1.184631237e-38
-0.2032055259 -0.01006323099 0.1189923286 1.184631237e-38
-0.1775713265 -0.1992193758 -0.2104077488 1.184631237e-38
-0.1943535805 -0.2886791825 0.07993510365 1.184631237e-38
-0.2108645141 -0.03319105506 0.1158695221 1.184631237e-38
-0.198345691 -0.3844763041 -0.1658577174 1.184631237e-38
-0.1838387251 -0.3314290345 0.1092631966 1.184631237e-38
-0.1968163848 -0.2684806585 0.07196779549 1.184631237e-38
-0.1995183527 -0.1093831509 -0.01409385726 1.184631237e-38
-0.1927943528 0.00880214572 0.1831859946 1.184631237e-38
-0.2002779841 -0.1275564283 0.07777170837 1.184631237e-38
-0.1974276602 -0.206556052 -0.01995414309 1.184631237e-38
-0.2045328617 -0.3808632791 -0.06561550498 1.184631237e-38
-0.0002377778292 -0.3894068301 -0.1848567724 1.184631237e-38
-0.1859252453 -0.3215691745 -0.2055132389 1.184631237e-38
-0.1910283566 -0.4862031341 0.02610184811 1.184631237e-38
-0.1367089897 -0.2447501123 -0.2153581679 1.184631237e-38
-0.1966408789 -0.02233794332 0.2161108851 1.184631237e-38
-0.1543619931 -0.3414007723 0.181041196 1.184631237e-38
0.1670580506 0.07338649035 -0.08074316382 1.184631237e-38
-0.1965413392 -0.1977516711 -0.02283515409 1.184631237e-38
-0.1902638674 -0.3060543537 -0.2030251473 1.184631237e-38
-0.1982963383 -0.114444524 0.07966475189 1.184631237e-38
-0.07445690036 -0.4228082895 -0.2085069418 1.184631237e-38
-0.1887098849 -0.1710006148 -0.08609522879 1.184631237e-38
-0.1893647015 -0.08958254755 -0.0834544152 1.184631237e-38
-0.1830283105 -0.237482816 0.0447171703 1.184631237e-38
-0.1688016057 0.03078785539 -0.211217925 1.184631237e-38
-0.1607607603 -0.3645203114 0.1147660762 1.184631237e-38
-0.08728542924 0.07205161452 0.02766004018 1.184631237e-38
-0.1472539306 -0.06863260269 -0.2098223865 1.184631237e-38
0.04455726594 0.00247451663 -0.1912130862 1.184631237e-38
-0.1974616051 -0.2022293806 0.0156456437 1.184631237e-38
-0.08265553415 -0.4875996113 -0.0373487249 1.184631237e-38
-0.199421376 -0.1095085889 -0.03412700444 1.184631237e-38
-0.1872202456 -0.3978472352 0.1239198893 1.184631237e-38
-0.2077412903 -0.1906552464 -0.1529082805 1.478322936e-38
-0.1903948486 -0.1414650977 -0.1781272888 1.478322936e-38
-0.1413887441 -0.4305909276 0.07847501338 1.478322936e-38
-0.1948168278 -0.1297069043 -0.008276071399 1.478322936e-38
0.06426762789 -0.4811474681 -0.1384645998 1.478322936e-38
0.02480655164 -0.2888700068 -0.2047804892 1.478322936e-38
0.1817707121 0.0187304616 -0.2075936794 1.478322936e-38
-0.1320993304 -0.2460616231 -0.2140332758 1.478322936e-38
0.04302889854 -0.380177319 -0.2047162503 1.478322936e-38
-0.2069883347 -0.3915379047 -0.165890336 1.478322936e-38
0.0630576387 -0.4042769074 -0.2033455819 1.478322936e-38
-0.004494180903 -0.2347239107 -0.213051483 1.478322936e-38
-0.1726408303 -0.04804345965 -0.2121845484 1.478322936e-38
0.2884203494 0.07349297404 -0.1630178243 1.478322936e-38
-0.1800467968 -0.3433054388 0.05118602142 1.478322936e-38
-0.106552735 -0.1423330307 -0.2140532285 1.478322936e-38
-0.02352339588 -0.4881650507 -0.07802815735 1.478322936e-38
0.1448775232 0.07580012083 -0.01806654222 1.478322936e-38
0.1422626376 0.07753062248 -0.1610532254 1.478322936e-38
0.2580683231 0.07363608479 -0.08255557716 1.478322936e-38
0.1018548533 0.07518476248 0.0230105035 1.478322936e-38
-0.1978611052 -0.2666397989 0.02138237841 1.478322936e-38
0.06579146534 0.07954874635 -0.1408434957 1.478322936e-38
-0.1655050516 -0.1645375341 -0.2022168338 1.478322936e-38
-0.1853989661 -0.06439495087 -0.1540201455 1.478322936e-38
-0.01811799966 -0.4855799973 -0.163355425 1.478322936e-38
-0.204593569 -0.3918428421 -0.07688009739 1.478322936e-38
-0.08730755746 -0.2421089113 -0.2176287919 1.478322936e-38
-0.07669971138 -0.1691032052 -0.2112149298 1.478322936e-38
-0.1882759035 -0.02725413442 -0.1481709927 1.478322936e-38
-0.1948699653 -0.2325246632 -0.07723070681 1.478322936e-38
-0.1950242221 -0.2392584682 0.02971874177 1.478322936e-38
0.07217743993 -0.449808538 -0.1535027176 1.478322936e-38
-0.197235018 -0.3325947523 -0.001183543587 1.478322936e-38
-0.04738212377 -0.1291373968 -0.2066576481 1.478322936e-38
-0.1914805472 -0.2860113978 -0.1367619932 1.478322936e-38
-0.06844422966 0.07442235947 -0.06641931832 1.478322936e-38
-0.1808079183 0.03560525179 -0.2090071291 1.478322936e-38
0.09128896147 -0.4576934576 -0.1914766729 1.478322936e-38
-0.2073773742 -0.3940943778 -0.09046582878 1.478322936e-38
-0.01016857289 -0.4850156307 -0.173985064 1.478322936e-38
-0.1050423533 0.06483638287 0.08056533337 1.478322936e-38
-0.06586124003 0.07079705596 0.06805150211 1.478322936e-38
-0.1854158938 -0.2182932496 -0.1642560363 1.478322936e-38
0.2413351238 0.05447363853 -0.1926545948 1.478322936e-38
0.1982714534 0.04344826937 -0.191654563 1.478322936e-38
0.03420396149 -0.4683701396 -0.2079070061 1.478322936e-38
-0.1792762876 -0.07276001573 -0.2016997486 1.478322936e-38
-0.1709899008 -0.3663271666 0.06299012899 1.478322936e-38
0.03329531476 -0.430726558 -0.167224884 1.478322936e-38
-0.1899371743 -0.1851671785 -0.07115605474 1.478322936e-38
-0.2002931535 -0.3393808007 -0.09948354959 1.478322936e-38
-0.1861747801 -0.2132134438 -0.1809535474 1.478322936e-38
-0.164555639 0.05003857613 -0.07649597526 1.478322936e-38
-0.2046353519 -0.0623690933 -0.119928062 1.478322936e-38
-0.1716962457 -0.08532501757 -0.2072575688 1.478322936e-38
-0.1959686875 -0.3342490792 -0.1424663961 1.478322936e-38
-0.1803888083 0.06677889824 -0.1949204504 1.478322936e-38
-0.1854679585 -0.1993447244 -0.118692562 1.478322936e-38
-0.1588193178 -0.08395373821 -0.2085927129 1.478322936e-38
-0.1694181859 -0.3961542845 -0.2065786719 1.478322936e-38
-0.1908163726 -0.2747385502 -0.1380519271 1.478322936e-38
-0.1880668402 -0.1313102096 -0.06886520982 1.478322936e-38
-0.1904088259 -0.09814742208 -0.1696857363 1.478322936e-38
-0.1983284652 -0.3569820523 -0.05615582317 1.478322936e-38
-0.189840138 -0.05004695058 -0.1367073804 1.478322936e-38
-0.161157608 -0.3372469842 0.1061237901 1.478322936e-38
-0.01791241206 -0.4869480729 -0.1128118038 1.478322936e-38
0.02288611978 0.04080730677 -0.1995548457 1.478322936e-38
-0.1884616315 -0.002069532871 0.1182870269 1.478322936e-38
-0.02520180866 -0.3002323806 -0.2099442035 1.478322936e-38
-0.2112188935 -0.4277957082 -0.09879937768 1.478322936e-38
-0.06421133876 -0.3834145069 -0.2078935057 1.478322936e-38
0.03635833412 0.05885979533 -0.197425738 1.478322936e-38
0.1204541251 -0.0476962924 -0.2072268426 1.478322936e-38
-0.1997701824 -0.3722318113 -0.05722670257 1.478322936e-38
-0.2001991272 -0.363838464 -0.1447876692 1.478322936e-38
0.1542663276 0.06844612956 0.04990447685 1.478322936e-38
-0.191303134 -0.01211544871 0.09446188807 1.478322936e-38
0.05568662286 -0.3045399189 -0.1809226871 1.478322936e-38
0.01245162636 -0.4123864472 -0.2189543247 1.478322936e-38
-0.005870889872 -0.05811712146 -0.2071383893 1.478322936e-38
-0.1508006752 -0.2400280386 -0.07621853054 1.478322936e-38
-0.2013569772 -0.3841872811 -0.04978449643 1.478322936e-38
-0.1969020963 -0.2331526428 0.003225991735 1.478322936e-38
-0.1897672713 -0.4542211294 -0.21033445 1.478322936e-38
-0.1848492622 -0.4001272023 0.06007083878 1.478322936e-38
-0.1913454235 -0.1420733482 -0.1858452111 1.478322936e-38
0.03005978838 -0.430893898 -0.2171964943 1.478322936e-38
-0.1675806344 -0.4746767282 -0.2164968401 1.478322936e-38
-0.2106647491 -0.4465928972 -0.1813787371 1.478322936e-38
0.1916330755 0.04035261273 -0.1925872862 1.478322936e-38
-0.163706392 0.02752944827 -0.216522947 1.478322936e-38
-0.2043334246 -0.01649361849 0.002442454221 1.478322936e-38
-0.1424265504 -0.1902662963 -0.2131513357 1.478322936e-38
-0.1991651654 -0.3124300539 0.03019978665 1.478322936e-38
-0.2137892246 -0.05069753528 0.005232334603 1.478322936e-38
-0.1992845833 -0.387055397 -0.193939507 1.478322936e-38
-0.1855792701 -0.3534158766 0.04920450598 1.478322936e-38
-0.1974901557 -0.2903026938 0.009573038667 1.478322936e-38
-0.2036369741 -0.1354948878 -0.07579112053 1.478322936e-38
-0.1854314506 0.01075038314 0.06641809642 1.478322936e-38
-0.2017921507 -0.1344033033 0.01548574958 1.478322936e-38
-0.1923159659 -0.2065405399 -0.07974550128 1.478322936e-38
-0.2052966654 -0.3843721449 -0.1051801294 1.478322936e-38
0.02614712715 -0.3588944376 -0.2013312131 1.478322936e-38
-0.169134587 -0.3223692477 -0.2092365474 1.478322936e-38
-0.1918497384 -0.486533463 -0.05180716887 1.478322936e-38
-0.09777984023 -0.2302822918 -0.2160789967 1.478322936e-38
-0.1926758885 -0.02157789469 0.1065469384 1.478322936e-38
-0.1618314683 -0.345871985 0.1004010141 1.478322936e-38
0.2431766987 0.07402327657 -0.1839009076 1.478322936e-38
-0.1913398802 -0.1969891191 -0.08259999752 1.478322936e-38
-0.1784832776 -0.299903214 -0.2078016549 1.478322936e-38
-0.2007202506 -0.1248692721 0.008955894038 1.478322936e-38
-0.0348139219 -0.3957060575 -0.2127844095 1.478322936e-38
-0.1850149035 -0.1678463072 -0.1176636815 1.478322936e-38
-0.1875857413 -0.08253726363 -0.1197296679 1.478322936e-38
-0.184992522 -0.2399312705 -0.004127890803 1.478322936e-38
-0.1344164908 0.01197355986 -0.2118591964 1.478322936e-38
-0.1691097319 -0.3717807531 0.03801648691 1.478322936e-38
-0.04753534123 0.0756136775 -0.07232254744 1.478322936e-38
-0.1088325307 -0.0794070363 -0.2093299776 1.478322936e-38
0.05180359632 -0.03138408065 -0.2070514709 1.478322936e-38
-0.1900556386 -0.2082467824 -0.05568148196 1.478322936e-38
-0.03152156621 -0.4874505997 -0.09758013487 1.478322936e-38
-0.2026356161 -0.1316051632 -0.08759140968 1.478322936e-38
-0.1836897433 -0.4162646532 0.05261362344 1.478322936e-38
-0.1859163642 -0.1868034154 -0.1438803822 1.771655483e-38
-0.173524946 -0.2290861458 -0.1740199924 1.771655483e-38
-0.09972760081 -0.4293944836 -0.03480570763 1.771655483e-38
-0.185084343 -0.1655236185 -0.06950582564 1.771655483e-38
0.1087923571 -0.4450142384 -0.1891320497 1.771655483e-38
0.06364680827 -0.1984185278 -0.2122490257 1.771655483e-38
0.2608878016 0.03445261717 -0.1950036436 1.771655483e-38
-0.0777887404 -0.2221330106 -0.2057184279 1.771655483e-38
0.05700523406 -0.2932742238 -0.2028334886 1.771655483e-38
-0.1826931834 -0.4657549858 -0.192733556 1.771655483e-38
0.0780261308 -0.319424659 -0.1973025203 1.771655483e-38
0.03178930283 -0.187828958 -0.2108287066 1.771655483e-38
-0.116391167 -0.04582062364 -0.203101486 1.771655483e-38
0.3095095754 0.0778465271 -0.1236160547 1.771655483e-38
-0.131077677 -0.3617060184 -0.04119655117 1.771655483e-38
-0.05948078632 -0.1452064663 -0.2013964951 1.771655483e-38
0.06794628501 -0.4789202809 -0.1511103362 1.771655483e-38
0.1674475074 0.07481989264 -0.05410261452 1.771655483e-38
0.1722433269 0.08261922002 -0.1532533616 1.771655483e-38
0.2943133414 0.07575470209 -0.06931863725 1.771655483e-38
0.1269524097 0.07463443279 -0.01356455125 1.771655483e-38
-0.1718543768 -0.3078069687 -0.05895800143 1.771655483e-38
0.1081686839 0.08070421219 -0.143373549 1.771655483e-38
-0.1060003638 -0.139064461 -0.1998485327 1.771655483e-38
-0.1699018776 -0.1235406846 -0.1444288641 1.771655483e-38
0.05406504869 -0.4603051543 -0.2055880725 1.771655483e-38
-0.1933733821 -0.4345539212 -0.1042478383 1.771655483e-38
-0.03815509379 -0.2239071429 -0.1992047131 1.771655483e-38
-0.0227400735 -0.1498398781 -0.1987586766 1.771655483e-38
-0.1743182838 -0.07499825954 -0.142476514 1.771655483e-38
-0.1866320372 -0.2788621187 -0.1078050584 1.771655483e-38
-0.1560610533 -0.2681577802 -0.05456245318 1.771655483e-38
0.04031597823 -0.4252455235 -0.1478442848 1.771655483e-38
-0.1776147485 -0.369138658 -0.07523068786 1.771655483e-38
-0.004215179011 -0.1175211221 -0.2000675797 1.771655483e-38
-0.1880995333 -0.3469757438 -0.1390472651 1.771655483e-38
-0.03790484369 0.07507503033 -0.08639384806 1.771655483e-38
-0.1596301496 0.0009144246578 -0.1853687465 1.771655483e-38
0.09315405786 -0.3988104463 -0.1923041344 1.771655483e-38
-0.1915384233 -0.4379671216 -0.1148248315 1.771655483e-38
0.05910224468 -0.4502991736 -0.2083227634 1.771655483e-38
-0.08076509088 0.0425696969 0.01630446501 1.771655483e-38
-0.04420241714 0.06323125958 0.01566429436 1.771655483e-38
-0.1795081794 -0.2877838612 -0.1634003818 1.771655483e-38
0.2746013701 0.06289955974 -0.1859237552 1.771655483e-38
0.2367241681 0.04910352826 -0.1868014187 1.771655483e-38
0.06434091181 -0.3895426393 -0.2075885534 1.771655483e-38
-0.1382941008 -0.04890984297 -0.1940880716 1.771655483e-38
-0.1196567565 -0.3791504502 -0.03305070847 1.771655483e-38
0.09037655592 -0.1693837196 -0.1770204157 1.771655483e-38
-0.1841010153 -0.2282586992 -0.1057810783 1.771655483e-38
-0.1947498024 -0.3978464305 -0.1137011945 1.771655483e-38
-0.1739470959 -0.3032693863 -0.1871323436 1.771655483e-38
-0.1343900412 0.02561685443 -0.09515461326 1.771655483e-38
-0.1896733344 -0.05567872524 -0.1266586632 1.771655483e-38
-0.111026831 -0.06935687363 -0.2013599277 1.771655483e-38
-0.1927330494 -0.3933871984 -0.1571765691 1.771655483e-38
-0.1626448929 0.03955224156 -0.1768017709 1.771655483e-38
-0.1826471686 -0.2464143634 -0.128353551 1.771655483e-38
-0.09607724845 -0.08431443572 -0.20071733 1.771655483e-38
-0.09406322986 -0.3675280809 -0.2055580616 1.771655483e-38
-0.1880702674 -0.3351729214 -0.1376258135 1.771655483e-38
-0.1814497411 -0.175363183 -0.1032274216 1.771655483e-38
-0.1669279933 -0.180409044 -0.1611928642 1.771655483e-38
-0.1908663213 -0.3969005942 -0.08798000216 1.771655483e-38
-0.1744418442 -0.1002656668 -0.1388751566 1.771655483e-38
-0.1431366652 -0.3375004232 0.05638740212 1.771655483e-38
0.06511664391 -0.4743479192 -0.1816739291 1.771655483e-38
0.05722104758 0.04344248772 -0.1976667643 1.771655483e-38
-0.163559705 -0.0249761939 0.04372787476 1.771655483e-38
0.009604062885 -0.2503023148 -0.2086487561 1.771655483e-38
-0.1875034571 -0.4786461294 -0.1389314085 1.771655483e-38
-0.01609396189 -0.3219855726 -0.204941079 1.771655483e-38
0.07067340612 0.06392800808 -0.1963234544 1.771655483e-38
0.1787262261 -0.01749268174 -0.1963596046 1.771655483e-38
-0.1924081147 -0.4101251662 -0.08974987268 1.771655483e-38
-0.1908439696 -0.4222041368 -0.1623554081 1.771655483e-38
0.2122172713 0.04309183359 0.01242002007 1.771655483e-38
-0.1713374853 -0.03392735124 0.02547048405 1.771655483e-38
0.1382029951 -0.1232856363 -0.1942864656 1.771655483e-38
0.03923295438 -0.3377118707 -0.2093522996 1.771655483e-38
0.02492962033 -0.04186961055 -0.2039267421 1.771655483e-38
-0.09366684407 -0.2537013888 -0.1387726516 1.771655483e-38
-0.1903241575 -0.419108212 -0.0861402005 1.771655483e-38
-0.1844659448 -0.2736381888 -0.07022424042 1.771655483e-38
-0.08535669744 -0.4031738043 -0.1999498159 1.771655483e-38
-0.1396629214 -0.4112820625 -0.04621754587 1.771655483e-38
-0.1695220768 -0.2292242944 -0.1894407868 1.771655483e-38
0.04900542647 -0.3498913944 -0.2037709504 1.771655483e-38
-0.04291646183 -0.428724587 -0.2092123926 1.771655483e-38
-0.136774525 -0.4548677206 -0.2049137652 1.771655483e-38
0.232422024 0.04631251097 -0.1865923107 1.771655483e-38
-0.1073451713 0.02335557342 -0.2053937912 1.771655483e-38
-0.1821780801 -0.03915351629 -0.04942547157 1.771655483e-38
