# .PCD v0.7 - Point Cloud Data file format
VERSION 0.7
FIELDS x y z rgb
SIZE 4 4 4 4
TYPE F F F F
COUNT 1 1 1 1
WIDTH 826
HEIGHT 1
VIEWPOINT 0 0 0 1 0 0 0
POINTS 826
DATA ascii
-0.1598545909 -0.1308752 0.07310032099 8.742304551e-39
-0.153977409 -0.0888133049 -0.1334984303 8.742304551e-39
-0.1927927285 -0.004317373037 0.1700822711 8.742304551e-39
-0.1575709134 -0.1272502244 -0.01890967973 8.742304551e-39
-0.1451160759 -0.004082471132 -0.148006767 8.742304551e-39
-0.1924958676 -0.002026826143 0.1533658504 8.742304551e-39
-0.1041121036 -0.4415724874 0.04307616502 8.742304551e-39
-0.1133892462 -0.4412076473 0.01708049327 8.742304551e-39
-0.1708623469 -0.09998638928 0.1294504404 8.742304551e-39
-0.1464446485 -0.03726963699 -0.1423687041 8.742304551e-39
-0.1555535942 -0.09547673166 -0.06897631288 8.742304551e-39
-0.1805539429 -0.007983863354 0.006584614515 8.742304551e-39
-0.1939765811 0.005355775356 0.0491662398 8.742304551e-39
-0.1726071388 0.02527177334 -0.03735611588 8.742304551e-39
-0.1694011688 -0.09234164655 0.1511678994 8.742304551e-39
-0.171055451 0.01939123869 -0.0405170396 8.742304551e-39
-0.1441401392 -0.1667246819 0.2318837345 8.742304551e-39
-0.1958522946 -0.01248335838 0.1640202701 8.742304551e-39
-0.148387149 0.008417606354 -0.1370294094 8.742304551e-39
-0.1944613308 -0.04285672307 0.2339962721 8.742304551e-39
-0.160134688 -0.07623241842 0.07206434757 8.742304551e-39
-0.185457021 -0.0389212817 0.007475402206 8.742304551e-39
-0.15827851 -0.07910843194 -0.02409880422 8.742304551e-39
-0.1518710256 -0.1202601492 -0.05879248679 8.742304551e-39
-0.1603038758 0.004260957241 -0.09344721586 8.742304551e-39
-0.1741569787 -0.0465503484 0.09163744003 8.742304551e-39
-0.148658067 -0.09248776734 -0.1677463055 8.742304551e-39
-0.1444805413 -0.009173423052 -0.1520208418 8.742304551e-39
-0.08245449513 -0.4222972393 0.1698248982 8.742304551e-39
-0.1503635347 -0.06250329316 -0.1608077884 8.742304551e-39
-0.1696124077 -0.094160676 0.1446015537 8.742304551e-39
-0.1564290971 -0.1033163071 -0.1502902061 8.742304551e-39
-0.1583385617 -0.06118658185 -0.1764375865 8.742304551e-39
-0.190275088 0.006011456251 0.07242076844 8.742304551e-39
-0.1751450151 0.0203179419 -0.02323138528 8.742304551e-39
-0.1523829103 -0.006055057049 -0.1421813965 8.742304551e-39
-0.1697784662 -0.1231103092 0.1970172822 8.742304551e-39
-0.1517100632 -0.1853362918 0.02706070989 8.742304551e-39
-0.1731977016 -0.02018712461 -0.005137838423 8.742304551e-39
-0.1598313153 -0.1080857962 -0.1285470724 8.742304551e-39
-0.1562195718 0.007518470287 -0.1208480969 8.742304551e-39
-0.1568851769 0.03255316615 -0.1042572707 8.742304551e-39
-0.1783759296 0.0137860775 -0.008555587381 8.742304551e-39
-0.1498432904 -0.03202101588 -0.1431082487 8.742304551e-39
-0.1541095227 -0.16796799 -0.0653431043 8.742304551e-39
-0.1826940477 -0.02455942333 0.03970365971 8.742304551e-39
-0.1461377889 -0.0009504854679 -0.1470113695 8.742304551e-39
-0.1626313925 -0.1287302673 0.04556800425 8.742304551e-39
-0.1847686917 -0.0108064115 0.04074908048 8.742304551e-39
-0.1647194773 -0.1197123677 0.1383344233 8.742304551e-39
-0.1628555954 0.01219370961 -0.06656186283 8.742304551e-39
-0.158230871 -0.1361798644 0.06148649752 8.742304551e-39
-0.1405043453 -0.2588890791 0.2068920732 8.742304551e-39
-0.1507446915 -0.1081356704 -0.07676830888 8.742304551e-39
-0.1697680801 -0.0973739773 0.1634516418 8.742304551e-39
-0.1536017656 -0.1079929322 -0.03645107523 8.742304551e-39
-0.1581045985 0.008373439312 -0.1171891317 8.742304551e-39
-0.1372930557 -0.2659614682 -0.102503866 8.742304551e-39
-0.1593096107 -0.01167577505 -0.05953726918 8.742304551e-39
-0.1667589843 -0.08862048388 0.105146639 8.742304551e-39
-0.1584490836 -0.06028570235 -0.09422983974 8.742304551e-39
-0.154148072 -0.1183926761 -0.111214444 8.742304551e-39
-0.1460655183 -0.004112154245 -0.1502239853 8.742304551e-39
-0.1569386572 -0.01690793037 -0.1431413144 8.742304551e-39
-0.1596791297 -0.1687538326 -0.1462638974 8.742304551e-39
-0.07753537595 -0.4213985205 0.1755621433 8.742304551e-39
-0.1631432027 -0.1258249134 0.03035298735 8.742304551e-39
-0.1751921475 0.007056474686 -0.00985141471 8.742304551e-39
-0.1584439576 -0.1138120294 -0.1574291289 8.742304551e-39
-0.1605810672 0.008472561836 -0.112108402 8.742304551e-39
-0.1703879833 0.02090734243 -0.04495412111 8.742304551e-39
-0.1200641096 -0.4081058502 -0.0251071807 8.742304551e-39
-0.1900542527 -0.01393263042 0.1900672615 8.742304551e-39
-0.1634361297 -0.05265296996 -0.07502178103 8.742304551e-39
-0.1801285893 -0.007290035486 0.007547959685 8.742304551e-39
-0.106419906 -0.396889329 0.1703819036 8.742304551e-39
-0.1607555002 -0.07405005395 -0.01231206581 8.742304551e-39
-0.1394090503 -0.265118897 0.1946644783 8.742304551e-39
-0.1045253128 -0.4409342706 0.04385238141 8.742304551e-39
-0.2006313056 0.004834115505 0.1313560009 8.742304551e-39
-0.1424083263 -0.01682546735 -0.1636657119 8.742304551e-39
-0.1407675147 -0.25818187 0.2059041858 8.742304551e-39
-0.157578215 -0.110267818 -0.1165112406 8.742304551e-39
-0.1733420342 -0.08370035887 0.1826451123 8.742304551e-39
-0.184902519 -0.02478331327 0.0687149018 8.742304551e-39
-0.1698254794 -0.08926922083 0.1617961526 8.742304551e-39
-0.1448430568 -0.1797200739 -0.03550527617 8.742304551e-39
-0.1794335395 -0.03088593483 0.03655453026 8.742304551e-39
-0.1605701298 0.005068600178 -0.09909166396 8.742304551e-39
-0.156172663 -0.1104862243 -0.164129585 8.742304551e-39
-0.191501677 -0.02772299945 0.1830506921 8.742304551e-39
-0.08693205565 -0.403388083 0.1880216897 8.742304551e-39
-0.1539502889 -0.0978410393 -0.06691642106 8.742304551e-39
-0.1711242795 -0.1256070286 0.2162113488 8.742304551e-39
-0.1917929649 -0.04216428101 0.2155202329 8.742304551e-39
-0.1249782965 -0.3519465923 -0.08653061092 8.742304551e-39
-0.1858910024 -0.03547339141 0.1612854004 8.742304551e-39
-0.1520418376 -0.1210380197 -0.05736380816 8.742304551e-39
-0.1931457967 -0.0688316524 0.2376441956 8.742304551e-39
-0.173148483 -0.05492314696 0.1393725276 8.742304551e-39
-0.1922447532 -0.03947579861 0.2325007021 8.742304551e-39
-0.1456994712 -0.04213999212 -0.1930817366 8.742304551e-39
-0.146216318 -0.2608299851 -0.1741701365 5.820783626e-39
-0.1621526927 -0.3097377419 0.1338505149 5.820783626e-39
-0.1588378996 0.001941978931 0.003846175969 5.820783626e-39
-0.04847952724 -0.4571920037 0.1502677202 5.820783626e-39
-0.07990958542 -0.4516171813 0.1404893994 5.820783626e-39
-0.164029628 -0.1897862256 0.1348027885 5.820783626e-39
-0.1684323549 -0.2618278265 0.1070302054 5.820783626e-39
-0.1665543467 -0.06786595285 0.0190557465 5.820783626e-39
-0.1507849246 -0.1412309706 0.2905931175 5.820783626e-39
-0.1294804215 -0.1892814934 -0.1707011163 5.820783626e-39
-0.1576503217 -0.2076498568 0.2401375771 5.820783626e-39
-0.1575530916 -0.1565633118 0.0587534979 5.820783626e-39
-0.1348234117 -0.1772140712 -0.1716136336 5.820783626e-39
-0.169673413 -0.04693938792 -0.009194016457 5.820783626e-39
-0.1269101351 -0.03174267709 -0.2293930948 5.820783626e-39
-0.1317860782 0.02515533566 -0.1167937145 5.820783626e-39
-0.1684993804 -0.02438151836 0.01170569286 5.820783626e-39
-0.1691653281 -0.06211224198 0.01115388796 5.820783626e-39
-0.1836036295 0.006031692028 0.2438511848 5.820783626e-39
-0.1330475509 0.0158367455 -0.005617372692 5.820783626e-39
-0.167096734 -0.2655737996 0.1883922517 5.820783626e-39
-0.1788707525 -0.00746807456 0.1000609472 5.820783626e-39
-0.1069939509 -0.2273862809 0.2623230517 5.820783626e-39
-0.1152362376 -0.4423609078 0.1193381473 5.820783626e-39
-0.154252857 -0.06243224442 -0.1101426482 5.820783626e-39
-0.1505918205 -0.3806724846 0.07968542725 5.820783626e-39
-0.1671309769 -0.176782608 0.1146072224 5.820783626e-39
-0.1459485888 -0.0506041497 -0.1396804452 5.820783626e-39
-0.1478490084 -0.02560037374 0.2227833867 5.820783626e-39
-0.1332217753 -0.1401708424 -0.05090081319 5.820783626e-39
-0.1180509403 0.0004082918167 -0.1927830875 5.820783626e-39
-0.1402067542 -0.02949039638 0.2116458416 5.820783626e-39
-0.09876907617 -0.4505843222 0.07353824377 5.820783626e-39
-0.1226154491 -0.4291776419 0.07020847499 5.820783626e-39
-0.1615246683 -0.1447592676 0.1233235821 5.820783626e-39
-0.1350467056 -0.02078536153 -0.1592314988 5.820783626e-39
-0.1594946831 -0.05478081107 -0.07719364762 5.820783626e-39
-0.1334120035 -0.002867370844 0.0441056788 5.820783626e-39
-0.1626857519 0.01397702098 0.1191535667 5.820783626e-39
-0.1315994859 0.02471867204 -0.01980211027 5.820783626e-39
-0.1627782583 -0.1307686269 0.1432331502 5.820783626e-39
-0.1300403774 0.01899451017 -0.02285754867 5.820783626e-39
-0.1261415631 -0.1525677145 0.2781797051 5.820783626e-39
-0.1805226058 0.005363941193 0.2460744083 5.820783626e-39
-0.1186129376 0.009306520224 -0.1779503524 5.820783626e-39
-0.1850499362 -0.02058455348 0.2594873011 5.820783626e-39
-0.1753991544 -0.04933324456 0.0746525377 5.820783626e-39
-0.1009251848 -0.03432838619 0.0536371097 5.820783626e-39
-0.1698414236 -0.03872007132 -0.01212488115 5.820783626e-39
-0.1485741735 -0.09916168451 -0.09176376462 5.820783626e-39
-0.1221185327 0.009584337473 -0.1216775998 5.820783626e-39
-0.1851682067 -0.01269836724 0.1354139149 5.820783626e-39
-0.139157638 -0.05668361485 -0.1905585527 5.820783626e-39
-0.1184097454 -0.003855884075 -0.1954803765 5.820783626e-39
-0.05186549574 -0.4225075245 0.2073630989 5.820783626e-39
-0.1326518506 -0.03942488134 -0.1940864921 5.820783626e-39
-0.1631982028 -0.1373656094 0.1384891868 5.820783626e-39
-0.1442442089 -0.06534726918 -0.1703820378 5.820783626e-39
-0.1341473013 -0.04106532037 -0.2127840221 5.820783626e-39
-0.1480084509 -0.01043398678 0.1477259099 5.820783626e-39
-0.1363122016 0.02086660266 -0.0001955702901 5.820783626e-39
-0.1224644408 -0.003314822912 -0.1823362112 5.820783626e-39
-0.16029872 -0.1444012225 0.2418292165 5.820783626e-39
-0.1614979208 -0.2188266218 0.06284006685 5.820783626e-39
-0.169306457 0.01835483313 0.07193497568 5.820783626e-39
-0.1476252824 -0.06780441105 -0.1520796418 5.820783626e-39
-0.1239191443 0.01220723987 -0.1515648365 5.820783626e-39
-0.1278786659 0.03198638558 -0.1161363274 5.820783626e-39
-0.1396860629 0.01506361365 0.02668139338 5.820783626e-39
-0.1324773282 -0.01773512363 -0.1664927751 5.820783626e-39
-0.1343856305 -0.2069391608 -0.1015109867 5.820783626e-39
-0.1134687811 -0.03084720671 0.108741723 5.820783626e-39
-0.1165039688 0.0007652938366 -0.1928482354 5.820783626e-39
-0.1630086452 -0.1765340269 0.05738193542 5.820783626e-39
-0.1752382815 0.02436715364 0.1251463592 5.820783626e-39
-0.1617132574 -0.16905123 0.175272584 5.820783626e-39
-0.1247980744 0.01462778449 -0.06518927217 5.820783626e-39
-0.1670901477 -0.1805603355 0.1013117656 5.820783626e-39
-0.1365833282 -0.2441824824 0.2608669698 5.820783626e-39
-0.1564781517 -0.07100179791 -0.09462812543 5.820783626e-39
-0.1661205888 -0.140953213 0.169385761 5.820783626e-39
-0.155314073 -0.08363263309 -0.06203129143 5.820783626e-39
-0.1245784089 0.01276612282 -0.1461206973 5.820783626e-39
-0.153162092 -0.3083753288 -0.1060740203 5.820783626e-39
-0.1001379266 -0.007250338793 -0.06182906032 5.820783626e-39
-0.1617823392 -0.0809803158 0.08828427643 5.820783626e-39
-0.1569328606 -0.02389730513 -0.06422940642 5.820783626e-39
-0.152465418 -0.08068904281 -0.1373459697 5.820783626e-39
-0.1170773432 -0.003492027521 -0.1969109774 5.820783626e-39
-0.1272450835 -0.00974175334 -0.1761731207 5.820783626e-39
-0.1498911232 -0.1692784131 -0.197709173 5.820783626e-39
-0.0448872596 -0.4208413363 0.2153302431 5.820783626e-39
-0.1530706882 -0.1703225076 0.02736695856 5.820783626e-39
-0.1341526657 0.008387386799 0.007674738765 5.820783626e-39
-0.1454589963 -0.07615816593 -0.1799679101 5.820783626e-39
-0.1243878752 0.01286053658 -0.1411632299 5.820783626e-39
-0.1295960099 0.01965034008 -0.02728930488 5.820783626e-39
-0.1484446824 -0.3844625652 0.03501362354 5.820783626e-39
-0.1551452279 -0.0221080333 0.2433060408 5.820783626e-39
-0.1621323973 -0.01599666476 -0.03001475334 5.820783626e-39
-0.1348346025 -0.001484036446 0.04841308296 5.820783626e-39
-0.1099430099 -0.3854810894 0.2235639393 5.820783626e-39
-0.1707927138 -0.03246203065 0.001495931298 5.820783626e-39
-0.1430953443 -0.2530888915 0.2533367872 5.820783626e-39
-0.1010747403 -0.449083209 0.0770874247 5.820783626e-39
-0.1482657641 -0.0182941407 0.207213372 5.820783626e-39
-0.1212445274 -0.01409424841 -0.2095982134 5.820783626e-39
-0.1375533044 -0.2439980507 0.2604110837 5.820783626e-39
-0.1505619287 -0.07027965784 -0.1398466527 5.820783626e-39
-0.1727205068 -0.09227626026 0.179485023 5.820783626e-39
-0.1802242249 0.01398974657 0.1402796507 5.820783626e-39
-0.1621652097 -0.1170676649 0.1520265043 5.820783626e-39
-0.1476658732 -0.2283264697 -0.03417764604 5.820783626e-39
-0.1771359742 0.00801551342 0.1077808961 5.820783626e-39
-0.1443629861 0.01132503152 -0.08547206968 5.820783626e-39
-0.1442046314 -0.07387290895 -0.1858796477 5.820783626e-39
-0.1861989498 0.0009728372097 0.2381217778 5.820783626e-39
-0.06431908906 -0.4018421769 0.2311640978 5.820783626e-39
-0.1590377688 -0.05854566395 -0.07848184556 5.820783626e-39
-0.1692062914 -0.1297461987 0.2782247365 5.820783626e-39
-0.1905765235 -0.01596057415 0.2388456166 5.820783626e-39
-0.148489058 -0.3498410881 -0.05356676131 5.820783626e-39
-0.1902679354 -0.003362357616 0.2026239336 5.820783626e-39
-0.1476611197 -0.1014972776 -0.09215201437 5.820783626e-39
-0.1876337081 -0.06604211032 0.244663924 5.820783626e-39
-0.1895228177 -0.02684523165 0.1560851336 5.820783626e-39
-0.1732766032 -0.02184653282 0.2636378109 5.820783626e-39
-0.1275133342 -0.0417046845 -0.2373601496 5.820783626e-39
-0.1141123325 -0.3055340946 -0.1759851873 2.898180898e-39
-0.1643640697 -0.3488324881 0.1334327459 2.898180898e-39
-0.1356319636 -0.04067341983 0.05441593379 2.898180898e-39
-0.039784275 -0.4717845023 0.1279739439 2.898180898e-39
-0.07068805397 -0.4687287509 0.1100962237 2.898180898e-39
-0.1377968639 -0.254796505 0.1539315283 2.898180898e-39
-0.1610234976 -0.3181270659 0.1073891595 2.898180898e-39
-0.1440294832 -0.1154418439 0.07384278625 2.898180898e-39
-0.1454556733 -0.1875965893 0.2938704491 2.898180898e-39
-0.1304446161 -0.2163064927 -0.1356846392 2.898180898e-39
-0.159885183 -0.26211375 0.2743935585 2.898180898e-39
-0.1521068513 -0.1605172753 0.07838984579 2.898180898e-39
-0.1315716058 -0.2021962553 -0.1321293414 2.898180898e-39
-0.1372165084 -0.09629176557 0.04145208001 2.898180898e-39
-0.1091336831 -0.02071459591 -0.2201865613 2.898180898e-39
-0.1260035485 0.002314150333 -0.07931502908 2.898180898e-39
-0.1386093795 -0.07007648051 0.07043860108 2.898180898e-39
-0.1427115798 -0.111007452 0.06704851985 2.898180898e-39
-0.1588614434 -0.01671163738 0.302934587 2.898180898e-39
-0.1206344441 0.01094630361 0.03882037103 2.898180898e-39
-0.1679855883 -0.3052667975 0.2084877193 2.898180898e-39
-0.1498801708 -0.04803074896 0.1572581828 2.898180898e-39
-0.1050842479 -0.2732007504 0.2867610753 2.898180898e-39
-0.1169542149 -0.4638684988 0.05209483951 2.898180898e-39
-0.1230081841 -0.09769536555 -0.08893962204 2.898180898e-39
-0.1457368881 -0.407709986 0.01764666289 2.898180898e-39
-0.1428605318 -0.2023623884 0.1167570278 2.898180898e-39
-0.1221501753 -0.08204966784 -0.1181242168 2.898180898e-39
-0.1269958615 -0.02414873242 0.2874566615 2.898180898e-39
-0.1373132914 -0.1652144194 -0.007446374744 2.898180898e-39
-0.1036789566 0.003469407558 -0.1816983819 2.898180898e-39
-0.1186224818 -0.02816829085 0.2722632885 2.898180898e-39
-0.1013230681 -0.4680764079 -0.009459219873 2.898180898e-39
-0.1228532791 -0.4569925666 -0.01319055632 2.898180898e-39
-0.1596871167 -0.1548405588 0.1596543193 2.898180898e-39
-0.1168642715 -0.0566291362 -0.1318297684 2.898180898e-39
-0.1251479983 -0.09611529112 -0.04583934695 2.898180898e-39
-0.1225868389 -0.006694227457 0.1087632105 2.898180898e-39
-0.1543495953 0.007781624794 0.1943800151 2.898180898e-39
-0.1199155897 0.02008756995 0.01214491203 2.898180898e-39
-0.1598346829 -0.1458498836 0.2024488449 2.898180898e-39
-0.1153180972 0.01649597287 0.004302505404 2.898180898e-39
-0.1162292883 -0.2110157013 0.2806375325 2.898180898e-39
-0.1553777009 -0.004820048809 0.2996970117 2.898180898e-39
-0.110126704 -0.005412429571 -0.1642101407 2.898180898e-39
-0.1650267392 -0.04728032649 0.3167449534 2.898180898e-39
-0.144197911 -0.0985635072 0.1390590072 2.898180898e-39
-0.08221831918 -0.04019472003 0.08155470341 2.898180898e-39
-0.1355058551 -0.08677712083 0.03270743787 2.898180898e-39
-0.1301172823 -0.1384313405 -0.05137516186 2.898180898e-39
-0.1078674421 0.02206280828 -0.1157882959 2.898180898e-39
-0.1569929719 -0.05233924091 0.1949809194 2.898180898e-39
-0.1185156778 -0.09364670515 -0.1684555411 2.898180898e-39
-0.1020829454 0.005451828241 -0.1880058944 2.898180898e-39
-0.04992892593 -0.4525272846 0.2111445665 2.898180898e-39
-0.115057312 -0.07328948379 -0.1788012683 2.898180898e-39
-0.1601273119 -0.1499948204 0.189266324 2.898180898e-39
-0.1233224943 -0.1005621105 -0.1440562308 2.898180898e-39
-0.1123203635 -0.07285006344 -0.2075887918 2.898180898e-39
-0.1334644705 -0.01355789602 0.2251731157 2.898180898e-39
-0.1256674379 0.01522704959 0.04653749615 2.898180898e-39
-0.1110955402 -0.02370139956 -0.1697517335 2.898180898e-39
-0.1639900059 -0.1783128679 0.2638552785 2.898180898e-39
-0.1335241795 -0.2944470048 0.07983381301 2.898180898e-39
-0.1467679292 -0.02160403132 0.1253781617 2.898180898e-39
-0.1246834248 -0.1034250408 -0.1279108226 2.898180898e-39
-0.1073523834 0.02469062805 -0.1504349709 2.898180898e-39
-0.1249140948 0.01069715619 -0.08177728951 2.898180898e-39
-0.1352179646 0.01074814796 0.08849082142 2.898180898e-39
-0.1160432398 -0.051564008 -0.1421154588 2.898180898e-39
-0.1275419295 -0.239771083 -0.09263074398 2.898180898e-39
-0.1131151766 -0.02883891761 0.1673487127 2.898180898e-39
-0.1067120433 -0.007792413235 -0.1782515645 2.898180898e-39
-0.1435090899 -0.1892600358 0.06055154651 2.898180898e-39
-0.1566157788 -0.00692075491 0.1824478507 2.898180898e-39
-0.1493262351 -0.2027483433 0.1801984012 2.898180898e-39
-0.1055237725 0.01769703627 -0.0565135479 2.898180898e-39
-0.1386009455 -0.2077006698 0.1049849764 2.898180898e-39
-0.1391647756 -0.2874929607 0.2915250659 2.898180898e-39
-0.1245736033 -0.1096072644 -0.06968344003 2.898180898e-39
-0.1602738947 -0.155164361 0.2190431654 2.898180898e-39
-0.1311665475 -0.127131328 -0.0116652362 2.898180898e-39
-0.1080830023 0.02505433559 -0.145097822 2.898180898e-39
-0.1099285111 -0.373152256 -0.141586706 2.898180898e-39
-0.06264948845 -0.002183526754 -0.05630454421 2.898180898e-39
-0.1509120911 -0.1264492273 0.1478355527 2.898180898e-39
-0.1294163465 -0.05584564805 -0.0316297859 2.898180898e-39
-0.1264783442 -0.1177453697 -0.1179707572 2.898180898e-39
-0.1065813154 -0.01140092313 -0.183003366 2.898180898e-39
-0.1133965775 -0.03628355265 -0.1602453738 2.898180898e-39
-0.1309380829 -0.2023055106 -0.1541593671 2.898180898e-39
-0.04351837188 -0.4493082762 0.2152717412 2.898180898e-39
-0.143803671 -0.1769652963 0.04080216587 2.898180898e-39
-0.1213959605 0.003838717937 0.05958233774 2.898180898e-39
-0.1233297139 -0.1087203324 -0.1518361568 2.898180898e-39
-0.1092324704 0.02490708232 -0.1384593993 2.898180898e-39
-0.1144058034 0.01780092716 -0.002796918154 2.898180898e-39
-0.1335294098 -0.4023289084 -0.05045238882 2.898180898e-39
-0.1323407739 -0.02275013924 0.2982668281 2.898180898e-39
-0.1354364902 -0.05033090711 0.0001851804554 2.898180898e-39
-0.1255051047 -0.004450112581 0.1166974679 2.898180898e-39
-0.1170422658 -0.4191913009 0.2533489168 2.898180898e-39
-0.137880519 -0.08232925832 0.05368528515 2.898180898e-39
-0.1438616514 -0.296239078 0.2862818241 2.898180898e-39
-0.1035725847 -0.4676908553 -0.006105836481 2.898180898e-39
-0.1275929362 -0.0185483247 0.2710874975 2.898180898e-39
-0.1039357483 -0.005757302046 -0.2000018954 2.898180898e-39
-0.1399372369 -0.2874913216 0.2911497653 2.898180898e-39
-0.1248573065 -0.1065413803 -0.1186184287 2.898180898e-39
-0.163365528 -0.1266413778 0.2478173375 2.898180898e-39
-0.1610055417 -0.02277608216 0.1981440187 2.898180898e-39
-0.1591958553 -0.1388480216 0.2178084254 2.898180898e-39
-0.116734013 -0.2885164917 -0.01811618172 2.898180898e-39
-0.1528364122 -0.03096628189 0.1635625064 2.898180898e-39
-0.132523343 -0.02119036019 -0.03975073248 2.898180898e-39
-0.1221170053 -0.1061697006 -0.1569146216 2.898180898e-39
-0.1619376838 -0.02627043426 0.3004681766 2.898180898e-39
-0.06744576991 -0.4283197522 0.2487280369 2.898180898e-39
-0.1249964088 -0.09987549484 -0.04632657021 2.898180898e-39
-0.1639053226 -0.1657817662 0.2969231904 2.898180898e-39
-0.1687210798 -0.05042137206 0.3035252392 2.898180898e-39
-0.1312912852 -0.398575902 -0.142326504 2.898180898e-39
-0.1704536974 -0.03945922852 0.2690276504 2.898180898e-39
-0.1305922717 -0.1404779851 -0.05027230829 2.898180898e-39
-0.1730919778 -0.09313340485 0.3143168986 2.898180898e-39
-0.1602794677 -0.06697629392 0.2234497666 2.898180898e-39
-0.1585402936 -0.03402470052 0.3182104826 2.898180898e-39
-0.1152513325 -0.0298140198 -0.2338160574 2.898180898e-39
-0.104213208 -0.2536874413 -0.1616967767 6.490113838e-41
-0.1174303442 -0.4379694462 -0.1453278363 6.490113838e-41
-0.1283640563 -0.1467874646 0.1214355603 6.490113838e-41
-0.08946765214 -0.317702651 0.00266668573 6.490113838e-41
-0.09824683517 -0.3354517519 -0.04940702766 6.490113838e-41
-0.1409909576 -0.3921691775 0.1029464081 6.490113838e-41
-0.1161527336 -0.4325404465 -0.1429595053 6.490113838e-41
-0.1377691925 -0.2256068587 0.1173150018 6.490113838e-41
-0.157226637 -0.375043869 0.3228049278 6.490113838e-41
-0.1206706464 -0.3519071639 -0.08524629474 6.490113838e-41
-0.1581781507 -0.4372415245 0.2566504776 6.490113838e-41
-0.1386635453 -0.283044517 0.1373496056 6.490113838e-41
-0.1225262061 -0.3325265646 -0.07359270751 6.490113838e-41
-0.1344059855 -0.2043285668 0.09248671681 6.490113838e-41
-0.09905806929 -0.07071718574 -0.1946265697 6.490113838e-41
-0.1131231263 -0.08019635081 -0.02410247736 6.490113838e-41
-0.1324818283 -0.1815699339 0.1232183054 6.490113838e-41
-0.1369912922 -0.2206102908 0.1124835089 6.490113838e-41
-0.155981347 -0.1489740014 0.3314432204 6.490113838e-41
-0.1261417419 -0.05398182571 0.1116467491 6.490113838e-41
-0.1397767812 -0.4702792764 0.0359217152 6.490113838e-41
-0.1346321851 -0.1639038771 0.2158668339 6.490113838e-41
-0.1439025104 -0.4799447656 0.277857542 6.490113838e-41
-0.07658670098 -0.3251260519 -0.1283853352 6.490113838e-41
-0.1244539768 -0.1973154992 0.005414791405 6.490113838e-41
-0.07573503256 -0.308388114 -0.1838361621 6.490113838e-41
-0.1405813396 -0.35558483 0.1358602345 6.490113838e-41
-0.1188282296 -0.1740976125 -0.03251707181 6.490113838e-41
-0.1538446099 -0.1078220308 0.2807868123 6.490113838e-41
-0.1351127774 -0.2792195976 0.08055908233 6.490113838e-41
-0.1028636619 -0.06744369864 -0.1340682656 6.490113838e-41
-0.1550988406 -0.09496061504 0.2777567804 6.490113838e-41
-0.07321146131 -0.2932866812 -0.1519715041 6.490113838e-41
-0.05997636169 -0.2934740782 -0.1656433344 6.490113838e-41
-0.1390266269 -0.2885190845 0.180031389 6.490113838e-41
-0.1146878675 -0.137843132 -0.06661440432 6.490113838e-41
-0.1266235858 -0.2001582086 0.03458134085 6.490113838e-41
-0.1455312669 -0.06071546674 0.1960293651 6.490113838e-41
-0.1488763541 -0.103070721 0.2433311343 6.490113838e-41
-0.1201965064 -0.06027854979 0.08385994285 6.490113838e-41
-0.1371048689 -0.2859165668 0.2170373499 6.490113838e-41
-0.1199167296 -0.04230554402 0.07779815048 6.490113838e-41
-0.1537498087 -0.3941708803 0.3115754724 6.490113838e-41
-0.1557821929 -0.1362676769 0.3280707896 6.490113838e-41
-0.1046798006 -0.08539395034 -0.1087255031 6.490113838e-41
-0.1545382589 -0.183883369 0.3422797024 6.490113838e-41
-0.1364426613 -0.2129669338 0.1785070598 6.490113838e-41
-0.15605551 -0.02937407792 0.2145261467 6.490113838e-41
-0.1323835403 -0.1957831979 0.08728720993 6.490113838e-41
-0.1313353926 -0.2472276688 0.0401397869 6.490113838e-41
-0.111952126 0.003256738186 -0.05741535127 6.490113838e-41
-0.1384093761 -0.1737463027 0.2433078885 6.490113838e-41
-0.1192859858 -0.1792927086 -0.1123534963 6.490113838e-41
-0.100692153 -0.05005998909 -0.143455714 6.490113838e-41
-0.09610871226 -0.3594950736 0.1155556962 6.490113838e-41
-0.1165887192 -0.1570295393 -0.122679159 6.490113838e-41
-0.1376358122 -0.2881765664 0.2051115334 6.490113838e-41
-0.1222882718 -0.1932941079 -0.07428569347 6.490113838e-41
-0.1159372106 -0.1668652594 -0.1497222036 6.490113838e-41
-0.1556219161 -0.07926562428 0.2831138372 6.490113838e-41
-0.1249283627 -0.07056853175 0.1159391627 6.490113838e-41
-0.1089411527 -0.1058811247 -0.1167159826 6.490113838e-41
-0.1415888518 -0.3456377089 0.2919104695 6.490113838e-41
-0.1224131957 -0.40074265 -0.06201575696 6.490113838e-41
-0.1343165636 -0.1340486705 0.1857274175 6.490113838e-41
-0.1227590814 -0.2004323602 -0.04793473333 6.490113838e-41
-0.1054334491 -0.02423521876 -0.08564117551 6.490113838e-41
-0.1119897217 -0.07142259181 -0.02477901801 6.490113838e-41
-0.1329064965 -0.07829128206 0.1532926857 6.490113838e-41
-0.1141673699 -0.1313189715 -0.08094313741 6.490113838e-41
-0.1214475706 -0.3667266965 -0.08615619689 6.490113838e-41
-0.1646137983 -0.04420001805 0.267506212 6.490113838e-41
-0.1038244814 -0.08600525558 -0.1320466101 6.490113838e-41
-0.1364765912 -0.3382643461 0.1190952137 6.490113838e-41
-0.1433371305 -0.1260997802 0.2317750454 6.490113838e-41
-0.1415267289 -0.3607452512 0.2103935182 6.490113838e-41
-0.1157602072 -0.007024109364 0.01474379748 6.490113838e-41
-0.1390399784 -0.3594468236 0.1154488549 6.490113838e-41
-0.1482110173 -0.4869179428 0.2472772002 6.490113838e-41
-0.1288475543 -0.2130821794 0.02520624548 6.490113838e-41
-0.1362898946 -0.2990897894 0.2301239371 6.490113838e-41
-0.1305049211 -0.2366347462 0.06070871651 6.490113838e-41
-0.1071136668 -0.02032867074 -0.07714891434 6.490113838e-41
-0.1009041145 -0.2131546438 -0.1792164743 6.490113838e-41
-0.1151147857 0.004590421915 0.01110542193 6.490113838e-41
-0.138948217 -0.2509247065 0.1804609597 6.490113838e-41
-0.1195117682 -0.1586826742 0.02901280671 6.490113838e-41
-0.1258680522 -0.2214307189 -0.03728249297 6.490113838e-41
-0.1043634489 -0.09090988338 -0.1373258531 6.490113838e-41
-0.1123113856 -0.1174928248 -0.103132993 6.490113838e-41
-0.1191947386 -0.3200290799 -0.1125738844 6.490113838e-41
-0.09131979942 -0.3522714972 0.1282759011 6.490113838e-41
-0.1351812184 -0.3112829924 0.1106301919 6.490113838e-41
-0.1327030808 -0.05250169337 0.1369472444 6.490113838e-41
-0.1250983775 -0.2076258361 -0.09117260575 6.490113838e-41
-0.1088470221 -0.01536607742 -0.07092285156 6.490113838e-41
-0.1192265153 -0.04073444009 0.06999444962 6.490113838e-41
-0.06580704451 -0.2615824938 -0.1919416189 6.490113838e-41
-0.1541981846 -0.1230911165 0.284358114 6.490113838e-41
-0.123499155 -0.1598424613 0.06600422412 6.490113838e-41
-0.1458133906 -0.06464503706 0.1989892721 6.490113838e-41
-0.1156205162 -0.4114566445 0.1129870936 6.490113838e-41
-0.1328587085 -0.1908178031 0.1056089923 6.490113838e-41
-0.1459283233 -0.4889838398 0.2196606994 6.490113838e-41
-0.07259067148 -0.2959249616 -0.1512471139 6.490113838e-41
-0.1581089944 -0.09365071356 0.2948237658 6.490113838e-41
-0.1006821394 -0.06734745204 -0.1603894234 6.490113838e-41
-0.1484750211 -0.486879915 0.2459582388 6.490113838e-41
-0.1231857166 -0.2048194259 -0.03382477164 6.490113838e-41
-0.138975367 -0.2753149867 0.2580468953 6.490113838e-41
-0.1422097832 -0.1448121518 0.2470647991 6.490113838e-41
-0.1369199008 -0.281609714 0.2335180044 6.490113838e-41
-0.1087570339 -0.378259331 -0.1389891058 6.490113838e-41
-0.1369224191 -0.149616912 0.2209863067 6.490113838e-41
-0.1158196703 -0.1117870063 0.005862925202 6.490113838e-41
-0.1242251396 -0.2023756504 -0.09826042503 6.490113838e-41
-0.1552263051 -0.1560053229 0.3276804984 6.490113838e-41
-0.1033100635 -0.3778395057 0.1468182802 6.490113838e-41
-0.1272905767 -0.2037797123 0.03580286354 6.490113838e-41
-0.1489563286 -0.3391901553 0.3271002471 6.490113838e-41
-0.1523489654 -0.1848196834 0.3260041475 6.490113838e-41
-0.08786457032 -0.2049515247 -0.2128891051 6.490113838e-41
-0.1496119946 -0.1660756469 0.2980402112 6.490113838e-41
-0.1314271688 -0.2497727275 0.04111704975 6.490113838e-41
-0.1484962255 -0.2456787825 0.3207569122 6.490113838e-41
-0.1400049776 -0.1947936118 0.2601057589 6.490113838e-41
-0.1559471935 -0.1745575666 0.3233943284 6.490113838e-41
-0.09490261227 -0.03509926796 -0.2071281075 6.490113838e-41
-0.1050921753 -0.1129098833 -0.1787931621 3.015101038e-39
-0.1045144722 -0.3597459197 -0.1573118269 3.015101038e-39
-0.1353298575 -0.2046270818 0.1532178819 3.015101038e-39
-0.07586306334 -0.2557674944 -0.05543412641 3.015101038e-39
-0.09560091048 -0.2644149959 -0.09864494205 3.015101038e-39
-0.1268539429 -0.4415892363 -0.03011019342 3.015101038e-39
-0.1022774726 -0.3502181768 -0.1625970006 3.015101038e-39
-0.1431237608 -0.2953469157 0.1414077282 3.015101038e-39
-0.1450210661 -0.4496318698 0.301676333 3.015101038e-39
-0.1101306379 -0.3324611783 -0.1364361048 3.015101038e-39
-0.134565711 -0.4888967276 0.1599777341 3.015101038e-39
-0.1391677707 -0.3654325008 0.1267338991 3.015101038e-39
-0.1151458323 -0.3549802601 -0.1100668311 3.015101038e-39
-0.1429111212 -0.269584775 0.1230015829 3.015101038e-39
-0.09846254438 -0.1119261235 -0.1617067456 3.015101038e-39
-0.1191769391 -0.1239933074 0.02725628018 3.015101038e-39
-0.1394964308 -0.2459740043 0.1493040025 3.015101038e-39
-0.1433214992 -0.289040029 0.1357189715 3.015101038e-39
-0.1498758942 -0.2134305686 0.3356122077 3.015101038e-39
-0.1322633773 -0.1007613391 0.155705303 3.015101038e-39
-0.1128958836 -0.4566253424 -0.09878386557 3.015101038e-39
-0.1366084963 -0.2348151654 0.2371316552 3.015101038e-39
-0.1125671715 -0.4837966561 0.2098196149 3.015101038e-39
-0.09483064711 -0.2644092739 -0.1480041444 3.015101038e-39
-0.1313043982 -0.2614390254 0.05465248972 3.015101038e-39
-0.08573023975 -0.2618089914 -0.1758559048 3.015101038e-39
-0.1369462609 -0.4150339961 0.05791445822 3.015101038e-39
-0.1245535091 -0.2291501164 0.01924826205 3.015101038e-39
-0.1486451626 -0.1618293822 0.2748731673 3.015101038e-39
-0.1329988837 -0.3602901399 0.07861988991 3.015101038e-39
-0.1052872241 -0.09159687161 -0.09793929756 3.015101038e-39
-0.1473979056 -0.1545322239 0.2681545615 3.015101038e-39
-0.07913648337 -0.2190326452 -0.1672879457 3.015101038e-39
-0.08316730708 -0.231994465 -0.1704002917 3.015101038e-39
-0.1421008259 -0.3727224469 0.2004106343 3.015101038e-39
-0.119320713 -0.1837303489 -0.003962442279 3.015101038e-39
-0.1347421706 -0.2602842748 0.07691515237 3.015101038e-39
-0.1462522894 -0.09565638006 0.2394447327 3.015101038e-39
-0.1471742243 -0.1420324147 0.2816931903 3.015101038e-39
-0.1268718392 -0.1056086868 0.1274220943 3.015101038e-39
-0.1437144876 -0.3692778945 0.231384784 3.015101038e-39
-0.1258821189 -0.08923365176 0.1223619953 3.015101038e-39
-0.1407557875 -0.4569265246 0.2905556262 3.015101038e-39
-0.1520004421 -0.1890437305 0.3283396363 3.015101038e-39
-0.1102142558 -0.117275849 -0.0619199574 3.015101038e-39
-0.1474483907 -0.2659938335 0.3348158002 3.015101038e-39
-0.1387757361 -0.2966486812 0.1907840073 3.015101038e-39
-0.1623614132 -0.03465820849 0.2490837872 3.015101038e-39
-0.143073678 -0.2575708628 0.1192579344 3.015101038e-39
-0.133909747 -0.3220265806 0.08416817337 3.015101038e-39
-0.1139137 -0.03319901228 -0.01136389747 3.015101038e-39
-0.1369039118 -0.2511743009 0.2615067661 3.015101038e-39
-0.1213214621 -0.2310640514 -0.06996257603 3.015101038e-39
-0.1026196852 -0.07752746344 -0.109954983 3.015101038e-39
-0.09222501516 -0.302364856 0.07617639005 3.015101038e-39
-0.1189158931 -0.2010475695 -0.07831104845 3.015101038e-39
-0.1428022385 -0.3710257709 0.2197522223 3.015101038e-39
-0.1248748973 -0.2567197084 -0.0243880339 3.015101038e-39
-0.1173902601 -0.2070122212 -0.1251790971 3.015101038e-39
-0.1540440917 -0.1188757867 0.3090643585 3.015101038e-39
-0.1317076087 -0.1189524382 0.1604803801 3.015101038e-39
-0.1120871082 -0.1422089338 -0.06191704422 3.015101038e-39
-0.1504557729 -0.4179837406 0.283418119 3.015101038e-39
-0.1094950289 -0.3756950498 -0.1651458442 3.015101038e-39
-0.1350595653 -0.1955334395 0.2221026123 3.015101038e-39
-0.1270218939 -0.2661861479 0.002026513219 3.015101038e-39
-0.1097164005 -0.06332166493 -0.03601261973 3.015101038e-39
-0.1184445769 -0.1130457669 0.02495209128 3.015101038e-39
-0.1356301904 -0.1260736585 0.1941948235 3.015101038e-39
-0.1167933866 -0.1761169881 -0.019211445 3.015101038e-39
-0.1071428582 -0.3070220351 -0.1541839838 3.015101038e-39
-0.1553481519 -0.07739552855 0.2817989588 3.015101038e-39
-0.1079173163 -0.111045897 -0.08805372566 3.015101038e-39
-0.133590281 -0.3869223595 0.05621118098 3.015101038e-39
-0.1386816055 -0.181567505 0.2642659247 3.015101038e-39
-0.1445512921 -0.4189293087 0.1560322344 3.015101038e-39
-0.1183244362 -0.05331303179 0.06480965763 3.015101038e-39
-0.1328877062 -0.4149875939 0.02281505615 3.015101038e-39
-0.1270107478 -0.4905777574 0.1591235697 3.015101038e-39
-0.1327829957 -0.2773630619 0.07536230236 3.015101038e-39
-0.1439894736 -0.3771100342 0.2475339174 3.015101038e-39
-0.1351267844 -0.2997338772 0.1044414714 3.015101038e-39
-0.1101507246 -0.06030476093 -0.03031247854 3.015101038e-39
-0.1012727171 -0.1305734813 -0.1986114681 3.015101038e-39
-0.1234570593 -0.009460180998 0.07527092844 3.015101038e-39
-0.1397833824 -0.3282341361 0.1840794086 3.015101038e-39
-0.1346632093 -0.2125288397 0.07678753883 3.015101038e-39
-0.1296532005 -0.2930463254 0.01744859666 3.015101038e-39
-0.1079503968 -0.1159894466 -0.09419435263 3.015101038e-39
-0.1138723418 -0.158667922 -0.04406256974 3.015101038e-39
-0.1117975563 -0.3581495881 -0.1138906553 3.015101038e-39
-0.08365038037 -0.2948709726 0.09126470238 3.015101038e-39
-0.1340774745 -0.3753676713 0.07396434247 3.015101038e-39
-0.136666283 -0.09510493279 0.1811540723 3.015101038e-39
-0.1258398592 -0.2732900679 -0.04822769389 3.015101038e-39
-0.1105174348 -0.05467748642 -0.02550786361 3.015101038e-39
-0.1250092089 -0.08786264062 0.1148490682 3.015101038e-39
-0.0775982663 -0.2164544761 -0.180177331 3.015101038e-39
-0.1461103559 -0.1767610013 0.2791851163 3.015101038e-39
-0.136275664 -0.210616827 0.1050407514 3.015101038e-39
-0.1461534649 -0.09996388853 0.2422923744 3.015101038e-39
-0.1214244068 -0.3698652983 0.07861954719 3.015101038e-39
-0.1426029652 -0.2550768256 0.1337223947 3.015101038e-39
-0.1253637075 -0.4872969985 0.1310119927 3.015101038e-39
-0.08145049959 -0.2218791246 -0.1682010293 3.015101038e-39
-0.1529952139 -0.1428508162 0.2925693393 3.015101038e-39
-0.1012619436 -0.09449927509 -0.1307475269 3.015101038e-39
-0.1268839091 -0.4904854596 0.1574194133 3.015101038e-39
-0.1281718612 -0.27252388 0.0206669122 3.015101038e-39
-0.1395556778 -0.3540661335 0.2683159411 3.015101038e-39
-0.1385521442 -0.2058476359 0.2725019157 3.015101038e-39
-0.1417286396 -0.3636344969 0.2419694364 3.015101038e-39
-0.1053497642 -0.2875406444 -0.1833134294 3.015101038e-39
-0.1373013109 -0.2140207291 0.2481666207 3.015101038e-39
-0.1245155782 -0.1616539955 0.05806231499 3.015101038e-39
-0.1247841716 -0.2647859752 -0.05555014312 3.015101038e-39
-0.1478926241 -0.2271582782 0.3382560015 3.015101038e-39
-0.1005085111 -0.3347579837 0.1272567511 3.015101038e-39
-0.1340809464 -0.2643868625 0.0790700689 3.015101038e-39
-0.1551570594 -0.4189932346 0.3194138706 3.015101038e-39
-0.1456870884 -0.2644891441 0.3379772007 3.015101038e-39
-0.08435407281 -0.1351396739 -0.196256876 3.015101038e-39
-0.1435176432 -0.2419244498 0.3154892623 3.015101038e-39
-0.1341362447 -0.3271394372 0.08409250528 3.015101038e-39
-0.1439049989 -0.3220857084 0.3345515132 3.015101038e-39
-0.1376008987 -0.2751294971 0.2741904855 3.015101038e-39
-0.1491405517 -0.244117707 0.31075418 3.015101038e-39
-0.09307232499 -0.07607756555 -0.1881229281 3.015101038e-39
-0.1033288911 -0.06370083988 -0.1865260005 5.962428276e-39
-0.09066224843 -0.3321282864 -0.1671741158 5.962428276e-39
-0.1339304149 -0.2440119982 0.1956550181 5.962428276e-39
-0.03293028474 -0.2613794506 -0.08231695741 5.962428276e-39
-0.06766118854 -0.2803659737 -0.1122028828 5.962428276e-39
-0.1182465851 -0.4598038197 -0.1213460714 5.962428276e-39
-0.0879361555 -0.3159806132 -0.1723361909 5.962428276e-39
-0.1430573165 -0.3462811708 0.1652381122 5.962428276e-39
-0.1229535639 -0.4841271043 0.310461849 5.962428276e-39
-0.1079427078 -0.2228923738 -0.164486438 5.962428276e-39
-0.104264684 -0.485370189 0.07614390552 5.962428276e-39
-0.1402034312 -0.3969337344 0.06337708235 5.962428276e-39
-0.1090322509 -0.2620194554 -0.1580381691 5.962428276e-39
-0.139363423 -0.3154149055 0.1561652124 5.962428276e-39
-0.1024660319 -0.1345459223 -0.1444019377 5.962428276e-39
-0.1237079203 -0.1592215002 0.07525341958 5.962428276e-39
-0.1367241293 -0.2948837876 0.1801525354 5.962428276e-39
-0.1426986754 -0.3414213955 0.1659869254 5.962428276e-39
-0.1395934075 -0.2604766786 0.3786830008 5.962428276e-39
-0.1254416406 -0.120904997 0.2088690102 5.962428276e-39
-0.09578625113 -0.4231149554 -0.1398538947 5.962428276e-39
-0.1304210424 -0.2823076248 0.2819751203 5.962428276e-39
-0.06157504767 -0.467844367 0.1908838749 5.962428276e-39
-0.0657479763 -0.257434994 -0.1614188403 5.962428276e-39
-0.1312312484 -0.3091292381 0.08676702529 5.962428276e-39
-0.06867717952 -0.2410112172 -0.1825909913 5.962428276e-39
-0.1309484839 -0.441947341 -0.03691476583 5.962428276e-39
-0.1292314976 -0.2780706286 0.05692885816 5.962428276e-39
-0.1276471168 -0.1919291168 0.3210605085 5.962428276e-39
-0.1267433167 -0.3678897619 -0.005577076226 5.962428276e-39
-0.1095578 -0.1242821217 -0.06657270342 5.962428276e-39
-0.1270743459 -0.1846654117 0.314065516 5.962428276e-39
-0.05827359855 -0.2140424252 -0.1659620702 5.962428276e-39
-0.05451077968 -0.2194878459 -0.1886565685 5.962428276e-39
-0.141605258 -0.3996450007 0.1660380661 5.962428276e-39
-0.1263453811 -0.2209418118 0.0306385532 5.962428276e-39
-0.134693563 -0.3079461753 0.1138176993 5.962428276e-39
-0.1420703828 -0.1136701107 0.3047625721 5.962428276e-39
-0.1410277337 -0.1726240516 0.3374972045 5.962428276e-39
-0.1211980432 -0.1318607479 0.1802492738 5.962428276e-39
-0.1400792599 -0.3947018981 0.2346566617 5.962428276e-39
-0.1217911839 -0.1110306531 0.176936388 5.962428276e-39
-0.1037221253 -0.4811422825 0.3095319867 5.962428276e-39
-0.1418292671 -0.2252886593 0.3708129823 5.962428276e-39
-0.1126259342 -0.1504991204 -0.01909073628 5.962428276e-39
-0.1405801773 -0.3075135946 0.3738047779 5.962428276e-39
-0.1386113316 -0.3490526974 0.2295965254 5.962428276e-39
-0.1573758125 -0.03273680806 0.296966821 5.962428276e-39
-0.138699308 -0.302962631 0.1494682431 5.962428276e-39
-0.1313055009 -0.3488785625 0.04561777413 5.962428276e-39
-0.1150164604 -0.05859853327 0.03942409903 5.962428276e-39
-0.1311702579 -0.2953226864 0.3105049133 5.962428276e-39
-0.1251238883 -0.2812741995 -0.05049988255 5.962428276e-39
-0.1082801893 -0.1078127474 -0.07966794819 5.962428276e-39
-0.03550772741 -0.3316248059 0.04385222495 5.962428276e-39
-0.1222223267 -0.2423449159 -0.051693663 5.962428276e-39
-0.1399957538 -0.3956550956 0.2114870548 5.962428276e-39
-0.1281769872 -0.3067359626 0.001522157341 5.962428276e-39
-0.1202048957 -0.2430228889 -0.1116749123 5.962428276e-39
-0.1454231292 -0.1363072246 0.3627954125 5.962428276e-39
-0.1229183897 -0.1439780891 0.2135159373 5.962428276e-39
-0.1149809808 -0.1746662706 -0.0225575082 5.962428276e-39
-0.1370112151 -0.4645641446 0.2620273829 5.962428276e-39
-0.1035306901 -0.339686662 -0.1803608239 5.962428276e-39
-0.1293670535 -0.2282493562 0.2728064954 5.962428276e-39
-0.1288450807 -0.3157106042 0.02874141932 5.962428276e-39
-0.1173654348 -0.09429435432 0.009589802474 5.962428276e-39
-0.1236376166 -0.147737667 0.07758399099 5.962428276e-39
-0.1281671822 -0.1518888474 0.2543952465 5.962428276e-39
-0.1232941374 -0.2131307721 0.01702683419 5.962428276e-39
-0.106517002 -0.2439252287 -0.1728104502 5.962428276e-39
-0.148932904 -0.0940823406 0.3333577514 5.962428276e-39
-0.1122017205 -0.1422506273 -0.0546528995 5.962428276e-39
-0.1288785636 -0.4123729467 -0.0403315872 5.962428276e-39
-0.1350563616 -0.2170929462 0.3175387084 5.962428276e-39
-0.1332041174 -0.4596772194 0.06769867986 5.962428276e-39
-0.1159342378 -0.07668989897 0.1230264828 5.962428276e-39
-0.1255738586 -0.440338552 -0.07929555327 5.962428276e-39
-0.09741299599 -0.4839466214 0.1064977273 5.962428276e-39
-0.1323532462 -0.3321019411 0.09624461085 5.962428276e-39
-0.139290303 -0.4077415466 0.2383565605 5.962428276e-39
-0.1323165894 -0.3442587554 0.1045887396 5.962428276e-39
-0.1176762879 -0.09121546149 0.01718338579 5.962428276e-39
-0.09604497254 -0.08653688431 -0.1978003383 5.962428276e-39
-0.1252411008 -0.02731072903 0.1313495934 5.962428276e-39
-0.1387748718 -0.3703845441 0.2133106291 5.962428276e-39
-0.1384474933 -0.2492043823 0.108416684 5.962428276e-39
-0.130036056 -0.3377184868 0.02352453023 5.962428276e-39
-0.1127933636 -0.1448984444 -0.06348297 5.962428276e-39
-0.1179832295 -0.1932762563 -0.007500089705 5.962428276e-39
-0.1085802838 -0.275274545 -0.154438287 5.962428276e-39
-0.02773880027 -0.3245149851 0.06868766993 5.962428276e-39
-0.1318380088 -0.3973636627 -0.008676160127 5.962428276e-39
-0.1310118139 -0.1141027212 0.2362416983 5.962428276e-39
-0.1280437559 -0.3183919191 -0.02209409699 5.962428276e-39
-0.1171656996 -0.08573143184 0.02211584151 5.962428276e-39
-0.1209092885 -0.1101681292 0.1705081761 5.962428276e-39
-0.06575390697 -0.1966540515 -0.1833020151 5.962428276e-39
-0.125135228 -0.212976709 0.3249126375 5.962428276e-39
-0.1380216926 -0.2524605393 0.1399515271 5.962428276e-39
-0.1421023756 -0.1184083372 0.3083031476 5.962428276e-39
-0.06325715035 -0.3711212873 0.02266429365 5.962428276e-39
-0.1382087916 -0.3022158444 0.1605797708 5.962428276e-39
-0.1007871106 -0.4823347926 0.062571235 5.962428276e-39
-0.05898531526 -0.2180330008 -0.1662712991 5.962428276e-39
-0.1417877376 -0.1682521105 0.3354657292 5.962428276e-39
-0.1074094251 -0.1233655661 -0.1046212837 5.962428276e-39
-0.09795728326 -0.4838997126 0.1037360802 5.962428276e-39
-0.1291587204 -0.3204711378 0.04228901863 5.962428276e-39
-0.1388650984 -0.3858843446 0.3018637598 5.962428276e-39
-0.1345600337 -0.2513649166 0.3257572949 5.962428276e-39
-0.1391377002 -0.3923170269 0.2631349266 5.962428276e-39
-0.1042683274 -0.246761471 -0.1920457482 5.962428276e-39
-0.1305254698 -0.2566089928 0.2989784181 5.962428276e-39
-0.1313926727 -0.1902480572 0.09715176374 5.962428276e-39
-0.1274230629 -0.311642468 -0.03117213212 5.962428276e-39
-0.1384875178 -0.2741322517 0.3825268447 5.962428276e-39
-0.03286854923 -0.3553564847 0.09289754182 5.962428276e-39
-0.1343714893 -0.313018471 0.1150755957 5.962428276e-39
-0.1416028589 -0.4673232436 0.3076583743 5.962428276e-39
-0.1379461437 -0.3039092124 0.3807085156 5.962428276e-39
-0.06941961497 -0.1154828668 -0.1930134594 5.962428276e-39
-0.1371147037 -0.2875444889 0.3646538556 5.962428276e-39
-0.1311338097 -0.3498543501 0.04041403532 5.962428276e-39
-0.1429294497 -0.3658646345 0.3744773567 5.962428276e-39
-0.1334276795 -0.3179090023 0.3244237006 5.962428276e-39
-0.1303550005 -0.2988716066 0.3535530567 5.962428276e-39
-0.09678171575 -0.1051529944 -0.1715595424 5.962428276e-39
-0.09607917815 -0.01534438133 -0.2007049918 8.906165387e-39
-0.03937829658 -0.2660610974 -0.1901240647 8.906165387e-39
-0.132757023 -0.3261609375 0.2320299149 8.906165387e-39
0.03153707832 -0.241186887 -0.1394574344 8.906165387e-39
0.01263519004 -0.2363822013 -0.1641021818 8.906165387e-39
-0.08106825501 -0.3528347015 -0.1822056472 8.906165387e-39
-0.05345465243 -0.249096483 -0.1889229119 8.906165387e-39
-0.1365300566 -0.4200554788 0.03401765972 8.906165387e-39
-0.05049880594 -0.4878022671 0.2015990019 8.906165387e-39
-0.1020970047 -0.143658638 -0.1972805262 8.906165387e-39
-0.07060107589 -0.461833775 -0.06985520571 8.906165387e-39
-0.1167364493 -0.4554320872 -0.1422018707 8.906165387e-39
-0.1050507352 -0.1628437638 -0.19452402 8.906165387e-39
-0.1347066909 -0.3923188448 0.066868186 8.906165387e-39
-0.1178520694 -0.1741782129 -0.1265536547 8.906165387e-39
-0.1326734722 -0.2119085789 0.1252423823 8.906165387e-39
-0.1406857222 -0.3707408607 0.1640547514 8.906165387e-39
-0.1363319606 -0.4133973718 0.04129151255 8.906165387e-39
-0.1340922564 -0.3596407175 0.3767717481 8.906165387e-39
-0.1254849434 -0.1745628119 0.2975854874 8.906165387e-39
-0.05363436788 -0.3419059515 -0.1809979677 8.906165387e-39
-0.135057956 -0.364449352 0.3212637007 8.906165387e-39
0.005623433739 -0.44261235 0.1345505416 8.906165387e-39
-0.003836596385 -0.1976480633 -0.1963631809 8.906165387e-39
-0.1198111624 -0.3569804728 -0.03344948217 8.906165387e-39
-0.03217186406 -0.1727877855 -0.1961489022 8.906165387e-39
-0.09369733185 -0.3899950385 -0.1823607683 8.906165387e-39
-0.1248754859 -0.3484791517 0.01560486108 8.906165387e-39
-0.1160642579 -0.2982272506 0.3302679658 8.906165387e-39
-0.1108439043 -0.370098561 -0.1793969572 8.906165387e-39
-0.1197870001 -0.1696519256 -0.03066831268 8.906165387e-39
-0.1165627614 -0.2894541025 0.3212790787 8.906165387e-39
-0.0008171936497 -0.1544464827 -0.1959611475 8.906165387e-39
-0.01263316907 -0.1526961029 -0.1986687183 8.906165387e-39
-0.1223251894 -0.4758514166 -0.01560447365 8.906165387e-39
-0.1269202381 -0.2949231565 0.06370639801 8.906165387e-39
-0.1241463721 -0.3668923378 0.009667854756 8.906165387e-39
-0.1385212988 -0.1722734869 0.3799002171 8.906165387e-39
-0.137523666 -0.2528832853 0.3933446407 8.906165387e-39
-0.1223309636 -0.1830367744 0.2603217959 8.906165387e-39
-0.1285939813 -0.4808149338 0.08417845517 8.906165387e-39
-0.1217198521 -0.1587749422 0.2584270239 8.906165387e-39
-0.02056768164 -0.471018374 0.2263607085 8.906165387e-39
-0.1325747073 -0.3254184723 0.3779804409 8.906165387e-39
-0.1245845407 -0.2009814233 0.01496339589 8.906165387e-39
-0.1287085414 -0.4093778729 0.3659058511 8.906165387e-39
-0.1437771618 -0.4211878479 0.1709319055 8.906165387e-39
-0.1442022175 -0.1023494303 0.348148495 8.906165387e-39
-0.1346723139 -0.3818497658 0.08637934178 8.906165387e-39
-0.1078531146 -0.3877129555 -0.1501253247 8.906165387e-39
-0.1256535947 -0.09889513254 0.1028964445 8.906165387e-39
-0.1405688971 -0.377953589 0.3494232893 8.906165387e-39
-0.1215991378 -0.3440111578 -0.05103509128 8.906165387e-39
-0.1183103025 -0.1509951055 -0.04789045081 8.906165387e-39
0.04594448209 -0.330242753 -0.06146461517 8.906165387e-39
-0.1262807697 -0.3051071167 -0.02975212224 8.906165387e-39
-0.1256543249 -0.4797762036 0.04961912334 8.906165387e-39
-0.1200926751 -0.3554072678 -0.06574983895 8.906165387e-39
-0.1227298081 -0.2912532091 -0.09077639133 8.906165387e-39
-0.13913396 -0.2086879164 0.3782387376 8.906165387e-39
-0.1244182587 -0.200719282 0.2956190407 8.906165387e-39
-0.1270523369 -0.2315359861 0.005926620215 8.906165387e-39
-0.08566426486 -0.4853956699 0.1017886624 8.906165387e-39
-0.07353748381 -0.2484126687 -0.1966629028 8.906165387e-39
-0.1275910437 -0.3109223843 0.3190042973 8.906165387e-39
-0.1191424578 -0.3552367985 -0.07297984511 8.906165387e-39
-0.1277596354 -0.1382444203 0.0704209581 8.906165387e-39
-0.1314781606 -0.1995856166 0.1263507605 8.906165387e-39
-0.1311506629 -0.2127545923 0.3333711028 8.906165387e-39
-0.1277555525 -0.2816766798 0.05310524255 8.906165387e-39
-0.09697560221 -0.1785083562 -0.2047912478 8.906165387e-39
-0.1403498799 -0.1740556359 0.3532576859 8.906165387e-39
-0.1232523024 -0.1924786866 -0.02121686563 8.906165387e-39
-0.1026536077 -0.3777987361 -0.1876735091 8.906165387e-39
-0.1351469606 -0.299182713 0.374750644 8.906165387e-39
-0.09594017267 -0.4681748748 -0.1203754023 8.906165387e-39
-0.1241880581 -0.1061012298 0.1898575127 8.906165387e-39
-0.09285795689 -0.3660370708 -0.1864271462 8.906165387e-39
-0.03565920144 -0.4601579309 -0.01275618747 8.906165387e-39
-0.1176177189 -0.3652662039 -0.06783311814 8.906165387e-39
-0.120187521 -0.4848213196 0.08227395266 8.906165387e-39
-0.1193864197 -0.396045208 -0.09320131689 8.906165387e-39
-0.1284106374 -0.1342298687 0.07770160586 8.906165387e-39
-0.07935837656 -0.03648716211 -0.2022255659 8.906165387e-39
