# .PCD v0.7 - Point Cloud Data file format
VERSION 0.7
FIELDS x y z rgb
SIZE 4 4 4 4
TYPE F F F F
COUNT 1 1 1 1
WIDTH 828
HEIGHT 1
VIEWPOINT 0 0 0 1 0 0 0
POINTS 828
DATA ascii
-0.07975502312 -0.375349164 0.2106997222 1.184631237e-38
-0.1914615631 -0.371532768 0.1116173342 1.184631237e-38
0.1247383505 -0.4629045725 -0.04408289492 1.184631237e-38
0.1192977726 -0.3466894627 -0.0962844044 1.184631237e-38
-0.04129937664 -0.1767162979 -0.07368433475 1.184631237e-38
-0.18593961 -0.2341958731 0.09987594932 1.184631237e-38
-0.1860191375 -0.3593755364 -0.0201854445 1.184631237e-38
0.08318649232 -0.3754798174 0.2106153965 1.184631237e-38
0.03571595252 -0.1678060442 0.07123529166 1.184631237e-38
-0.154394567 -0.4358431101 0.1561514288 1.184631237e-38
0.1333680898 -0.4669767022 0.006148020737 1.184631237e-38
0.08212691545 -0.2320998013 0.1803821027 1.184631237e-38
-0.06012451649 -0.1992042512 0.1841962636 1.184631237e-38
-0.1567861438 -0.1755205989 0.06362029165 1.184631237e-38
-0.1888746023 -0.3644785285 -0.005100882147 1.184631237e-38
-0.07417504489 -0.1920987368 0.0555607155 1.184631237e-38
-0.05091343448 -0.2176347971 0.1253085881 1.184631237e-38
-0.008871462196 -0.1833472699 0.09896136075 1.184631237e-38
0.04010294005 -0.2893134952 0.2080023587 1.184631237e-38
-0.02816125564 -0.3018977642 0.01907672361 1.184631237e-38
0.07852368057 -0.4581903815 0.1579253674 1.184631237e-38
0.06040438637 -0.3762843609 -0.01526785642 1.184631237e-38
-0.07877000421 -0.2126181722 -0.09820555151 1.184631237e-38
0.09443895519 -0.376229912 -0.09893510491 1.184631237e-38
0.04175587371 -0.3349228501 0.03801231459 1.184631237e-38
-0.1990806609 -0.3036851585 0.08422838151 1.184631237e-38
0.03755702451 -0.3149342537 0.04517440498 1.184631237e-38
0.0526487492 -0.3354950547 -0.1081289202 1.184631237e-38
0.1008493453 -0.3118591309 0.1996777654 1.184631237e-38
0.003808660433 -0.3877967596 0.2167719156 1.184631237e-38
0.1578553021 -0.4122363329 0.1343063861 1.184631237e-38
-0.05849984288 -0.4122014046 0.09194909781 1.184631237e-38
-0.02214251831 -0.4115957618 0.06428065896 1.184631237e-38
0.003248069435 -0.157886222 -0.02967590094 1.184631237e-38
0.0425481461 -0.1736614704 0.1531039178 1.184631237e-38
0.1557824016 -0.4272312522 0.13386558 1.184631237e-38
0.0875325799 -0.2447151393 0.02152618766 1.184631237e-38
0.002834338695 -0.1506208777 0.133577019 1.184631237e-38
-0.1731989533 -0.3357921243 -0.08327182382 1.184631237e-38
-0.09309017658 -0.3638995886 0.2109416574 1.184631237e-38
0.09242330492 -0.3463626504 -0.0273530446 1.184631237e-38
-0.1459658891 -0.2519215345 0.184757933 1.184631237e-38
-0.1966519207 -0.2748516202 0.05321865156 1.184631237e-38
-0.1967018843 -0.2742242813 0.07483493537 1.184631237e-38
-0.03730713576 -0.2133595496 0.1928233057 1.184631237e-38
-0.1384907067 -0.1671804637 0.05889861286 1.184631237e-38
-0.04164893553 -0.2503631711 0.1131523103 1.184631237e-38
0.1327338666 -0.4516665936 0.1213572472 1.184631237e-38
0.1625808477 -0.2458542287 0.02333226055 1.184631237e-38
-0.05024705827 -0.3167384267 0.222834602 1.184631237e-38
-0.08396816999 -0.2123344988 -0.09979708493 1.184631237e-38
0.1497363746 -0.2062222064 0.04151143879 1.184631237e-38
0.07109975815 -0.4554495811 -0.06536647677 1.184631237e-38
0.06412582099 -0.1530174315 0.07956779003 1.184631237e-38
-0.1711383462 -0.2257675231 -0.02042686939 1.184631237e-38
0.01042193174 -0.4524937868 0.172760129 1.184631237e-38
0.07795849442 -0.4656084776 0.07891977578 1.184631237e-38
-0.05322622508 -0.296869874 0.2199228406 1.184631237e-38
-0.05894167721 -0.4093537927 0.2040781528 1.184631237e-38
0.04394787923 -0.3666521311 -0.1085445881 1.184631237e-38
0.06965357065 -0.1647957563 0.11597161 1.184631237e-38
-0.06762748957 -0.1972439438 0.0506433323 1.184631237e-38
-0.02306441404 -0.2658773959 0.2127411515 1.184631237e-38
0.1490405202 -0.2046542764 0.02041978389 1.184631237e-38
-0.1902724504 -0.3640231788 0.002533860505 1.184631237e-38
0.05172694847 -0.4314587712 0.2140315473 1.184631237e-38
-0.1989168227 -0.3335804343 0.04153386503 1.184631237e-38
-0.182410419 -0.2367875874 0.01496388484 1.184631237e-38
-0.171212405 -0.3997787833 -0.06579553336 1.184631237e-38
-0.1062165499 -0.1652937979 0.0119210491 1.184631237e-38
0.02603296563 -0.3438149095 0.216512531 1.184631237e-38
0.09255111217 -0.2918447256 0.006370368414 1.184631237e-38
0.1672679484 -0.3351638317 -0.009580530226 1.184631237e-38
-0.004035975784 -0.1624978632 -0.04414022714 1.184631237e-38
0.04815620556 -0.1773254424 -0.06426239759 1.184631237e-38
-0.04352267459 -0.3878250718 0.2125520855 1.184631237e-38
-0.1922881901 -0.2666680217 0.02185230702 1.184631237e-38
0.1663282067 -0.2903301716 0.0036925897 1.184631237e-38
0.15287444 -0.2125354856 0.02180990204 1.184631237e-38
-0.1328300387 -0.2455652356 0.1962169856 1.184631237e-38
0.03834277764 -0.2278537899 -0.0959533006 1.184631237e-38
-0.08597457409 -0.3916089535 0.0983588323 1.184631237e-38
0.1276835799 -0.4526389837 0.1232299656 1.184631237e-38
0.0169778578 -0.3703325391 -0.1064049676 1.184631237e-38
0.01345771924 -0.160804078 -0.03829116002 1.184631237e-38
-0.1380411386 -0.4422253966 0.1707534343 1.184631237e-38
0.08106254041 -0.4668396711 0.05562405288 1.184631237e-38
0.1464331448 -0.226021558 -0.003572131973 1.184631237e-38
-0.1783057898 -0.2905892432 -0.06864717603 1.184631237e-38
0.1147040427 -0.4670937061 0.00144360587 1.184631237e-38
0.05150260404 -0.3218047023 -0.04458292201 1.184631237e-38
-0.1569989771 -0.4191636443 0.163545996 1.184631237e-38
0.158956334 -0.3757977784 0.0725916177 1.184631237e-38
-0.1717230827 -0.1987528801 0.03671815246 1.184631237e-38
-0.05977623537 -0.3028143346 -0.1070703939 1.184631237e-38
-0.1998151839 -0.3250675201 0.05648840219 1.184631237e-38
-0.04138687626 -0.1713113487 -0.05448007211 1.184631237e-38
-0.04396050423 -0.2961691916 0.03451551497 1.184631237e-38
-0.04686404765 -0.1874526888 0.1749833524 1.184631237e-38
0.140587464 -0.4580301046 -0.03317679092 1.184631237e-38
0.149472937 -0.2308536023 0.08820087463 1.184631237e-38
0.08133886755 -0.1732322723 0.1272322983 1.184631237e-38
0.01426671818 -0.4529499412 0.1776713878 1.184631237e-38
0.1029075384 -0.2216842175 0.01515448559 1.184631237e-38
-0.07176040113 -0.2381984144 0.2022666037 1.184631237e-38
-0.05439651012 -0.2320747972 0.1254923493 1.184631237e-38
0.06655675173 -0.4624581933 0.1009159312 1.184631237e-38
-0.1730037332 -0.2236425877 0.1398351341 1.184631237e-38
-0.1778663099 -0.3772848248 -0.04933714494 1.184631237e-38
0.03904731944 -0.4626340866 0.1202971488 1.184631237e-38
-0.005792796612 -0.4167615771 -0.09702742845 1.184631237e-38
0.1518888026 -0.2453541756 0.09426828474 1.184631237e-38
-0.06326318532 -0.246604979 -0.1033437103 1.184631237e-38
0.1585910171 -0.2338239402 0.0544308424 1.184631237e-38
-0.1590812057 -0.4345463514 0.1494721919 1.184631237e-38
0.1476948112 -0.4529146552 0.01786901802 1.184631237e-38
-0.02802632749 -0.3610600233 0.2207735628 1.184631237e-38
-0.03461311758 -0.1922875494 -0.08366758376 1.184631237e-38
0.06832960248 -0.3921480179 0.2150645703 1.184631237e-38
-0.1798378974 -0.2153082192 0.1029983014 1.184631237e-38
0.09771668911 -0.3341044784 -0.02325234562 1.184631237e-38
0.04020377621 -0.3198019564 0.04237747565 1.184631237e-38
-0.108443737 -0.2530660331 0.1578176767 1.184631237e-38
0.166585207 -0.3462782502 -0.01180429012 1.184631237e-38
-0.1881928295 -0.3082518578 0.1657688916 1.184631237e-38
0.04299908504 -0.4153466225 -0.1015345454 1.184631237e-38
-0.1040036827 -0.2498305589 0.08321379125 1.184631237e-38
-0.07810075581 -0.2048464864 -0.09459535033 1.184631237e-38
0.04048416391 -0.2372259498 -0.09924377501 1.184631237e-38
-0.03466540202 -0.2962074876 0.02552681044 1.184631237e-38
0.152416274 -0.4354131818 0.05895296484 1.184631237e-38
-0.1889586449 -0.3532360792 -0.00962895155 1.184631237e-38
-0.03947242349 -0.4148442149 -0.100770399 1.184631237e-38
-0.05807137117 -0.2663050294 0.04703847691 1.184631237e-38
-0.0383117944 -0.1578817517 0.1415693909 1.184631237e-38
0.1290115267 -0.4663647413 -0.02785391733 1.184631237e-38
-0.1817948818 -0.4197532535 0.08683656156 1.184631237e-38
-0.01027755626 -0.1570557803 -0.02349646203 1.184631237e-38
0.0003250092268 -0.4104263783 0.034177728 1.184631237e-38
0.1540741026 -0.3179955781 0.1408738494 1.184631237e-38
0.1564869434 -0.3991421461 0.1243338734 1.184631237e-38
0.04283611104 -0.1632413715 0.06742302328 1.184631237e-38
-0.04167957604 -0.3436304331 0.09680806845 1.184631237e-38
0.1632996798 -0.3917771578 -0.008764856495 1.184631237e-38
-0.05508442968 -0.2933230996 0.1160122305 1.184631237e-38
0.005610894412 -0.4537267089 0.185793668 1.184631237e-38
-0.1273032874 -0.3191421628 0.2122908682 1.184631237e-38
-0.01760160178 -0.4326031804 -0.09067098796 1.184631237e-38
-0.1391799748 -0.4169874787 0.1800777912 1.184631237e-38
0.09873089194 -0.3323944211 -0.02344704419 1.184631237e-38
-0.0503988415 -0.1702131182 -0.04295865819 1.184631237e-38
-0.08965057135 -0.233279109 -0.1102856398 1.184631237e-38
0.1619596034 -0.3590494692 0.0755333975 1.184631237e-38
0.04159547016 -0.3656797409 0.02806819603 1.184631237e-38
0.002255180851 -0.21644786 0.083728984 1.184631237e-38
-0.1929455847 -0.3702411056 0.09353027493 1.184631237e-38
0.01960581914 -0.3364400268 -0.01888926327 1.184631237e-38
0.0205049403 -0.1831805408 0.1674276739 1.184631237e-38
-0.03162190318 -0.1529284567 0.125279218 1.184631237e-38
-0.05804806575 -0.4147492051 0.2028655708 1.184631237e-38
-0.02632667311 -0.4138689637 0.06574696302 1.184631237e-38
-0.07351355255 -0.2764366865 -0.1092573777 1.184631237e-38
0.08006392419 -0.2296594381 0.03034336492 1.184631237e-38
0.07746328413 -0.4546787739 0.1212843955 1.184631237e-38
0.1414935142 -0.4464287758 0.1118530929 1.184631237e-38
-0.1733996421 -0.2272048891 -0.01474770904 1.184631237e-38
0.005220845342 -0.2258151919 0.0796084404 1.184631237e-38
-0.09397883713 -0.3344047666 0.08689438552 1.184631237e-38
0.008000511676 -0.1599328518 0.1500634104 1.184631237e-38
-0.1908602118 -0.2842476964 0.1507653147 1.184631237e-38
0.05843250081 -0.3210774064 0.02754284814 1.184631237e-38
-0.04603861645 -0.3907250166 -0.1040052846 1.184631237e-38
-0.1758577675 -0.43997401 0.08766629547 1.184631237e-38
0.08967834711 -0.4546103477 0.1130368635 1.184631237e-38
-0.1306096017 -0.1832663119 0.09670421481 1.184631237e-38
0.03381134197 -0.3401085138 -0.1071906909 1.184631237e-38
-0.04147746414 -0.2927641869 -0.101720579 1.184631237e-38
0.1626580805 -0.3986087441 -0.008185898885 1.184631237e-38
-0.1907003671 -0.2715101838 -0.00386968255 1.184631237e-38
-0.008220920339 -0.1687790155 0.1015435383 1.184631237e-38
0.1206638962 -0.3701569736 -0.09198337048 1.184631237e-38
0.03503490612 -0.1664456725 -0.05241450667 1.184631237e-38
-0.06415468454 -0.1795411706 -0.06815316528 1.184631237e-38
0.029477112 -0.1654253304 -0.05194400251 1.184631237e-38
-0.1371273696 -0.1710708737 0.02665876225 1.184631237e-38
-0.03584482521 -0.1704535782 0.1228563637 1.184631237e-38
-0.1971957088 -0.3533055484 0.06091205031 1.184631237e-38
0.03833330795 -0.3691526949 -0.0204544235 1.184631237e-38
-0.1126628667 -0.3048469126 0.1038806289 1.184631237e-38
-0.009776860476 -0.1552833766 0.1446603239 1.184631237e-38
-0.1777767539 -0.2285110652 0.002942525782 1.184631237e-38
0.04332658276 -0.440639019 -0.09340093285 1.184631237e-38
0.02379989997 -0.1729015708 -0.03917039558 1.184631237e-38
0.0768661052 -0.4546109438 -0.04382732511 1.184631237e-38
-0.1964490861 -0.3409640789 0.02673674375 1.184631237e-38
0.01369701698 -0.1991193742 0.07898792624 1.184631237e-38
0.1657841802 -0.3363155723 0.09312999994 1.184631237e-38
-0.04332284629 -0.3815932274 -0.1032820418 1.184631237e-38
0.115121454 -0.287535876 -0.1039949208 1.184631237e-38
0.03962164745 -0.168881461 -0.05643567443 1.184631237e-38
-0.07288697362 -0.1687881052 0.05190617591 1.184631237e-38
-0.1553296149 -0.2457850575 0.1390002966 1.184631237e-38
0.1580726951 -0.4173076749 -0.02466294542 1.184631237e-38
-0.06158747897 -0.4179333448 0.08834262192 1.184631237e-38
0.1291553378 -0.1807070076 0.05536945164 1.184631237e-38
-0.1881410033 -0.2566148341 0.01140889432 1.184631237e-38
0.006682083011 -0.1810271144 -0.02083158493 1.184631237e-38
0.0579729788 -0.3253540993 -0.1078233048 1.184631237e-38
-0.1088632494 -0.4049746394 0.1951480359 1.184631237e-38
-0.1653241813 -0.267778039 0.1729822308 1.184631237e-38
0.02464143559 -0.2445769906 0.06349918246 1.184631237e-38
-0.03704707697 -0.4132033587 0.207097441 1.184631237e-38
0.1594316363 -0.3991255164 0.05624881387 1.184631237e-38
-0.06808108091 -0.2299138904 0.05357720703 1.184631237e-38
0.00375681743 -0.3066167235 0.2177822292 1.184631237e-38
-0.08972768486 -0.3004118204 0.137643382 1.184631237e-38
0.1525040716 -0.4424033761 0.03171965107 1.184631237e-38
-0.09846124053 -0.3501776457 0.1251937151 1.184631237e-38
-0.1695336998 -0.1945671886 0.08736437559 1.184631237e-38
0.1669456065 -0.3161468208 0.02277278528 1.184631237e-38
0.09156416357 -0.4666574001 0.05087191239 1.184631237e-38
0.06149560586 -0.3486053944 0.2103837878 1.184631237e-38
-0.181974709 -0.2630766034 0.176354453 1.184631237e-38
-0.05152047426 -0.1737490147 -0.05632947758 1.184631237e-38
-0.06720545888 -0.2776257992 0.2147395015 1.184631237e-38
0.1488245875 -0.2220961452 0.08041561395 1.184631237e-38
0.02483485267 -0.2129611671 -0.08932813257 1.184631237e-38
-0.1962115765 -0.293702364 0.01370123494 1.184631237e-38
-0.1799023896 -0.4160125852 -0.005505205598 1.184631237e-38
-0.005546964705 -0.4527512789 0.1891078055 1.184631237e-38
-0.06034350023 -0.3843589425 0.2111110687 1.184631237e-38
0.1160085499 -0.1747772694 0.06896477938 1.184631237e-38
-0.1841323227 -0.4196203947 0.05663033575 1.184631237e-38
0.009995680302 -0.1652751565 -0.05490626767 1.184631237e-38
-0.1701208353 -0.2576334774 0.161340028 1.771655483e-38
0.116500333 -0.1748227626 0.02070206031 1.771655483e-38
-0.0003483481705 -0.320386827 0.2192587852 1.771655483e-38
-0.1716815084 -0.3912958503 -0.06874886155 1.771655483e-38
-0.01917064562 -0.235316813 0.008671180345 1.771655483e-38
0.0102728121 -0.1794746518 -0.02469353378 1.771655483e-38
-0.0836917907 -0.1920904219 0.1674233675 1.771655483e-38
0.003170713782 -0.2131428421 0.1894313395 1.771655483e-38
0.1003674567 -0.2357039899 0.01381508354 1.771655483e-38
0.1667231023 -0.3056402206 0.01870549098 1.771655483e-38
0.0189734064 -0.3743983209 -0.106658265 1.771655483e-38
0.09969510138 -0.305036664 0.1988539398 1.771655483e-38
0.09088741243 -0.2408400029 -0.09721773863 1.771655483e-38
0.08724114299 -0.2861231565 0.1972699761 1.771655483e-38
0.123758927 -0.2994360626 -0.0963973552 1.771655483e-38
0.07818198204 -0.3776594996 0.2118175626 1.771655483e-38
-0.08615741134 -0.1601034701 0.01360306609 1.771655483e-38
0.1605487764 -0.2352232039 0.01480294112 1.771655483e-38
0.07725201547 -0.1785066277 0.1382660568 1.771655483e-38
-0.1879652441 -0.2735515833 0.1599641144 1.771655483e-38
0.1191575527 -0.1954343021 0.1179577112 1.771655483e-38
-0.1913781464 -0.2873421311 -0.01699210517 1.771655483e-38
-0.07975502312 -0.375349164 0.2106997222 1.771655483e-38
-0.1914615631 -0.371532768 0.1116173342 1.771655483e-38
0.1247383505 -0.4629045725 -0.04408289492 1.771655483e-38
0.1192977726 -0.3466894627 -0.0962844044 1.771655483e-38
-0.04129937664 -0.1767162979 -0.07368433475 1.771655483e-38
-0.18593961 -0.2341958731 0.09987594932 1.771655483e-38
-0.1860191375 -0.3593755364 -0.0201854445 1.771655483e-38
0.08318649232 -0.3754798174 0.2106153965 1.771655483e-38
0.03571595252 -0.1678060442 0.07123529166 1.771655483e-38
-0.154394567 -0.4358431101 0.1561514288 1.771655483e-38
0.1333680898 -0.4669767022 0.006148020737 1.771655483e-38
0.08212691545 -0.2320998013 0.1803821027 1.771655483e-38
-0.06012451649 -0.1992042512 0.1841962636 1.771655483e-38
-0.1567861438 -0.1755205989 0.06362029165 1.771655483e-38
-0.1888746023 -0.3644785285 -0.005100882147 1.771655483e-38
-0.07417504489 -0.1920987368 0.0555607155 1.771655483e-38
-0.05091343448 -0.2176347971 0.1253085881 1.771655483e-38
-0.008871462196 -0.1833472699 0.09896136075 1.771655483e-38
0.04010294005 -0.2893134952 0.2080023587 1.771655483e-38
-0.02816125564 -0.3018977642 0.01907672361 1.771655483e-38
0.07852368057 -0.4581903815 0.1579253674 1.771655483e-38
0.06040438637 -0.3762843609 -0.01526785642 1.771655483e-38
-0.07877000421 -0.2126181722 -0.09820555151 1.771655483e-38
0.09443895519 -0.376229912 -0.09893510491 1.771655483e-38
0.04175587371 -0.3349228501 0.03801231459 1.771655483e-38
-0.1990806609 -0.3036851585 0.08422838151 1.771655483e-38
0.03755702451 -0.3149342537 0.04517440498 1.771655483e-38
0.0526487492 -0.3354950547 -0.1081289202 1.771655483e-38
0.1008493453 -0.3118591309 0.1996777654 1.771655483e-38
0.003808660433 -0.3877967596 0.2167719156 1.771655483e-38
0.1578553021 -0.4122363329 0.1343063861 1.771655483e-38
-0.05849984288 -0.4122014046 0.09194909781 1.771655483e-38
-0.02214251831 -0.4115957618 0.06428065896 1.771655483e-38
0.003248069435 -0.157886222 -0.02967590094 1.771655483e-38
0.0425481461 -0.1736614704 0.1531039178 1.771655483e-38
0.1557824016 -0.4272312522 0.13386558 1.771655483e-38
0.0875325799 -0.2447151393 0.02152618766 1.771655483e-38
0.002834338695 -0.1506208777 0.133577019 1.771655483e-38
-0.1731989533 -0.3357921243 -0.08327182382 1.771655483e-38
-0.09309017658 -0.3638995886 0.2109416574 1.771655483e-38
0.09242330492 -0.3463626504 -0.0273530446 1.771655483e-38
-0.1459658891 -0.2519215345 0.184757933 1.771655483e-38
-0.1966519207 -0.2748516202 0.05321865156 1.771655483e-38
-0.1967018843 -0.2742242813 0.07483493537 1.771655483e-38
-0.03730713576 -0.2133595496 0.1928233057 1.771655483e-38
-0.1384907067 -0.1671804637 0.05889861286 1.771655483e-38
-0.04164893553 -0.2503631711 0.1131523103 1.771655483e-38
0.1327338666 -0.4516665936 0.1213572472 1.771655483e-38
0.1625808477 -0.2458542287 0.02333226055 1.771655483e-38
-0.05024705827 -0.3167384267 0.222834602 1.771655483e-38
-0.08396816999 -0.2123344988 -0.09979708493 1.771655483e-38
0.1497363746 -0.2062222064 0.04151143879 1.771655483e-38
0.07109975815 -0.4554495811 -0.06536647677 1.771655483e-38
0.06412582099 -0.1530174315 0.07956779003 1.771655483e-38
-0.1711383462 -0.2257675231 -0.02042686939 1.771655483e-38
0.01042193174 -0.4524937868 0.172760129 1.771655483e-38
0.07795849442 -0.4656084776 0.07891977578 1.771655483e-38
-0.05322622508 -0.296869874 0.2199228406 1.771655483e-38
-0.05894167721 -0.4093537927 0.2040781528 1.771655483e-38
0.04394787923 -0.3666521311 -0.1085445881 1.771655483e-38
0.06965357065 -0.1647957563 0.11597161 1.771655483e-38
-0.06762748957 -0.1972439438 0.0506433323 1.771655483e-38
-0.02306441404 -0.2658773959 0.2127411515 1.771655483e-38
0.1490405202 -0.2046542764 0.02041978389 1.771655483e-38
-0.1902724504 -0.3640231788 0.002533860505 1.771655483e-38
0.05172694847 -0.4314587712 0.2140315473 1.771655483e-38
-0.1989168227 -0.3335804343 0.04153386503 1.771655483e-38
-0.182410419 -0.2367875874 0.01496388484 1.771655483e-38
-0.171212405 -0.3997787833 -0.06579553336 1.771655483e-38
-0.1062165499 -0.1652937979 0.0119210491 1.771655483e-38
0.02603296563 -0.3438149095 0.216512531 1.771655483e-38
0.09255111217 -0.2918447256 0.006370368414 1.771655483e-38
0.1672679484 -0.3351638317 -0.009580530226 1.771655483e-38
-0.004035975784 -0.1624978632 -0.04414022714 1.771655483e-38
0.04815620556 -0.1773254424 -0.06426239759 1.771655483e-38
-0.04352267459 -0.3878250718 0.2125520855 1.771655483e-38
-0.1922881901 -0.2666680217 0.02185230702 1.771655483e-38
0.1663282067 -0.2903301716 0.0036925897 1.771655483e-38
0.15287444 -0.2125354856 0.02180990204 1.771655483e-38
-0.1328300387 -0.2455652356 0.1962169856 1.771655483e-38
0.03834277764 -0.2278537899 -0.0959533006 1.771655483e-38
-0.08597457409 -0.3916089535 0.0983588323 1.771655483e-38
0.1276835799 -0.4526389837 0.1232299656 1.771655483e-38
0.0169778578 -0.3703325391 -0.1064049676 1.771655483e-38
0.01345771924 -0.160804078 -0.03829116002 1.771655483e-38
-0.1380411386 -0.4422253966 0.1707534343 1.771655483e-38
0.08106254041 -0.4668396711 0.05562405288 1.771655483e-38
0.1464331448 -0.226021558 -0.003572131973 1.771655483e-38
-0.1783057898 -0.2905892432 -0.06864717603 1.771655483e-38
0.1147040427 -0.4670937061 0.00144360587 1.771655483e-38
0.05150260404 -0.3218047023 -0.04458292201 1.771655483e-38
-0.1569989771 -0.4191636443 0.163545996 1.771655483e-38
0.158956334 -0.3757977784 0.0725916177 1.771655483e-38
-0.1717230827 -0.1987528801 0.03671815246 1.771655483e-38
-0.05977623537 -0.3028143346 -0.1070703939 1.771655483e-38
-0.1998151839 -0.3250675201 0.05648840219 1.771655483e-38
-0.04138687626 -0.1713113487 -0.05448007211 1.771655483e-38
-0.04396050423 -0.2961691916 0.03451551497 1.771655483e-38
-0.04686404765 -0.1874526888 0.1749833524 1.771655483e-38
0.140587464 -0.4580301046 -0.03317679092 1.771655483e-38
0.149472937 -0.2308536023 0.08820087463 1.771655483e-38
0.08133886755 -0.1732322723 0.1272322983 1.771655483e-38
0.01426671818 -0.4529499412 0.1776713878 1.771655483e-38
0.1029075384 -0.2216842175 0.01515448559 1.771655483e-38
-0.07176040113 -0.2381984144 0.2022666037 1.771655483e-38
-0.05439651012 -0.2320747972 0.1254923493 1.771655483e-38
0.06655675173 -0.4624581933 0.1009159312 1.771655483e-38
-0.1730037332 -0.2236425877 0.1398351341 1.771655483e-38
-0.1778663099 -0.3772848248 -0.04933714494 1.771655483e-38
0.03904731944 -0.4626340866 0.1202971488 1.771655483e-38
-0.005792796612 -0.4167615771 -0.09702742845 1.771655483e-38
0.1518888026 -0.2453541756 0.09426828474 1.771655483e-38
-0.06326318532 -0.246604979 -0.1033437103 1.771655483e-38
0.1585910171 -0.2338239402 0.0544308424 1.771655483e-38
-0.1590812057 -0.4345463514 0.1494721919 1.771655483e-38
0.1476948112 -0.4529146552 0.01786901802 1.771655483e-38
-0.02802632749 -0.3610600233 0.2207735628 1.771655483e-38
-0.03461311758 -0.1922875494 -0.08366758376 1.771655483e-38
0.06832960248 -0.3921480179 0.2150645703 1.771655483e-38
-0.1798378974 -0.2153082192 0.1029983014 1.771655483e-38
0.09771668911 -0.3341044784 -0.02325234562 1.771655483e-38
0.04020377621 -0.3198019564 0.04237747565 1.771655483e-38
-0.108443737 -0.2530660331 0.1578176767 1.771655483e-38
0.166585207 -0.3462782502 -0.01180429012 1.771655483e-38
-0.1881928295 -0.3082518578 0.1657688916 1.771655483e-38
0.04299908504 -0.4153466225 -0.1015345454 1.771655483e-38
-0.1040036827 -0.2498305589 0.08321379125 1.771655483e-38
-0.07810075581 -0.2048464864 -0.09459535033 1.771655483e-38
0.04048416391 -0.2372259498 -0.09924377501 1.771655483e-38
-0.03466540202 -0.2962074876 0.02552681044 1.771655483e-38
0.152416274 -0.4354131818 0.05895296484 1.771655483e-38
-0.1889586449 -0.3532360792 -0.00962895155 1.771655483e-38
-0.03947242349 -0.4148442149 -0.100770399 1.771655483e-38
-0.05807137117 -0.2663050294 0.04703847691 1.771655483e-38
-0.0383117944 -0.1578817517 0.1415693909 1.771655483e-38
0.1290115267 -0.4663647413 -0.02785391733 1.771655483e-38
-0.1817948818 -0.4197532535 0.08683656156 1.771655483e-38
-0.01027755626 -0.1570557803 -0.02349646203 1.771655483e-38
0.0003250092268 -0.4104263783 0.034177728 1.771655483e-38
0.1540741026 -0.3179955781 0.1408738494 1.771655483e-38
0.1564869434 -0.3991421461 0.1243338734 1.771655483e-38
0.04283611104 -0.1632413715 0.06742302328 1.771655483e-38
-0.04167957604 -0.3436304331 0.09680806845 1.771655483e-38
0.1632996798 -0.3917771578 -0.008764856495 1.771655483e-38
-0.05508442968 -0.2933230996 0.1160122305 1.771655483e-38
0.005610894412 -0.4537267089 0.185793668 1.771655483e-38
-0.1273032874 -0.3191421628 0.2122908682 1.771655483e-38
-0.01760160178 -0.4326031804 -0.09067098796 1.771655483e-38
-0.1391799748 -0.4169874787 0.1800777912 1.771655483e-38
0.09873089194 -0.3323944211 -0.02344704419 1.771655483e-38
-0.0503988415 -0.1702131182 -0.04295865819 1.771655483e-38
-0.08965057135 -0.233279109 -0.1102856398 1.771655483e-38
0.1619596034 -0.3590494692 0.0755333975 1.771655483e-38
0.04159547016 -0.3656797409 0.02806819603 1.771655483e-38
0.002255180851 -0.21644786 0.083728984 1.771655483e-38
-0.1929455847 -0.3702411056 0.09353027493 1.771655483e-38
0.01960581914 -0.3364400268 -0.01888926327 1.771655483e-38
0.0205049403 -0.1831805408 0.1674276739 1.771655483e-38
-0.03162190318 -0.1529284567 0.125279218 1.771655483e-38
-0.05804806575 -0.4147492051 0.2028655708 1.771655483e-38
-0.02632667311 -0.4138689637 0.06574696302 1.771655483e-38
-0.07351355255 -0.2764366865 -0.1092573777 1.771655483e-38
0.08006392419 -0.2296594381 0.03034336492 1.771655483e-38
0.07746328413 -0.4546787739 0.1212843955 1.771655483e-38
0.1414935142 -0.4464287758 0.1118530929 1.771655483e-38
-0.1733996421 -0.2272048891 -0.01474770904 1.771655483e-38
0.005220845342 -0.2258151919 0.0796084404 1.771655483e-38
-0.09397883713 -0.3344047666 0.08689438552 1.771655483e-38
0.008000511676 -0.1599328518 0.1500634104 1.771655483e-38
-0.1908602118 -0.2842476964 0.1507653147 1.771655483e-38
0.05843250081 -0.3210774064 0.02754284814 1.771655483e-38
-0.04603861645 -0.3907250166 -0.1040052846 1.771655483e-38
-0.1758577675 -0.43997401 0.08766629547 1.771655483e-38
0.08967834711 -0.4546103477 0.1130368635 1.771655483e-38
-0.1306096017 -0.1832663119 0.09670421481 1.771655483e-38
0.03381134197 -0.3401085138 -0.1071906909 1.771655483e-38
-0.04147746414 -0.2927641869 -0.101720579 1.771655483e-38
0.1626580805 -0.3986087441 -0.008185898885 1.771655483e-38
-0.1907003671 -0.2715101838 -0.00386968255 1.771655483e-38
-0.008220920339 -0.1687790155 0.1015435383 1.771655483e-38
0.1206638962 -0.3701569736 -0.09198337048 1.771655483e-38
0.03503490612 -0.1664456725 -0.05241450667 1.771655483e-38
-0.06415468454 -0.1795411706 -0.06815316528 1.771655483e-38
0.029477112 -0.1654253304 -0.05194400251 1.771655483e-38
-0.1371273696 -0.1710708737 0.02665876225 1.771655483e-38
-0.03584482521 -0.1704535782 0.1228563637 1.771655483e-38
-0.1971957088 -0.3533055484 0.06091205031 1.771655483e-38
0.03833330795 -0.3691526949 -0.0204544235 1.771655483e-38
-0.1126628667 -0.3048469126 0.1038806289 1.771655483e-38
-0.009776860476 -0.1552833766 0.1446603239 1.771655483e-38
-0.1777767539 -0.2285110652 0.002942525782 1.771655483e-38
0.04332658276 -0.440639019 -0.09340093285 1.771655483e-38
0.02379989997 -0.1729015708 -0.03917039558 1.771655483e-38
0.0768661052 -0.4546109438 -0.04382732511 1.771655483e-38
-0.1964490861 -0.3409640789 0.02673674375 1.771655483e-38
0.01369701698 -0.1991193742 0.07898792624 1.771655483e-38
0.1657841802 -0.3363155723 0.09312999994 1.771655483e-38
-0.04332284629 -0.3815932274 -0.1032820418 1.771655483e-38
0.115121454 -0.287535876 -0.1039949208 1.771655483e-38
0.03962164745 -0.168881461 -0.05643567443 1.771655483e-38
-0.07288697362 -0.1687881052 0.05190617591 1.771655483e-38
-0.1553296149 -0.2457850575 0.1390002966 1.771655483e-38
0.1580726951 -0.4173076749 -0.02466294542 1.771655483e-38
-0.06158747897 -0.4179333448 0.08834262192 1.771655483e-38
0.1291553378 -0.1807070076 0.05536945164 1.771655483e-38
-0.1881410033 -0.2566148341 0.01140889432 1.771655483e-38
0.006682083011 -0.1810271144 -0.02083158493 1.771655483e-38
0.0579729788 -0.3253540993 -0.1078233048 1.771655483e-38
-0.1088632494 -0.4049746394 0.1951480359 1.771655483e-38
-0.1653241813 -0.267778039 0.1729822308 1.771655483e-38
0.02464143559 -0.2445769906 0.06349918246 1.771655483e-38
-0.03704707697 -0.4132033587 0.207097441 1.771655483e-38
0.1594316363 -0.3991255164 0.05624881387 1.771655483e-38
-0.06808108091 -0.2299138904 0.05357720703 1.771655483e-38
0.00375681743 -0.3066167235 0.2177822292 1.771655483e-38
-0.08972768486 -0.3004118204 0.137643382 1.771655483e-38
0.1525040716 -0.4424033761 0.03171965107 1.771655483e-38
-0.09846124053 -0.3501776457 0.1251937151 1.771655483e-38
-0.1695336998 -0.1945671886 0.08736437559 1.771655483e-38
0.1669456065 -0.3161468208 0.02277278528 1.771655483e-38
0.09156416357 -0.4666574001 0.05087191239 1.771655483e-38
0.06149560586 -0.3486053944 0.2103837878 1.771655483e-38
-0.181974709 -0.2630766034 0.176354453 1.771655483e-38
-0.05152047426 -0.1737490147 -0.05632947758 1.771655483e-38
-0.06720545888 -0.2776257992 0.2147395015 1.771655483e-38
0.1488245875 -0.2220961452 0.08041561395 1.771655483e-38
0.02483485267 -0.2129611671 -0.08932813257 1.771655483e-38
-0.1962115765 -0.293702364 0.01370123494 1.771655483e-38
-0.1799023896 -0.4160125852 -0.005505205598 1.771655483e-38
-0.005546964705 -0.4527512789 0.1891078055 1.771655483e-38
-0.06034350023 -0.3843589425 0.2111110687 1.771655483e-38
0.1160085499 -0.1747772694 0.06896477938 1.771655483e-38
-0.1841323227 -0.4196203947 0.05663033575 1.771655483e-38
0.009995680302 -0.1652751565 -0.05490626767 1.771655483e-38
-0.1017043442 -0.3578589559 0.1378362328 2.348204041e-38
0.09408527613 -0.389012754 0.1018207222 2.348204041e-38
0.07594706118 -0.3914919496 0.1736431271 2.348204041e-38
-0.1333540082 -0.4432675242 -0.04367196187 2.348204041e-38
-0.02548862249 -0.3336464763 -0.04188007489 2.348204041e-38
-0.0256286785 -0.3363846242 -0.0599655062 2.348204041e-38
0.003898022696 -0.3197472095 0.1500027329 2.348204041e-38
0.09570881724 -0.3418079615 0.1676821262 2.348204041e-38
0.073883757 -0.4090263844 0.06333255023 2.348204041e-38
0.01845986024 -0.4247903228 0.1150874496 2.348204041e-38
-0.1018173099 -0.4430027008 0.01637182757 2.348204041e-38
0.1254065782 -0.4023367763 0.2120042443 2.348204041e-38
-0.002911772579 -0.4523046017 -0.006321199238 2.348204041e-38
0.1211819798 -0.3878315687 0.2046769857 2.348204041e-38
0.01303837821 -0.4632471204 0.02513514832 2.348204041e-38
0.1115504205 -0.4564442039 0.2176651806 2.348204041e-38
-0.09380491078 -0.3229554296 -0.05524195731 2.348204041e-38
0.06100231037 -0.4190316796 0.1102669761 2.348204041e-38
0.1308749318 -0.3736210465 0.1688250452 2.348204041e-38
-0.1021083295 -0.379327029 0.1319544017 2.348204041e-38
0.1339173466 -0.4074646235 0.1688215286 2.348204041e-38
-0.1107554585 -0.3869453669 -0.04072529823 2.348204041e-38
0.01410889253 -0.4133251309 0.162730813 2.348204041e-38
-0.09772236645 -0.4359872937 0.1056299433 2.348204041e-38
-0.07544864714 -0.467564404 0.116568312 2.348204041e-38
-0.02062730491 -0.4565985799 0.04870226979 2.348204041e-38
-0.0884462446 -0.3731292188 -0.08030218631 2.348204041e-38
-0.1272417754 -0.3622504473 0.06235870719 2.348204041e-38
-0.1092237979 -0.4320408106 -0.02766277641 2.348204041e-38
0.1141448617 -0.4563798904 0.2198204398 2.348204041e-38
0.1146606952 -0.3176392913 0.1117683053 2.348204041e-38
-0.05529755726 -0.4588794112 0.1439275146 2.348204041e-38
-0.07805585861 -0.4573135376 0.140750438 2.348204041e-38
0.1244036704 -0.3718643486 0.1914267689 2.348204041e-38
0.04151419923 -0.3289637566 0.1541132629 2.348204041e-38
-0.1245554537 -0.329546392 -0.001139006577 2.348204041e-38
-0.1068035364 -0.4345888495 -0.01433642581 2.348204041e-38
-0.118124783 -0.3146996796 0.009668032639 2.348204041e-38
0.02548816055 -0.3143166304 0.1411998123 2.348204041e-38
0.08481279016 -0.3116233349 0.1248918325 2.348204041e-38
0.1011431068 -0.3879026771 0.1902726889 2.348204041e-38
-0.003739878535 -0.3661596775 -0.04164833575 2.348204041e-38
-0.08721892536 -0.4389832616 0.2505071163 2.348204041e-38
0.06604865193 -0.4517840147 -0.001529159956 2.348204041e-38
-0.1072206497 -0.4095770717 -0.08777751774 2.348204041e-38
-0.04870678484 -0.454443872 0.0518480055 2.348204041e-38
0.08748859167 -0.3809558153 0.01753909141 2.348204041e-38
-0.1184095591 -0.3944112062 0.06116486341 2.348204041e-38
0.09828981757 -0.3535149097 0.02410878241 2.348204041e-38
-0.06513549387 -0.449885428 0.01409319136 2.348204041e-38
0.1256962419 -0.4079043269 0.2139524817 2.348204041e-38
0.06877726316 -0.4325427413 0.1789940745 2.348204041e-38
0.02978491411 -0.4499768615 0.2192401439 2.348204041e-38
0.003835322335 -0.4022751451 0.0621996671 2.348204041e-38
0.0652154237 -0.367839545 -0.003273041919 2.348204041e-38
-0.05565403402 -0.331758827 -0.06786886603 2.348204041e-38
0.1233965009 -0.3516629338 0.1676965058 2.348204041e-38
0.013659399 -0.4482741356 0.2233240604 2.348204041e-38
0.07626345754 -0.3960277438 0.06122012436 2.348204041e-38
0.1103037447 -0.3225786984 0.1470970511 2.348204041e-38
-0.1305779219 -0.4238746762 -0.0632622242 2.348204041e-38
0.00284944661 -0.4051564336 0.1614784747 2.348204041e-38
0.04926060513 -0.4580810666 0.02111693844 2.348204041e-38
-0.05308365077 -0.3449303508 0.1485740244 2.348204041e-38
-0.1199477613 -0.3835472465 0.02840130031 2.348204041e-38
-0.1211020052 -0.3831925392 0.04898234457 2.348204041e-38
0.06445010006 -0.3357089758 0.1565319151 2.348204041e-38
-0.1216534823 -0.3253257275 -0.006414273754 2.348204041e-38
0.03245424479 -0.3159071803 0.1260097474 2.348204041e-38
-0.04203627259 -0.43582654 0.2187152654 2.348204041e-38
0.05916794017 -0.4211922884 0.1199517548 2.348204041e-38
0.03701578453 -0.3769970536 0.1576839238 2.348204041e-38
-0.109833613 -0.4106988907 -0.08820267022 2.348204041e-38
0.1117212027 -0.4244970083 0.1350468248 2.348204041e-38
-0.09851107001 -0.4491744637 0.09224239737 2.348204041e-38
0.1258358508 -0.3486479521 0.1369638741 2.348204041e-38
-0.1127084941 -0.3601382077 -0.06697805971 2.348204041e-38
-0.1575091779 -0.4284724593 0.2631603777 2.348204041e-38
-0.1135655344 -0.4493210316 0.1867232174 2.348204041e-38
0.03570857644 -0.3668293357 0.1566651762 2.348204041e-38
0.03161325678 -0.4383651018 0.167630285 2.348204041e-38
-0.08261682093 -0.4492539763 0.02617377415 2.348204041e-38
0.1298607588 -0.3628525436 0.156954363 2.348204041e-38
-0.1140384078 -0.3154123425 0.006436227821 2.348204041e-38
0.06769146025 -0.3601150513 0.1625189334 2.348204041e-38
0.08804288507 -0.4201370478 0.1141586527 2.348204041e-38
-0.1059106886 -0.4339712262 -0.007631587796 2.348204041e-38
0.08367852867 -0.4648103118 0.2108028829 2.348204041e-38
-0.1127077341 -0.4124726653 0.02737665176 2.348204041e-38
-0.111719355 -0.3556941152 -0.03452169895 2.348204041e-38
-0.1332832724 -0.4453065395 -0.04035872221 2.348204041e-38
-0.09589198232 -0.3285450935 -0.05853224918 2.348204041e-38
0.08837415278 -0.4134666324 0.1870889962 2.348204041e-38
0.06570665538 -0.4353003502 0.04161445796 2.348204041e-38
0.002374796197 -0.4458656907 0.095368132 2.348204041e-38
-0.06529922783 -0.3438518643 -0.07162139565 2.348204041e-38
-0.004557454959 -0.4057636261 -0.04058533162 2.348204041e-38
0.04079283401 -0.425596714 0.1678204685 2.348204041e-38
-0.1165459901 -0.37735641 -0.009905941784 2.348204041e-38
0.02403146401 -0.4289204478 0.1013020724 2.348204041e-38
0.08561174572 -0.4227184653 0.1175083667 2.348204041e-38
-0.03417352587 -0.3437883854 0.1517613381 2.348204041e-38
-0.03835076094 -0.4290976524 -0.04669636115 2.348204041e-38
-0.04322454333 -0.4125829339 0.08492101729 2.348204041e-38
-0.04740165174 -0.4353194833 0.2200310379 2.348204041e-38
-0.1013978124 -0.4421839118 0.01331049297 2.348204041e-38
-0.04925152659 -0.3420948088 -0.06543692946 2.348204041e-38
-0.03709375858 -0.4574503899 0.1502629817 2.348204041e-38
-0.1100025326 -0.4553844929 0.1741716564 2.348204041e-38
0.05573953316 -0.4264081717 0.08130995929 2.348204041e-38
-0.1239135861 -0.3980684876 -0.06521441787 2.348204041e-38
-0.08938153088 -0.4610442519 0.142373085 2.348204041e-38
0.04965157434 -0.4565404654 -0.02252075262 2.348204041e-38
-0.0530525744 -0.4460266232 0.1451386064 2.348204041e-38
-0.002493945882 -0.4262418151 0.1670259833 2.348204041e-38
-0.1147979796 -0.3379256129 -0.02885346487 2.348204041e-38
-0.1112886816 -0.4402163625 -0.07385791838 2.348204041e-38
-0.1145817786 -0.406768918 0.03894796595 2.348204041e-38
-0.08372393996 -0.3546767831 -0.07742272317 2.348204041e-38
-0.04773832113 -0.3732418418 -0.01981243864 2.348204041e-38
0.06027721986 -0.3290596008 0.1529140025 2.348204041e-38
-0.06680434942 -0.4661511779 0.1155365109 2.348204041e-38
0.1286710501 -0.4276968241 0.1596782953 2.348204041e-38
0.1312810183 -0.3745795488 0.1645713001 2.348204041e-38
-0.1502430439 -0.4314553738 0.267672509 2.348204041e-38
0.07642418146 -0.4022992849 0.0692563951 2.348204041e-38
0.02203655615 -0.3393027782 0.1540203542 2.348204041e-38
0.01571755111 -0.31302616 0.1405062973 2.348204041e-38
-0.1195984334 -0.4423883557 0.2013574988 2.348204041e-38
-0.1317462623 -0.3591347337 0.1048428938 2.348204041e-38
-0.1225301325 -0.4376469851 -0.03917320073 2.348204041e-38
-0.1397749186 -0.4415340424 0.2189744264 2.348204041e-38
-0.1367298216 -0.4393099546 0.02947897837 2.348204041e-38
0.1272955388 -0.4345690608 0.1632066071 2.348204041e-38
-0.1017573029 -0.4249734879 -0.08846533298 2.348204041e-38
0.1066686362 -0.4327913523 0.1458397955 2.348204041e-38
-0.06071893126 -0.4613964558 0.1415047795 2.348204041e-38
-0.06484614313 -0.4527179599 0.1380244046 2.348204041e-38
0.0505095385 -0.409531951 0.1665776074 2.348204041e-38
-0.08736462891 -0.3865370154 -0.0811849907 2.348204041e-38
0.1018054187 -0.4597806334 0.2140348703 2.348204041e-38
-0.1299804002 -0.3528766632 0.05948069692 2.348204041e-38
0.05106117949 -0.4565644264 0.02805844322 2.348204041e-38
0.09368382394 -0.3636354804 0.02289039269 2.348204041e-38
-0.04454229027 -0.3253139555 0.1464800239 2.348204041e-38
-0.003019165248 -0.4486198425 0.09586049616 2.348204041e-38
-0.08434304595 -0.3893435001 0.1397217512 2.348204041e-38
-0.1016780734 -0.4494546056 0.04765792564 2.348204041e-38
-0.1359895468 -0.3522051871 0.04959210008 2.348204041e-38
-0.1059517562 -0.4046980739 -0.08692751825 2.348204041e-38
-0.03851380572 -0.43490839 -0.04091789201 2.348204041e-38
-0.02429025993 -0.3664252758 -0.03230319917 2.348204041e-38
-0.05143172666 -0.4317241311 0.1616552621 2.348204041e-38
-0.1079042107 -0.4283314943 -0.02030691504 2.348204041e-38
-0.152913928 -0.4394493699 0.0135355508 2.348204041e-38
-0.08901828527 -0.3648145199 0.001249543391 2.348204041e-38
0.06835095584 -0.322026372 0.1476826817 2.348204041e-38
-0.07791978121 -0.4658693671 0.1250690818 2.348204041e-38
-0.09187060595 -0.4616885781 0.08225918561 2.348204041e-38
-0.06214421988 -0.3257554173 -0.0708610639 2.348204041e-38
0.08388271928 -0.3773264885 -0.03485272825 2.348204041e-38
0.1111530662 -0.4582818747 0.2001265287 2.348204041e-38
0.02779758349 -0.4454202056 0.2084884197 2.348204041e-38
0.1152102947 -0.3235603869 0.1134754494 2.348204041e-38
0.02724944428 -0.3380025029 0.08635798097 2.348204041e-38
-0.02506309189 -0.4536903501 0.1053490043 2.348204041e-38
0.003009831533 -0.3206172884 0.1178129017 2.348204041e-38
-0.1561820358 -0.4332208037 0.2751539648 2.348204041e-38
-0.02750058472 -0.3802212477 0.1555510908 2.348204041e-38
-0.1536117792 -0.4375650287 0.03548384458 2.348204041e-38
-0.02940902859 -0.4397779703 0.1538364142 2.348204041e-38
0.05075721815 -0.456461668 0.02893937007 2.348204041e-38
-0.08364096284 -0.3458055854 -0.07638821006 2.348204041e-38
-0.1155364066 -0.4252303839 -0.09086406231 2.348204041e-38
0.01597192883 -0.4299843311 0.1690750569 2.348204041e-38
0.08183415234 -0.4008281231 0.005174039863 2.348204041e-38
0.09423869848 -0.3080362082 0.1031832695 2.348204041e-38
-0.1016516984 -0.4338713884 0.0825810656 2.348204041e-38
0.05027687177 -0.4206652641 -0.04075122252 2.348204041e-38
0.1134649813 -0.3380080163 0.1667858809 2.348204041e-38
0.07243348658 -0.3205981255 0.1429435611 2.348204041e-38
0.03200072423 -0.4420576096 0.1683310568 2.348204041e-38
0.05985912308 -0.3698040247 -0.001015066169 2.348204041e-38
-0.1076312959 -0.4433478117 -0.09058131278 2.348204041e-38
0.08350282907 -0.3698372245 0.06858744472 2.348204041e-38
-0.1092726141 -0.4286465049 0.2158493251 2.348204041e-38
-0.03529457375 -0.433347404 0.2094932497 2.348204041e-38
-0.1116066426 -0.3568465114 -0.06372880936 2.348204041e-38
0.09715725482 -0.3076945543 0.09502305835 2.348204041e-38
-0.09199729562 -0.4290086627 0.06754852086 2.348204041e-38
0.1126848459 -0.3302191496 0.1566401124 2.348204041e-38
-0.1058465838 -0.3825241923 0.1262893528 2.348204041e-38
0.07829718292 -0.4047481418 0.02682104334 2.348204041e-38
-0.1407984197 -0.4403954744 -0.01226653811 2.348204041e-38
-0.08904969692 -0.466711998 0.08767835796 2.348204041e-38
-0.09994633496 -0.4282530546 0.2081571817 2.348204041e-38
-0.1420814842 -0.319890976 0.05570492893 2.348204041e-38
-0.07850662619 -0.4450544715 0.005668399855 2.348204041e-38
-0.09770286083 -0.4352713227 -0.06547813863 2.348204041e-38
-0.02856118977 -0.4541742206 0.1070125252 2.348204041e-38
-0.1094200015 -0.3761100173 -0.03807465732 2.348204041e-38
0.09197312593 -0.3107866049 0.1261234134 2.348204041e-38
-0.02722361311 -0.4567632079 0.05638840795 2.348204041e-38
-0.02531148866 -0.374381125 -0.05233515427 2.348204041e-38
-0.09420193732 -0.3734242916 -0.08121927828 2.348204041e-38
-0.0347192362 -0.3657936752 -0.05708844587 2.348204041e-38
-0.1073608696 -0.3322525024 -0.04567594454 2.348204041e-38
0.06050485 -0.318341136 0.1418111175 2.348204041e-38
-0.1104345769 -0.4230824113 0.04736834392 2.348204041e-38
0.05934714153 -0.4444467425 -0.02450963296 2.348204041e-38
-0.1153049171 -0.3880503178 0.09697633237 2.348204041e-38
0.1029083878 -0.3224657476 0.1488481164 2.348204041e-38
-0.1087741256 -0.3480554521 -0.05126653239 2.348204041e-38
-0.1141116917 -0.4493461847 0.06208493561 2.348204041e-38
-0.02012230456 -0.3600920141 -0.05357665196 2.348204041e-38
-0.0939308852 -0.450620532 0.1111223772 2.348204041e-38
-0.1108348221 -0.4179759026 0.01561052259 2.348204041e-38
0.1053027958 -0.3064356446 0.1015427783 2.348204041e-38
0.05808124319 -0.4405941963 0.1788166165 2.348204041e-38
-0.1343507916 -0.4392271638 -0.01537644211 2.348204041e-38
0.002549279481 -0.4572823644 0.02237831056 2.348204041e-38
-0.01873918436 -0.3845113516 -0.04841332138 2.348204041e-38
-0.117117703 -0.3110121191 -0.00113890972 2.348204041e-38
-0.1274456084 -0.3505525589 0.1250266284 2.348204041e-38
-0.03884743154 -0.4597168565 0.1044081002 2.348204041e-38
-0.0004086494446 -0.4165759683 0.05662308633 2.348204041e-38
0.1214517951 -0.4014257789 0.1417755038 2.348204041e-38
-0.1128684729 -0.3689911366 -0.02827651426 2.348204041e-38
-0.02673876844 -0.3315406442 -0.06067516282 2.348204041e-38
-0.05827472359 -0.4505552649 0.01201938186 2.348204041e-38
-0.004463657737 -0.4286723733 0.1618059427 2.348204041e-38
-0.08314054459 -0.3538566828 0.1437928528 2.348204041e-38
0.1128550023 -0.3070104718 0.06110996008 2.348204041e-38
0.04484379664 -0.4430718422 0.1723193973 2.348204041e-38
-0.02572588995 -0.4258682728 0.1514930874 2.348204041e-38
-0.1091489643 -0.3394958973 0.01068917941 2.348204041e-38
0.08019930124 -0.3859853148 0.175130412 2.348204041e-38
-0.04350289702 -0.3283630908 0.1356147379 2.348204041e-38
-0.0557491146 -0.4471893907 0.1434706599 2.348204041e-38
-0.05795326084 -0.3521349132 0.1181860566 2.348204041e-38
-0.1304131746 -0.3409737945 0.03516448289 2.348204041e-38
0.01380622387 -0.42475003 0.1190913916 2.348204041e-38
-0.103916809 -0.454826355 0.1697274148 2.348204041e-38
0.1057891101 -0.4305140972 0.2056940794 2.348204041e-38
-0.08750744164 -0.3718758821 0.1407730132 2.348204041e-38
-0.08747087419 -0.3593890667 -0.07848140597 2.348204041e-38
0.0238658376 -0.3553599119 0.1549430043 2.348204041e-38
0.1274286658 -0.4230417013 0.1565550715 2.348204041e-38
-0.05521423742 -0.4064540267 -0.05902499706 2.348204041e-38
-0.1137584001 -0.3932098746 -0.006974292919 2.348204041e-38
-0.1107788533 -0.4516557455 0.0005800845101 2.348204041e-38
-0.1665600538 -0.4320993423 0.2785040438 2.348204041e-38
0.03047949821 -0.4217130542 0.1643435955 2.348204041e-38
0.1260391027 -0.3888239264 0.1450536102 2.348204041e-38
-0.1005739421 -0.4577826858 0.05283727124 2.348204041e-38
-0.06158498302 -0.3532378674 -0.06951249391 2.348204041e-38
-0.1383008808 -0.3018568158 0.2295372784 2.345219836e-38
0.1891206652 -0.307382524 0.05338296294 2.345219836e-38
0.03936583921 -0.3522928357 0.2514216602 2.345219836e-38
-0.1814429909 -0.4358254671 -0.04323483258 2.345219836e-38
-0.01888208464 -0.3271142244 -0.003883504309 2.345219836e-38
0.01259834692 -0.2803236842 -0.03987033293 2.345219836e-38
-0.05148847401 -0.2742393613 0.2275292426 2.345219836e-38
0.05283758417 -0.2946806848 0.2306635827 2.345219836e-38
0.1875620633 -0.3202102482 0.01015737746 2.345219836e-38
0.1754656434 -0.4240428805 0.0590768978 2.345219836e-38
0.02546881512 -0.4576955438 -0.1127335355 2.345219836e-38
0.1421933621 -0.3605703712 0.2391891778 2.345219836e-38
0.1040791571 -0.3688979447 -0.1315806955 2.345219836e-38
0.1374127865 -0.3458079398 0.2333611846 2.345219836e-38
0.1582148969 -0.4167842865 -0.09989850968 2.345219836e-38
0.1191782057 -0.4074493051 0.2456779033 2.345219836e-38
-0.09642097354 -0.2666175663 -0.007182624191 2.345219836e-38
0.1896322817 -0.3797167838 0.06819242239 2.345219836e-38
0.1532377899 -0.2981464267 0.1854819059 2.345219836e-38
-0.1498896331 -0.3333035409 0.2346634567 2.345219836e-38
0.1685252339 -0.3236249983 0.1796434373 2.345219836e-38
-0.204045102 -0.3506436646 0.00337873213 2.345219836e-38
-0.03304421902 -0.3922873735 0.2556189597 2.345219836e-38
-0.1805936992 -0.4099605083 0.1860163659 2.345219836e-38
0.05702224746 -0.4704174399 0.01291814353 2.345219836e-38
0.1244687289 -0.4606117606 -0.09131886065 2.345219836e-38
-0.05458107591 -0.2757831216 -0.09736781567 2.345219836e-38
-0.2036586851 -0.3085234761 0.1453369707 2.345219836e-38
-0.1983030587 -0.4120413065 0.01440881472 2.345219836e-38
0.1232370287 -0.4072494507 0.2463708669 2.345219836e-38
0.1027318984 -0.2583307028 0.1116468534 2.345219836e-38
-0.1143157631 -0.4498494864 0.221685186 2.345219836e-38
0.05686410144 -0.4674120545 0.06290296465 2.345219836e-38
0.1390955299 -0.317407608 0.2195865363 2.345219836e-38
-0.01589346491 -0.2820958495 0.2309027463 2.345219836e-38
-0.1766973734 -0.2639342248 0.07123656571 2.345219836e-38
-0.1998754144 -0.4154048562 0.03744864464 2.345219836e-38
-0.08293627948 -0.297440052 0.05275961757 2.345219836e-38
-0.02941821702 -0.2400740981 0.1689428091 2.345219836e-38
0.03361365199 -0.2435172498 0.1355228275 2.345219836e-38
0.08628584445 -0.3411156535 0.2415208071 2.345219836e-38
-0.01644496992 -0.3840910196 0.001978999935 2.345219836e-38
0.03871655837 -0.468994379 0.211838752 2.345219836e-38
0.16673024 -0.3516811728 -0.07492648065 2.345219836e-38
-0.08685222268 -0.2993305922 -0.1211856902 2.345219836e-38
0.09746183455 -0.4729579091 -0.08816524595 2.345219836e-38
0.1155916303 -0.3085428476 0.002663316205 2.345219836e-38
-0.2063744515 -0.3619377017 0.1426628828 2.345219836e-38
0.09656339884 -0.2991743684 0.02250244841 2.345219836e-38
0.05673290417 -0.4385839105 -0.1180813462 2.345219836e-38
0.1420722306 -0.3655640483 0.2407310605 2.345219836e-38
0.04466206208 -0.406093061 0.2544692159 2.345219836e-38
0.1595056951 -0.4757464528 0.1789773405 2.345219836e-38
-0.03634553775 -0.3988870978 0.09773012251 2.345219836e-38
0.02761807665 -0.4016308784 0.04345466569 2.345219836e-38
-0.0120276371 -0.2667693198 -0.05132655799 2.345219836e-38
0.1175648719 -0.2975370288 0.2048179358 2.345219836e-38
0.14493303 -0.4755985141 0.1825718135 2.345219836e-38
0.1787751317 -0.3016430736 0.008448916487 2.345219836e-38
0.06081267074 -0.2747373283 0.1988515258 2.345219836e-38
-0.1819720417 -0.3902263641 -0.06693322212 2.345219836e-38
-0.04502923042 -0.3835220635 0.2565372586 2.345219836e-38
0.1872529835 -0.3770129681 -0.07178270072 2.345219836e-38
-0.09754350781 -0.2985567153 0.2403907925 2.345219836e-38
-0.2126273215 -0.342320621 0.09935931861 2.345219836e-38
-0.2105198205 -0.342164278 0.1243330687 2.345219836e-38
0.007791053504 -0.2902485728 0.2330166101 2.345219836e-38
-0.1581712961 -0.2568106353 0.05859142542 2.345219836e-38
-0.02296110988 -0.2405234724 0.1405336261 2.345219836e-38
0.09457080066 -0.4691624045 0.1769165993 2.345219836e-38
0.1887790412 -0.3884509206 0.07986007631 2.345219836e-38
-0.009710462764 -0.3505277038 0.2570827305 2.345219836e-38
-0.09169563651 -0.2990843654 -0.1220117584 2.345219836e-38
0.1947179288 -0.3544285893 0.1096657887 2.345219836e-38
0.02163622901 -0.4679296613 -0.02162005566 2.345219836e-38
0.1428563595 -0.2730196118 0.1403953582 2.345219836e-38
-0.1880632043 -0.2948237658 -0.02364808321 2.345219836e-38
-0.04012285173 -0.4584545493 0.2238604724 2.345219836e-38
0.008026748896 -0.4663519263 0.1313137263 2.345219836e-38
-0.01134306472 -0.338650167 0.2536261678 2.345219836e-38
-0.01213594712 -0.4224685431 0.2509815097 2.345219836e-38
0.04960956052 -0.4603831172 -0.1099630222 2.345219836e-38
