# .PCD v0.7 - Point Cloud Data file format
VERSION 0.7
FIELDS x y z rgb
SIZE 4 4 4 4
TYPE F F F F
COUNT 1 1 1 1
WIDTH 833
HEIGHT 1
VIEWPOINT 0 0 0 1 0 0 0
POINTS 833
DATA ascii
-0.113475576 0.03964996338 0.1065118909 1.184631237e-38
-0.1260262132 -0.01654268801 0.1241837442 1.184631237e-38
-0.1202437133 -0.0642683804 0.1153499335 1.184631237e-38
-0.1135114804 -0.02702324092 0.07125526667 1.184631237e-38
-0.1117725149 0.03352886438 0.09580026567 1.184631237e-38
-0.112048097 0.04156216979 0.06715600193 1.184631237e-38
-0.256796658 -0.4664184451 -0.2122495025 2.348204041e-38
-0.2488136739 -0.4695740342 -0.1517750323 2.348204041e-38
-0.2265741825 -0.4690880179 -0.1420982182 2.348204041e-38
-0.2326182127 -0.4674753547 -0.1613235474 2.348204041e-38
-0.2148677558 -0.4612386823 -0.2166403234 2.348204041e-38
-0.1998974234 -0.4593700171 -0.2718137205 2.348204041e-38
-0.2438194454 -0.2571932077 -0.24496755 2.348204041e-38
-0.229750216 -0.07441607118 -0.2339767367 2.348204041e-38
-0.2484660894 -0.4690443873 -0.1812672913 2.348204041e-38
-0.223854363 -0.4696816206 -0.1612524092 2.348204041e-38
-0.2229088545 -0.4684064984 -0.1839189231 2.348204041e-38
-0.2018055618 -0.4658557177 -0.2017947137 2.348204041e-38
-0.1740245968 -0.4608619809 -0.2294666469 2.348204041e-38
-0.1809114516 -0.4534814358 -0.2658298612 2.348204041e-38
-0.2283502668 -0.3922797441 -0.2441367358 2.348204041e-38
-0.2434146404 -0.218937993 -0.2433691323 2.348204041e-38
-0.2496911138 -0.4701651335 -0.1793560237 2.348204041e-38
-0.2165172249 -0.4716768265 -0.192029506 2.348204041e-38
-0.199241668 -0.4704045057 -0.2111427635 2.348204041e-38
-0.1895642877 -0.4691472054 -0.2287185639 2.348204041e-38
-0.1770417094 -0.4638561606 -0.2456040829 2.348204041e-38
-0.1532212645 -0.4568147659 -0.2384254187 2.348204041e-38
-0.2053548545 -0.4453821182 -0.2279133946 2.348204041e-38
-0.2250960469 -0.3320301771 -0.240370512 2.348204041e-38
-0.2335685343 -0.4722075462 -0.2056773156 2.348204041e-38
-0.1968087256 -0.4725269675 -0.200769797 2.348204041e-38
-0.1786913872 -0.4712541103 -0.2137309313 2.348204041e-38
-0.1692937911 -0.4697848558 -0.222292915 2.348204041e-38
-0.1641131043 -0.4652051926 -0.2194640636 2.348204041e-38
-0.1392261088 -0.4575728774 -0.2248561978 2.348204041e-38
-0.1937241256 -0.4506084323 -0.2365781963 2.348204041e-38
-0.2177264541 -0.3934004009 -0.2434662282 2.348204041e-38
-0.2103222162 -0.4734041691 -0.1951241493 2.348204041e-38
-0.177828148 -0.4731926322 -0.1980140507 2.348204041e-38
-0.168641448 -0.471032083 -0.1979449093 2.348204041e-38
-0.1568544507 -0.4690206051 -0.2047208548 2.348204041e-38
-0.1507370472 -0.463340044 -0.2126710117 2.348204041e-38
-0.1322740316 -0.4587711692 -0.2119730711 2.348204041e-38
-0.1710671782 -0.454415381 -0.2278436869 2.348204041e-38
-0.204115659 -0.3635635376 -0.2480247319 2.348204041e-38
-0.2141937613 -0.4732102752 -0.1957580596 2.348204041e-38
-0.1944413334 -0.4721074104 -0.1862761378 2.348204041e-38
-0.1753464192 -0.4699331522 -0.1928491592 2.348204041e-38
-0.1618658304 -0.4673185945 -0.2012093067 2.348204041e-38
-0.1303061396 -0.4611177444 -0.1911714971 2.348204041e-38
-0.1376380622 -0.4598011971 -0.2069134861 2.348204041e-38
-0.166710183 -0.392288506 -0.221902594 2.348204041e-38
-0.1827715933 -0.2929752469 -0.2279195338 2.348204041e-38
-0.197144866 -0.4713970423 -0.1883680224 2.348204041e-38
-0.2098647803 -0.4706722498 -0.1903084815 2.348204041e-38
-0.1957723498 -0.4690279961 -0.1996565312 2.348204041e-38
-0.1694807708 -0.4639738202 -0.1868336499 2.348204041e-38
-0.1551782042 -0.4636226892 -0.1967551261 2.348204041e-38
-0.1490830779 -0.4304081798 -0.2090082169 2.348204041e-38
-0.1707542241 -0.3131301701 -0.2173171937 2.348204041e-38
-0.1761958897 -0.2181364149 -0.2067789733 2.348204041e-38
-0.1945331693 -0.4700011015 -0.1802464575 2.348204041e-38
-0.1877821386 -0.4702666998 -0.183748126 2.348204041e-38
-0.1680518985 -0.4692645073 -0.1895106882 2.348204041e-38
-0.1391625255 -0.4679784775 -0.2042525113 2.348204041e-38
-0.1594909132 -0.4677222371 -0.218704313 2.348204041e-38
-0.1657348275 -0.4243638813 -0.2006543279 2.348204041e-38
-0.1781229526 -0.281888634 -0.1868576705 2.348204041e-38
-0.1708378792 -0.1475125849 -0.1810491085 2.348204041e-38
-0.09175059199 -0.4556515813 -0.2164305001 2.348204041e-38
-0.1375717968 -0.4539676905 -0.1874254495 2.348204041e-38
-0.1375487745 -0.4580150843 -0.1823139191 2.348204041e-38
-0.1356183738 -0.4567553997 -0.2037853003 2.348204041e-38
-0.1437411159 -0.4540753961 -0.2134800255 2.348204041e-38
-0.1287273467 -0.4493046403 -0.1968627572 2.348204041e-38
-0.1450022012 -0.4598940611 -0.1687919497 2.348204041e-38
-0.2080623955 -0.3913437724 -0.2041658759 2.348204041e-38
0.008692391217 -0.4605392814 -0.2052392066 2.348204041e-38
-0.06638148427 -0.4615724683 -0.2174064964 2.348204041e-38
-0.06165679544 -0.4630567431 -0.2338760048 2.348204041e-38
-0.03922633082 -0.4624416828 -0.214028731 2.348204041e-38
-0.0195190832 -0.4609449506 -0.1902626157 2.348204041e-38
-0.03385029733 -0.4539943337 -0.1969355941 2.348204041e-38
-0.1006143093 -0.4497593045 -0.2146286964 2.348204041e-38
-0.1894266009 -0.4357085824 -0.1927491426 2.348204041e-38
0.03756944835 -0.4690548778 -0.2345238775 2.348204041e-38
0.01171072572 -0.4701066017 -0.2309858501 2.348204041e-38
0.00359544903 -0.4706373811 -0.216029942 2.348204041e-38
0.01756063849 -0.4685438871 -0.2013868093 2.348204041e-38
0.0239360407 -0.4624952078 -0.1821436584 2.348204041e-38
0.01790670305 -0.4578034282 -0.1885563135 2.348204041e-38
-0.0392626971 -0.4507007599 -0.1985593438 2.348204041e-38
-0.1047362611 -0.4514724612 -0.1948125064 2.348204041e-38
0.06965906918 -0.4744259715 -0.2312684506 2.348204041e-38
0.02438227087 -0.474721849 -0.210651651 2.348204041e-38
0.02534551919 -0.4738252759 -0.2116612345 2.348204041e-38
0.01635415852 -0.4728544354 -0.2010207772 2.348204041e-38
0.02264785767 -0.4660496712 -0.1876051128 2.348204041e-38
0.02306579053 -0.4596884251 -0.1841522604 2.348204041e-38
-0.01309862733 -0.4518261552 -0.1959135681 2.348204041e-38
-0.01856800914 -0.4547461867 -0.1917267144 2.348204041e-38
0.08597680926 -0.4760511518 -0.2157194167 2.348204041e-38
0.03148625046 -0.4744667411 -0.1973486543 2.348204041e-38
0.02444484085 -0.4734778404 -0.201764524 2.348204041e-38
0.01521877199 -0.4724758863 -0.1944304556 2.348204041e-38
0.003801226616 -0.4700815082 -0.1795987934 2.348204041e-38
-0.02281417698 -0.4605484009 -0.1737044156 2.348204041e-38
-0.006741449237 -0.4549233317 -0.1905450523 2.348204041e-38
0.02656063437 -0.4579401016 -0.1968637407 2.348204041e-38
0.04288059473 -0.4754957557 -0.2080216855 2.348204041e-38
-0.06793047488 -0.473770678 -0.1814161092 2.348204041e-38
-0.06087421626 -0.472915113 -0.1880770028 2.348204041e-38
-0.04518363625 -0.4720957279 -0.1809242666 2.348204041e-38
-0.03994857892 -0.4684001803 -0.1698178798 2.348204041e-38
-0.006794914603 -0.4582722187 -0.1995034814 2.348204041e-38
0.001728884876 -0.4561669827 -0.1749679297 2.348204041e-38
0.0187369287 -0.4641150236 -0.2040565312 2.348204041e-38
-0.01237613708 -0.4739983082 -0.2081558257 2.348204041e-38
-0.02812024951 -0.473144412 -0.1997189969 2.348204041e-38
-0.03164728358 -0.4720359445 -0.1934109777 2.348204041e-38
-0.02324128151 -0.4667547345 -0.1804450154 2.348204041e-38
-0.005521923304 -0.4623604417 -0.18357867 2.348204041e-38
-0.003919988871 -0.4577232003 -0.1990467906 2.348204041e-38
0.01285525411 -0.4612411261 -0.1844355613 2.348204041e-38
-0.03969852999 -0.4407476783 -0.1972878575 2.348204041e-38
0.07186931372 -0.4688591361 -0.185128063 2.348204041e-38
0.01223906875 -0.4743078947 -0.1973028034 2.348204041e-38
-0.02275112271 -0.4729374051 -0.1865611523 2.348204041e-38
-0.02516006678 -0.4657306671 -0.1886906624 2.348204041e-38
-0.004102729261 -0.4639706016 -0.2083623856 2.348204041e-38
0.06932526827 -0.4650569558 -0.1962593049 2.348204041e-38
0.05648165941 -0.4430160522 -0.1994443238 2.348204041e-38
-0.03966716677 -0.2356694043 -0.1999074817 2.348204041e-38
0.1156494468 -0.4618352652 -0.1916177273 2.348204041e-38
0.09617638588 -0.4613870978 -0.1808209121 2.348204041e-38
0.06769628823 -0.4629665017 -0.1672690511 2.348204041e-38
0.05490615964 -0.4640913606 -0.1681420058 2.348204041e-38
0.06058573723 -0.4636929631 -0.1737683713 2.348204041e-38
0.02322328836 -0.4601088166 -0.1553748697 2.348204041e-38
-0.04424342513 -0.4697351456 -0.1668248773 2.348204041e-38
-0.03035295382 -0.4514147043 -0.1580187976 2.348204041e-38
0.1839159578 -0.4640809298 -0.2058611661 2.348204041e-38
0.1797890812 -0.4672603607 -0.1853201687 2.348204041e-38
0.18605946 -0.4686461091 -0.177862227 2.348204041e-38
0.1769710034 -0.4704266787 -0.1593759507 2.348204041e-38
0.1263702214 -0.4668523073 -0.1551977396 2.348204041e-38
0.1121202111 -0.4631175995 -0.1905069053 2.348204041e-38
0.05988101661 -0.4579168558 -0.1731065512 2.348204041e-38
0.00713570416 -0.4640116692 -0.1617794931 2.348204041e-38
0.1708718389 -0.4683603048 -0.1893902421 2.348204041e-38
0.1596800238 -0.4718362689 -0.1837044656 2.348204041e-38
0.1599675715 -0.4743748307 -0.1851010621 2.348204041e-38
0.1586958617 -0.4733849168 -0.1835959554 2.348204041e-38
0.1360283494 -0.4696058035 -0.1695002615 2.348204041e-38
0.1664286107 -0.4645171762 -0.1830840111 2.348204041e-38
0.1290261447 -0.4598871469 -0.1899478436 2.348204041e-38
0.09528762102 -0.4624397159 -0.1468790174 2.348204041e-38
0.1870564967 -0.4736760855 -0.1908485293 2.348204041e-38
0.168826893 -0.4781013727 -0.1811876893 2.348204041e-38
0.1647806913 -0.4773467779 -0.1812283099 2.348204041e-38
0.1599365175 -0.4763665795 -0.1834698617 2.348204041e-38
0.1396290809 -0.4725185633 -0.1739924848 2.348204041e-38
0.1504871398 -0.4661849141 -0.1753557026 2.348204041e-38
0.1632468849 -0.458848238 -0.1802137792 2.348204041e-38
0.1444642991 -0.4614015222 -0.1510844082 2.348204041e-38
0.2041610032 -0.4776826501 -0.2047725022 2.348204041e-38
0.196479246 -0.4778397083 -0.1860380471 2.348204041e-38
0.179429248 -0.4766474962 -0.1848471463 2.348204041e-38
0.1731814593 -0.4750623107 -0.1867794096 2.348204041e-38
0.165100649 -0.4740360975 -0.1757397205 2.348204041e-38
0.1905000955 -0.4656974077 -0.170169726 2.348204041e-38
0.2034362704 -0.4588282108 -0.1808911115 2.348204041e-38
0.2194556743 -0.4626374245 -0.167900905 2.348204041e-38
0.2078607529 -0.4780676961 -0.2036855221 2.348204041e-38
0.1918814927 -0.4761155844 -0.1968355626 2.348204041e-38
0.1876904219 -0.4746799469 -0.2014485896 2.348204041e-38
0.1816619784 -0.4731414914 -0.1857006401 2.348204041e-38
0.1805268675 -0.4706038237 -0.1605118513 2.348204041e-38
0.1932105273 -0.4610810876 -0.1811968237 2.348204041e-38
0.2032908052 -0.4577400684 -0.1876280904 2.348204041e-38
0.2152567655 -0.4664056897 -0.186824128 2.348204041e-38
0.1692485958 -0.4730254412 -0.1883260906 2.348204041e-38
0.176155135 -0.4750212431 -0.2215138525 2.348204041e-38
0.1799495369 -0.4726879597 -0.2112285197 2.348204041e-38
0.1792276651 -0.4663829207 -0.1796883494 2.348204041e-38
0.1855074614 -0.4633043408 -0.1662722528 2.348204041e-38
0.1837320775 -0.4561079741 -0.2020418346 2.348204041e-38
0.1662025601 -0.4604218602 -0.1984682232 2.348204041e-38
0.1329887211 -0.4570021629 -0.2011259496 2.348204041e-38
0.1460960656 -0.4272072315 -0.1922769696 2.348204041e-38
0.143777445 -0.4699531794 -0.2110132873 2.348204041e-38
0.1632866114 -0.4715762734 -0.2120735347 2.348204041e-38
0.1802395135 -0.4670744538 -0.1990451664 2.348204041e-38
0.1661953479 -0.4645753503 -0.2222517282 2.348204041e-38
0.1447522491 -0.4615063071 -0.2277044058 2.348204041e-38
0.1202881187 -0.45051229 -0.2222326398 2.348204041e-38
0.03766897321 -0.3533298969 -0.2113639116 2.348204041e-38
0.2262545377 -0.4613945484 -0.1467181146 2.348204041e-38
0.2253656834 -0.4617971182 -0.1356205344 2.348204041e-38
0.2189430147 -0.4632828832 -0.1565035433 2.348204041e-38
0.1872820705 -0.4655198455 -0.1668699533 2.348204041e-38
0.1399551779 -0.4662481546 -0.1757074594 2.348204041e-38
0.09745585918 -0.4647477865 -0.1615876853 2.348204041e-38
0.08104515076 -0.459017992 -0.1461165696 2.348204041e-38
0.0309368372 -0.464574039 -0.135807842 2.348204041e-38
0.2172633559 -0.4624838233 -0.1638571024 2.348204041e-38
0.2140847296 -0.4636480808 -0.1735077798 2.348204041e-38
0.2127804309 -0.4625143409 -0.1598846018 2.348204041e-38
0.2085747272 -0.4656594992 -0.1544994116 2.348204041e-38
0.1767462641 -0.4665218592 -0.1533547938 2.348204041e-38
0.1603604555 -0.4649748802 -0.1538986862 2.348204041e-38
0.1389400065 -0.4610971212 -0.1601623297 2.348204041e-38
0.1403502375 -0.4600547552 -0.1435028166 2.348204041e-38
0.2046552449 -0.4615311027 -0.1683354974 2.348204041e-38
0.2035077065 -0.464871943 -0.15821594 2.348204041e-38
0.2051887065 -0.4670884013 -0.1453132331 2.348204041e-38
0.2047723979 -0.4677663445 -0.1443946213 2.348204041e-38
0.2023322433 -0.4676830769 -0.1418118775 2.348204041e-38
0.1771640331 -0.4654032588 -0.142421335 2.348204041e-38
0.1884671301 -0.4612835646 -0.1552027762 2.348204041e-38
0.1887057871 -0.4649482965 -0.1461748928 2.348204041e-38
0.1899812967 -0.467931211 -0.1579801738 2.348204041e-38
0.201840952 -0.4722329378 -0.1509136856 2.348204041e-38
0.2085658461 -0.4746136665 -0.1475737691 2.348204041e-38
0.2113730758 -0.4736397266 -0.1445762515 2.348204041e-38
0.2145997435 -0.470330596 -0.1440799981 2.348204041e-38
0.201732412 -0.4661858082 -0.1445905864 2.348204041e-38
0.2061600238 -0.4615966678 -0.1656039357 2.348204041e-38
0.2237327248 -0.4636986852 -0.1766452491 2.348204041e-38
0.2021020204 -0.4731678367 -0.1733342707 2.348204041e-38
0.1922205538 -0.4769001603 -0.158293575 2.348204041e-38
0.1993796676 -0.4758965373 -0.1479299068 2.348204041e-38
0.2130111605 -0.474537611 -0.149287194 2.348204041e-38
0.2274122983 -0.4721868634 -0.1521021724 2.348204041e-38
0.2361590713 -0.4653621316 -0.1427115202 2.348204041e-38
0.2254386097 -0.4599722624 -0.1802181005 2.348204041e-38
0.2486769706 -0.4636704922 -0.174107939 2.348204041e-38
0.2035889477 -0.4768060446 -0.1761290431 2.348204041e-38
0.1838335544 -0.4762716889 -0.1745236218 2.348204041e-38
0.1837451309 -0.4749441743 -0.1620796472 2.348204041e-38
0.1942650825 -0.4722887278 -0.1624153852 2.348204041e-38
0.2104640752 -0.4682657719 -0.1503907442 2.348204041e-38
0.2262111455 -0.4603646994 -0.1534953266 2.348204041e-38
0.2146154195 -0.4552125335 -0.1759460866 2.348204041e-38
0.2304770499 -0.4628406763 -0.1678698808 2.348204041e-38
0.1894688457 -0.4664862156 -0.1709844619 2.348204041e-38
0.189071998 -0.4728571177 -0.1891574562 2.348204041e-38
0.175869301 -0.4727396369 -0.1905719787 2.348204041e-38
0.1827173382 -0.4657875299 -0.1701732874 2.348204041e-38
0.1956889778 -0.4619303942 -0.1494908333 2.348204041e-38
0.2044729143 -0.4558637738 -0.1711462587 2.348204041e-38
0.1868543476 -0.4521811604 -0.1733843386 2.348204041e-38
0.1830746382 -0.4631872177 -0.1875192821 2.348204041e-38
0.1760551184 -0.3745222092 -0.1905651689 2.348204041e-38
0.1750580519 -0.4610764384 -0.2035042048 2.348204041e-38
0.1719461828 -0.4686409235 -0.1902723014 2.348204041e-38
0.1924501806 -0.4680288434 -0.1677060425 2.348204041e-38
0.1929076463 -0.4616259336 -0.1845015585 2.348204041e-38
0.1665889174 -0.4574157596 -0.2076907307 2.348204041e-38
0.1638459414 -0.4440502524 -0.2239483148 2.348204041e-38
0.1126397401 -0.4087757766 -0.2261240184 2.348204041e-38
0.214313522 -0.472205162 -0.1169916838 2.348204041e-38
0.2821788788 -0.4692188501 -0.126075983 2.348204041e-38
0.2876346111 -0.470914185 -0.1564253271 2.348204041e-38
0.2548675537 -0.4737641811 -0.1652746499 2.348204041e-38
0.2197868675 -0.4742392302 -0.1781076789 2.348204041e-38
0.1784861237 -0.4724444151 -0.1689410508 2.348204041e-38
0.1258302778 -0.4675660729 -0.164416492 2.348204041e-38
0.08500877023 -0.4665364623 -0.1647122204 2.348204041e-38
0.2318322212 -0.4710889459 -0.1338873506 2.348204041e-38
0.2613271475 -0.4725793004 -0.1605209708 2.348204041e-38
0.2791720033 -0.4708272219 -0.1702534556 2.348204041e-38
0.2747581601 -0.4726474881 -0.1735188961 2.348204041e-38
0.2421261817 -0.4734507203 -0.1823815107 2.348204041e-38
0.2182234973 -0.4718030095 -0.1634718776 2.348204041e-38
0.1906277984 -0.4697310328 -0.1675858796 2.348204041e-38
0.1975714415 -0.4711694717 -0.1500018537 2.348204041e-38
0.223275438 -0.4716388583 -0.1553882509 2.348204041e-38
0.2363657504 -0.4714744091 -0.1596334726 2.348204041e-38
0.2483963817 -0.4752636552 -0.1629498005 2.348204041e-38
0.2556179166 -0.4742546082 -0.1609420478 2.348204041e-38
0.2536645532 -0.4738814235 -0.1560845673 2.348204041e-38
0.2277101427 -0.4723673463 -0.163971886 2.348204041e-38
0.2259540111 -0.4700596333 -0.1771555096 2.348204041e-38
0.2546603084 -0.470569253 -0.1704030931 2.348204041e-38
0.20247145 -0.4747580886 -0.157317996 2.348204041e-38
0.2157268375 -0.4789056778 -0.1538752764 2.348204041e-38
0.2274556011 -0.4779148102 -0.1480148137 2.348204041e-38
0.2389993519 -0.4767776728 -0.1551514268 2.348204041e-38
0.2482924014 -0.4749991298 -0.1559379101 2.348204041e-38
0.2527849078 -0.4730165005 -0.1601868868 2.348204041e-38
0.2305596918 -0.4683588743 -0.1836304367 2.348204041e-38
0.260910511 -0.4698178172 -0.1998418272 2.348204041e-38
0.2125305682 -0.4793697 -0.1723676026 2.348204041e-38
0.2059549242 -0.4789116979 -0.161580503 2.348204041e-38
0.2168461233 -0.4778328538 -0.1531451792 2.348204041e-38
0.2298292667 -0.4759572744 -0.1650019884 2.348204041e-38
0.2464568168 -0.4743946791 -0.1655365974 2.348204041e-38
0.2585178018 -0.4712147713 -0.1592281014 2.348204041e-38
0.2399629205 -0.4654964209 -0.1922405809 2.348204041e-38
0.2609303594 -0.4688926935 -0.1969492882 2.348204041e-38
0.2419534773 -0.4812487364 -0.1873191893 2.348204041e-38
0.2218971997 -0.4790697098 -0.1815280616 2.348204041e-38
0.2096412033 -0.4777938128 -0.1831671298 2.348204041e-38
0.2123267502 -0.4756329656 -0.1829585284 2.348204041e-38
0.2335395366 -0.4742046595 -0.1690171063 2.348204041e-38
0.244975701 -0.4645565748 -0.1643770933 2.348204041e-38
0.2173796445 -0.4600583315 -0.2007038295 2.348204041e-38
0.2305255085 -0.46757406 -0.1943901926 2.348204041e-38
0.2259654254 -0.4718248248 -0.1915448606 2.348204041e-38
0.2338092178 -0.479326427 -0.2043011636 2.348204041e-38
0.2144767791 -0.477314055 -0.2035782337 2.348204041e-38
0.2130687088 -0.4748684764 -0.1858199388 2.348204041e-38
0.2188266665 -0.4682016373 -0.1728612185 2.348204041e-38
0.2114726454 -0.4606664777 -0.193682 2.348204041e-38
0.2061028928 -0.4558073878 -0.1850369871 2.348204041e-38
0.169708088 -0.456545651 -0.1929507256 2.348204041e-38
0.2178157717 -0.4098760486 -0.2013981938 2.348204041e-38
0.2137088627 -0.4679891467 -0.2068309933 2.348204041e-38
0.2118081897 -0.4755967855 -0.209122628 2.348204041e-38
0.2188018411 -0.4752177596 -0.1882579923 2.348204041e-38
0.1999527365 -0.4671354294 -0.2111214995 2.348204041e-38
0.1962921172 -0.4587783217 -0.2174840719 2.348204041e-38
0.1775432974 -0.4334043264 -0.2299158871 2.348204041e-38
0.1123215854 -0.3820002973 -0.2368476689 2.348204041e-38
0.2133217305 -0.4515736103 -0.06017584726 2.348204041e-38
0.2297093123 -0.4562177658 -0.08572366834 2.348204041e-38
0.2275470644 -0.4613428116 -0.1417888701 2.348204041e-38
0.2241817564 -0.4666668773 -0.1489975601 2.348204041e-38
0.1969753653 -0.4690561295 -0.1516376436 2.348204041e-38
0.1842293888 -0.4706801176 -0.144595027 2.348204041e-38
0.1950732023 -0.4681788683 -0.09066122025 2.348204041e-38
0.2209772319 -0.4696577787 -0.05168824643 2.348204041e-38
0.2374883443 -0.4488944411 -0.1109779179 2.348204041e-38
0.2465561479 -0.4581813812 -0.1304762661 2.348204041e-38
0.250867188 -0.4638912082 -0.1081200913 2.348204041e-38
0.2452302724 -0.46828264 -0.1152072772 2.348204041e-38
0.2469292432 -0.4723003507 -0.1172051132 2.348204041e-38
0.2374746948 -0.4706190825 -0.0998827666 2.348204041e-38
0.2292437404 -0.4678474665 -0.1113930494 2.348204041e-38
0.2714338899 -0.4628851414 -0.06546749175 2.348204041e-38
0.2499202043 -0.4557130933 -0.1149791777 2.348204041e-38
0.2489439994 -0.4643056393 -0.08934648335 2.348204041e-38
0.252636373 -0.4682762027 -0.08833943307 2.348204041e-38
0.2506006956 -0.4695091844 -0.09886785597 2.348204041e-38
0.2316276282 -0.469617188 -0.1021318138 2.348204041e-38
0.2396358997 -0.4706670642 -0.08884263039 2.348204041e-38
0.2393337339 -0.4684527516 -0.1064123064 2.348204041e-38
0.2577897906 -0.4618266225 -0.09681653976 2.348204041e-38
0.2694342732 -0.4606782794 -0.1087328494 2.348204041e-38
0.2563491464 -0.4687408805 -0.09418816119 2.348204041e-38
0.2602654696 -0.4742408991 -0.08730211109 2.348204041e-38
0.2587105632 -0.4763083458 -0.09431530535 2.348204041e-38
0.2464848906 -0.4739735126 -0.1006177962 2.348204041e-38
0.2491657287 -0.4716330171 -0.08689748496 2.348204041e-38
0.2423078567 -0.468552947 -0.08768725395 2.348204041e-38
0.2574109435 -0.4618925452 -0.108184956 2.348204041e-38
0.3006424308 -0.4664813876 -0.1282272339 2.348204041e-38
0.2813610435 -0.4735733271 -0.1080827266 2.348204041e-38
0.2695022225 -0.4788228869 -0.09520037472 2.348204041e-38
0.2670769095 -0.4777922034 -0.1047211066 2.348204041e-38
0.2539937496 -0.475399971 -0.1152497977 2.348204041e-38
0.2596099973 -0.4731106758 -0.1215358824 2.348204041e-38
0.2407436222 -0.465457201 -0.124421902 2.348204041e-38
0.2715469599 -0.4641163349 -0.1212378293 2.348204041e-38
0.3342946172 -0.4669439793 -0.1551898718 2.348204041e-38
0.3103994131 -0.474892199 -0.1423223317 2.348204041e-38
0.2856925726 -0.478548646 -0.1230368614 2.348204041e-38
0.2704251409 -0.4776748419 -0.1316923946 2.348204041e-38
0.2689094543 -0.4728101492 -0.1329612136 2.348204041e-38
0.262881577 -0.4669013619 -0.1427296698 2.348204041e-38
0.2420674413 -0.4625883102 -0.1617770344 2.348204041e-38
0.2947887778 -0.4671667814 -0.1331048757 2.348204041e-38
0.345335722 -0.461083591 -0.1783590019 2.348204041e-38
0.3418190479 -0.4683489203 -0.1793035269 2.348204041e-38
0.3132822514 -0.4726400375 -0.1661143154 2.348204041e-38
0.2808406353 -0.4715026021 -0.1614463329 2.348204041e-38
0.2626794577 -0.468259573 -0.141836673 2.348204041e-38
0.2536528707 -0.4619084597 -0.1722153723 2.348204041e-38
0.2284528166 -0.4588467479 -0.1371356249 2.348204041e-38
0.236894384 -0.4630144238 -0.155261606 2.348204041e-38
0.3392441869 -0.3828356564 -0.1984373033 2.348204041e-38
0.3364843726 -0.4615980387 -0.1975546628 2.348204041e-38
0.3363426924 -0.4690115452 -0.1912137121 2.348204041e-38
0.3052746654 -0.4693593383 -0.1770615727 2.348204041e-38
0.2699422836 -0.4727579951 -0.167448014 2.348204041e-38
0.2320400327 -0.4666333795 -0.1568961143 2.348204041e-38
0.20050551 -0.4421791434 -0.1657337844 2.348204041e-38
0.1515992284 -0.4247668982 -0.18808797 2.348204041e-38
0.1583319008 -0.1797970086 0.05223917961 2.348204041e-38
0.1767920703 -0.4362794757 -0.008215889335 2.348204041e-38
0.2027519494 -0.4612736702 -0.1018855199 2.348204041e-38
0.213921532 -0.4662922621 -0.1418678761 2.348204041e-38
0.22011213 -0.4660312533 -0.1702725589 2.348204041e-38
0.1834459752 -0.4605284929 -0.1455304325 2.348204041e-38
0.2007825822 -0.4720839262 -0.06849977374 2.348204041e-38
0.2021609694 -0.3878194392 -0.08322546631 2.348204041e-38
0.22234191 -0.3256138563 -0.0480640009 2.348204041e-38
0.2198725194 -0.4521240592 -0.09545723349 2.348204041e-38
0.2380965203 -0.4621341228 -0.1209065989 2.348204041e-38
0.2591781616 -0.4686607718 -0.122144945 2.348204041e-38
0.271083951 -0.4689531326 -0.1473726034 2.348204041e-38
0.2228000015 -0.4662365913 -0.1404960752 2.348204041e-38
0.2259236127 -0.4612175822 -0.1180567592 2.348204041e-38
0.2538946271 -0.4721250534 -0.1059541851 2.348204041e-38
0.2604065537 -0.4106992483 -0.112900272 2.348204041e-38
0.2517177463 -0.4558899999 -0.1251429468 2.348204041e-38
0.2540261149 -0.4689567685 -0.1089379713 2.348204041e-38
0.2792475224 -0.4725179076 -0.1083736196 2.348204041e-38
0.2876913548 -0.4693479538 -0.1298074126 2.348204041e-38
0.2608867884 -0.4674065113 -0.1210605577 2.348204041e-38
0.2496017069 -0.4660485387 -0.1246315539 2.348204041e-38
0.2814294696 -0.4733682275 -0.1232920885 2.348204041e-38
0.2905609608 -0.4518324733 -0.1436196715 2.348204041e-38
0.2774915099 -0.4592956901 -0.1348071098 2.348204041e-38
0.2691649795 -0.4729728103 -0.1155088693 2.348204041e-38
0.2815721035 -0.4779443145 -0.1157905236 2.348204041e-38
0.2966715693 -0.4743420482 -0.1233537793 2.348204041e-38
0.2806619406 -0.4694712162 -0.122085169 2.348204041e-38
0.2601969838 -0.4654454589 -0.1302285939 2.348204041e-38
0.2615014911 -0.4583986998 -0.1309730411 2.348204041e-38
0.3312803507 -0.4588189721 -0.1502391696 2.348204041e-38
0.3126071095 -0.4642883539 -0.1510692537 2.348204041e-38
0.2950962186 -0.4741165638 -0.1307071 2.348204041e-38
0.2829385996 -0.4782428145 -0.1288062483 2.348204041e-38
0.2862534523 -0.4741010666 -0.1425916553 2.348204041e-38
0.2972329855 -0.4686474204 -0.1467521489 2.348204041e-38
0.2684848309 -0.4622479081 -0.1689276397 2.348204041e-38
0.2669907212 -0.4621881843 -0.1454633325 2.348204041e-38
0.3640242219 -0.3875406384 -0.1703092456 2.348204041e-38
0.3444902897 -0.4644151926 -0.1768506169 2.348204041e-38
0.3211704493 -0.4700413942 -0.1696386635 2.348204041e-38
0.2905930281 -0.4692585468 -0.1689103842 2.348204041e-38
0.2736208439 -0.4662326574 -0.1535602659 2.348204041e-38
0.270552218 -0.4589393139 -0.172179848 2.348204041e-38
0.240007475 -0.4588734508 -0.1625397801 2.348204041e-38
0.2216298431 -0.4580599666 -0.1650961041 2.348204041e-38
0.3683764935 -0.2982482314 -0.1819098294 2.348204041e-38
0.3651549816 -0.3510717154 -0.2023184001 2.348204041e-38
0.3285631537 -0.4439541698 -0.1868916899 2.348204041e-38
0.2990172505 -0.4627012014 -0.1746149659 2.348204041e-38
0.2698161006 -0.4599508643 -0.1603864431 2.348204041e-38
0.2348236889 -0.459446311 -0.1794255823 2.348204041e-38
0.2156945914 -0.4067223668 -0.1588771343 2.348204041e-38
0.1504561305 -0.2209937721 -0.1734217554 2.348204041e-38
0.3506687284 -0.2120237201 -0.1980829239 2.348204041e-38
0.3697228432 -0.2624665797 -0.2182232141 2.348204041e-38
0.3533488512 -0.315993607 -0.2165862471 2.348204041e-38
0.3144366741 -0.4033296704 -0.2194684148 2.348204041e-38
0.2744907141 -0.4120259285 -0.2154236734 2.348204041e-38
0.2468517274 -0.276265502 -0.1866150051 2.348204041e-38
0.2130117267 -0.1548727155 -0.1819262505 2.348204041e-38
0.1426064223 -0.01406474411 -0.1889901608 2.348204041e-38
0.2534868717 0.1245491356 0.002598881721 2.348204041e-38
0.2103246599 0.08551050723 0.02697449923 2.348204041e-38
0.1821876913 0.06660424173 0.03757794946 2.348204041e-38
0.1677126437 0.02538911998 0.04468381405 2.348204041e-38
0.1942391545 0.01548480988 0.03307487816 2.348204041e-38
0.1950162798 0.01680099964 0.005709178746 2.348204041e-38
0.1590612382 0.05263961852 -0.009808398783 2.348204041e-38
0.1600799114 0.06548835337 -0.07286832482 2.348204041e-38
0.3320641518 0.08519084752 -0.01005312055 2.348204041e-38
0.2589626908 0.07422755659 0.01651181281 2.348204041e-38
0.2332079858 0.04037368298 0.01570550352 2.348204041e-38
0.1906837672 0.009981781244 -0.02352467179 2.348204041e-38
0.1644898504 -0.01664328575 -0.06716831774 2.348204041e-38
0.1960927695 -0.02632924914 -0.07636729628 2.348204041e-38
0.1791289002 -0.005909532309 -0.09504602849 2.348204041e-38
0.1715282649 0.0295676291 -0.1355484724 2.348204041e-38
0.3712015748 0.03219898045 -0.07288879901 2.348204041e-38
0.3116240501 0.006748601794 -0.08441703022 2.348204041e-38
0.2639345527 0.00725466013 -0.1285367459 2.348204041e-38
0.2178641707 0.002375409007 -0.1731315851 2.348204041e-38
0.1952584833 -0.002592131495 -0.1694173217 2.348204041e-38
0.1772321314 -0.02903988957 -0.1903342605 2.348204041e-38
0.2069177777 -0.008729547262 -0.1749135554 2.348204041e-38
0.1740761548 0.04675450921 -0.183899194 2.348204041e-38
0.3628507853 -0.04339291155 -0.1470929533 2.348204041e-38
0.3474770784 -0.0530474782 -0.1812264025 2.348204041e-38
0.2964038849 -0.07570403069 -0.1954543889 2.348204041e-38
0.2542243004 -0.04255416989 -0.2062687129 2.348204041e-38
0.2291365713 0.0004518926144 -0.2197000831 2.348204041e-38
0.2107069343 -0.003853827715 -0.217162177 2.348204041e-38
0.2035505027 -0.06009694934 -0.1996375173 2.348204041e-38
0.1912058145 0.02958659828 -0.1827611327 2.348204041e-38
0.3837603331 -0.04014615715 -0.159203738 2.348204041e-38
0.3736474514 -0.06972343475 -0.1905917227 2.348204041e-38
0.3290764093 -0.06715774536 -0.2120762914 2.348204041e-38
0.2633646727 -0.05229038 -0.2353311628 2.348204041e-38
0.247267738 0.01348827779 -0.2208841592 2.348204041e-38
0.2426704913 -0.0329503566 -0.2226818651 2.348204041e-38
0.2201371044 -0.04735805094 -0.1974719167 2.348204041e-38
0.1841102988 -0.009506896138 -0.1664154828 2.348204041e-38
0.3929665089 0.007377803326 -0.1584044099 2.348204041e-38
0.3719284534 -0.05253425241 -0.1909435987 2.348204041e-38
0.3366492987 -0.07705798745 -0.2157235146 2.348204041e-38
0.2862094641 -0.05625082552 -0.2316139042 2.348204041e-38
0.2651375532 -0.03280350566 -0.238387987 2.348204041e-38
0.2564416528 -0.07045309991 -0.2145105004 2.348204041e-38
0.2444694489 -0.03050859272 -0.1817254126 2.348204041e-38
0.2151484936 0.03845156729 -0.1558484733 2.348204041e-38
0.391497016 0.05200941861 -0.1689757109 2.348204041e-38
0.3767449856 0.01210047305 -0.1932659149 2.348204041e-38
0.3483029008 -0.03260168433 -0.2150887102 2.348204041e-38
0.3110868931 -0.07281539589 -0.2362512052 2.348204041e-38
0.2779964805 -0.09102637321 -0.2442834675 2.348204041e-38
0.2745488882 -0.05773313344 -0.2067371309 2.348204041e-38
0.2624465227 -0.001447424293 -0.1803492606 2.348204041e-38
0.235334143 0.05851955712 -0.1584394127 2.348204041e-38
0.3995305896 0.09093107283 -0.2057132125 2.348204041e-38
0.391693294 0.05872736871 -0.2240612209 2.348204041e-38
0.3761970997 -0.007113695145 -0.2469588667 2.348204041e-38
0.3439022899 -0.07511302084 -0.2717532516 2.348204041e-38
0.320861578 -0.04839971662 -0.2440914512 2.348204041e-38
0.3445103168 -0.01268696785 -0.2282633185 2.348204041e-38
0.3495809436 0.03917075694 -0.2069153786 2.348204041e-38
0.3399296403 0.07577486336 -0.1769110262 2.348204041e-38
0.1153618246 -0.04676884413 -0.2533795238 2.341805152e-38
-0.02764702216 -0.06336523592 -0.2546797097 2.341805152e-38
-0.09145629406 -0.07388269156 -0.2528061271 2.341805152e-38
-0.1092393026 -0.1326997131 -0.2494173795 2.341805152e-38
-0.1187096238 -0.1576772183 -0.2264127433 2.341805152e-38
-0.1089005545 -0.1333746165 -0.236071527 2.341805152e-38
-0.1093253419 -0.1107820421 -0.2069199532 2.341805152e-38
-0.1152500808 -0.06858862936 -0.2104917914 2.341805152e-38
0.1684563011 -0.08169814199 -0.2560596466 2.341805152e-38
0.06447738409 -0.1117298454 -0.2428285629 2.341805152e-38
-0.04263597727 -0.1264427304 -0.2374801189 2.341805152e-38
-0.09345641732 -0.1453820169 -0.2453790456 2.341805152e-38
-0.1181015745 -0.1844717413 -0.2338411361 2.341805152e-38
-0.1292614937 -0.1540954411 -0.2363214046 2.341805152e-38
-0.1204662174 -0.1399922073 -0.2194104344 2.341805152e-38
-0.1318049133 -0.1034348086 -0.2157465816 2.341805152e-38
0.2559459209 -0.09905895591 -0.231055066 2.341805152e-38
0.08983695507 -0.136495769 -0.2307399362 2.341805152e-38
-0.009303309023 -0.1310804337 -0.2251841128 2.341805152e-38
-0.06090848148 -0.1369657516 -0.2327063084 2.341805152e-38
-0.09497780353 -0.1794537753 -0.2375068814 2.341805152e-38
-0.1416776627 -0.1889811903 -0.2244829386 2.341805152e-38
-0.1210522801 -0.1801893711 -0.2239093632 2.341805152e-38
-0.1256274432 -0.1274560243 -0.2190861851 2.341805152e-38
0.3163317442 -0.1498536766 -0.2208662629 2.341805152e-38
0.1757630259 -0.1723514497 -0.2132656574 2.341805152e-38
0.0568331331 -0.1824294329 -0.2049463987 2.341805152e-38
-0.01329086721 -0.1872541457 -0.2095353603 2.341805152e-38
-0.06967033446 -0.2128306329 -0.2185277939 2.341805152e-38
-0.07867012918 -0.1869164407 -0.2289720476 2.341805152e-38
-0.14089261 -0.1769444644 -0.2076708078 2.341805152e-38
-0.1132740527 -0.1495835483 -0.2348756045 2.341805152e-38
0.394212842 -0.2177212685 -0.218629837 2.341805152e-38
0.288942039 -0.1974631548 -0.2203969657 2.341805152e-38
0.185771957 -0.2110379189 -0.2203099579 2.341805152e-38
0.09073729813 -0.1918540001 -0.223748371 2.341805152e-38
-0.01108311862 -0.190758571 -0.2130575627 2.341805152e-38
-0.05662113801 -0.1490597725 -0.203129068 2.341805152e-38
-0.08302007616 -0.1878993362 -0.1937527359 2.341805152e-38
-0.08491820097 -0.149017781 -0.2116031647 2.341805152e-38
0.4245531559 -0.1905895174 -0.2240503877 2.341805152e-38
0.3407236338 -0.1753789783 -0.2316922247 2.341805152e-38
0.2598106265 -0.1809747517 -0.2333520055 2.341805152e-38
0.1585861892 -0.1707461625 -0.2268004715 2.341805152e-38
0.06711189449 -0.1576562822 -0.2124517113 2.341805152e-38
0.008996233344 -0.149821341 -0.193067193 2.341805152e-38
-0.04335731268 -0.1444882751 -0.1895850301 2.341805152e-38
-0.07719411701 -0.1138434485 -0.1937635541 2.341805152e-38
0.4200918674 -0.1111687496 -0.2321255356 2.341805152e-38
0.3882611394 -0.1467683166 -0.2395627946 2.341805152e-38
0.3099243641 -0.1337008327 -0.2354699671 2.341805152e-38
0.2213588506 -0.1355350912 -0.2345266044 2.341805152e-38
0.1331557781 -0.165214479 -0.2267684788 2.341805152e-38
0.09710751474 -0.1255998015 -0.2041863501 2.341805152e-38
0.04856806993 -0.1073469669 -0.1851848364 2.341805152e-38
-0.02822149545 -0.09567205608 -0.1693067253 2.341805152e-38
0.4246528149 -0.06023557484 -0.229330793 2.341805152e-38
0.3973391056 -0.1194776818 -0.2365957499 2.341805152e-38
0.3722677827 -0.134669587 -0.2457047701 2.341805152e-38
0.3227760196 -0.1732022762 -0.2614938021 2.341805152e-38
0.2879319787 -0.217640996 -0.2528961301 2.341805152e-38
0.2584510446 -0.1245499998 -0.2365095317 2.341805152e-38
0.2101218849 -0.1079739928 -0.1982760131 2.341805152e-38
0.1165598184 -0.04918463528 -0.1644672751 2.341805152e-38
-0.0869865641 -0.03370600939 -0.08978988975 2.341805152e-38
-0.1510063857 -0.08321716636 -0.07388145477 2.341805152e-38
-0.1652242839 -0.142510429 -0.05682357401 2.341805152e-38
-0.1596945375 -0.2128828019 -0.04940014333 2.341805152e-38
-0.1714927107 -0.1605897248 -0.1029823348 2.341805152e-38
-0.1704803407 -0.1015868187 -0.1303718388 2.341805152e-38
-0.1662557125 -0.03766414523 -0.1360362321 2.341805152e-38
-0.1695837379 0.04564319551 -0.2062279135 2.341805152e-38
0.09573477507 -0.09016522765 -0.1620016396 2.341805152e-38
-0.08909592032 -0.1308062375 -0.1461154521 2.341805152e-38
-0.1298563182 -0.1734284163 -0.1626216173 2.341805152e-38
-0.1400553882 -0.2123328 -0.1468156874 2.341805152e-38
-0.1741970479 -0.1835037321 -0.1262691319 2.341805152e-38
-0.1876756251 -0.1382595301 -0.164765805 2.341805152e-38
-0.1878850013 -0.0755841732 -0.1903953552 2.341805152e-38
-0.1875404716 0.01573373377 -0.2137818485 2.341805152e-38
0.2124971598 -0.1011120975 -0.1954750717 2.341805152e-38
0.03431396186 -0.1685258746 -0.2097882926 2.341805152e-38
-0.09444382787 -0.2099372745 -0.2085313797 2.341805152e-38
-0.1633898914 -0.2354401648 -0.2003198862 2.341805152e-38
-0.1565853655 -0.2505497336 -0.1967401206 2.341805152e-38
-0.1997666061 -0.1771078706 -0.1721360832 2.341805152e-38
-0.1894810498 -0.1006624922 -0.1959948093 2.341805152e-38
-0.2017980814 -0.01237663627 -0.2121594995 2.341805152e-38
0.3344996572 -0.2046786249 -0.2068500221 2.341805152e-38
0.1909273118 -0.2143274248 -0.2190931439 2.341805152e-38
0.09272442758 -0.2560103834 -0.221174404 2.341805152e-38
-0.05370022357 -0.2589855194 -0.2083562315 2.341805152e-38
-0.1501748413 -0.2717157602 -0.2265912294 2.341805152e-38
-0.1743676066 -0.2325059325 -0.2099480629 2.341805152e-38
-0.1885671318 -0.1178224161 -0.2131780386 2.341805152e-38
-0.1920781732 -0.03567716479 -0.226976037 2.341805152e-38
0.4198992848 -0.2189993113 -0.2150177956 2.341805152e-38
0.3279213905 -0.2201828957 -0.2329373509 2.341805152e-38
0.2341427058 -0.2487413436 -0.2477069348 2.341805152e-38
0.1140170991 -0.2518786192 -0.2305573225 2.341805152e-38
-0.001755900681 -0.2456502914 -0.2330210507 2.341805152e-38
-0.1366651952 -0.2540516257 -0.2029882669 2.341805152e-38
-0.1183597445 -0.1375609338 -0.2068760097 2.341805152e-38
-0.1398765147 -0.05986177921 -0.2005971819 2.341805152e-38
0.4190098643 -0.1282268912 -0.223538667 2.341805152e-38
0.386359036 -0.1766548008 -0.2427591681 2.341805152e-38
0.3159626126 -0.1916443855 -0.2513790727 2.341805152e-38
0.2129699737 -0.1980680972 -0.2417357415 2.341805152e-38
0.1078470796 -0.185415104 -0.2242097557 2.341805152e-38
0.06049199402 -0.2060361952 -0.1959141195 2.341805152e-38
-0.06916609406 -0.07111031562 -0.1923280656 2.341805152e-38
-0.111147128 -0.01346558332 -0.1795672774 2.341805152e-38
0.3837575316 -0.003222674131 -0.2257213891 2.341805152e-38
0.3996366858 -0.09182494879 -0.2341181785 2.341805152e-38
0.3624753356 -0.1147911698 -0.2457377166 2.341805152e-38
0.3030962944 -0.1471120417 -0.2462166548 2.341805152e-38
0.2467357665 -0.1740876436 -0.2282493711 2.341805152e-38
0.1967136413 -0.1431686431 -0.1908261478 2.341805152e-38
0.08191689849 -0.01483437419 -0.1617400348 2.341805152e-38
-0.03587559983 0.05942960083 -0.1505194306 2.341805152e-38
0.383351028 0.08991517127 -0.2325099558 2.341805152e-38
0.3776655793 0.003578603268 -0.2318610251 2.341805152e-38
0.378954649 -0.06519560516 -0.2505763769 2.341805152e-38
0.33907336 -0.1286388338 -0.252905786 2.341805152e-38
0.317825079 -0.1876178682 -0.2331927568 2.341805152e-38
0.2914401293 -0.01848633587 -0.1899986267 2.341805152e-38
0.2214445621 0.06448455155 -0.1687481105 2.341805152e-38
0.115782246 0.09709300101 -0.1541465521 2.341805152e-38
-0.1453210413 -0.001786485314 0.06632322073 2.341805152e-38
-0.1633809805 -0.1045830101 0.08692747355 2.341805152e-38
-0.1739284694 -0.2274514288 0.09697620571 2.341805152e-38
-0.1622958481 -0.2153572589 0.02249708772 2.341805152e-38
-0.1545041502 -0.127617389 -0.05141283572 2.341805152e-38
-0.1697767526 -0.03827495873 -0.09249998629 2.341805152e-38
-0.1750025153 0.03294442594 -0.1517412812 2.341805152e-38
-0.1912661046 0.118672207 -0.2190705687 2.341805152e-38
-0.01737208664 -0.00273925066 -0.09548130631 2.341805152e-38
-0.1005464047 -0.1101582348 -0.1064999402 2.341805152e-38
-0.1255777478 -0.2117742151 -0.1133846343 2.341805152e-38
-0.1293029934 -0.2715737522 -0.170763433 2.341805152e-38
-0.1687284559 -0.1924054772 -0.1082968116 2.341805152e-38
-0.1915686727 -0.09838605672 -0.1523479223 2.341805152e-38
-0.1934683174 0.003874048591 -0.1928630173 2.341805152e-38
-0.21293661 0.1034309417 -0.222118333 2.341805152e-38
0.1828448623 -0.1233314872 -0.1582368314 2.341805152e-38
-0.02584122121 -0.1964179724 -0.1996605545 2.341805152e-38
-0.09197966009 -0.2329652607 -0.2075669318 2.341805152e-38
-0.131111294 -0.2865383625 -0.2114875764 2.341805152e-38
-0.1539658308 -0.2736231089 -0.2226786911 2.341805152e-38
-0.1881711781 -0.1903159767 -0.1846771985 2.341805152e-38
-0.1937346756 -0.05250620842 -0.2076211274 2.341805152e-38
-0.2258235067 0.04185253382 -0.222006768 2.341805152e-38
0.315764308 -0.214401111 -0.1639838517 2.341805152e-38
0.1696708649 -0.237082243 -0.2053741664 2.341805152e-38
0.07953892648 -0.2901322246 -0.2016967386 2.341805152e-38
-0.05140401423 -0.3062332273 -0.2007683367 2.341805152e-38
-0.112862505 -0.3158681393 -0.2224525213 2.341805152e-38
-0.1799454689 -0.2636927366 -0.2102909684 2.341805152e-38
-0.1900004745 -0.1366541684 -0.2151792198 2.341805152e-38
-0.2104354054 -0.0002726912498 -0.2225017399 2.341805152e-38
0.3857455254 -0.2182712406 -0.1788363755 2.341805152e-38
0.3082870841 -0.2555689216 -0.1988002658 2.341805152e-38
0.2213216573 -0.290070951 -0.222058773 2.341805152e-38
0.1216589063 -0.3060441017 -0.2208068967 2.341805152e-38
0.03162971139 -0.31864959 -0.231906563 2.341805152e-38
-0.1364384592 -0.3224685788 -0.2088724524 2.341805152e-38
-0.1384648085 -0.1890643537 -0.2107051462 2.341805152e-38
-0.1578553021 -0.02959831059 -0.1932014823 2.341805152e-38
0.385902822 -0.09522484988 -0.1734570265 2.341805152e-38
0.3707225323 -0.2143096626 -0.2032476366 2.341805152e-38
0.2888767719 -0.2307785898 -0.2284396589 2.341805152e-38
0.2222318202 -0.2567822337 -0.231011793 2.341805152e-38
0.1302830428 -0.2559218407 -0.2267678678 2.341805152e-38
0.07979507744 -0.260332942 -0.2041254789 2.341805152e-38
-0.0827389732 -0.1218209937 -0.1957119703 2.341805152e-38
-0.1284537017 0.02203953266 -0.1778586358 2.341805152e-38
0.3577855229 0.04352238774 -0.1764889508 2.341805152e-38
0.3655842543 -0.08799831569 -0.1972708255 2.341805152e-38
0.3269711733 -0.1599866152 -0.2147329152 2.341805152e-38
0.2687209249 -0.1775477082 -0.2257191539 2.341805152e-38
0.2222573906 -0.2183173597 -0.2279408425 2.341805152e-38
0.1961562186 -0.1973144561 -0.1918561757 2.341805152e-38
0.05492469668 -0.01039591432 -0.1687429845 2.341805152e-38
-0.06350399554 0.07727535069 -0.1614480913 2.341805152e-38
0.3525571227 0.1122829169 -0.1890106201 2.341805152e-38
0.3483499885 0.04502466321 -0.192848593 2.341805152e-38
0.3455021977 -0.03935997188 -0.2156405449 2.341805152e-38
0.2933200002 -0.1290195882 -0.2317332178 2.341805152e-38
0.273597002 -0.1897114366 -0.2158703804 2.341805152e-38
0.2499406189 -0.0143416822 -0.176769197 2.341805152e-38
0.1524036378 0.0770611912 -0.1625803262 2.341805152e-38
0.09289969504 0.1135368198 -0.1561776847 2.341805152e-38
0.03198488802 -0.0008634030819 0.03904926032 2.341805152e-38
-0.1237185597 -0.1249676421 0.140281707 2.341805152e-38
-0.15707618 -0.2035534829 0.1945243329 2.341805152e-38
-0.1874024272 -0.2063560635 0.240478918 2.341805152e-38
-0.1749769747 -0.1363645196 0.1544409543 2.341805152e-38
-0.1849021316 -0.03316549957 0.02205725759 2.341805152e-38
-0.1867478788 0.03242276609 -0.03647826985 2.341805152e-38
-0.1911126375 0.1048410386 -0.1506177038 2.341805152e-38
0.1869372278 -0.09834724665 0.01987451315 2.341805152e-38
-0.02742441744 -0.1309444159 0.04402026534 2.341805152e-38
-0.1271894425 -0.2176312506 0.07555568218 2.341805152e-38
-0.1505149454 -0.2906273007 -0.02316590026 2.341805152e-38
-0.1679448634 -0.1635459214 -0.03536932543 2.341805152e-38
-0.1892380416 -0.1452880055 -0.07109351456 2.341805152e-38
-0.1988937408 -0.02918991446 -0.1052163392 2.341805152e-38
-0.2000188529 0.07304866612 -0.1631325632 2.341805152e-38
0.246995911 -0.147891283 -0.02596538514 2.341805152e-38
0.0717471242 -0.1883450598 -0.03408543393 2.341805152e-38
-0.03317100927 -0.2620141506 -0.02511800081 2.341805152e-38
-0.09994068742 -0.3191652894 -0.1067973003 2.341805152e-38
-0.1662858129 -0.3182665706 -0.1345952153 2.341805152e-38
-0.1737592518 -0.2037321031 -0.1183661222 2.341805152e-38
-0.1867356598 -0.1340884119 -0.1143614501 2.341805152e-38
-0.2061385214 0.02448761463 -0.1549628228 2.341805152e-38
0.2830116749 -0.1975938231 -0.09003901482 2.341805152e-38
0.2018704861 -0.2544172108 -0.1212320253 2.341805152e-38
0.1056439281 -0.3166718483 -0.1145345271 2.341805152e-38
0.003962270916 -0.3350034058 -0.1417704821 2.341805152e-38
-0.1399483979 -0.3252773881 -0.1667792648 2.341805152e-38
-0.1661959887 -0.3203212917 -0.1852072328 2.341805152e-38
-0.164608568 -0.2045660913 -0.1613820195 2.341805152e-38
-0.1826261282 -0.0330696255 -0.1676931679 2.341805152e-38
0.3330782652 -0.1967458576 -0.1019677371 2.341805152e-38
0.2806023955 -0.2766421139 -0.1391194463 2.341805152e-38
0.2277786881 -0.3119606376 -0.1506698728 2.341805152e-38
0.1676775962 -0.3304247856 -0.1652846634 2.341805152e-38
0.01737744361 -0.3295879364 -0.1797521114 2.341805152e-38
-0.1301482767 -0.3356688619 -0.211564824 2.341805152e-38
-0.2012417018 -0.3216542006 -0.1917873174 2.341805152e-38
-0.145998165 -0.1337578297 -0.1713525355 2.341805152e-38
0.3373484612 -0.08335889876 -0.1034132317 2.341805152e-38
0.3251296282 -0.2183071673 -0.1642766446 2.341805152e-38
0.2802006006 -0.281059742 -0.1896088719 2.341805152e-38
0.2331625968 -0.3065533936 -0.1987556219 2.341805152e-38
0.1543703675 -0.3065469265 -0.2065862119 2.341805152e-38
0.09725189209 -0.3158970475 -0.1918204129 2.341805152e-38
-0.00928055495 -0.2632786036 -0.180862546 2.341805152e-38
-0.1152235568 -0.05743132532 -0.160957858 2.341805152e-38
0.3296496868 0.05000637472 -0.1235335022 2.341805152e-38
0.3286032081 -0.09183785319 -0.1613813341 2.341805152e-38
0.2958653569 -0.2069494128 -0.1888115406 2.341805152e-38
0.251978159 -0.2540110648 -0.2015973628 2.341805152e-38
0.233981058 -0.2787384093 -0.2034388632 2.341805152e-38
0.2734881043 -0.2391162515 -0.188137114 2.341805152e-38
0.1885070056 -0.2513369918 -0.1683339477 2.341805152e-38
0.00608124584 0.07675023377 -0.1371312141 2.341805152e-38
0.3303362131 0.1214730293 -0.1412805319 2.341805152e-38
0.3313746452 0.05204336345 -0.1652230024 2.341805152e-38
0.3112284541 -0.04127134383 -0.1891658306 2.341805152e-38
0.2785789371 -0.2030150294 -0.2063910961 2.341805152e-38
0.2533506751 -0.2631146908 -0.2016119957 2.341805152e-38
0.2618941665 -0.2463567257 -0.1888268888 2.341805152e-38
0.2181649655 0.05451585352 -0.1499690711 2.341805152e-38
0.1481352299 0.1243912131 -0.1514382213 2.341805152e-38
0.004672698677 0.03689652681 0.1208762079 2.341805152e-38
-0.1069301069 -0.2006333917 0.2684125304 2.341805152e-38
-0.1443303227 -0.2703181803 0.3429682255 2.341805152e-38
-0.1778673828 -0.249129951 0.3004480004 2.341805152e-38
-0.165474683 -0.1588235199 0.2499725074 2.341805152e-38
-0.1732851863 -0.02207644284 0.1914099604 2.341805152e-38
-0.1920108646 0.04913294315 0.1113698632 2.341805152e-38
-0.199267149 0.09973742068 -0.01325538009 2.341805152e-38
0.1786600202 -0.1512801945 0.1415417641 2.341805152e-38
-0.02406766266 -0.2440723032 0.2504284978 2.341805152e-38
-0.1151387244 -0.3222826421 0.2455142289 2.341805152e-38
-0.1398850232 -0.3210294843 0.1755666584 2.341805152e-38
-0.1592391133 -0.2820692956 0.1010828316 2.341805152e-38
-0.1542920172 -0.1570769697 0.1239840537 2.341805152e-38
-0.1863400936 -0.05385065079 0.05865232646 2.341805152e-38
-0.2029174268 0.03171919286 -0.04706538841 2.341805152e-38
0.2618821263 -0.1951745003 0.0581715107 2.341805152e-38
0.0406447649 -0.2831505537 0.09400209785 2.341805152e-38
-0.05337964371 -0.3279524744 0.0954888165 2.341805152e-38
-0.09551479667 -0.3401358128 0.05370789766 2.341805152e-38
-0.1272622794 -0.3341132104 -0.005565904081 2.341805152e-38
-0.1483610421 -0.2902698517 -0.05679838359 2.341805152e-38
-0.1629599333 -0.1932050586 -0.01186295599 2.341805152e-38
-0.1915643811 -0.0340333581 -0.03617396578 2.341805152e-38
0.2882217765 -0.27247262 0.01413245499 2.341805152e-38
0.1279238462 -0.3342307806 0.03125171363 2.341805152e-38
0.01971971989 -0.3450250924 0.04305998236 2.341805152e-38
-0.04434015602 -0.3463279605 0.01948466897 2.341805152e-38
-0.1127887592 -0.337582767 -0.05149244517 2.341805152e-38
-0.1203144193 -0.3392224908 -0.08241868764 2.341805152e-38
-0.1762640178 -0.2596251369 -0.06244632974 2.341805152e-38
-0.1724779755 -0.1713284254 -0.0861730054 2.341805152e-38
0.3380786777 -0.2622736394 -0.04664646834 2.341805152e-38
0.2426599711 -0.3350987136 -0.02802814171 2.341805152e-38
0.1104624718 -0.3508263826 -0.0005446001887 2.341805152e-38
0.008737906814 -0.3463967443 -0.02861168608 2.341805152e-38
-0.094751589 -0.3336454332 -0.07300246507 2.341805152e-38
-0.1085673198 -0.3379120231 -0.132271409 2.341805152e-38
-0.1830360889 -0.3319926262 -0.1365735978 2.341805152e-38
-0.1808750033 -0.2708470225 -0.1454434693 2.341805152e-38
0.3537597656 -0.1814801991 -0.07626534998 2.341805152e-38
0.3186247349 -0.3290891051 -0.08733696491 2.341805152e-38
0.2335452288 -0.3384775221 -0.07738693804 2.341805152e-38
0.1231851876 -0.3351634443 -0.09289848804 2.341805152e-38
0.001577988267 -0.3330917656 -0.1199928224 2.341805152e-38
-0.08981572092 -0.3346801996 -0.1501348317 2.341805152e-38
-0.1281595975 -0.3463230133 -0.1588675082 2.341805152e-38
-0.1895907819 -0.3134243488 -0.1555205882 2.341805152e-38
0.3326108456 0.08417497575 -0.05196055025 2.341805152e-38
0.3280953169 -0.2146130502 -0.1059416384 2.341805152e-38
0.2858314514 -0.3038032353 -0.1142979711 2.341805152e-38
0.2032210082 -0.30936414 -0.115563795 2.341805152e-38
0.05703777075 -0.3248413801 -0.1397867203 2.341805152e-38
0.03439735621 -0.344760716 -0.1413203776 2.341805152e-38
0.01400661469 -0.3265003562 -0.1068640724 2.341805152e-38
-0.05511902273 -0.3042192459 -0.1335606128 2.341805152e-38
0.3319087029 0.1614908129 -0.08663643152 2.341805152e-38
0.3181874156 0.05808155239 -0.1257290542 2.341805152e-38
0.3091557026 -0.2381349653 -0.1484588087 2.341805152e-38
