# .PCD v0.7 - Point Cloud Data file format
VERSION 0.7
FIELDS x y z rgb
SIZE 4 4 4 4
TYPE F F F F
COUNT 1 1 1 1
WIDTH 815
HEIGHT 1
VIEWPOINT 0 0 0 1 0 0 0
POINTS 815
DATA ascii
0.02620420605 0.06762601435 -0.07916977257 5.820783626e-39
0.02637623437 0.06739326566 -0.07900296897 5.820783626e-39
0.02637787536 0.06741068512 -0.0789841339 5.820783626e-39
0.02638646401 0.06733638793 -0.07900717109 5.820783626e-39
0.02632290497 0.06750933826 -0.07907114178 5.820783626e-39
0.02626308613 0.06738780439 -0.0790521875 5.820783626e-39
0.0262001846 0.06740168482 -0.07907938212 5.820783626e-39
0.02640712261 0.06735100597 -0.07898844779 5.820783626e-39
0.02626224793 0.06729456782 -0.07903166115 5.820783626e-39
0.0262128301 0.06747384369 -0.07912125438 6.490113838e-41
0.02630407736 0.06756874919 -0.079110533 6.490113838e-41
0.02616471611 0.0675201565 -0.07914767414 6.490113838e-41
0.02615717426 0.06754674017 -0.07913515717 6.490113838e-41
0.02636030689 0.06740248948 -0.07901176065 6.490113838e-41
0.02616304532 0.06748235971 -0.07912110537 6.490113838e-41
0.02640738897 0.06734633446 -0.07899031043 6.490113838e-41
0.02623979747 0.06767388433 -0.07918836921 6.490113838e-41
0.02618863806 0.06741546839 -0.07909920067 6.490113838e-41
0.02622939646 0.06740104407 -0.07907150686 6.490113838e-41
0.02636569552 0.06736794114 -0.07901568711 6.490113838e-41
0.02619500086 0.06742025167 -0.07909372449 6.490113838e-41
0.02624122426 0.06733514369 -0.07904582471 6.490113838e-41
0.02618776448 0.0674367249 -0.07910976559 6.490113838e-41
0.02630992234 0.06737266481 -0.07903204113 6.490113838e-41
0.02637560107 0.06739208847 -0.07900538296 6.490113838e-41
0.02620466612 0.06742940098 -0.07910232246 6.490113838e-41
0.02624482289 0.06764083356 -0.07917631418 6.490113838e-41
0.02620269544 0.06736719608 -0.07907897979 6.490113838e-41
0.02618862316 0.06745167077 -0.07912171632 6.490113838e-41
0.02631041594 0.06746495515 -0.07906161994 6.490113838e-41
0.02626234479 0.06761436909 -0.07915563136 6.490113838e-41
0.02639520913 0.06742249429 -0.07895859331 6.490113838e-41
0.02621424012 0.06738821417 -0.07906624675 6.490113838e-41
0.02630842477 0.0675779283 -0.07911185175 6.490113838e-41
0.02630212717 0.06726626307 -0.07902237773 6.490113838e-41
0.02618410811 0.06742405891 -0.07910530269 6.490113838e-41
0.02630545944 0.06733296812 -0.07902081311 6.490113838e-41
0.02616221271 0.06752580404 -0.07914300263 6.490113838e-41
0.02619779669 0.06740415096 -0.07908477634 6.490113838e-41
0.02620628104 0.06735122204 -0.07907539606 6.490113838e-41
0.02617437765 0.06759890169 -0.0791650638 6.490113838e-41
0.02619813196 0.0673828274 -0.07908524573 6.490113838e-41
0.02616564184 0.06750522554 -0.07910108566 6.490113838e-41
0.02631914802 0.06746469438 -0.07905655354 6.490113838e-41
0.02628887072 0.06747601181 -0.07907699049 6.490113838e-41
0.02619723789 0.06756141782 -0.07915523648 6.490113838e-41
0.02625749074 0.06731969863 -0.07903276384 6.490113838e-41
0.02639358491 0.0673943162 -0.07897587121 6.490113838e-41
0.02628703602 0.06727605313 -0.07902386039 6.490113838e-41
0.0261877887 0.06741466373 -0.07910099626 6.490113838e-41
0.02631075308 0.06731502712 -0.07901928574 6.490113838e-41
0.02621212415 0.0673174113 -0.07905674726 6.490113838e-41
0.02615187503 0.0675496459 -0.07911983877 6.490113838e-41
0.02627534978 0.06727711856 -0.07902685553 6.490113838e-41
0.02634704672 0.06728091836 -0.07901920378 6.490113838e-41
0.02618458681 0.06736375391 -0.0790919587 6.490113838e-41
0.0262293797 0.06765453517 -0.07918143272 6.490113838e-41
0.02621271648 0.06739717722 -0.07907167822 6.490113838e-41
0.02616941556 0.06745635718 -0.07911036164 6.490113838e-41
0.0262337327 0.06748493016 -0.07911586761 6.490113838e-41
0.02623517253 0.06738253683 -0.07905377448 6.490113838e-41
0.02630340867 0.0673879832 -0.07904209942 6.490113838e-41
0.02641497925 0.06738172472 -0.0789552927 6.490113838e-41
0.02626413293 0.06736055017 -0.07903187722 6.490113838e-41
0.026248632 0.06764725596 -0.07917879522 6.490113838e-41
0.02616437338 0.06747177243 -0.0791130811 6.490113838e-41
0.02639074251 0.06739234924 -0.07898332924 6.490113838e-41
0.02625729702 0.06730853766 -0.07903262973 6.490113838e-41
0.02627353743 0.06727931648 -0.07902743667 6.490113838e-41
0.02620440163 0.06738661975 -0.07907757908 6.490113838e-41
0.02643476054 0.0673577413 -0.07894307375 6.490113838e-41
0.02621323057 0.06740361452 -0.07907898724 6.490113838e-41
0.02628874592 0.06760521233 -0.07913919538 6.490113838e-41
0.02628209256 0.0673860535 -0.07904531807 6.490113838e-41
0.02638303116 0.06741262227 -0.07897617668 6.490113838e-41
0.02615759149 0.06757181883 -0.07913879305 6.490113838e-41
0.02638297342 0.06737229228 -0.07900667191 6.490113838e-41
0.02615948208 0.06749305874 -0.07911648601 6.490113838e-41
0.0261860881 0.06738346815 -0.07909666747 6.490113838e-41
0.02628362365 0.0672743395 -0.07902481407 6.490113838e-41
0.02624147944 0.06738025695 -0.07905124128 6.490113838e-41
0.02629870549 0.0672750175 -0.07902131975 6.490113838e-41
0.02618813887 0.06753050536 -0.07914893329 6.490113838e-41
0.02625089511 0.06740129739 -0.07906707376 6.490113838e-41
0.02635507844 0.06737143546 -0.0790207535 6.490113838e-41
0.02638931945 0.0673462227 -0.07900770009 6.490113838e-41
0.02620594017 0.06739668548 -0.07907371223 6.490113838e-41
0.02632054128 0.06741002947 -0.07903825492 6.490113838e-41
0.02629693411 0.06728927046 -0.07901976258 6.490113838e-41
0.02634666301 0.06731288135 -0.07901829481 6.490113838e-41
0.02622006461 0.06731198728 -0.07904846966 6.490113838e-41
0.02629376389 0.06729225814 -0.07901991159 6.490113838e-41
0.02620148659 0.06741785258 -0.07909274101 6.490113838e-41
0.02632799186 0.06733941287 -0.07902111113 6.490113838e-41
0.02635957859 0.06729729474 -0.07901506871 6.490113838e-41
0.0261807479 0.06742678583 -0.07910855114 6.490113838e-41
0.02619816363 0.06735371053 -0.07908142358 6.490113838e-41
0.02633643709 0.06727139652 -0.07902144641 6.490113838e-41
0.02644638903 0.0673732236 -0.0789309144 6.490113838e-41
0.02635213919 0.06728932261 -0.07901742309 6.490113838e-41
0.02617188357 0.06755810976 -0.0791573301 6.490113838e-41
0.02616055682 0.06749123335 -0.07911361009 6.490113838e-41
0.02626471221 0.06740431488 -0.07906398177 6.490113838e-41
0.02615532838 0.06751965731 -0.07911790907 6.490113838e-41
0.0261664819 0.0674681589 -0.07911501825 6.490113838e-41
0.02620816976 0.06736734509 -0.07907355577 6.490113838e-41
0.02615393139 0.06753857434 -0.07912465185 6.490113838e-41
0.02630882524 0.0673353076 -0.07902074605 6.490113838e-41
0.02618532069 0.06738170981 -0.07909645885 6.490113838e-41
0.0263207145 0.06737869978 -0.0790335983 6.490113838e-41
0.02634436265 0.06739235669 -0.07902469486 6.490113838e-41
0.02618939057 0.06746149063 -0.07912638038 6.490113838e-41
0.02624858171 0.06742227823 -0.0790778622 6.490113838e-41
0.02626532875 0.06736228615 -0.07903259993 6.490113838e-41
0.02629676461 0.06725030392 -0.07902500033 6.490113838e-41
0.02645578608 0.06735838205 -0.07892837375 6.490113838e-41
0.02616144903 0.06750052422 -0.07910855114 6.490113838e-41
0.026232481 0.06766489893 -0.07918520272 6.490113838e-41
0.02635790594 0.06743641198 -0.07900514454 6.490113838e-41
0.02615589462 0.06751603633 -0.07911753654 6.490113838e-41
0.02632413991 0.06755941361 -0.07909353822 6.490113838e-41
0.02628304809 0.06724053621 -0.07902785391 6.490113838e-41
0.02619173937 0.06734098494 -0.07907956094 6.490113838e-41
0.02620865032 0.06733106822 -0.07906550914 6.490113838e-41
0.0263351053 0.06739357114 -0.07903071493 6.490113838e-41
0.02630263567 0.06737446785 -0.07903397083 6.490113838e-41
0.02642263472 0.06734153628 -0.07895908505 6.490113838e-41
0.02637953125 0.0673488304 -0.07901208848 6.490113838e-41
0.02641661651 0.06735046953 -0.07896968722 6.490113838e-41
0.02617009357 0.06747850776 -0.07913436741 6.490113838e-41
0.02624824643 0.06736472994 -0.0790406242 6.490113838e-41
0.02618080005 0.06747999787 -0.07913567871 6.490113838e-41
0.02641072497 0.06736873835 -0.07897542417 6.490113838e-41
0.02624004707 0.06761280447 -0.07916272432 6.490113838e-41
0.02633567899 0.06738439947 -0.07902984321 6.490113838e-41
0.02620824985 0.06738141179 -0.07907357067 6.490113838e-41
0.02635798045 0.06742442399 -0.07900883257 6.490113838e-41
0.02625581622 0.06764570624 -0.07917677611 6.490113838e-41
0.02618065663 0.06740101427 -0.0791016221 6.490113838e-41
0.0262752939 0.06747491658 -0.07908393443 6.490113838e-41
0.02617068216 0.06746719033 -0.07911948115 6.490113838e-41
0.02617651969 0.06756666303 -0.07915826887 6.490113838e-41
0.02618980967 0.06739058346 -0.07909663767 6.490113838e-41
0.02616563998 0.06748008728 -0.07912798226 6.490113838e-41
0.02621646598 0.06742826849 -0.07909867167 6.490113838e-41
0.02616050839 0.06755479425 -0.07914233953 6.490113838e-41
0.02634727955 0.06736741215 -0.079024598 6.490113838e-41
0.02622447163 0.06760893017 -0.07916595787 6.490113838e-41
0.02628462762 0.06727419049 -0.07902466506 6.490113838e-41
0.02637900971 0.06738336384 -0.07900579274 6.490113838e-41
0.02620867267 0.06748019159 -0.0791246444 6.490113838e-41
0.02618937194 0.06757104397 -0.07915709168 6.490113838e-41
0.0264472682 0.06735569239 -0.07893460989 6.490113838e-41
0.02639799006 0.06740673631 -0.07896073163 6.490113838e-41
0.026418617 0.06738017499 -0.07895153761 6.490113838e-41
0.0262670368 0.06746806204 -0.07908561081 6.490113838e-41
0.02617824078 0.06745349616 -0.07911816984 6.490113838e-41
0.02639915608 0.0673347041 -0.07899864763 6.490113838e-41
0.02620580234 0.06739858538 -0.07907412946 6.490113838e-41
0.02624570578 0.06734123081 -0.07904501259 6.490113838e-41
0.02637159638 0.06740351021 -0.07900153846 6.490113838e-41
0.02623821236 0.06763750315 -0.079175964 6.490113838e-41
0.02627421729 0.0675932318 -0.07913876325 6.490113838e-41
0.02621668763 0.06757190824 -0.07915469259 6.490113838e-41
0.02631553076 0.06735479832 -0.07902546972 6.490113838e-41
0.02617289498 0.06747300178 -0.07909540832 6.490113838e-41
0.02632110752 0.06748690456 -0.0790637657 6.490113838e-41
0.02632518858 0.06730523705 -0.07901972532 6.490113838e-41
0.0263533853 0.06738102436 -0.07901994139 6.490113838e-41
0.02615548111 0.06752254069 -0.0791137144 6.490113838e-41
0.02634373121 0.06738197803 -0.07902555913 6.490113838e-41
0.02621233463 0.06735125184 -0.07907056063 6.490113838e-41
0.02631479874 0.06733752787 -0.07902064174 6.490113838e-41
0.02616159432 0.06755572557 -0.07914672792 6.490113838e-41
0.026163809 0.06755007803 -0.07915311307 6.490113838e-41
0.026246842 0.06734117121 -0.07904424518 6.490113838e-41
0.02617764473 0.06745682657 -0.07912117988 6.490113838e-41
0.02644198015 0.06739587337 -0.0789303109 6.490113838e-41
0.02619009838 0.0674104616 -0.07909811288 6.490113838e-41
0.0264088437 0.0673673898 -0.0789803192 6.490113838e-41
0.02626458928 0.06728368253 -0.07903023809 6.490113838e-41
0.02636282146 0.06743629277 -0.0789976269 6.490113838e-41
0.0263182316 0.06735949963 -0.07902653515 6.490113838e-41
0.02622448467 0.06735961139 -0.07906057686 6.490113838e-41
0.02619889751 0.06739296764 -0.07908456773 6.490113838e-41
0.02636360191 0.0674039647 -0.07900944352 6.490113838e-41
0.0263873525 0.0673462972 -0.07900848985 6.490113838e-41
0.02632561885 0.06742297858 -0.07903736085 6.490113838e-41
0.02634629048 0.06730618328 -0.07901867479 6.490113838e-41
0.02627878077 0.06746575236 -0.07907770574 6.490113838e-41
0.02615383081 0.06753458083 -0.07912337035 6.490113838e-41
0.02616098337 0.06748750061 -0.07911460847 6.490113838e-41
0.02623349987 0.06755686551 -0.07914357632 6.490113838e-41
0.02618122101 0.06744278222 -0.07910803705 6.490113838e-41
0.02625317127 0.06741757691 -0.07907363027 6.490113838e-41
0.02625851706 0.06725960225 -0.07902858406 6.490113838e-41
0.02640138008 0.06741662323 -0.0789546892 6.490113838e-41
0.02621215768 0.06738850474 -0.07906788588 6.490113838e-41
0.02624269947 0.06765202433 -0.07918063551 6.490113838e-41
0.02628164366 0.06753963977 -0.07910949737 6.490113838e-41
0.02619503066 0.06741238385 -0.07908605039 6.490113838e-41
0.02619797736 0.06735897064 -0.07908315957 6.490113838e-41
0.02640812844 0.06736081094 -0.07898671925 6.490113838e-41
0.02619787678 0.06741297245 -0.07908695936 6.490113838e-41
0.02620267868 0.06739424169 -0.07907924056 6.490113838e-41
0.0263277851 0.06740024686 -0.07903474569 6.490113838e-41
0.02636383288 0.06743916869 -0.07899546623 6.490113838e-41
0.02616199292 0.06747985631 -0.07911588997 6.490113838e-41
0.02619433589 0.06741635501 -0.07908891886 6.490113838e-41
0.02634380758 0.06735021621 -0.07902133465 6.490113838e-41
0.02631104738 0.06741131097 -0.07904329896 6.490113838e-41
0.02615235373 0.06755393744 -0.07912216336 6.490113838e-41
0.02622347139 0.06732349098 -0.07905313373 6.490113838e-41
0.02630191483 0.06735832244 -0.0790238753 6.490113838e-41
0.02635575831 0.06746445596 -0.0790161714 6.490113838e-41
0.02616421692 0.06754278392 -0.07915165275 6.490113838e-41
0.02619835176 0.06754012406 -0.07914768904 6.490113838e-41
0.02618919685 0.06738878787 -0.07909660786 6.490113838e-41
0.02620373294 0.06762548536 -0.07916964591 6.490113838e-41
0.02625859901 0.06744907796 -0.07908190787 6.490113838e-41
0.02629155293 0.06758690625 -0.07912703604 6.490113838e-41
0.02618975379 0.06742133945 -0.07909592986 6.490113838e-41
0.02628814802 0.06733722985 -0.07901970297 6.490113838e-41
0.02621696889 0.06751291454 -0.07913347334 6.490113838e-41
0.02626849152 0.0673270449 -0.0790258497 6.490113838e-41
0.02618016861 0.06744527817 -0.07910894603 6.490113838e-41
0.02639679797 0.06736591458 -0.07899967581 6.490113838e-41
0.02618048526 0.06744249165 -0.07910703123 6.490113838e-41
0.02623353712 0.06736331433 -0.07905199379 6.490113838e-41
0.02638565004 0.06744173169 -0.078966178 6.490113838e-41
0.02640509047 0.06739768386 -0.07895795256 6.490113838e-41
0.0263449382 0.06748068333 -0.07903879881 6.490113838e-41
0.02623823471 0.06737025827 -0.07904740423 6.490113838e-41
0.02634574287 0.06739369035 -0.07902360708 6.490113838e-41
0.02616879344 0.06746433675 -0.07911586761 6.490113838e-41
0.02616869658 0.06750746071 -0.07909172028 6.490113838e-41
0.02638646029 0.06733705103 -0.07900710404 6.490113838e-41
0.02629848197 0.06738332659 -0.07904014736 6.490113838e-41
0.02630420588 0.06739149243 -0.07904361188 6.490113838e-41
0.02615859732 0.06755791605 -0.07913903147 6.490113838e-41
0.02634353004 0.0675034821 -0.0790489763 6.490113838e-41
0.02618477307 0.06742677838 -0.07910270244 6.490113838e-41
0.02630908787 0.06736633927 -0.07902707905 6.490113838e-41
0.02628916502 0.06740581244 -0.07905222476 6.490113838e-41
0.02643009461 0.06739918888 -0.07893767953 6.490113838e-41
0.02628824674 0.06731544435 -0.07902038097 6.490113838e-41
0.02616031282 0.0675355196 -0.07909987867 6.490113838e-41
0.02634626813 0.0673475042 -0.0790200457 6.490113838e-41
0.02633771114 0.06735359877 -0.07902354002 6.490113838e-41
0.02640376054 0.06738625467 -0.07896776497 6.490113838e-41
0.02637597919 0.06740636379 -0.07899343967 6.490113838e-41
0.02615312673 0.0675464496 -0.07911620289 6.490113838e-41
0.02628879063 0.06740263104 -0.07905190438 6.490113838e-41
0.02628983185 0.06724495441 -0.07902712375 6.490113838e-41
0.02637557685 0.067334719 -0.07901116461 6.490113838e-41
0.02646960877 0.06737371534 -0.07891365886 6.490113838e-41
0.02620409615 0.06762582064 -0.07916975021 6.490113838e-41
0.02637783438 0.06739334762 -0.0790026933 6.490113838e-41
0.02637935989 0.06741052866 -0.07898362726 6.490113838e-41
0.02638779394 0.06733644009 -0.07900639623 6.490113838e-41
0.02632459998 0.06750889122 -0.07907067984 6.490113838e-41
0.02626464516 0.06738814712 -0.07905141264 6.490113838e-41
0.02620165609 0.0674021095 -0.07907812297 6.490113838e-41
0.02640852332 0.06735091656 -0.07898781449 6.490113838e-41
0.02626349404 0.06729551405 -0.07903019339 6.490113838e-41
0.02621284313 0.06747380644 -0.07912125438 5.962428276e-39
0.02630406618 0.06756864488 -0.07911052555 5.962428276e-39
0.02616471611 0.06752016395 -0.07914767414 5.962428276e-39
0.02615719475 0.06754675508 -0.07913514972 5.962428276e-39
0.02636032365 0.06740246713 -0.0790117234 5.962428276e-39
0.02616307139 0.06748237461 -0.07912111282 5.962428276e-39
0.02640740946 0.06734630466 -0.07899031788 5.962428276e-39
0.02623975091 0.06767385453 -0.07918838412 5.962428276e-39
0.02618869394 0.06741549075 -0.07909919322 5.962428276e-39
0.02622942813 0.06740102172 -0.07907150686 5.962428276e-39
0.02636571229 0.06736790389 -0.07901566476 5.962428276e-39
0.02619504742 0.06742024422 -0.07909371704 5.962428276e-39
0.02624127083 0.06733512878 -0.07904582471 5.962428276e-39
0.02618780732 0.06743673235 -0.07910976559 5.962428276e-39
0.02630993538 0.06737263501 -0.07903201878 5.962428276e-39
0.02637562156 0.06739205867 -0.07900536805 5.962428276e-39
0.02620470524 0.06742937863 -0.07910232246 5.962428276e-39
0.02624478377 0.06764078885 -0.07917634398 5.962428276e-39
0.02620274201 0.06736721098 -0.07907897979 5.962428276e-39
0.02618866041 0.06745166332 -0.07912171632 5.962428276e-39
0.02631040663 0.0674648881 -0.07906160504 5.962428276e-39
0.02626232989 0.06761429459 -0.07915563881 5.962428276e-39
0.02639522403 0.06742241979 -0.07895863056 5.962428276e-39
0.02621429414 0.06738819182 -0.0790662542 5.962428276e-39
0.02630841359 0.067577824 -0.07911185175 5.962428276e-39
0.02630214766 0.06726625562 -0.07902235538 5.962428276e-39
0.02618416399 0.06742407382 -0.07910529524 5.962428276e-39
0.02630546689 0.06733295321 -0.07902079076 5.962428276e-39
0.02616222575 0.06752581149 -0.07914300263 5.962428276e-39
0.02619785443 0.06740417331 -0.07908477634 5.962428276e-39
0.02620633319 0.06735121459 -0.07907538861 5.962428276e-39
0.02617437579 0.06759890169 -0.07916508615 5.962428276e-39
0.02619818039 0.0673828423 -0.07908523828 5.962428276e-39
0.02616569214 0.06750524044 -0.07910107076 5.962428276e-39
0.02631913684 0.06746463478 -0.07905654609 5.962428276e-39
0.02628886886 0.06747594476 -0.07907696813 5.962428276e-39
0.02619723603 0.06756138057 -0.07915525883 5.962428276e-39
0.02625753917 0.06731968373 -0.07903274894 5.962428276e-39
0.02639360353 0.06739427894 -0.07897590101 5.962428276e-39
0.02628706582 0.06727603823 -0.07902386039 5.962428276e-39
0.02618784271 0.06741469353 -0.07910098881 5.962428276e-39
0.02631076053 0.06731500477 -0.07901927084 5.962428276e-39
0.02621216699 0.0673174113 -0.07905675471 5.962428276e-39
0.0261519216 0.06754965335 -0.07911982387 5.962428276e-39
0.02627538145 0.06727710366 -0.07902685553 5.962428276e-39
0.02634706162 0.06728088856 -0.07901917398 5.962428276e-39
0.02618465759 0.06736376882 -0.0790919587 5.962428276e-39
0.02622933686 0.06765449047 -0.07918144017 5.962428276e-39
0.02621275187 0.06739716977 -0.07907167077 5.962428276e-39
0.02616949566 0.06745637208 -0.07911034673 5.962428276e-39
0.02623373643 0.06748488545 -0.07911588252 5.962428276e-39
0.02623520792 0.06738252193 -0.07905378193 5.962428276e-39
0.02630343102 0.0673879534 -0.07904207706 5.962428276e-39
0.02641498297 0.06738168746 -0.07895533741 5.962428276e-39
0.02626416832 0.06736052036 -0.07903187722 5.962428276e-39
0.02624858357 0.06764718145 -0.07917880267 5.962428276e-39
0.0261644125 0.06747178733 -0.07911307365 5.962428276e-39
0.02639075555 0.06739231199 -0.07898335159 5.962428276e-39
0.02625734359 0.06730852276 -0.07903261483 5.962428276e-39
0.02627357095 0.06727930903 -0.07902742922 5.962428276e-39
0.02620445378 0.06738663465 -0.07907757908 5.962428276e-39
0.02643475495 0.06735768169 -0.07894311845 5.962428276e-39
0.02621326223 0.06740358472 -0.07907898724 5.962428276e-39
0.02628871612 0.06760511547 -0.07913919538 5.962428276e-39
0.02628212981 0.0673860237 -0.07904531062 5.962428276e-39
0.02638304606 0.06741258502 -0.07897620648 5.962428276e-39
0.02615763061 0.06757182628 -0.0791387856 5.962428276e-39
0.02638298832 0.06737226248 -0.0790066421 5.962428276e-39
0.02615952119 0.06749306619 -0.07911648601 5.962428276e-39
0.02618614212 0.0673834905 -0.07909667492 5.962428276e-39
0.02628365532 0.06727433205 -0.07902480662 5.962428276e-39
0.02624150738 0.0673802495 -0.07905124128 5.962428276e-39
0.02629872598 0.0672750026 -0.0790212974 5.962428276e-39
0.02618812211 0.06753048301 -0.07914896309 5.962428276e-39
0.02625093609 0.06740126759 -0.07906707376 5.962428276e-39
0.0263551008 0.06737140566 -0.07902073115 5.962428276e-39
0.02638933435 0.06734618545 -0.07900767028 5.962428276e-39
0.0262060035 0.06739667058 -0.07907371223 5.962428276e-39
0.0263205599 0.06740999967 -0.07903824002 5.962428276e-39
0.02629695833 0.06728926301 -0.07901973277 5.962428276e-39
0.02634667046 0.06731285155 -0.07901825756 5.962428276e-39
0.02622010559 0.06731197983 -0.07904846966 5.962428276e-39
0.02629379928 0.06729225069 -0.07901990414 5.962428276e-39
0.02620152757 0.06741783768 -0.07909273356 5.962428276e-39
0.02632800676 0.06733939797 -0.07902107388 5.962428276e-39
0.02635958232 0.06729726493 -0.07901503891 5.962428276e-39
0.02618081495 0.06742680073 -0.07910853624 5.962428276e-39
0.0261982251 0.06735373288 -0.07908142358 5.962428276e-39
0.02633644082 0.06727137417 -0.07902142406 5.962428276e-39
0.02644639835 0.06737314165 -0.07893095165 5.962428276e-39
0.02635214292 0.06728930026 -0.07901739329 5.962428276e-39
0.02617188543 0.06755810231 -0.079157345 5.962428276e-39
0.0261605978 0.0674912408 -0.07911358774 5.962428276e-39
0.02626474947 0.06740428507 -0.07906398922 5.962428276e-39
0.02615537122 0.06751967221 -0.07911788672 5.962428276e-39
0.02616654895 0.0674681738 -0.07911500335 5.962428276e-39
0.0262082126 0.06736733764 -0.07907355577 5.962428276e-39
0.02615396865 0.06753858924 -0.07912463695 5.962428276e-39
0.02630884387 0.06733528525 -0.07902071625 5.962428276e-39
0.02618537471 0.06738173217 -0.0790964663 5.962428276e-39
0.02632074244 0.06737865508 -0.0790335685 5.962428276e-39
0.02634438127 0.06739231944 -0.07902467251 5.962428276e-39
0.02618942223 0.06746146828 -0.07912639529 5.962428276e-39
0.02624860406 0.06742224097 -0.0790778771 5.962428276e-39
0.0262653511 0.0673622638 -0.07903259993 5.962428276e-39
0.02629679814 0.06725029647 -0.07902500033 5.962428276e-39
0.02645579167 0.06735830009 -0.07892841846 5.962428276e-39
0.02616150118 0.06750053912 -0.07910854369 5.962428276e-39
0.0262324363 0.06766486168 -0.07918521017 5.962428276e-39
0.02635791525 0.06743635982 -0.07900518924 5.962428276e-39
0.02615593746 0.06751605123 -0.07911751419 5.962428276e-39
0.02632412314 0.0675593093 -0.07909355313 5.962428276e-39
0.02628308348 0.06724055856 -0.07902786136 5.962428276e-39
0.02619178034 0.06734100729 -0.07907956839 5.962428276e-39
0.02620869689 0.06733106077 -0.07906550914 5.962428276e-39
0.02633512765 0.06739354879 -0.07903069258 5.962428276e-39
0.02630265057 0.06737443805 -0.07903395593 5.962428276e-39
0.0264226459 0.06734148413 -0.0789591223 5.962428276e-39
0.02637954615 0.06734879315 -0.07901205122 5.962428276e-39
0.02641663514 0.06735043228 -0.07896971703 5.962428276e-39
0.02617013082 0.06747852266 -0.07913436741 5.962428276e-39
0.02624828927 0.06736471504 -0.07904063165 5.962428276e-39
0.02618082426 0.06747997552 -0.07913568616 5.962428276e-39
0.02641074173 0.0673687011 -0.07897546142 5.962428276e-39
0.02624003775 0.06761275232 -0.07916273177 5.962428276e-39
0.02633571066 0.06738436222 -0.07902982086 5.962428276e-39
0.02620830014 0.06738140434 -0.07907357067 5.962428276e-39
0.02635799162 0.06742437184 -0.07900883257 5.962428276e-39
0.02625576779 0.06764562428 -0.07917678356 5.962428276e-39
0.02618071623 0.06740104407 -0.0791016221 5.962428276e-39
0.0262752939 0.06747486442 -0.07908391207 5.962428276e-39
0.02617073804 0.06746720523 -0.0791194886 5.962428276e-39
0.0261765141 0.06756664068 -0.07915829122 5.962428276e-39
0.02618985809 0.06739059836 -0.07909663022 5.962428276e-39
0.0261656642 0.06748010218 -0.07912799716 5.962428276e-39
0.02621650323 0.06742823869 -0.07909867913 5.962428276e-39
0.02616052888 0.06755480915 -0.07914233208 5.962428276e-39
0.02634729445 0.06736738235 -0.0790245682 5.962428276e-39
0.02622444928 0.06760889292 -0.07916598767 5.962428276e-39
0.02628465742 0.06727418303 -0.07902465761 5.962428276e-39
0.02637902275 0.06738332659 -0.07900576293 5.962428276e-39
0.02620868944 0.06748016924 -0.07912465185 5.962428276e-39
0.02618936822 0.06757101417 -0.07915711403 5.962428276e-39
0.02644726261 0.06735561043 -0.07893465459 5.962428276e-39
0.02639800124 0.06740666926 -0.07896076143 5.962428276e-39
0.02641862258 0.06738012284 -0.07895158976 5.962428276e-39
0.02626704052 0.06746800989 -0.07908560336 5.962428276e-39
0.02617828175 0.06745351106 -0.07911816984 5.962428276e-39
0.02639917098 0.06733466685 -0.07899864763 5.962428276e-39
0.0262058489 0.06739856303 -0.07907412201 5.962428276e-39
0.02624575235 0.06734122336 -0.07904501259 5.962428276e-39
0.02637161687 0.06740348041 -0.079001531 5.962428276e-39
0.02623817325 0.06763746589 -0.07917598635 5.962428276e-39
0.02627419122 0.06759315729 -0.07913876325 5.962428276e-39
0.0262166746 0.06757187843 -0.07915471494 5.962428276e-39
0.02631556243 0.06735478342 -0.07902542502 5.962428276e-39
0.026172949 0.06747301668 -0.07909539342 5.962428276e-39
0.02632109448 0.06748684496 -0.0790637657 5.962428276e-39
0.02632519603 0.06730522215 -0.07901969552 5.962428276e-39
0.02635340393 0.06738099456 -0.07901991159 5.962428276e-39
0.02615553327 0.06752255559 -0.0791136995 5.962428276e-39
0.02634375356 0.06738194078 -0.07902555168 5.962428276e-39
0.02621238679 0.06735124439 -0.07907055318 5.962428276e-39
0.02631481737 0.06733750552 -0.07902061194 5.962428276e-39
0.02616161294 0.06755574048 -0.07914672792 5.962428276e-39
0.02616380714 0.06755009294 -0.07915311307 5.962428276e-39
0.02624688856 0.0673411563 -0.07904424518 5.962428276e-39
0.02617768943 0.06745683402 -0.07912117988 5.962428276e-39
0.02644200251 0.06739579886 -0.07893034816 5.962428276e-39
0.0261901468 0.06741048396 -0.07909810543 5.962428276e-39
0.02640884928 0.06736735255 -0.07898035645 5.962428276e-39
0.02626462653 0.06728366762 -0.07903022319 5.962428276e-39
0.02636283077 0.06743624061 -0.07899767905 5.962428276e-39
0.02631824836 0.06735947728 -0.07902649045 5.962428276e-39
0.02622453123 0.06735958904 -0.07906057686 5.962428276e-39
0.0261989478 0.06739298254 -0.07908456028 5.962428276e-39
0.02636361681 0.0674039349 -0.07900941372 5.962428276e-39
0.0263873674 0.06734625995 -0.07900846004 5.962428276e-39
0.02632561326 0.06742292643 -0.0790373385 5.962428276e-39
0.02634629607 0.06730615348 -0.07901863754 5.962428276e-39
0.02627877146 0.06746569276 -0.07907768339 5.962428276e-39
0.02615387365 0.06753459573 -0.07912335545 5.962428276e-39
0.02616102807 0.06748750806 -0.07911458611 5.962428276e-39
0.02623352222 0.06755682826 -0.07914357632 5.962428276e-39
0.02618127316 0.06744280457 -0.07910803705 5.962428276e-39
0.02625319362 0.06741753221 -0.07907364517 5.962428276e-39
0.02625855058 0.0672596246 -0.07902856916 5.962428276e-39
0.02640140057 0.06741655618 -0.07895471901 5.962428276e-39
0.02621221356 0.06738848984 -0.07906788588 5.962428276e-39
0.02624265291 0.06765199453 -0.07918065041 5.962428276e-39
0.02628163807 0.06753958017 -0.07910948992 5.962428276e-39
0.02619509026 0.06741240621 -0.07908605784 5.962428276e-39
0.02619803883 0.06735898554 -0.07908315957 5.962428276e-39
0.02640814893 0.06736078113 -0.0789867267 5.962428276e-39
0.02619792335 0.06741295755 -0.07908695191 5.962428276e-39
0.02620272711 0.06739425659 -0.07907924801 5.962428276e-39
0.02632780373 0.06740021706 -0.07903472334 5.962428276e-39
0.02636383474 0.06743911654 -0.07899551839 5.962428276e-39
0.02616202086 0.06747987121 -0.07911588997 5.962428276e-39
0.02619438246 0.06741634756 -0.07908891141 5.962428276e-39
0.02634383366 0.06735018641 -0.07902128994 5.962428276e-39
0.026311066 0.06741127372 -0.07904328406 5.962428276e-39
0.02615240216 0.06755394489 -0.07912214845 5.962428276e-39
0.02622351237 0.06732347608 -0.07905314118 5.962428276e-39
0.02630195394 0.06735830009 -0.07902383059 5.962428276e-39
0.02635575086 0.06746439636 -0.0790162161 5.962428276e-39
0.02616421692 0.06754279137 -0.07915165275 5.962428276e-39
0.02619834803 0.06754009426 -0.0791477114 5.962428276e-39
0.02618924156 0.06738881022 -0.07909661531 5.962428276e-39
0.02620370872 0.06762544811 -0.07916968316 5.962428276e-39
0.02625861019 0.06744902581 -0.07908191532 5.962428276e-39
0.02629154548 0.0675868094 -0.07912703604 5.962428276e-39
0.02618980594 0.0674213618 -0.07909592986 5.962428276e-39
0.02628816478 0.0673372075 -0.07901966572 5.962428276e-39
0.02621697634 0.06751289964 -0.07913348079 5.962428276e-39
0.02626854181 0.06732703 -0.0790258497 5.962428276e-39
0.02618022449 0.06744529307 -0.07910895348 5.962428276e-39
0.0263968017 0.06736587733 -0.07899969071 5.962428276e-39
0.02618054114 0.06744250655 -0.07910703868 5.962428276e-39
0.02623358369 0.06736329943 -0.07905200124 5.962428276e-39
0.02638567239 0.06744166464 -0.07896621525 5.962428276e-39
0.0264051035 0.0673976317 -0.07895798981 5.962428276e-39
0.0263449233 0.06748062372 -0.07903885096 5.962428276e-39
0.02623828128 0.06737025082 -0.07904741168 5.962428276e-39
0.0263457559 0.06739365309 -0.07902358472 5.962428276e-39
0.0261688605 0.06746435165 -0.07911585271 5.962428276e-39
0.02616873942 0.06750747561 -0.07909171283 5.962428276e-39
0.02638647519 0.06733701378 -0.07900707424 5.962428276e-39
0.02629850246 0.06738329679 -0.07904012501 5.962428276e-39
0.02630423196 0.06739145517 -0.07904358208 5.962428276e-39
0.02615861781 0.06755793095 -0.07913901657 5.962428276e-39
0.02634351328 0.0675034225 -0.07904902846 5.962428276e-39
0.02618483081 0.06742679328 -0.07910269499 5.962428276e-39
0.0263091065 0.06736630946 -0.07902705669 5.962428276e-39
0.02628919296 0.06740577519 -0.07905219495 5.962428276e-39
0.02643010393 0.06739910692 -0.07893771678 5.962428276e-39
0.02628827468 0.0673154369 -0.07902035117 5.962428276e-39
0.02616035193 0.06753554195 -0.07909987122 5.962428276e-39
0.0263462849 0.0673474744 -0.07902000844 5.962428276e-39
0.02633773349 0.06735357642 -0.07902349532 5.962428276e-39
0.02640376985 0.06738620996 -0.07896780968 5.962428276e-39
0.02637599036 0.06740632653 -0.07899345458 5.962428276e-39
0.02615317702 0.0675464645 -0.07911618054 5.962428276e-39
0.02628882043 0.06740260124 -0.07905188203 5.962428276e-39
0.02628986165 0.06724496186 -0.07902712375 5.962428276e-39
0.02637559362 0.06733468175 -0.0790111348 5.962428276e-39
0.02646963112 0.06737364084 -0.07891371101 5.962428276e-39
0.02620407194 0.06762579083 -0.07916978747 5.962428276e-39
0.02637785673 0.06739331782 -0.07900267839 5.962428276e-39
0.02637938038 0.06741049141 -0.07898364961 5.962428276e-39
0.02638780884 0.06733639538 -0.07900637388 5.962428276e-39
0.02632457949 0.06750883162 -0.07907067984 5.962428276e-39
0.02626467496 0.06738813221 -0.07905141264 5.962428276e-39
0.02620172314 0.06740210205 -0.07907812297 5.962428276e-39
0.02640854381 0.06735088676 -0.07898781449 5.962428276e-39
0.02626353502 0.06729549915 -0.07903017849 5.962428276e-39
0.02621404827 0.06747500598 -0.07912172377 1.184631237e-38
0.02630522102 0.06756905466 -0.07911060005 1.184631237e-38
0.02616577968 0.06752131879 -0.07914801687 1.184631237e-38
0.02615845762 0.06754793972 -0.07913514227 1.184631237e-38
0.02636166848 0.06740363687 -0.07901176065 1.184631237e-38
0.02616427094 0.06748364121 -0.07912122458 1.184631237e-38
0.02640902624 0.06734742969 -0.07899026573 1.184631237e-38
0.02624045871 0.06767442822 -0.07918871939 1.184631237e-38
0.02619039267 0.06741657108 -0.0790996328 1.184631237e-38
0.02623080835 0.06740254164 -0.07907182723 1.184631237e-38
0.02636736073 0.06736905873 -0.0790156424 1.184631237e-38
0.02619633451 0.06742130965 -0.07909383625 1.184631237e-38
0.02624298632 0.06733629107 -0.07904604077 1.184631237e-38
0.02618901618 0.06743792444 -0.07911003381 1.184631237e-38
0.02631150186 0.06737394631 -0.07903212309 1.184631237e-38
0.02637718804 0.06739325821 -0.07900529355 1.184631237e-38
0.02620586194 0.06743063778 -0.07910264283 1.184631237e-38
0.02624558657 0.06764122844 -0.07917676121 1.184631237e-38
0.02620431222 0.06736855209 -0.07907953113 1.184631237e-38
0.02618985809 0.06745294482 -0.07912198454 1.184631237e-38
0.02631146461 0.0674655959 -0.07906159014 1.184631237e-38
0.02626323327 0.06761483848 -0.07915562391 1.184631237e-38
0.02639691532 0.0674232021 -0.07895887643 1.184631237e-38
0.02621612698 0.06738958508 -0.0790662989 1.184631237e-38
0.02630947158 0.06757805496 -0.07911200076 1.184631237e-38
0.0263038855 0.06726765633 -0.07902231812 1.184631237e-38
0.02618552186 0.06742516905 -0.07910578698 1.184631237e-38
0.02630726807 0.06733403355 -0.07902081311 1.184631237e-38
0.02616328001 0.06752693653 -0.07914335281 1.184631237e-38
0.02619975433 0.06740517169 -0.07908488065 1.184631237e-38
0.02620798908 0.06735247374 -0.07907564193 1.184631237e-38
0.02617513202 0.06759963185 -0.07916580141 1.184631237e-38
0.02619968355 0.0673840791 -0.07908567041 1.184631237e-38
0.02616692893 0.06750640273 -0.07910155505 1.184631237e-38
0.02632012218 0.06746542454 -0.07905656099 1.184631237e-38
0.02629004605 0.06747685373 -0.07907705009 1.184631237e-38
0.02619795874 0.06756258756 -0.0791560784 1.184631237e-38
0.02625926211 0.06732086837 -0.07903286815 1.184631237e-38
0.0263950415 0.06739541888 -0.07897619158 1.184631237e-38
0.0262889415 0.06727725267 -0.07902409881 1.184631237e-38
0.02618943341 0.06741590053 -0.07910143584 1.184631237e-38
0.02631256729 0.0673160553 -0.07901940495 1.184631237e-38
0.02621376328 0.06731850654 -0.07905690372 1.184631237e-38
0.02615307271 0.06755096465 -0.07912024856 1.184631237e-38
0.02627732046 0.0672782585 -0.07902703434 1.184631237e-38
0.02634873055 0.06728203595 -0.07901918888 1.184631237e-38
0.02618593909 0.06736497581 -0.07909230888 1.184631237e-38
0.02623003349 0.06765508652 -0.07918176055 1.184631237e-38
0.02621446177 0.06739848107 -0.07907195389 1.184631237e-38
0.02617063373 0.06745756418 -0.07911092043 1.184631237e-38
0.02623482607 0.06748582423 -0.0791163817 1.184631237e-38
0.02623673156 0.06738395244 -0.07905405015 1.184631237e-38
0.02630504593 0.06738938391 -0.07904213667 1.184631237e-38
0.02641669847 0.06738281995 -0.07895561308 1.184631237e-38
0.02626611851 0.06736157089 -0.07903206348 1.184631237e-38
0.02624919638 0.06764760613 -0.07917892933 1.184631237e-38
0.02616547979 0.06747286022 -0.07911359519 1.184631237e-38
0.02639221959 0.06739348173 -0.07898370177 1.184631237e-38
0.02625908516 0.06730969995 -0.07903273404 1.184631237e-38
0.02627554536 0.06728048623 -0.07902753353 1.184631237e-38
0.02620614693 0.06738783419 -0.07907808572 1.184631237e-38
0.02643634751 0.06735882908 -0.07894339412 1.184631237e-38
0.026214635 0.06740504503 -0.07907935232 1.184631237e-38
0.02628961578 0.06760562211 -0.07913918048 1.184631237e-38
0.02628370747 0.06738743931 -0.07904563099 1.184631237e-38
0.02638445236 0.06741346419 -0.0789764151 1.184631237e-38
0.0261589177 0.06757300347 -0.0791388005 1.184631237e-38
0.0263847094 0.06737339497 -0.07900667936 1.184631237e-38
0.02616054006 0.06749452651 -0.07911685109 1.184631237e-38
0.02618740685 0.06738465279 -0.07909710705 1.184631237e-38
0.02628552541 0.06727552414 -0.07902502269 1.184631237e-38
0.02624304779 0.06738164276 -0.0790514946 1.184631237e-38
0.02630048245 0.06727637351 -0.07902136445 1.184631237e-38
0.02618902177 0.06753179431 -0.0791497305 1.184631237e-38
0.02625232376 0.06740270555 -0.07906754315 1.184631237e-38
0.02635683864 0.06737271696 -0.0790207237 1.184631237e-38
0.02639084496 0.06734727323 -0.07900752872 1.184631237e-38
0.02620776929 0.06739803404 -0.07907381654 1.184631237e-38
0.02632174268 0.06741127372 -0.07903840393 1.184631237e-38
0.02629858442 0.06729061157 -0.07901968807 1.184631237e-38
0.02634832636 0.06731396168 -0.0790181756 1.184631237e-38
0.02622172795 0.06731317192 -0.07904859632 1.184631237e-38
0.0262956284 0.06729359925 -0.0790200755 1.184631237e-38
0.02620275877 0.06741911918 -0.07909306139 1.184631237e-38
0.02632967755 0.06734096259 -0.07902091742 1.184631237e-38
0.02636117674 0.06729824841 -0.07901503891 1.184631237e-38
0.02618226036 0.06742797792 -0.07910922915 1.184631237e-38
0.0261996109 0.06735488027 -0.07908158749 1.184631237e-38
0.02633820847 0.06727264076 -0.07902153581 1.184631237e-38
0.02644838765 0.06737431139 -0.07893119752 1.184631237e-38
0.02635383047 0.06729047745 -0.07901738584 1.184631237e-38
0.02617282234 0.06755912304 -0.07915811241 1.184631237e-38
0.02616176941 0.06749243289 -0.07911411673 1.184631237e-38
0.02626627684 0.06740563363 -0.07906444371 1.184631237e-38
0.02615641989 0.06752112508 -0.07911825925 1.184631237e-38
0.02616803162 0.06746915728 -0.07911556214 1.184631237e-38
0.02620995045 0.06736854464 -0.07907396555 1.184631237e-38
0.02615504153 0.06753984094 -0.07912473381 1.184631237e-38
0.0263106674 0.06733638048 -0.07902074605 1.184631237e-38
0.02618663944 0.06738289446 -0.07909689844 1.184631237e-38
0.0263225846 0.06737983227 -0.07903356105 1.184631237e-38
0.02634589747 0.06739334017 -0.07902482152 1.184631237e-38
0.02619048767 0.06746271998 -0.07912667841 1.184631237e-38
0.02624994889 0.06742353737 -0.0790785253 1.184631237e-38
0.02626708336 0.0673635751 -0.07903270423 1.184631237e-38
0.02629873529 0.06725152582 -0.0790252462 1.184631237e-38
0.0264576003 0.06735949218 -0.07892864197 1.184631237e-38
0.02616273612 0.06750169396 -0.07910902798 1.184631237e-38
0.02623313107 0.06766547263 -0.07918557525 1.184631237e-38
0.02635927498 0.06743719429 -0.07900550216 1.184631237e-38
0.02615696192 0.0675175041 -0.07911790162 1.184631237e-38
0.0263251625 0.06755967438 -0.07909357548 1.184631237e-38
0.02628496848 0.06724193692 -0.07902805507 1.184631237e-38
0.02619321272 0.06734223664 -0.0790796876 1.184631237e-38
0.02621019818 0.06733222306 -0.07906565815 1.184631237e-38
0.02633657865 0.06739486009 -0.07903088629 1.184631237e-38
0.02630421333 0.0673757419 -0.07903406024 1.184631237e-38
0.02642423473 0.06734264642 -0.078959167 1.184631237e-38
0.02638106421 0.06734988093 -0.07901188731 1.184631237e-38
0.02641830407 0.06735151261 -0.07896992564 1.184631237e-38
0.02617126144 0.06747962534 -0.07913467288 1.184631237e-38
0.02625015378 0.06736574322 -0.07904094458 1.184631237e-38
0.02618194371 0.06748114526 -0.07913604379 1.184631237e-38
0.02641233802 0.06736974418 -0.07897570729 1.184631237e-38
0.02624100074 0.06761353463 -0.07916307449 1.184631237e-38
0.02633759379 0.06738558412 -0.07902997732 1.184631237e-38
0.02621003613 0.06738246977 -0.079073973 1.184631237e-38
0.02635923028 0.06742538512 -0.07900900394 1.184631237e-38
0.02625638805 0.06764603406 -0.07917693257 1.184631237e-38
0.02618196234 0.06740219891 -0.07910209894 1.184631237e-38
0.02627643943 0.06747576594 -0.07908406854 1.184631237e-38
0.02617223561 0.06746848673 -0.0791195631 1.184631237e-38
0.02617742866 0.06756780297 -0.07915903628 1.184631237e-38
0.02619126998 0.06739174575 -0.0790971145 1.184631237e-38
0.02616672963 0.06748130172 -0.07912848145 1.184631237e-38
0.02621772513 0.06742957979 -0.07909915596 1.184631237e-38
0.02616186254 0.06755601615 -0.07914236188 1.184631237e-38
0.02634887025 0.0673687011 -0.07902442664 1.184631237e-38
0.02622538619 0.06760981679 -0.07916671038 1.184631237e-38
0.02628652006 0.06727539748 -0.07902486622 1.184631237e-38
0.02638078295 0.06738456339 -0.07900570333 1.184631237e-38
0.02620989457 0.06748148799 -0.07912515104 1.184631237e-38
0.02619009465 0.06757211685 -0.0791579932 1.184631237e-38
0.0264488887 0.06735687703 -0.07893490791 1.184631237e-38
0.02639942244 0.06740752608 -0.07896104455 1.184631237e-38
0.02642033994 0.0673814714 -0.07895178348 1.184631237e-38
0.02626825124 0.06746891886 -0.07908603549 1.184631237e-38
0.02617952786 0.0674546212 -0.07911846787 1.184631237e-38
0.02640071511 0.06733580679 -0.07899851352 1.184631237e-38
0.02620730549 0.06739988178 -0.07907445729 1.184631237e-38
0.02624756843 0.06734235585 -0.07904527336 1.184631237e-38
0.02637291886 0.0674046725 -0.07900152355 1.184631237e-38
0.02623899281 0.06763798743 -0.07917628437 1.184631237e-38
0.02627514116 0.06759374589 -0.0791387856 1.184631237e-38
0.02621759102 0.06757298112 -0.07915556431 1.184631237e-38
0.02631718852 0.06735620648 -0.07902529836 1.184631237e-38
0.02617410384 0.06747421622 -0.07909597456 1.184631237e-38
0.0263220761 0.06748764217 -0.07906380296 1.184631237e-38
0.02632684074 0.06730651855 -0.07901979238 1.184631237e-38
0.02635519952 0.0673821643 -0.07901983708 1.184631237e-38
0.0261566788 0.0675239712 -0.07911407202 1.184631237e-38
0.02634549513 0.06738325953 -0.07902570069 1.184631237e-38
0.02621405013 0.06735236198 -0.0790707767 1.184631237e-38
0.0263165608 0.06733874232 -0.07902058959 1.184631237e-38
0.02616265789 0.06755685806 -0.07914708555 1.184631237e-38
0.02616485395 0.06755124032 -0.0791535005 1.184631237e-38
0.0262487065 0.06734229624 -0.07904450595 1.184631237e-38
0.02617895603 0.0674579069 -0.079121463 1.184631237e-38
0.02644392662 0.06739678234 -0.07893043756 1.184631237e-38
0.02619156241 0.0674116388 -0.07909865677 1.184631237e-38
0.02641033754 0.06736841798 -0.07898057997 1.184631237e-38
0.0262666028 0.06728484482 -0.0790303573 1.184631237e-38
0.0263641309 0.06743714958 -0.07899798453 1.184631237e-38
0.02631981112 0.06736090779 -0.07902638614 1.184631237e-38
0.02622634917 0.06736069918 -0.07906079292 1.184631237e-38
0.02620049194 0.06739406288 -0.07908498496 1.184631237e-38
0.02636497095 0.06740510464 -0.07900943607 1.184631237e-38
0.026388878 0.06734734774 -0.07900831848 1.184631237e-38
0.02632644214 0.06742403656 -0.07903742045 1.184631237e-38
0.02634793334 0.06730724126 -0.07901858538 1.184631237e-38
0.02627987415 0.06746672094 -0.0790778473 1.184631237e-38
0.026155008 0.06753597409 -0.07912361622 1.184631237e-38
0.02616221271 0.06748868525 -0.07911510766 1.184631237e-38
0.0262346603 0.06755772978 -0.07914391905 1.184631237e-38
0.02618254349 0.06744387001 -0.07910835743 1.184631237e-38
0.02625453472 0.06741882861 -0.07907427847 1.184631237e-38
0.02626042441 0.06726099551 -0.07902866602 1.184631237e-38
0.02640306763 0.06741727144 -0.07895498723 1.184631237e-38
0.02621409856 0.06738979369 -0.07906797528 1.184631237e-38
0.02624336071 0.06765256822 -0.07918098569 1.184631237e-38
0.02628275193 0.06754045933 -0.07910960168 1.184631237e-38
0.02619641647 0.06741357595 -0.0790861845 1.184631237e-38
0.0261994265 0.06736013293 -0.07908334583 1.184631237e-38
0.02640970051 0.06736186892 -0.07898679376 1.184631237e-38
0.02619916014 0.06741419435 -0.07908735424 1.184631237e-38
0.02620453574 0.06739535183 -0.07907956839 1.184631237e-38
0.02632906474 0.06740137935 -0.07903482765 1.184631237e-38
0.02636511251 0.0674398765 -0.0789957121 1.184631237e-38
0.02616339363 0.06748088449 -0.07911638916 1.184631237e-38
0.02619560435 0.06741745025 -0.07908914983 1.184631237e-38
0.02634541504 0.06735161692 -0.07902106643 1.184631237e-38
0.02631233633 0.06741239876 -0.07904342562 1.184631237e-38
0.02615350857 0.06755518913 -0.07912251353 1.184631237e-38
0.02622513287 0.06732467562 -0.07905326039 1.184631237e-38
0.02630357258 0.0673597306 -0.07902368903 1.184631237e-38
0.02635699511 0.06746516377 -0.07901649922 1.184631237e-38
0.02616526559 0.06754393876 -0.07915204018 1.184631237e-38
0.02619909681 0.06754140556 -0.07914870977 1.184631237e-38
0.02619063854 0.06738993526 -0.07909706235 1.184631237e-38
0.02620422281 0.06762611866 -0.07917041332 1.184631237e-38
0.0262598563 0.0674501285 -0.07908237725 1.184631237e-38
0.02629269473 0.06758720428 -0.07912727445 1.184631237e-38
0.02619109675 0.067422539 -0.07909602672 1.184631237e-38
0.02628985792 0.06733834743 -0.07901952416 1.184631237e-38
0.02621796541 0.06751410663 -0.07913404703 1.184631237e-38
0.02627058327 0.06732803583 -0.07902598381 1.184631237e-38
0.02618149109 0.06744639575 -0.0791092515 1.184631237e-38
0.0263982825 0.06736698002 -0.07899973541 1.184631237e-38
0.02618204802 0.06744365394 -0.07910700887 1.184631237e-38
0.02623567544 0.0673642233 -0.07905206829 1.184631237e-38
0.02638717368 0.0674424544 -0.07896648347 1.184631237e-38
0.02640680969 0.06739865243 -0.07895825058 1.184631237e-38
0.02634616382 0.06748146564 -0.07903911918 1.184631237e-38
0.02624017745 0.06737115979 -0.07904774696 1.184631237e-38
0.0263471622 0.06739463657 -0.07902380079 1.184631237e-38
0.02617010847 0.06746570021 -0.07911625504 1.184631237e-38
0.02616967633 0.06750850379 -0.07909230143 1.184631237e-38
0.02638802864 0.06733810157 -0.07900696248 1.184631237e-38
0.02630008385 0.06738466769 -0.07904020697 1.184631237e-38
0.02630585805 0.06739288568 -0.07904363424 1.184631237e-38
0.02615996264 0.06755905598 -0.07913901657 1.184631237e-38
0.02634472772 0.06750419736 -0.07904934138 1.184631237e-38
0.0261862129 0.0674277544 -0.07910319418 1.184631237e-38
0.02631069161 0.06736765057 -0.07902713865 1.184631237e-38
0.02629057504 0.06740698218 -0.07905232906 1.184631237e-38
0.02643205225 0.0674000904 -0.07893781364 1.184631237e-38
0.02629039064 0.06731653214 -0.07902051508 1.184631237e-38
0.02616130747 0.06753664464 -0.07910043746 1.184631237e-38
0.02634799853 0.0673488602 -0.07901976258 1.184631237e-38
0.02633932047 0.06735502183 -0.07902329415 1.184631237e-38
0.02640539967 0.067387335 -0.07896807045 1.184631237e-38
0.02637725137 0.06740733236 -0.07899364829 1.184631237e-38
0.02615435421 0.06754784286 -0.07911656797 1.184631237e-38
0.02629020438 0.06740379333 -0.07905200124 1.184631237e-38
0.02629177272 0.06724631041 -0.07902739942 1.184631237e-38
0.02637712657 0.06733576208 -0.07901100814 1.184631237e-38
0.02647161298 0.06737475097 -0.07891400158 1.184631237e-38
0.02620458789 0.06762645394 -0.07917051762 1.184631237e-38
0.02637942135 0.06739456952 -0.07900263369 1.184631237e-38
0.02638081461 0.06741142273 -0.07898377627 1.184631237e-38
0.02638937533 0.06733748317 -0.07900632173 1.184631237e-38
0.02632563189 0.06750976294 -0.0790707618 1.184631237e-38
0.0262662936 0.06738957018 -0.07905171812 1.184631237e-38
0.02620330639 0.067403391 -0.0790784359 1.184631237e-38
0.02641013451 0.06735198945 -0.07898789644 1.184631237e-38
0.02626543492 0.06729666144 -0.07903029025 1.184631237e-38
0.02621340938 0.06747458875 -0.07912282646 1.771655483e-38
0.026304245 0.06756866723 -0.07911171019 1.771655483e-38
0.02616533078 0.06752134115 -0.07914926112 1.771655483e-38
0.02615792863 0.06754784286 -0.07913633436 1.771655483e-38
0.02636095881 0.0674033165 -0.07901278138 1.771655483e-38
0.02616372332 0.0674835071 -0.07912234217 1.771655483e-38
0.02640833147 0.06734738499 -0.07899134606 1.771655483e-38
0.02623989061 0.06767436862 -0.07918965816 1.771655483e-38
0.02618996054 0.06741666049 -0.07910059392 1.771655483e-38
0.02623021416 0.06740215421 -0.07907300442 1.771655483e-38
0.02636682242 0.06736885011 -0.07901668549 1.771655483e-38
0.02619565651 0.06742101908 -0.07909502834 1.771655483e-38
0.02624275908 0.06733612716 -0.07904710621 1.771655483e-38
0.02618828975 0.06743782014 -0.07911112905 1.771655483e-38
0.02631089836 0.06737366319 -0.07903339714 1.771655483e-38
0.02637663111 0.0673930645 -0.07900629193 1.771655483e-38
0.0262052305 0.0674302429 -0.07910377532 1.771655483e-38
0.02624497935 0.06764112413 -0.07917777449 1.771655483e-38
0.02620390989 0.06736861169 -0.07908057421 1.771655483e-38
0.02618930489 0.0674527213 -0.07912311703 1.771655483e-38
0.02631058916 0.06746535748 -0.07906265557 1.771655483e-38
0.02626239881 0.06761451066 -0.07915664464 1.771655483e-38
0.0263961982 0.06742296368 -0.07895999402 1.771655483e-38
0.02621575445 0.06738939881 -0.07906754315 1.771655483e-38
0.02630848624 0.06757765263 -0.07911311835 1.771655483e-38
0.02630338632 0.06726742536 -0.07902346551 1.771655483e-38
0.0261849314 0.06742527336 -0.07910677791 1.771655483e-38
0.02630656958 0.06733382493 -0.0790219605 1.771655483e-38
0.0261628218 0.06752695888 -0.07914459705 1.771655483e-38
0.02619926818 0.06740537286 -0.07908605784 1.771655483e-38
0.02620766126 0.06735255569 -0.07907661796 1.771655483e-38
0.02617477998 0.06759981811 -0.07916698605 1.771655483e-38
0.02619924769 0.06738420576 -0.07908669859 1.771655483e-38
0.02616630308 0.06750625372 -0.07910256088 1.771655483e-38
0.02631922625 0.06746526062 -0.07905767858 1.771655483e-38
0.02628920041 0.06747657806 -0.07907810062 1.771655483e-38
0.02619764768 0.06756231934 -0.07915718853 1.771655483e-38
0.02625899762 0.06732065976 -0.07903398573 1.771655483e-38
