# .PCD v0.7 - Point Cloud Data file format
VERSION 0.7
FIELDS x y z rgb
SIZE 4 4 4 4
TYPE F F F F
COUNT 1 1 1 1
WIDTH 840
HEIGHT 1
VIEWPOINT 0 0 0 1 0 0 0
POINTS 840
DATA ascii
0.06479425728 -0.1472517997 0.2564288378 8.742304551e-39
0.05801523849 -0.140707761 0.287012428 8.742304551e-39
0.05194402114 -0.0147240907 0.3748537004 8.742304551e-39
0.0834082067 -0.2432618588 0.3030071855 8.742304551e-39
0.02343743667 0.04809369147 0.3328906596 8.742304551e-39
0.08112473786 -0.24402982 0.3295601308 8.742304551e-39
0.05201407149 -0.09114970267 0.3188637197 8.742304551e-39
0.04273027554 -0.008076548576 0.2570088208 8.742304551e-39
0.02797276899 0.06540550292 0.3213902712 8.742304551e-39
0.04317753389 -0.03311501443 0.3424299657 8.742304551e-39
0.03945603594 -0.03118738532 0.1430550665 8.742304551e-39
0.02967752889 0.04883144796 0.2891467512 8.742304551e-39
0.05196866021 -0.07146725804 0.2765472531 8.742304551e-39
0.07579115033 -0.2348723114 0.33648628 8.742304551e-39
0.03362912312 0.06725236773 0.2714519799 8.742304551e-39
0.07458688319 0.1157226861 0.2903533876 8.742304551e-39
0.02889858559 0.05291362107 0.3529625237 8.742304551e-39
0.03444446996 -0.008376255631 0.2898854017 8.742304551e-39
0.05882165954 -0.1068839803 0.2384677678 8.742304551e-39
0.04744398221 0.09272639453 0.2433433086 8.742304551e-39
0.07570636272 -0.2375117838 0.2519661486 8.742304551e-39
0.05545247719 -0.1209327281 0.3084557056 8.742304551e-39
0.02768712863 0.03021103144 0.2326481342 8.742304551e-39
0.04839434847 -0.01751179993 0.3645771742 8.742304551e-39
0.08981245756 -0.2556951642 0.3515678644 8.742304551e-39
0.05544087663 -0.06086282432 0.2615864575 8.742304551e-39
0.04177055135 -0.02451709658 0.2757559419 8.742304551e-39
0.08035415411 -0.1215939671 0.1207293347 8.742304551e-39
0.03725483641 -0.06703492254 0.1734794825 8.742304551e-39
0.08242832124 -0.2724063396 0.295396477 8.742304551e-39
0.08144760132 -0.2490310073 0.3578070104 8.742304551e-39
0.075784266 -0.2775323689 0.2176030427 8.742304551e-39
0.0261949636 0.008754059672 0.210174337 8.742304551e-39
0.06551644206 -0.1918003708 0.2271578461 8.742304551e-39
0.04005114362 -0.02726429701 0.2836845517 8.742304551e-39
0.05176648125 -0.08943532407 0.1405986547 8.742304551e-39
0.05074128136 0.09307581186 0.2580565512 8.742304551e-39
0.08124415576 -0.2415636182 0.2800495028 8.742304551e-39
0.06079449132 -0.09193566442 0.3404333591 8.742304551e-39
0.09089668095 -0.2575425804 0.3539245129 8.742304551e-39
0.03576507047 0.06284184754 0.3660529256 8.742304551e-39
0.04762033746 -0.0240816772 0.3578186929 8.742304551e-39
0.08699432015 -0.2613863349 0.3218726814 8.742304551e-39
0.04437038675 -0.1035647541 0.154608652 8.742304551e-39
0.06244086847 -0.1636599451 0.2294809669 8.742304551e-39
0.03624945506 0.04678353667 0.3635213971 8.742304551e-39
0.03925516084 0.07676102221 0.3141367137 8.742304551e-39
0.02873268351 0.0338909328 0.2377073914 8.742304551e-39
0.05656572804 -0.2096792459 0.1551822275 8.742304551e-39
0.03577542678 0.08677084744 0.3462603688 8.742304551e-39
0.06022214517 -0.1682876647 0.2167532593 8.742304551e-39
0.08357340097 -0.2766996324 0.2975880504 8.742304551e-39
0.03318804875 0.02398046851 0.3544779718 8.742304551e-39
0.02143053338 0.0116225481 0.1662901193 8.742304551e-39
0.06453669071 -0.11027731 0.3400538862 8.742304551e-39
0.0908357203 -0.2565618157 0.3545277119 8.742304551e-39
0.03761712089 0.08924631774 0.355291456 8.742304551e-39
0.043036405 0.05444809794 0.3745056987 8.742304551e-39
0.08584275842 -0.2523471713 0.3106483221 8.742304551e-39
0.08505815268 -0.2401494682 0.3360106647 8.742304551e-39
0.03383177891 -0.0352486968 0.1530668736 8.742304551e-39
0.04124224558 0.08420145512 0.2566664815 8.742304551e-39
0.03437305614 -0.05504050106 0.1685114652 8.742304551e-39
0.04126479104 0.08401238918 0.2828787267 8.742304551e-39
0.08761024475 -0.2613986731 0.3264123797 8.742304551e-39
0.02633772418 0.06634280086 0.1570029557 8.742304551e-39
0.03126401082 -0.03559376299 0.1913267374 8.742304551e-39
0.05863698199 -0.2264985144 0.1709580421 8.742304551e-39
0.05744245276 -0.1906971782 0.1459948868 8.742304551e-39
0.07485693693 -0.2870458663 0.206166774 8.742304551e-39
0.03531205282 -0.02037662268 0.2976617813 8.742304551e-39
0.07455277443 -0.2153991163 0.2997029424 8.742304551e-39
0.03910733387 -0.04436361045 0.1469443589 8.742304551e-39
0.06806311011 -0.1362572908 0.339396745 8.742304551e-39
0.07771499455 -0.1189254448 0.1220477149 8.742304551e-39
0.03672206029 0.08461248875 0.2284276634 8.742304551e-39
0.05269395933 -0.08257645369 0.2791351676 8.742304551e-39
0.02716471627 0.01329755783 0.3046749532 8.742304551e-39
0.03050320223 -0.03384178877 0.1602356136 8.742304551e-39
0.03123094514 0.07442636788 0.1498630196 8.742304551e-39
0.07947546244 -0.2573445141 0.2666648924 8.742304551e-39
0.0274120234 0.07073131204 0.1583521813 8.742304551e-39
0.05612456426 0.09792225063 0.2926624715 8.742304551e-39
0.0875300616 -0.2913143039 0.2518387139 8.742304551e-39
0.02760514244 0.06622448564 0.3376046121 8.742304551e-39
0.04696941748 -0.07587501407 0.3116145134 8.742304551e-39
0.03271364048 0.07102786005 0.3180459738 8.742304551e-39
0.08166229725 -0.2414793968 0.3175466359 8.742304551e-39
0.07740451396 -0.2925004661 0.2129828036 8.742304551e-39
0.08159264922 -0.2516091764 0.3435688019 8.742304551e-39
0.04183306172 -0.03906230628 0.2894376516 8.742304551e-39
0.05836280063 -0.1683332026 0.141771391 8.742304551e-39
0.0676073283 0.1087271869 0.2949263752 8.742304551e-39
0.07306684554 0.1143233627 0.2933368087 8.742304551e-39
0.06451638043 -0.1480782628 0.2436423749 8.742304551e-39
0.02854082361 0.009963199496 0.2211241275 8.742304551e-39
0.06808929145 -0.2520258725 0.2085322738 8.742304551e-39
0.04090436921 -0.007681429386 0.2415588647 8.742304551e-39
0.03051810339 0.07589767873 0.3377515674 8.742304551e-39
0.08674412966 -0.2615564167 0.3193593323 8.742304551e-39
0.04333851859 -0.08011163771 0.152265504 8.742304551e-39
0.06635789573 -0.194942683 0.3013702333 8.742304551e-39
0.02217883244 0.04792024195 0.1984416246 8.742304551e-39
0.02578781918 0.06209620833 0.3329491913 8.742304551e-39
0.06994013488 -0.2108728886 0.2344152927 8.742304551e-39
0.0698890835 -0.1937085241 0.2799729407 8.742304551e-39
0.06344860792 -0.1960000098 0.3201077878 8.742304551e-39
0.04009104148 0.09123502672 0.3342531919 8.742304551e-39
0.03670073673 -0.2235282362 0.2589247227 5.820783626e-39
-0.002371788025 -0.06525530666 0.1719511896 5.820783626e-39
0.07456417382 -0.3445442617 0.3271229267 5.820783626e-39
0.03116450086 -0.2144288123 0.1837882996 5.820783626e-39
0.05328052118 -0.307736516 0.2241174579 5.820783626e-39
0.01409910247 -0.1350416839 0.2217561901 5.820783626e-39
0.05300051346 -0.1300217509 0.3282990754 5.820783626e-39
0.01708199456 -0.01275814325 0.3108570874 5.820783626e-39
0.07475203276 -0.3528969288 0.3023723662 5.820783626e-39
0.0008620321751 0.01986841857 0.1741856635 5.820783626e-39
-0.004696872085 -0.01375895739 0.271612525 5.820783626e-39
0.02387066558 -0.09648741782 0.2895465493 5.820783626e-39
0.05137125775 -0.04678842425 0.3941287696 5.820783626e-39
0.06311628222 -0.355332911 0.2520744801 5.820783626e-39
-0.01009249687 0.07025766373 0.2500746846 5.820783626e-39
0.01635269076 -0.05871872604 0.2941719592 5.820783626e-39
-0.01548782364 -0.01142314076 0.2248543501 5.820783626e-39
0.05750724301 -0.2037752569 0.1632923186 5.820783626e-39
0.09550358355 -0.1180918738 0.1640645117 5.820783626e-39
0.03809218481 -0.2268312126 0.2660637498 5.820783626e-39
0.04088861868 -0.2330226004 0.2508180439 5.820783626e-39
0.04598071054 -0.2258101106 0.282440871 5.820783626e-39
0.05687880144 -0.09118933231 0.3703798652 5.820783626e-39
0.06350408494 -0.3312477469 0.3187994063 5.820783626e-39
0.009200416505 -0.03056681901 0.2899968028 5.820783626e-39
0.05838082358 -0.3249591589 0.3416133225 5.820783626e-39
0.05513158813 -0.1789849997 0.307264328 5.820783626e-39
0.004863135517 -0.1034510136 0.2220449299 5.820783626e-39
-0.005021650344 -0.001290798187 0.2764314115 5.820783626e-39
0.04398410395 -0.1115112007 0.3207783401 5.820783626e-39
0.04509261623 -0.1205368713 0.163691476 5.820783626e-39
-0.005704637617 -0.03624264151 0.2457257062 5.820783626e-39
0.02806032076 -0.1682677716 0.2571741641 5.820783626e-39
0.05519192293 -0.3175301552 0.3457835019 5.820783626e-39
-0.0159615241 -0.01193276793 0.2194555849 5.820783626e-39
0.01012451202 0.07851801813 0.2162665427 5.820783626e-39
0.01947980002 -0.01548456401 0.3172487617 5.820783626e-39
0.008102934808 -0.09527808428 0.2585136294 5.820783626e-39
0.0336801447 -0.2081418484 0.2261006385 5.820783626e-39
-0.001679107547 0.02054421604 0.179875493 5.820783626e-39
0.06636270881 -0.3210920095 0.2609574795 5.820783626e-39
0.05463440344 -0.2091909945 0.3060428798 5.820783626e-39
-0.008183959872 -0.0629773587 0.1941049993 5.820783626e-39
0.051743377 -0.09553231299 0.3537328541 5.820783626e-39
0.05913664028 -0.3337762356 0.3560969234 5.820783626e-39
0.02344605699 -0.1630423218 0.2365159839 5.820783626e-39
0.01222256571 -0.1146733537 0.2464737743 5.820783626e-39
0.09895980358 -0.1810912788 0.166557923 5.820783626e-39
0.01812551916 -0.1580528915 0.1726357788 5.820783626e-39
0.07614956796 -0.3479583263 0.3197377622 5.820783626e-39
0.05450114235 -0.321837604 0.3598075509 5.820783626e-39
0.06367811561 -0.3661553264 0.2310525775 5.820783626e-39
-0.003014281392 -0.08918566257 0.1810099185 5.820783626e-39
0.05142809823 -0.2734649777 0.2289820164 5.820783626e-39
0.01360399276 -0.1165549308 0.254909128 5.820783626e-39
0.05483921245 -0.1747831106 0.1647011787 5.820783626e-39
-0.003609076142 0.02522070706 0.1875508577 5.820783626e-39
0.06971082091 -0.328564465 0.2951292098 5.820783626e-39
0.06756599247 -0.1792853475 0.3403503299 5.820783626e-39
0.05581023172 -0.3115394711 0.3555691242 5.820783626e-39
0.02670616284 0.001166820526 0.3365695179 5.820783626e-39
0.05046442524 -0.1021302789 0.3446202874 5.820783626e-39
0.06514979899 -0.3425774574 0.3383873701 5.820783626e-39
0.0369005017 -0.1894059181 0.1669486016 5.820783626e-39
0.04381155595 -0.248032093 0.22960186 5.820783626e-39
0.02871412411 -0.02058619261 0.3383525908 5.820783626e-39
-0.0137237981 0.02540557086 0.2639399469 5.820783626e-39
-0.009349796921 -0.05656879395 0.1961393058 5.820783626e-39
0.05914155766 -0.2967654467 0.1717108488 5.820783626e-39
0.006682775915 0.03921818733 0.2961876094 5.820783626e-39
0.04602927342 -0.2528443933 0.2169555277 5.820783626e-39
0.07871998847 -0.3197523355 0.3164984286 5.820783626e-39
0.02788016573 -0.05017564446 0.324714303 5.820783626e-39
0.01590798423 -0.08331942558 0.156796962 5.820783626e-39
0.07072117925 -0.1970272958 0.3462604284 5.820783626e-39
0.05615793541 -0.318358779 0.3564410806 5.820783626e-39
0.01257660612 0.04468750954 0.3039081097 5.820783626e-39
0.03681033477 -0.006973132491 0.3570264578 5.820783626e-39
0.06389372051 -0.3377258778 0.328720659 5.820783626e-39
0.06423231959 -0.2784773111 0.3408373296 5.820783626e-39
0.03198274598 -0.1291246116 0.1639315486 5.820783626e-39
-0.009901046753 0.006399467587 0.1963077933 5.820783626e-39
0.01795001701 -0.1459664404 0.1694176495 5.820783626e-39
-0.01629647799 0.02517731488 0.220200792 5.820783626e-39
0.07029558718 -0.338634491 0.3416160047 5.820783626e-39
0.02695578709 -0.01662414521 0.1446623355 5.820783626e-39
0.006373282522 -0.1306948215 0.1764201224 5.820783626e-39
0.05258506164 -0.3160626292 0.184505567 5.820783626e-39
0.06536737084 -0.2781853378 0.16586411 5.820783626e-39
0.07041411102 -0.3681624532 0.2248041779 5.820783626e-39
0.01419845223 -0.1075845137 0.2656969428 5.820783626e-39
0.06098566577 -0.3015202284 0.3060347438 5.820783626e-39
0.03938691691 -0.1377402693 0.1656221747 5.820783626e-39
0.07127867639 -0.2281145453 0.3516817391 5.820783626e-39
0.09316129982 -0.1833540648 0.1665510386 5.820783626e-39
-0.004249349236 0.001527413726 0.1756433696 5.820783626e-39
0.03097834811 -0.1781275272 0.2614760995 5.820783626e-39
0.006725084037 -0.07263998687 0.2693071067 5.820783626e-39
0.02295685187 -0.12602368 0.1648219824 5.820783626e-39
0.03573813662 -0.004867017269 0.1419372857 5.820783626e-39
0.07124325633 -0.3441172242 0.2840793729 5.820783626e-39
0.02670658752 -0.01140586287 0.1436824948 5.820783626e-39
-0.008009843528 0.05284537375 0.2248755693 5.820783626e-39
0.08078026772 -0.3604957461 0.2724212408 5.820783626e-39
0.006575871259 0.002026572824 0.2902442515 5.820783626e-39
0.04562449083 -0.162694782 0.290513128 5.820783626e-39
-0.008869092911 0.01145614684 0.2708187997 5.820783626e-39
0.06034560874 -0.3281629682 0.3334706724 5.820783626e-39
0.07408304513 -0.3674476147 0.2334265858 5.820783626e-39
0.05650288984 -0.3251551092 0.350541532 5.820783626e-39
0.01927467063 -0.1280169338 0.2603912055 5.820783626e-39
0.06652261317 -0.2573386431 0.1644948572 5.820783626e-39
0.001754663885 0.07151031494 0.2253173739 5.820783626e-39
0.006716746837 0.07767191529 0.2215995193 5.820783626e-39
0.04199330136 -0.2340341806 0.2389215678 5.820783626e-39
-0.004408698529 -0.08761842549 0.1872108281 5.820783626e-39
0.05505632237 -0.3410692513 0.2161200047 5.820783626e-39
0.002607297152 -0.1044640392 0.2065427601 5.820783626e-39
0.002970878035 0.01923383772 0.2898114026 5.820783626e-39
0.06501607597 -0.3415028453 0.3359409273 5.820783626e-39
0.03538088128 -0.1698740274 0.1658928543 5.820783626e-39
0.05885287002 -0.2771152854 0.3036970496 5.820783626e-39
-0.003217529505 -0.04604976624 0.1724061519 5.820783626e-39
0.005239512771 -0.005851149559 0.2869716287 5.820783626e-39
0.05694075301 -0.293371737 0.2371186167 5.820783626e-39
0.05284690484 -0.2733219266 0.2857113779 5.820783626e-39
0.05998491123 -0.2830187082 0.3237865269 5.820783626e-39
-0.002288527787 0.04754160345 0.2865609527 5.820783626e-39
0.04276395217 -0.1762775481 0.2727037668 2.898180898e-39
0.01556322724 -0.0634758696 0.1663846523 2.898180898e-39
0.0676034838 -0.2414478958 0.3677347004 2.898180898e-39
0.05724838004 -0.1998385042 0.1751327664 2.898180898e-39
0.05836547539 -0.2599548101 0.2392461747 2.898180898e-39
0.0158748962 -0.1188460886 0.2180341631 2.898180898e-39
0.04817536846 -0.08965566754 0.3483290672 2.898180898e-39
0.02355941013 0.01311081648 0.3122123778 2.898180898e-39
0.06812179089 -0.2740767598 0.3467693627 2.898180898e-39
0.02967616543 0.02679429948 0.1514935941 2.898180898e-39
0.009394869208 0.007275745273 0.249818489 2.898180898e-39
0.03448598459 -0.0555954054 0.3033547997 2.898180898e-39
0.04089898989 -0.01956257224 0.404851228 2.898180898e-39
0.06991009414 -0.2886535525 0.2927895784 2.898180898e-39
0.009890638292 0.07047341764 0.2226765901 2.898180898e-39
0.02496752515 -0.02718058974 0.2989309728 2.898180898e-39
0.003226995468 -0.005614355206 0.2157278806 2.898180898e-39
0.09501029551 -0.163281858 0.1786002219 2.898180898e-39
0.1299708039 -0.0896608755 0.1716108322 2.898180898e-39
0.04610648379 -0.1782288104 0.2845514119 2.898180898e-39
0.04336082563 -0.1917215735 0.258618921 2.898180898e-39
0.05058762059 -0.1743963063 0.3162519932 2.898180898e-39
0.04948431626 -0.05327814072 0.386962831 2.898180898e-39
0.05140468106 -0.2731673121 0.3617734015 2.898180898e-39
0.01898249611 -0.005066633224 0.2821382582 2.898180898e-39
0.04770230874 -0.2668393552 0.3909997046 2.898180898e-39
0.0491082482 -0.1295645833 0.3373811543 2.898180898e-39
0.009995743632 -0.08751271665 0.2158505619 2.898180898e-39
0.009684920311 0.01897618175 0.2537511289 2.898180898e-39
0.04370252416 -0.07034183294 0.3377888501 2.898180898e-39
0.07954022288 -0.09793449938 0.1670041084 2.898180898e-39
0.006354242563 -0.02005184442 0.2322584242 2.898180898e-39
0.03643583879 -0.1219974682 0.2720820904 2.898180898e-39
0.0455240868 -0.2637833059 0.3997416794 2.898180898e-39
0.002618540078 -0.006233692169 0.209837079 2.898180898e-39
0.03768425062 0.07649368048 0.1884104609 2.898180898e-39
0.02504821494 0.01121734083 0.3195205927 2.898180898e-39
0.02006548271 -0.06158000976 0.2512254715 2.898180898e-39
0.0298855938 -0.1812875867 0.2286316156 2.898180898e-39
0.02529339865 0.02673177421 0.1557047963 2.898180898e-39
0.0584785752 -0.2592801452 0.2894780636 2.898180898e-39
0.05310713127 -0.1574056149 0.3411800563 2.898180898e-39
-2.881884575e-05 -0.06744857877 0.1901494414 2.898180898e-39
0.04889628664 -0.0559637472 0.3695915043 2.898180898e-39
0.04625505581 -0.2293985933 0.3946433067 2.898180898e-39
0.02422310784 -0.1302863955 0.235433057 2.898180898e-39
0.02120677009 -0.08356797695 0.2389767021 2.898180898e-39
0.1337507218 -0.1377180815 0.1849138886 2.898180898e-39
0.04680401459 -0.150925234 0.164310202 2.898180898e-39
0.07021392882 -0.2471339703 0.3641532362 2.898180898e-39
0.04527522996 -0.253646493 0.4078660905 2.898180898e-39
0.08200548589 -0.2903424501 0.2642210722 2.898180898e-39
0.008311763406 -0.08763375133 0.1751776487 2.898180898e-39
0.04817605391 -0.2336211205 0.2378169745 2.898180898e-39
0.02441417053 -0.08053296804 0.2523019612 2.898180898e-39
0.09338514507 -0.1406906843 0.1757143587 2.898180898e-39
0.02402475849 0.030569911 0.164693132 2.898180898e-39
0.05507954583 -0.267768532 0.3268952072 2.898180898e-39
0.05380329117 -0.1291414499 0.3663040996 2.898180898e-39
0.04421725497 -0.1967449784 0.387978375 2.898180898e-39
0.02758458629 0.02829012275 0.3437764943 2.898180898e-39
0.04753319547 -0.06255595386 0.3609506786 2.898180898e-39
0.0586146526 -0.2667816877 0.3807396591 2.898180898e-39
0.07198697329 -0.1642576009 0.1714782417 2.898180898e-39
0.04200575873 -0.2132937014 0.236953333 2.898180898e-39
0.03016652539 0.007496476173 0.3430919945 2.898180898e-39
0.0032014139 0.03723955154 0.2416207343 2.898180898e-39
-0.000576544553 -0.06115739793 0.191945672 2.898180898e-39
0.09202928841 -0.2582023144 0.190829441 2.898180898e-39
0.01632147282 0.05694854259 0.2785897553 2.898180898e-39
0.04259839281 -0.2204829156 0.221342504 2.898180898e-39
0.06770686805 -0.1988404393 0.355394274 2.898180898e-39
0.03342047706 -0.0177025944 0.3322448432 2.898180898e-39
0.04674534872 -0.07008773088 0.1594688445 2.898180898e-39
0.05682887509 -0.147795707 0.3748775125 2.898180898e-39
0.04365209118 -0.2063684165 0.3912117481 2.898180898e-39
0.02037289366 0.06350944936 0.2928739488 2.898180898e-39
0.03119697049 0.0192605108 0.3644044697 2.898180898e-39
0.05305159464 -0.2734494805 0.372528404 2.898180898e-39
0.05308965221 -0.1595569402 0.3666113019 2.898180898e-39
0.06557610631 -0.1105744988 0.1638670564 2.898180898e-39
0.01266746596 0.01437847316 0.176589787 2.898180898e-39
0.04723847285 -0.1378770471 0.1631144285 2.898180898e-39
0.008911684155 0.03093746305 0.2013740242 2.898180898e-39
0.05880638584 -0.2300435454 0.3769943118 2.898180898e-39
0.06977392733 -0.008362457156 0.1437602788 2.898180898e-39
0.02187279984 -0.1252118945 0.1662252545 2.898180898e-39
0.08196118474 -0.2884013355 0.2012587786 2.898180898e-39
0.09879292548 -0.2304242998 0.1881049126 2.898180898e-39
0.09991271794 -0.2827924192 0.2606242597 2.898180898e-39
0.02567691728 -0.0680340305 0.2672708035 2.898180898e-39
0.04598848894 -0.249432385 0.3480319381 2.898180898e-39
0.0751170367 -0.1148567572 0.167266041 2.898180898e-39
0.06098482385 -0.1754011512 0.3825457692 2.898180898e-39
0.1287515163 -0.1400627941 0.1843316108 2.898180898e-39
0.02118386701 0.009494364262 0.1602177918 2.898180898e-39
0.03996018693 -0.127949506 0.2825831175 2.898180898e-39
0.01834795997 -0.0426017642 0.2620811462 2.898180898e-39
0.05386624113 -0.1133713648 0.1614780724 2.898180898e-39
0.08116398752 0.00392241776 0.1392974108 2.898180898e-39
0.06405948102 -0.2760695815 0.320489645 2.898180898e-39
0.07054011524 -0.003747597337 0.1425405145 2.898180898e-39
0.01888076589 0.05515769124 0.2014661729 2.898180898e-39
0.08326147497 -0.2510674 0.3196593523 2.898180898e-39
0.0162367709 0.02380494773 0.2766153812 2.898180898e-39
0.04565828666 -0.115936406 0.3200452924 2.898180898e-39
0.006402138621 0.02885723114 0.2482943982 2.898180898e-39
0.04871318117 -0.2702941597 0.3811753392 2.898180898e-39
0.09945309162 -0.2771758437 0.2714299262 2.898180898e-39
0.047708828 -0.2632280588 0.3989513814 2.898180898e-39
0.03051406518 -0.09020753205 0.267193675 2.898180898e-39
0.101969853 -0.206974104 0.1847328991 2.898180898e-39
0.02750575915 0.07064761221 0.1980408132 2.898180898e-39
0.0337437056 0.07608671486 0.1931638867 2.898180898e-39
0.04054928198 -0.2005402744 0.2460420579 2.898180898e-39
0.003334980458 -0.08644250035 0.1823963523 2.898180898e-39
0.07183748484 -0.2892324328 0.2376392931 2.898180898e-39
0.006627570838 -0.09710789472 0.1991492659 2.898180898e-39
0.01469429582 0.03946506977 0.2699245214 2.898180898e-39
0.05724401399 -0.2693890333 0.3787558675 2.898180898e-39
0.07139652967 -0.1485745609 0.1699692607 2.898180898e-39
0.04833442345 -0.2269236296 0.3471694589 2.898180898e-39
0.01957725734 -0.04482710361 0.1660887897 2.898180898e-39
0.01531031355 0.01625062525 0.2708075345 2.898180898e-39
0.05262921378 -0.2439531535 0.2498699278 2.898180898e-39
0.04654947296 -0.2276295424 0.3138867021 2.898180898e-39
0.04905452952 -0.2283388674 0.374615103 2.898180898e-39
0.009741537273 0.06329295039 0.2609755695 2.898180898e-39
0.0515232794 -0.2039112747 0.2566341162 6.490113838e-41
0.05220637843 -0.08792698383 0.1526658535 6.490113838e-41
0.06369793415 -0.1852968931 0.3450366855 6.490113838e-41
0.08852922916 -0.2226738334 0.1650815606 6.490113838e-41
0.07732351124 -0.2859944105 0.2185128182 6.490113838e-41
0.03702649102 -0.16073744 0.2013981193 6.490113838e-41
0.05976972356 -0.1025435925 0.3362552524 6.490113838e-41
0.04339336976 -0.004524990916 0.2964977622 6.490113838e-41
0.07876203954 -0.2495332062 0.3372740746 6.490113838e-41
0.06373894215 0.01338471472 0.142051518 6.490113838e-41
0.02682625875 -0.01306471974 0.2301386297 6.490113838e-41
0.04742610827 -0.08278292418 0.2817897499 6.490113838e-41
0.05462215468 -0.02169172466 0.3913239837 6.490113838e-41
0.08927726746 -0.282014817 0.2827253938 6.490113838e-41
0.02663059905 0.05633939803 0.2025934607 6.490113838e-41
0.04428088292 -0.04609692097 0.2770897746 6.490113838e-41
0.02267250791 -0.0286257267 0.1975467801 6.490113838e-41
0.1209614724 -0.1714161038 0.1733655781 6.490113838e-41
0.1513400674 -0.08517940342 0.1675224602 6.490113838e-41
0.05219898 -0.2046425939 0.2710291147 6.490113838e-41
0.05591107532 -0.2210742831 0.2365058511 6.490113838e-41
0.05392855033 -0.1889288127 0.3119344413 6.490113838e-41
0.06074118987 -0.06343365461 0.3715721369 6.490113838e-41
0.06091759726 -0.2704136968 0.3642343581 6.490113838e-41
0.04075865075 -0.02165098488 0.2609170973 6.490113838e-41
0.05008973554 -0.2587900758 0.3981803954 6.490113838e-41
0.06012199447 -0.1433237493 0.3326235116 6.490113838e-41
0.03106483445 -0.1305820495 0.1980590671 6.490113838e-41
0.02693304047 -0.0003259330988 0.235623613 6.490113838e-41
0.0573306419 -0.09085288644 0.3255909085 6.490113838e-41
0.1132082045 -0.103719458 0.1564926505 6.490113838e-41
0.02324101701 -0.0452272743 0.2128927261 6.490113838e-41
0.04731025919 -0.1520601213 0.2545110881 6.490113838e-41
0.04929354414 -0.2538749874 0.4081821144 6.490113838e-41
0.02435407415 -0.02962271124 0.1921052039 6.490113838e-41
0.05670598522 0.06864134967 0.1687517762 6.490113838e-41
0.0438525565 -0.00699044764 0.3047929108 6.490113838e-41
0.0394464992 -0.09499048442 0.2343107462 6.490113838e-41
0.05400418118 -0.2239153385 0.2027328461 6.490113838e-41
0.05944682285 0.0148460716 0.1449653506 6.490113838e-41
0.0748103708 -0.2841583788 0.278432101 6.490113838e-41
0.0584150441 -0.1676564962 0.3411877155 6.490113838e-41
0.0227737315 -0.09924486279 0.176920712 6.490113838e-41
0.05928440765 -0.06987199932 0.3551776707 6.490113838e-41
0.04055099562 -0.1755880117 0.3939040303 6.490113838e-41
0.04071826115 -0.1679996401 0.216121465 6.490113838e-41
0.03761238977 -0.1226824373 0.2254489213 6.490113838e-41
0.1497010738 -0.1366597265 0.1785495281 6.490113838e-41
0.08315366507 -0.1670249999 0.1573214084 6.490113838e-41
0.06782259047 -0.1930708587 0.3391461372 6.490113838e-41
0.03883993253 -0.2143874466 0.4103878736 6.490113838e-41
0.1083790809 -0.265670985 0.2553626895 6.490113838e-41
0.04122709855 -0.119768858 0.1598695517 6.490113838e-41
0.06870032847 -0.2566528916 0.2117331922 6.490113838e-41
0.04098523036 -0.1163082644 0.2382039279 6.490113838e-41
0.1209683567 -0.1473391205 0.170134455 6.490113838e-41
0.05613568798 0.0194580555 0.1514127851 6.490113838e-41
0.06883764267 -0.2794613242 0.3290581703 6.490113838e-41
0.06222138181 -0.1406523734 0.362935245 6.490113838e-41
0.03901908919 -0.143570587 0.3857101202 6.490113838e-41
0.04319082573 0.01140612364 0.3306207657 6.490113838e-41
0.05994841829 -0.0786389485 0.3470298648 6.490113838e-41
0.05704383925 -0.2195432484 0.3788062334 6.490113838e-41
0.1047537923 -0.176447168 0.170246765 6.490113838e-41
0.06243671104 -0.2441064417 0.2067757398 6.490113838e-41
0.04543862864 -0.009746097028 0.3296629786 6.490113838e-41
0.02196813002 0.01589615643 0.2246245891 6.490113838e-41
0.0209669359 -0.09299941361 0.1792353839 6.490113838e-41
0.1183974743 -0.2699716091 0.1894384474 6.490113838e-41
0.03154205903 0.04113137722 0.2637227774 6.490113838e-41
0.06866723299 -0.2528641522 0.1930978 6.490113838e-41
0.06785456836 -0.1400150508 0.3272577822 6.490113838e-41
0.04843116179 -0.03616441041 0.3167420328 6.490113838e-41
0.09310562909 -0.08629156649 0.145694539 6.490113838e-41
0.06187436357 -0.1550556868 0.3750126362 6.490113838e-41
0.03862748668 -0.1524652988 0.3890823424 6.490113838e-41
0.03687358275 0.04652895033 0.2811960578 6.490113838e-41
0.04395353422 0.005495965481 0.351362884 6.490113838e-41
0.06181278452 -0.2622488737 0.3783649802 6.490113838e-41
0.04510381445 -0.1070845276 0.358227849 6.490113838e-41
0.1042784005 -0.1201919392 0.1560597122 6.490113838e-41
0.03894067928 -0.004515066743 0.1570037752 6.490113838e-41
0.08635595441 -0.1525359899 0.1563128084 6.490113838e-41
0.0333228372 0.01152484119 0.1831365228 6.490113838e-41
0.05390198156 -0.17209512 0.3699395657 6.490113838e-41
0.1085393876 -0.0156300813 0.129216522 6.490113838e-41
0.06279280782 -0.1534890831 0.1590849906 6.490113838e-41
0.1098638028 -0.2897705734 0.1942266673 6.490113838e-41
0.1220023781 -0.2465942651 0.1855380386 6.490113838e-41
0.1175201088 -0.2261643559 0.2430949956 6.490113838e-41
0.04165408388 -0.1013674885 0.2500879169 6.490113838e-41
0.05289560184 -0.2591164708 0.3505897522 6.490113838e-41
0.1096808612 -0.1211044565 0.1595291495 6.490113838e-41
0.06135974452 -0.1794320494 0.3895395696 6.490113838e-41
0.1460962147 -0.1403434873 0.1775895506 6.490113838e-41
0.0540718101 -0.008284583688 0.147440657 6.490113838e-41
0.05037008598 -0.1551680714 0.2646124363 6.490113838e-41
0.0397493057 -0.06463976204 0.2405835539 6.490113838e-41
0.09737120569 -0.1263216883 0.1546327323 6.490113838e-41
0.1168637723 -0.001724183559 0.127378121 6.490113838e-41
0.0786459893 -0.2795475125 0.3130147457 6.490113838e-41
0.1090439707 -0.01171472669 0.1289314479 6.490113838e-41
0.03950381652 0.04213793576 0.1790676564 6.490113838e-41
0.09390683472 -0.19306463 0.2945305109 6.490113838e-41
0.03634467348 0.008300870657 0.2601871192 6.490113838e-41
0.05642253533 -0.1338478029 0.311237812 6.490113838e-41
0.02302826568 0.007461890578 0.2305385023 6.490113838e-41
0.05379323289 -0.2633229494 0.3859317303 6.490113838e-41
0.1137981117 -0.2132721841 0.2507668734 6.490113838e-41
0.04494008794 -0.2371057719 0.4059244394 6.490113838e-41
0.04470374808 -0.1202824712 0.2520492673 6.490113838e-41
0.1235156506 -0.2170379162 0.1825198233 6.490113838e-41
0.04562341794 0.06004816294 0.1742736101 6.490113838e-41
0.05134164169 0.06723484397 0.1713472456 6.490113838e-41
0.05862651393 -0.2322281003 0.2183688432 6.490113838e-41
0.03261844441 -0.1214372069 0.1683748215 6.490113838e-41
0.09767340124 -0.2909403443 0.2265653461 6.490113838e-41
0.0298072435 -0.1395813227 0.1868719459 6.490113838e-41
0.03152660653 0.02265533805 0.2558860779 6.490113838e-41
0.05849227682 -0.2315455526 0.3798164427 6.490113838e-41
0.1049845219 -0.1580861658 0.1667876244 6.490113838e-41
0.05295128748 -0.2338051647 0.3482147455 6.490113838e-41
0.05573963746 -0.06367032975 0.1486471593 6.490113838e-41
0.03552627191 0.000650420785 0.253887862 6.490113838e-41
0.07065965235 -0.2688425183 0.2276143879 6.490113838e-41
0.05204996094 -0.2365905046 0.3067007363 6.490113838e-41
0.05076522753 -0.237858057 0.3828765452 6.490113838e-41
0.02404587343 0.04579851031 0.2434587926 6.490113838e-41
0.05871697143 -0.2368302643 0.2460829169 3.015101038e-39
0.08179315925 -0.1016234383 0.1471671015 3.015101038e-39
0.07439054549 -0.1443395615 0.3317307234 3.015101038e-39
0.1048537046 -0.2513852715 0.1650330722 3.015101038e-39
0.09366962314 -0.3110069036 0.2255620062 3.015101038e-39
0.05297996476 -0.1937186569 0.1936417073 3.015101038e-39
0.07197627425 -0.1174316853 0.3321949542 3.015101038e-39
0.05616934225 -0.0177577436 0.2834286094 3.015101038e-39
0.0847234726 -0.2115625739 0.3244875669 3.015101038e-39
0.08798004687 0.005391731858 0.1340860277 3.015101038e-39
0.037682008 -0.02907238156 0.219092533 3.015101038e-39
0.06168451533 -0.1007252783 0.2705975771 3.015101038e-39
0.06756719947 -0.03082244098 0.382312268 3.015101038e-39
0.1080702543 -0.2607340217 0.2860909104 3.015101038e-39
0.03462893888 0.04825924337 0.1906278133 3.015101038e-39
0.05998056009 -0.06207332015 0.2660666406 3.015101038e-39
0.03570893779 -0.0435885489 0.1861934066 3.015101038e-39
0.1324020028 -0.1880446374 0.1719327271 3.015101038e-39
0.1601254642 -0.09050941467 0.1733584702 3.015101038e-39
0.05875545368 -0.2369748354 0.2594225407 3.015101038e-39
0.06181661412 -0.2545427084 0.227609396 3.015101038e-39
0.05942338333 -0.2237135619 0.3043605685 3.015101038e-39
0.07613800466 -0.07520952821 0.364233911 3.015101038e-39
0.06994476914 -0.2640476227 0.3716573715 3.015101038e-39
0.05182385817 -0.0378818661 0.2485515028 3.015101038e-39
0.05113982037 -0.2298444211 0.3969851732 3.015101038e-39
0.064929232 -0.158293426 0.3318394125 3.015101038e-39
0.04946556315 -0.1636244208 0.1922717541 3.015101038e-39
0.03553200886 -0.01474182308 0.2215697467 3.015101038e-39
0.071352005 -0.103650108 0.3150452673 3.015101038e-39
0.1334571689 -0.1108063236 0.158059448 3.015101038e-39
0.03860135749 -0.06549220532 0.2061858326 3.015101038e-39
0.05721126869 -0.1815995574 0.2423923761 3.015101038e-39
0.04747347906 -0.2257643342 0.4071098864 3.015101038e-39
0.03793035075 -0.04510143399 0.1817555875 3.015101038e-39
0.06853285432 0.06227838993 0.1631788164 3.015101038e-39
0.05758545175 -0.01949953288 0.292340219 3.015101038e-39
0.05378805473 -0.1237068996 0.2278223634 3.015101038e-39
0.06515352428 -0.2502842844 0.1941801608 3.015101038e-39
0.08345416188 0.006272405386 0.1377741843 3.015101038e-39
0.0893085897 -0.3039579988 0.2832220793 3.015101038e-39
0.06040796265 -0.1885200441 0.3407554626 3.015101038e-39
0.04771152511 -0.1267073154 0.1694981605 3.015101038e-39
0.07628329098 -0.08247949183 0.3471587598 3.015101038e-39
0.04461580142 -0.1352076381 0.3854227364 3.015101038e-39
0.05506811664 -0.2021194994 0.2066560537 3.015101038e-39
0.0535707064 -0.1524585485 0.218639195 3.015101038e-39
0.1561126858 -0.1502429098 0.1811257899 3.015101038e-39
0.1043354422 -0.1863390058 0.1590569466 3.015101038e-39
0.07977038622 -0.1515193582 0.3248595595 3.015101038e-39
0.03955775872 -0.1725518107 0.4039569795 3.015101038e-39
0.1209865063 -0.2222953141 0.2501520813 3.015101038e-39
0.07146018744 -0.1416389048 0.1591445506 3.015101038e-39
0.07695271075 -0.293952018 0.2088129818 3.015101038e-39
0.05539282784 -0.1434374154 0.2300323695 3.015101038e-39
0.1350030154 -0.161291495 0.1690530479 3.015101038e-39
0.07716344297 0.01048234105 0.1423754096 3.015101038e-39
0.08310504258 -0.286988914 0.3370440602 3.015101038e-39
0.06839355826 -0.1528677493 0.367872417 3.015101038e-39
0.04302084818 -0.1021091193 0.3760790527 3.015101038e-39
0.05473417416 -0.0001051723957 0.3216878176 3.015101038e-39
0.0751824528 -0.08949292451 0.3394261897 3.015101038e-39
0.06136258319 -0.1791211963 0.3710906506 3.015101038e-39
0.1208914071 -0.2010440826 0.1668095887 3.015101038e-39
0.07140366733 -0.2732124925 0.1993888617 3.015101038e-39
0.05959557369 -0.02080223709 0.3216865361 3.015101038e-39
0.02835338935 0.002975210547 0.2093908191 3.015101038e-39
0.04531647637 -0.1182717308 0.1725371331 3.015101038e-39
0.1365334839 -0.2676002979 0.1875807941 3.015101038e-39
0.04008433595 0.03355276585 0.2487442046 3.015101038e-39
0.07835127413 -0.2809952497 0.1864915937 3.015101038e-39
0.07906524837 -0.1032654941 0.313541472 3.015101038e-39
0.06378233433 -0.04907335341 0.3051624298 3.015101038e-39
0.1139571816 -0.09265922755 0.142520085 3.015101038e-39
0.06635080278 -0.1681419462 0.3801037669 3.015101038e-39
0.04272836819 -0.1111272946 0.3796636462 3.015101038e-39
0.04262227193 0.03966411948 0.2664533854 3.015101038e-39
0.05743683502 -0.004967585206 0.3440037668 3.015101038e-39
0.06549084187 -0.2290426195 0.3749505579 3.015101038e-39
0.05617656186 -0.06720632315 0.3434300423 3.015101038e-39
0.1223570704 -0.1305342466 0.1572311968 3.015101038e-39
0.05872165784 -0.01449403912 0.1501958221 3.015101038e-39
0.1087047011 -0.1689904779 0.1579545736 3.015101038e-39
0.04335697368 -0.0008170455694 0.1680279076 3.015101038e-39
0.05992167071 -0.1350362599 0.3577330112 3.015101038e-39
0.1292992681 -0.01356805116 0.1301786005 3.015101038e-39
0.09126716852 -0.1718288362 0.1563454866 3.015101038e-39
0.1359817088 -0.2844648063 0.1952114701 3.015101038e-39
0.1342426836 -0.2499093711 0.1837824136 3.015101038e-39
0.1284498125 -0.1832486689 0.2361630946 3.015101038e-39
0.05603378639 -0.1251830012 0.2423409671 3.015101038e-39
0.06206445768 -0.283367604 0.3572889864 3.015101038e-39
0.1284707785 -0.132551834 0.1605458707 3.015101038e-39
0.0618169643 -0.1952330768 0.3944200575 3.015101038e-39
0.1531425864 -0.1539699286 0.1806452125 3.015101038e-39
0.07811832428 -0.01544442773 0.1381545663 3.015101038e-39
0.0581994094 -0.1838108301 0.2540364265 3.015101038e-39
0.05295068398 -0.08833050728 0.2327831984 3.015101038e-39
0.1156805009 -0.1373515725 0.1552888453 3.015101038e-39
0.1382754296 0.002808138728 0.1307970583 3.015101038e-39
0.09178745747 -0.2728462815 0.3171595931 3.015101038e-39
0.129699558 -0.008409649134 0.1295000017 3.015101038e-39
0.05030203983 0.03433130682 0.1671020389 3.015101038e-39
0.1007577181 -0.1480577141 0.2800830901 3.015101038e-39
0.04494275525 -0.004656776786 0.2462992221 3.015101038e-39
0.06376092136 -0.1504832506 0.3026731908 3.015101038e-39
0.03077914193 -0.005850479007 0.2160920054 3.015101038e-39
0.05816987529 -0.2475246787 0.3890202343 3.015101038e-39
0.1232961714 -0.1696172357 0.2414098829 3.015101038e-39
0.04591055587 -0.2012981176 0.4008302093 3.015101038e-39
0.0573640354 -0.1451295912 0.2430520207 3.015101038e-39
0.1341419369 -0.2360119522 0.1833636016 3.015101038e-39
0.05522997305 0.05258154869 0.1661152989 3.015101038e-39
0.06101825461 0.05998922884 0.1642100364 3.015101038e-39
0.06610324979 -0.2618219852 0.2077652812 3.015101038e-39
0.06021248922 -0.1487592459 0.1638289243 3.015101038e-39
0.1234466583 -0.2821992934 0.2315008491 3.015101038e-39
0.05003364757 -0.1757582128 0.1789318472 3.015101038e-39
0.04016439989 0.01258648932 0.2401859909 3.015101038e-39
0.06257171929 -0.191161871 0.3718509078 3.015101038e-39
0.1220554113 -0.1759328842 0.1650537252 3.015101038e-39
0.05904374644 -0.2634440958 0.3483614326 3.015101038e-39
0.08309136331 -0.0758651495 0.1413029581 3.015101038e-39
0.04437194392 -0.01401213557 0.2404825836 3.015101038e-39
0.08126267791 -0.3040745258 0.232471928 3.015101038e-39
0.06254549325 -0.2757062912 0.3029251695 3.015101038e-39
0.0544786416 -0.2517208755 0.386782378 3.015101038e-39
0.03068441525 0.03662790358 0.2271895111 3.015101038e-39
0.06795319915 -0.2579108477 0.231460169 5.962428276e-39
0.09844274819 -0.1089488789 0.1475433111 5.962428276e-39
0.08991701901 -0.1347948015 0.3130817413 5.962428276e-39
0.1249035597 -0.2678290606 0.1691100895 5.962428276e-39
0.1171042025 -0.3263691068 0.2166120857 5.962428276e-39
0.06255562603 -0.2077572346 0.1875240058 5.962428276e-39
0.07903157175 -0.127238974 0.3200806379 5.962428276e-39
0.06044423953 -0.02325581759 0.2722361386 5.962428276e-39
0.1018830091 -0.2019348294 0.3060668707 5.962428276e-39
0.1052711159 -0.0001039803028 0.1372569352 5.962428276e-39
0.04561370239 -0.03591222316 0.2103710473 5.962428276e-39
0.0697568357 -0.1107757613 0.2604420781 5.962428276e-39
0.07508955896 -0.03888748586 0.3718394637 5.962428276e-39
0.1297093034 -0.2532714307 0.2707344294 5.962428276e-39
0.04288694635 0.04219526052 0.1804797351 5.962428276e-39
0.06731535494 -0.07010661811 0.2568046153 5.962428276e-39
0.04630002752 -0.05068917572 0.1756576598 5.962428276e-39
0.1566461474 -0.1989115775 0.1755843461 5.962428276e-39
0.1811692119 -0.1016681269 0.1771665961 5.962428276e-39
0.06824606657 -0.2594868541 0.2448351532 5.962428276e-39
0.0714327544 -0.2760500312 0.2129278332 5.962428276e-39
0.06972028315 -0.2466325462 0.2885218561 5.962428276e-39
0.08527100086 -0.08486866951 0.3528097272 5.962428276e-39
0.07804879546 -0.2580014467 0.3583621979 5.962428276e-39
0.05770559981 -0.0451060161 0.2391105443 5.962428276e-39
0.05750210211 -0.2194246054 0.3809438944 5.962428276e-39
0.07171276212 -0.1747134328 0.3213800788 5.962428276e-39
0.05986878648 -0.1743614972 0.1899829805 5.962428276e-39
0.04254409298 -0.02109570801 0.2119338512 5.962428276e-39
0.07810044289 -0.1134542078 0.3036476076 5.962428276e-39
0.1580902785 -0.1213444173 0.1632256955 5.962428276e-39
0.04909804836 -0.07429067045 0.2012331039 5.962428276e-39
0.06804409623 -0.199565202 0.2317037731 5.962428276e-39
0.05322443321 -0.2182638496 0.3922358155 5.962428276e-39
0.04869632795 -0.05206891894 0.1718004793 5.962428276e-39
0.08265653253 0.05608306825 0.1628481448 5.962428276e-39
0.06290537119 -0.02574970573 0.2815339565 5.962428276e-39
0.06459137797 -0.1353676319 0.2188283056 5.962428276e-39
0.078119874 -0.2656066418 0.1835310906 5.962428276e-39
0.1011522114 0.000804901123 0.1398038268 5.962428276e-39
0.1032101214 -0.3082281351 0.2746680975 5.962428276e-39
0.06839782 -0.2118479013 0.3285409212 5.962428276e-39
0.06172179058 -0.1366083026 0.1689504385 5.962428276e-39
0.08364236355 -0.09087044001 0.3361070752 5.962428276e-39
0.0503202565 -0.1242873594 0.3692527413 5.962428276e-39
0.06434984505 -0.219959721 0.1980609894 5.962428276e-39
0.06475356221 -0.1652359962 0.2106821686 5.962428276e-39
0.1760220677 -0.1596212238 0.1827492416 5.962428276e-39
0.1266037971 -0.2026126385 0.1640012711 5.962428276e-39
0.09624634683 -0.1407106817 0.307096988 5.962428276e-39
0.04331504181 -0.1570296288 0.3875868618 5.962428276e-39
0.1474123448 -0.2217962742 0.2380892485 5.962428276e-39
0.08610834181 -0.1519085765 0.160418883 5.962428276e-39
0.09174877405 -0.3150549829 0.1988436729 5.962428276e-39
0.06669980288 -0.1572011411 0.2216214687 5.962428276e-39
0.1589481831 -0.1726844311 0.1727021039 5.962428276e-39
0.09393124282 0.005273729563 0.1431145668 5.962428276e-39
0.09382732213 -0.2913374901 0.3258770406 5.962428276e-39
0.07480444014 -0.1666736454 0.3594369888 5.962428276e-39
0.04910094664 -0.09107358754 0.358204037 5.962428276e-39
0.06119965389 -0.004134744406 0.3102010787 5.962428276e-39
0.08258236945 -0.09800450504 0.3281446993 5.962428276e-39
0.06981438398 -0.1702211201 0.3536135852 5.962428276e-39
0.1415280104 -0.2149207592 0.1696219146 5.962428276e-39
0.08349998295 -0.2922819853 0.1866706163 5.962428276e-39
0.06768211722 -0.02643299848 0.3115021288 5.962428276e-39
0.03598950431 -0.0008480399847 0.1996751726 5.962428276e-39
0.05885933712 -0.1297635287 0.1693423688 5.962428276e-39
0.1618409008 -0.271974504 0.1881875247 5.962428276e-39
0.04285861179 0.02921076119 0.2322998941 5.962428276e-39
0.08996804059 -0.3028686643 0.1759953201 5.962428276e-39
0.09414926171 -0.09583022445 0.2928630412 5.962428276e-39
0.07284747064 -0.05722945929 0.2956019938 5.962428276e-39
0.1341781914 -0.09923968464 0.1461378336 5.962428276e-39
0.07221607864 -0.1817783266 0.3716681898 5.962428276e-39
0.04839577153 -0.1000955701 0.3625665307 5.962428276e-39
0.04575007781 0.035871014 0.2510018945 5.962428276e-39
0.06446379423 -0.01048915833 0.3344948292 5.962428276e-39
0.07393607497 -0.2219174802 0.3594247699 5.962428276e-39
0.06730052829 -0.05794329941 0.3198753893 5.962428276e-39
0.1469724774 -0.1433472633 0.1611841321 5.962428276e-39
0.07675474882 -0.01978927106 0.1491794586 5.962428276e-39
0.1305963397 -0.1849749684 0.1620161235 5.962428276e-39
0.05412287638 -0.006582006812 0.1613112986 5.962428276e-39
0.07138606906 -0.1245520785 0.3395700157 5.962428276e-39
0.1496807486 -0.01561244577 0.137008667 5.962428276e-39
0.1086690426 -0.1836727411 0.1590780467 5.962428276e-39
0.1594467163 -0.2873483896 0.1921517998 5.962428276e-39
0.1613179445 -0.2524870038 0.1842392534 5.962428276e-39
0.152028203 -0.1851146072 0.2240609378 5.962428276e-39
0.06604926288 -0.1373995394 0.2326272726 5.962428276e-39
0.0730727762 -0.2974737585 0.3488994539 5.962428276e-39
0.1533307284 -0.1448819339 0.1645384282 5.962428276e-39
0.0671787113 -0.2116695344 0.3868786097 5.962428276e-39
0.1738494635 -0.1628237814 0.182459414 5.962428276e-39
0.09449981153 -0.02225824445 0.1371709406 5.962428276e-39
0.06853927672 -0.2030059993 0.2425842434 5.962428276e-39
0.0609296225 -0.09733014554 0.2221103907 5.962428276e-39
0.1393801421 -0.1514063179 0.1594717056 5.962428276e-39
0.1600620896 -0.0005554407835 0.138344273 5.962428276e-39
0.1050501466 -0.2640356123 0.3021449745 5.962428276e-39
0.1507313102 -0.01079469174 0.1363976896 5.962428276e-39
0.0611676313 0.02749295533 0.1621182263 5.962428276e-39
0.1254404038 -0.1468863189 0.2637751698 5.962428276e-39
0.04891950265 -0.01062072814 0.2326725274 5.962428276e-39
0.07162493467 -0.1647170037 0.2895202041 5.962428276e-39
0.03846733645 -0.01091321558 0.2067161351 5.962428276e-39
0.06563127041 -0.2423751652 0.3748998642 5.962428276e-39
0.1472675055 -0.1713431478 0.2267132252 5.962428276e-39
0.05091775581 -0.1877985597 0.3844060898 5.962428276e-39
0.06803239882 -0.1615564227 0.2330843061 5.962428276e-39
0.1578652263 -0.2399704158 0.1834412366 5.962428276e-39
0.06793546677 0.04573440552 0.1638721526 5.962428276e-39
0.07618568838 0.0540895611 0.1640012562 5.962428276e-39
0.07743303478 -0.2802360654 0.1952571422 5.962428276e-39
0.07394514978 -0.1591467261 0.1670502126 5.962428276e-39
0.1510379612 -0.2834266126 0.2201947868 5.962428276e-39
0.06138009951 -0.1864153743 0.1760289222 5.962428276e-39
0.04426917061 0.006460636854 0.2253972888 5.962428276e-39
0.07092583179 -0.1830770522 0.3546507955 5.962428276e-39
0.1440473199 -0.1912865937 0.1680146158 5.962428276e-39
0.0702341795 -0.2883571982 0.339396596 5.962428276e-39
0.1003269851 -0.08154191077 0.1422412544 5.962428276e-39
0.04886272177 -0.02029195428 0.2275914699 5.962428276e-39
0.09954711795 -0.3228831291 0.2239326835 5.962428276e-39
0.07456918061 -0.2997906208 0.2948772013 5.962428276e-39
0.06577403843 -0.2652506232 0.3786068857 5.962428276e-39
0.03709090874 0.03253364563 0.2166676819 5.962428276e-39
0.07389749587 -0.2827720046 0.2289649844 8.906165387e-39
0.111922875 -0.129383713 0.1440394074 8.906165387e-39
0.1018849015 -0.1004004776 0.3014066815 8.906165387e-39
0.1452168673 -0.2894251347 0.1609660983 8.906165387e-39
0.1398701817 -0.3150660396 0.2134709358 8.906165387e-39
0.06941397488 -0.2380767763 0.1677964777 8.906165387e-39
0.0807273984 -0.1446498483 0.322211951 8.906165387e-39
0.0641361326 -0.03928782046 0.2562410831 8.906165387e-39
0.1139176488 -0.1632794142 0.294704318 8.906165387e-39
0.1168566942 -0.009600393474 0.1308616251 8.906165387e-39
0.04948751256 -0.05444804579 0.1944485754 8.906165387e-39
0.07354924083 -0.1402335167 0.2488297373 8.906165387e-39
0.08651593328 -0.053485699 0.3624790907 8.906165387e-39
0.1410037726 -0.2125895172 0.2615462244 8.906165387e-39
0.05386729166 0.03435243666 0.1677114815 8.906165387e-39
0.06940884888 -0.09182140976 0.2397421747 8.906165387e-39
0.05139924958 -0.0687360242 0.158465758 8.906165387e-39
0.1753248721 -0.2199225128 0.1741775125 8.906165387e-39
0.1952468306 -0.1169937328 0.1771046072 8.906165387e-39
0.07494500279 -0.2840972841 0.2456060797 8.906165387e-39
0.07864123583 -0.3001265824 0.2100545317 8.906165387e-39
0.07566586137 -0.2750971913 0.2878572643 8.906165387e-39
0.09051433206 -0.09533730149 0.3472599983 8.906165387e-39
0.08240775764 -0.2233066261 0.3509761691 8.906165387e-39
0.05943616852 -0.06346260756 0.2202363014 8.906165387e-39
0.06163462624 -0.1876627803 0.3841060698 8.906165387e-39
0.07544903457 -0.2121174037 0.3215655088 8.906165387e-39
0.06707069278 -0.2054813802 0.1695709229 8.906165387e-39
0.04575288668 -0.03774080426 0.1957203746 8.906165387e-39
0.0803732127 -0.1329135299 0.2984268963 8.906165387e-39
0.1773762554 -0.143889904 0.1631205976 8.906165387e-39
0.05528100953 -0.1020917147 0.1838209033 8.906165387e-39
0.07093513012 -0.2362662256 0.2258850932 8.906165387e-39
0.0557657592 -0.1878038645 0.397516638 8.906165387e-39
0.05411558971 -0.06942086667 0.1555364728 8.906165387e-39
0.09278565645 0.05098490417 0.1540785581 8.906165387e-39
0.06666435301 -0.04103562236 0.2648282647 8.906165387e-39
0.07157371938 -0.1685757935 0.2071618885 8.906165387e-39
0.08676192164 -0.2913132012 0.1642331034 8.906165387e-39
0.1109321117 -0.009348526597 0.1334454715 8.906165387e-39
0.1186016798 -0.287522018 0.2747648656 8.906165387e-39
0.07550619543 -0.2423543483 0.3287074864 8.906165387e-39
0.07341052592 -0.1623842567 0.1542928666 8.906165387e-39
0.0887914449 -0.1041236222 0.3310344219 8.906165387e-39
0.05834030733 -0.08559438586 0.365971595 8.906165387e-39
0.07039004564 -0.2505100667 0.1860225648 8.906165387e-39
0.07024177909 -0.2001422346 0.1968340725 8.906165387e-39
0.1857427508 -0.1541071385 0.1748406738 8.906165387e-39
0.1439431012 -0.2307695746 0.1591815799 8.906165387e-39
0.1074407995 -0.1089958251 0.2948966026 8.906165387e-39
0.04839119688 -0.1214162484 0.3927074969 8.906165387e-39
0.1575993747 -0.1847287714 0.2268296182 8.906165387e-39
0.1004693657 -0.1748589128 0.1513873488 8.906165387e-39
0.1085716635 -0.3286174536 0.1946669966 8.906165387e-39
0.07213969529 -0.1920981258 0.2095033228 8.906165387e-39
0.1778906435 -0.1949171722 0.1723342091 8.906165387e-39
0.1039155722 -0.003998592496 0.1362296194 8.906165387e-39
0.09926372766 -0.2541948259 0.3193407357 8.906165387e-39
0.07427950203 -0.1850963384 0.3645521402 8.906165387e-39
0.06070802733 -0.05502269417 0.3507281542 8.906165387e-39
0.06645932794 -0.01972358674 0.2951655686 8.906165387e-39
0.08637319505 -0.1134840548 0.3248542845 8.906165387e-39
0.0777284354 -0.1339434087 0.3453319967 8.906165387e-39
0.16180709 -0.2428586483 0.166737929 8.906165387e-39
0.09556061029 -0.3176907897 0.1765129268 8.906165387e-39
0.07291848958 -0.04231856763 0.2939235866 8.906165387e-39
0.04046203569 -0.01537518203 0.1817270517 8.906165387e-39
0.0707488209 -0.154754445 0.1556105465 8.906165387e-39
0.1803065538 -0.2529700398 0.177639693 8.906165387e-39
0.04343852028 0.01211965084 0.2162521034 8.906165387e-39
0.1047091782 -0.3259230852 0.1660217792 8.906165387e-39
0.1021295339 -0.06845602393 0.2810978591 8.906165387e-39
0.07639555633 -0.07296894491 0.2777653635 8.906165387e-39
0.1539549977 -0.1196044013 0.1474857181 8.906165387e-39
0.07222813368 -0.2023216188 0.3791842461 8.906165387e-39
0.05931827798 -0.06266230345 0.3571420014 8.906165387e-39
0.04726650938 0.02075755596 0.2351697832 8.906165387e-39
0.07241742313 -0.02531329542 0.3210277557 8.906165387e-39
0.07872983813 -0.1884125918 0.3516905308 8.906165387e-39
0.08003531396 -0.03608927131 0.3109384477 8.906165387e-39
0.1666070819 -0.1658370048 0.1604837775 8.906165387e-39
0.08684921265 -0.03145135194 0.1391120851 8.906165387e-39
0.1482895911 -0.2112724185 0.1591315567 8.906165387e-39
0.06559900939 -0.01706489176 0.1483916342 8.906165387e-39
0.08232742548 -0.08410403132 0.3276069164 8.906165387e-39
0.1653654426 -0.0234528631 0.138926506 8.906165387e-39
0.1267335415 -0.209280014 0.154525578 8.906165387e-39
0.1768037826 -0.2658469081 0.1817655861 8.906165387e-39
0.1810441464 -0.2390369773 0.1721702665 8.906165387e-39
0.1574620306 -0.148052305 0.2112791389 8.906165387e-39
0.07238978148 -0.1710606515 0.2215209603 8.906165387e-39
0.07999068499 -0.2886875868 0.3565903902 8.906165387e-39
