# .PCD v0.7 - Point Cloud Data file format
VERSION 0.7
FIELDS x y z rgb
SIZE 4 4 4 4
TYPE F F F F
COUNT 1 1 1 1
WIDTH 801
HEIGHT 1
VIEWPOINT 0 0 0 1 0 0 0
POINTS 801
DATA ascii
-0.05467697605 0.001327682287 0.08076915145 1.184631237e-38
-0.05487561971 0.001260259189 0.08073230088 1.184631237e-38
-0.05456869304 0.001330366824 0.08088746667 1.184631237e-38
-0.05458502471 0.001329418272 0.08087901771 1.184631237e-38
-0.05493663996 0.001244346146 0.08071260899 1.184631237e-38
-0.0549203828 0.001275065821 0.08064661175 1.184631237e-38
-0.05491521582 0.001254389528 0.08075102419 1.184631237e-38
-0.05489991605 0.001279535936 0.08065088093 1.184631237e-38
-0.05480689183 0.001306390157 0.08064962178 1.184631237e-38
-0.05495857447 0.001285222359 0.08061648905 1.184631237e-38
-0.05474734679 0.00128645543 0.08079650253 1.184631237e-38
-0.05461562425 0.00132461777 0.08086103201 1.184631237e-38
-0.05466426909 0.001281867269 0.08089184761 1.184631237e-38
-0.05462902784 0.001329439227 0.08082778752 1.184631237e-38
-0.05497925729 0.001254179049 0.08063438535 1.184631237e-38
-0.05484387279 0.001297986601 0.08063204587 1.184631237e-38
-0.05467863753 0.00132986065 0.08075025678 1.184631237e-38
-0.05468288064 0.0013331261 0.08069337159 1.184631237e-38
-0.05476594716 0.001303501427 0.08073087037 1.184631237e-38
-0.05466731638 0.001293659443 0.08085346222 1.184631237e-38
-0.05464499071 0.001328064362 0.08080808818 1.184631237e-38
-0.05461172014 0.001333141932 0.08083666861 1.184631237e-38
-0.05479229242 0.001299409429 0.08072063327 1.184631237e-38
-0.05496255308 0.001235187985 0.08076457679 1.184631237e-38
-0.05475007743 0.001306978986 0.08073427528 1.184631237e-38
-0.0546201691 0.00132589275 0.08085308224 1.184631237e-38
-0.05490061641 0.001288753701 0.08063952625 1.184631237e-38
-0.05500375479 0.001229217043 0.08065760136 1.184631237e-38
-0.05499307439 0.001231812872 0.08066611737 1.184631237e-38
-0.0548780486 0.001280291472 0.08065925539 1.184631237e-38
-0.0546137318 0.001329064602 0.08085065335 1.184631237e-38
-0.05474471301 0.001267572399 0.08087211102 1.184631237e-38
-0.05462884903 0.001333313063 0.0807999149 1.184631237e-38
-0.05491114035 0.001289023319 0.08063406497 1.184631237e-38
-0.05474187434 0.001314411638 0.08070647717 1.184631237e-38
-0.05499250069 0.001254842617 0.08062830567 1.184631237e-38
-0.05497611687 0.001231539994 0.08073502034 1.184631237e-38
-0.054668203 0.00131301675 0.08082842827 1.184631237e-38
-0.054748483 0.001282977173 0.08082039654 1.184631237e-38
-0.05476092547 0.001314687077 0.08067326248 1.184631237e-38
-0.05495859683 0.001237019431 0.08076291531 1.184631237e-38
-0.05478187278 0.001300496282 0.08071979135 1.184631237e-38
-0.05488228425 0.001290376065 0.08064614236 1.184631237e-38
-0.05493233353 0.001243803417 0.08079220355 1.184631237e-38
-0.0547352694 0.001282339217 0.08084303886 1.184631237e-38
-0.05505529046 0.001265643397 0.0805824697 1.184631237e-38
-0.05489302427 0.0012825632 0.08065145463 1.184631237e-38
-0.0549823381 0.001231197501 0.0806972906 1.184631237e-38
-0.05494366586 0.001285576029 0.08062465489 1.184631237e-38
-0.05502784252 0.00123826717 0.08061745763 1.184631237e-38
-0.0547581315 0.001311658416 0.08069866896 1.184631237e-38
-0.05498731136 0.001279116608 0.08061031252 1.184631237e-38
-0.05481930822 0.001283486374 0.08072493225 1.184631237e-38
-0.05456837267 0.00135096442 0.08081623912 1.184631237e-38
-0.05480319262 0.001298465068 0.08069221675 1.184631237e-38
-0.05476043746 0.00131303072 0.08068179339 1.184631237e-38
-0.05450190604 0.001343020238 0.08091653883 1.184631237e-38
-0.0545095019 0.001321825664 0.08093547076 1.184631237e-38
-0.05509202927 0.001236925367 0.08059021086 1.184631237e-38
-0.05501347035 0.001213002019 0.08076845855 1.184631237e-38
-0.05494998395 0.001240114681 0.08070799708 1.184631237e-38
-0.05470024049 0.001329564257 0.08068648726 1.184631237e-38
-0.05465117097 0.001338367816 0.08073844761 1.184631237e-38
-0.05498158559 0.001256720163 0.08063200116 1.184631237e-38
-0.05472495034 0.001310862601 0.08077007532 1.184631237e-38
-0.05470738932 0.001325551886 0.08067839593 1.184631237e-38
-0.05448377132 0.001323893201 0.08095619082 1.184631237e-38
-0.05485908687 0.001269672532 0.08080150187 1.184631237e-38
-0.05454982072 0.001319557661 0.08090658486 1.184631237e-38
-0.05501814559 0.001249676105 0.08061955124 1.184631237e-38
-0.05500427261 0.001264915103 0.08061813563 1.184631237e-38
-0.05494705215 0.001225111075 0.08082004637 1.184631237e-38
-0.05498847365 0.001234877855 0.08065463603 1.184631237e-38
-0.05486752838 0.001293750014 0.08062826097 1.184631237e-38
-0.05475357175 0.001282784389 0.08079646528 1.184631237e-38
-0.05462018028 0.001335378271 0.08080487698 1.184631237e-38
-0.05481367558 0.001295061549 0.08069760352 1.184631237e-38
-0.05492636934 0.001231750008 0.080825001 1.184631237e-38
-0.05475464836 0.001305590617 0.08073622733 1.184631237e-38
-0.05493090302 0.001285068225 0.08063080162 1.184631237e-38
-0.05479254574 0.001299969153 0.08069932461 1.184631237e-38
-0.05484415591 0.001244085375 0.08085786551 1.184631237e-38
-0.05495994538 0.001232029637 0.08078645915 1.184631237e-38
-0.05453514308 0.001334580593 0.08090428263 1.771655483e-38
-0.05462392792 0.001333053922 0.08081515878 1.771655483e-38
-0.05494803935 0.001285251463 0.08061587065 1.771655483e-38
-0.05459330603 0.00130160572 0.08090215176 1.771655483e-38
-0.05482482165 0.001303339843 0.08064129204 1.771655483e-38
-0.05470507219 0.001283185789 0.08085490018 1.771655483e-38
-0.05476616696 0.001307921484 0.08069736511 1.771655483e-38
-0.05493678153 0.001243663719 0.08078227192 1.771655483e-38
-0.05446550995 0.001330801751 0.08096162975 1.771655483e-38
-0.05466497689 0.00132154813 0.08080553263 1.771655483e-38
-0.05473643541 0.001296579838 0.08079518378 1.771655483e-38
-0.05496686697 0.001283826074 0.08061308414 1.771655483e-38
-0.05502777174 0.001226737164 0.08063081652 1.771655483e-38
-0.05481186509 0.001258834032 0.08085406572 1.771655483e-38
-0.05491941422 0.001285986276 0.08063476533 1.771655483e-38
-0.05502184108 0.001219321974 0.08070607483 1.771655483e-38
-0.05491410941 0.001254645875 0.08070480824 1.771655483e-38
-0.05467157811 0.001332588028 0.08072220534 1.771655483e-38
-0.05497962981 0.001281807898 0.08060532808 1.771655483e-38
-0.05499744788 0.001227805857 0.08068685979 1.771655483e-38
-0.05504361168 0.001245774096 0.0806100145 1.771655483e-38
-0.05475971475 0.00128099299 0.08083876967 1.771655483e-38
-0.05500260741 0.001268881606 0.08061553538 1.771655483e-38
-0.05480751768 0.001295865979 0.08070769906 1.771655483e-38
-0.05473352596 0.001295621973 0.0808006227 1.771655483e-38
-0.05457931012 0.001337887021 0.08086612076 1.771655483e-38
-0.05465830863 0.001310902881 0.08083980531 1.771655483e-38
-0.05501509085 0.001241057413 0.08062187582 1.771655483e-38
-0.05478172749 0.001278753625 0.0808231011 1.771655483e-38
-0.05477824807 0.001309071435 0.08067368716 1.771655483e-38
-0.0548148565 0.00127116451 0.08076508343 1.771655483e-38
-0.05456144363 0.001321691321 0.08089672774 1.771655483e-38
-0.05482449383 0.001273524482 0.08082249016 1.771655483e-38
-0.0545976311 0.00132125034 0.08087813854 1.771655483e-38
-0.05470781773 0.001290437533 0.08082736284 1.771655483e-38
-0.05453734472 0.00131032127 0.08093533665 1.771655483e-38
-0.05490741506 0.001244331012 0.08082056046 1.771655483e-38
-0.05476085097 0.00128138694 0.08079586923 1.771655483e-38
-0.05467800424 0.001328820363 0.08076067269 1.771655483e-38
-0.05478070676 0.001279306365 0.08083632588 1.771655483e-38
-0.05470990762 0.001304568024 0.0808076784 1.771655483e-38
-0.05497708917 0.001224776031 0.08078429848 1.771655483e-38
-0.05468978733 0.001326134196 0.08075676113 1.771655483e-38
-0.05474735424 0.001300240401 0.08077268302 1.771655483e-38
-0.05478150398 0.001286078244 0.08075448871 1.771655483e-38
-0.0548514314 0.001284178579 0.08068175614 1.771655483e-38
-0.05486658961 0.001277692616 0.08068220317 1.771655483e-38
-0.05470801145 0.001326155383 0.08067832887 1.771655483e-38
-0.05482742935 0.001274071401 0.0808057636 1.771655483e-38
-0.0546134077 0.001349531114 0.08072773367 1.771655483e-38
-0.05466983095 0.001321876189 0.08079730719 1.771655483e-38
-0.0549339056 0.001282111974 0.08063490689 1.771655483e-38
-0.05452478305 0.001314940862 0.08093777299 1.771655483e-38
-0.0547054559 0.001321376767 0.08074620366 1.771655483e-38
-0.05490278453 0.001273853006 0.0806536153 1.771655483e-38
-0.05497778952 0.001230705762 0.08072435111 1.771655483e-38
-0.05490743741 0.001275268849 0.08065086603 1.771655483e-38
-0.05494629964 0.001285634004 0.08061683178 1.771655483e-38
-0.05449653417 0.00133175822 0.08093252033 1.771655483e-38
-0.05478609353 0.001278291922 0.08077302575 1.771655483e-38
-0.05501268804 0.001242681174 0.08062267303 1.771655483e-38
-0.05483549833 0.00128582539 0.08070038259 1.771655483e-38
-0.05452587456 0.001329472754 0.08091332018 1.771655483e-38
-0.05473907292 0.001308801351 0.08075267076 1.771655483e-38
-0.05471037328 0.001302005025 0.08081233501 1.771655483e-38
-0.05489402637 0.001262398669 0.08079154044 1.771655483e-38
-0.05463854969 0.001328233397 0.08081763983 1.771655483e-38
-0.05489756167 0.001261067111 0.08076774329 1.771655483e-38
-0.05493225902 0.001250009751 0.08069721609 1.771655483e-38
-0.05478606001 0.001306663034 0.08067605644 1.771655483e-38
-0.05468023196 0.001284653088 0.08086769283 1.771655483e-38
-0.05447411537 0.001332798507 0.08094996959 1.771655483e-38
-0.05494977534 0.001252711285 0.0806606859 1.771655483e-38
-0.05502723157 0.001215429744 0.08071658015 1.771655483e-38
-0.05476580933 0.001305497019 0.08070168644 1.771655483e-38
-0.05476349592 0.001304073492 0.08072789758 1.771655483e-38
-0.05502546579 0.001249248162 0.08061661571 1.771655483e-38
-0.05485742912 0.001288284082 0.08066429198 1.771655483e-38
-0.05491596088 0.001248820219 0.08080170304 1.771655483e-38
-0.05463095754 0.001331572188 0.08080906421 1.771655483e-38
-0.05454970896 0.001312347362 0.08091985434 1.771655483e-38
-0.05474254116 0.001306661405 0.08076672256 1.771655483e-38
-0.05479630828 0.001295742346 0.08072251827 1.771655483e-38
-0.05469161272 0.001323624514 0.08077178895 1.771655483e-38
-0.05471926928 0.00132492627 0.08068864048 1.771655483e-38
-0.05462126434 0.001347849378 0.08072365075 1.771655483e-38
-0.05469165742 0.001327726059 0.08071099222 1.771655483e-38
-0.05459677428 0.001345897326 0.08079255372 1.771655483e-38
-0.05501802266 0.001216438133 0.08074013889 1.771655483e-38
-0.05478248745 0.001301068813 0.08073145896 1.771655483e-38
-0.05447049066 0.001335754525 0.08094988018 1.771655483e-38
-0.05477678776 0.001257250318 0.0808711797 1.771655483e-38
-0.0548486039 0.00128669804 0.08067397773 1.771655483e-38
-0.05454266816 0.00135133625 0.08086261898 1.771655483e-38
-0.05482688919 0.001270161243 0.08077254891 1.771655483e-38
-0.05497460067 0.001232417068 0.08070290089 1.771655483e-38
-0.05491759256 0.001268908381 0.08065217733 1.771655483e-38
-0.05498054624 0.001255001174 0.08063323796 1.771655483e-38
-0.05473987386 0.001320577925 0.08066859841 1.771655483e-38
-0.05504025146 0.001261315076 0.08060225844 1.771655483e-38
-0.05449195206 0.001330901636 0.08093825728 1.771655483e-38
-0.05458544195 0.001351701794 0.08076617867 1.771655483e-38
-0.05496718362 0.001267830376 0.08063399792 1.771655483e-38
-0.05470329151 0.001272780588 0.08088626713 1.771655483e-38
-0.0549467802 0.001245024847 0.08069223166 1.771655483e-38
-0.0548516959 0.001281382982 0.08069086075 1.771655483e-38
-0.05454761907 0.001320921583 0.08090633154 1.771655483e-38
-0.05485096574 0.001269486034 0.08081639558 1.771655483e-38
-0.05479454249 0.001302554971 0.08068430424 1.771655483e-38
-0.05489033461 0.001262740931 0.08079949021 1.771655483e-38
-0.05478103459 0.001306294464 0.08068742603 1.771655483e-38
-0.05486445129 0.001268015476 0.08078684658 1.771655483e-38
-0.05472915992 0.001307489816 0.08077951521 1.771655483e-38
-0.05479297414 0.001288976055 0.08073785901 1.771655483e-38
-0.05487737805 0.001286976971 0.08065401018 1.771655483e-38
-0.05478500947 0.001310391584 0.08065851778 1.771655483e-38
-0.05471989512 0.001321014948 0.08070489764 1.771655483e-38
-0.05469556153 0.001296008006 0.08083070815 1.771655483e-38
-0.05481059104 0.001278768526 0.08074128628 1.771655483e-38
-0.05497089401 0.001281468663 0.08060351014 1.771655483e-38
-0.05447112769 0.001331479056 0.08095376939 1.771655483e-38
-0.05492211133 0.001235851785 0.08082204312 1.771655483e-38
-0.05498893186 0.001214218792 0.08079887182 1.771655483e-38
-0.05485196039 0.001265040599 0.08075742424 1.771655483e-38
-0.05482440814 0.001263546757 0.08084145933 1.771655483e-38
-0.05485088378 0.001268138876 0.08073296398 1.771655483e-38
-0.05493103713 0.001246947795 0.08073360473 1.771655483e-38
-0.05458973348 0.00130475685 0.08089887351 1.771655483e-38
-0.05498078838 0.001252667047 0.0806344524 1.771655483e-38
-0.05480584875 0.001283461927 0.08073654026 1.771655483e-38
-0.05458311737 0.001343183918 0.08083309978 1.771655483e-38
-0.05489991605 0.00125912251 0.08079586178 1.771655483e-38
-0.05476295575 0.001269384287 0.08086144924 1.771655483e-38
-0.05464996397 0.001311298925 0.08084586263 1.771655483e-38
-0.05455075949 0.001309291227 0.08092524856 1.771655483e-38
-0.05484236032 0.00129968347 0.08062948287 1.771655483e-38
-0.05469220132 0.001283336431 0.08086255193 1.771655483e-38
-0.05458615348 0.001304654637 0.08090164512 1.771655483e-38
-0.05479886383 0.001275470015 0.0807858333 1.771655483e-38
-0.05467801914 0.001333944267 0.08069474995 1.771655483e-38
-0.05496051908 0.001254525734 0.08064131439 1.771655483e-38
-0.05509981886 0.001247253502 0.08057701588 1.771655483e-38
-0.05483282357 0.001268086955 0.08076363057 1.771655483e-38
-0.05466653779 0.001333140535 0.08069740236 1.771655483e-38
-0.05498684943 0.001281745732 0.0806067884 1.771655483e-38
-0.05478527397 0.001278771786 0.08083042502 1.771655483e-38
-0.05496723205 0.0012329889 0.08076643944 1.771655483e-38
-0.05459293351 0.00130136963 0.08090355247 1.771655483e-38
-0.05501120538 0.001224707812 0.08069298416 1.771655483e-38
-0.05447508395 0.001330220373 0.08095169812 1.771655483e-38
-0.05466799811 0.001324362587 0.08079024404 1.771655483e-38
-0.05500581861 0.001221527113 0.08072005212 1.771655483e-38
-0.05465105176 0.001339033479 0.08071222156 1.771655483e-38
-0.05483903363 0.00127169257 0.08073469251 1.771655483e-38
-0.05489130318 0.001278684009 0.08065474033 1.771655483e-38
-0.05477361009 0.001302793622 0.08073699474 1.771655483e-38
-0.05486444011 0.001294969581 0.08064655215 1.771655483e-38
-0.05500691757 0.001225595828 0.08069427311 1.771655483e-38
-0.05487431958 0.00126296957 0.08081555367 1.771655483e-38
-0.05446662009 0.001332968473 0.08095632493 1.771655483e-38
-0.05485206842 0.001296655741 0.08065329492 1.771655483e-38
-0.05467060581 0.001334914705 0.08069597185 1.771655483e-38
-0.05477489531 0.001309075393 0.08068428934 1.771655483e-38
-0.05499819294 0.001263365149 0.08062175661 1.771655483e-38
-0.05497540161 0.001209272305 0.0808223933 1.771655483e-38
-0.0545787625 0.001341996016 0.08085184544 1.771655483e-38
-0.05474869534 0.001309079584 0.08070863038 1.771655483e-38
-0.05458427966 0.001305950806 0.08090173453 1.771655483e-38
-0.0549307093 0.001286585117 0.0806177184 1.771655483e-38
-0.05451277271 0.001318601193 0.08093860745 1.771655483e-38
-0.05448079109 0.001327816164 0.08095005155 1.771655483e-38
-0.05448396504 0.001328617102 0.08094667643 1.771655483e-38
-0.0545669347 0.001313042827 0.08090332896 1.771655483e-38
-0.05467703566 0.001327595674 0.08076916635 1.771655483e-38
-0.05487564951 0.001260165591 0.08073228598 1.771655483e-38
-0.05456873029 0.001330291387 0.08088746667 1.771655483e-38
-0.05458508059 0.001329333754 0.08087904006 1.771655483e-38
-0.05493665487 0.00124423136 0.08071257919 1.771655483e-38
-0.05492042005 0.001274966868 0.08064659685 1.771655483e-38
-0.054915227 0.001254281262 0.08075098693 1.771655483e-38
-0.05489994958 0.001279435121 0.08065085858 1.771655483e-38
-0.05480695143 0.001306270249 0.08064963669 1.771655483e-38
-0.05495860428 0.001285108738 0.08061647415 1.771655483e-38
-0.05474736542 0.001286356244 0.08079650998 1.771655483e-38
-0.05461565778 0.0013245421 0.08086106181 1.771655483e-38
-0.05466426909 0.001281796256 0.08089184761 1.771655483e-38
-0.05462908745 0.00132934982 0.08082780242 1.771655483e-38
-0.05497927219 0.001254068455 0.0806343779 1.771655483e-38
-0.05484390631 0.001297865296 0.08063205332 1.771655483e-38
-0.05467871204 0.001329764724 0.08075028658 1.771655483e-38
-0.05468293279 0.001333032036 0.08069339395 1.771655483e-38
-0.05476598442 0.001303420169 0.08073087037 1.771655483e-38
-0.05466735363 0.001293575624 0.08085347712 1.771655483e-38
-0.05464505404 0.00132798194 0.08080808818 1.771655483e-38
-0.05461177602 0.001333052991 0.08083667606 1.771655483e-38
-0.05479233339 0.00129932561 0.08072064072 1.771655483e-38
-0.05496257171 0.001235072967 0.08076453209 1.771655483e-38
-0.05475012213 0.001306897961 0.08073426783 1.771655483e-38
-0.05462022126 0.001325808465 0.08085310459 1.771655483e-38
-0.05490066111 0.001288656611 0.0806395188 1.771655483e-38
-0.05500375852 0.001229098532 0.080657579 1.771655483e-38
-0.05499309301 0.001231700648 0.08066607267 1.771655483e-38
-0.0548780933 0.001280188095 0.08065924048 1.771655483e-38
-0.05461378768 0.001328976825 0.08085066825 1.771655483e-38
-0.05474474281 0.001267487183 0.08087213337 1.771655483e-38
-0.05462891608 0.001333247637 0.0807999149 1.771655483e-38
-0.05491118878 0.001288928324 0.08063405752 1.771655483e-38
-0.05474192649 0.001314307796 0.08070652187 1.771655483e-38
-0.05499251187 0.001254731556 0.08062829822 1.771655483e-38
-0.05497613177 0.00123143103 0.08073498309 1.771655483e-38
-0.0546682328 0.001312939217 0.08082845062 1.771655483e-38
-0.05474850908 0.001282868441 0.08082041144 1.771655483e-38
-0.0547609888 0.001314572291 0.08067329228 1.771655483e-38
-0.054958608 0.001236910932 0.08076287061 1.771655483e-38
-0.05478191376 0.00130041386 0.0807197839 1.771655483e-38
-0.05488232896 0.001290276879 0.08064614236 1.771655483e-38
-0.05493235216 0.001243697014 0.08079215139 1.771655483e-38
-0.05473528057 0.001282237936 0.08084305376 1.771655483e-38
-0.05505531654 0.001265545841 0.0805824697 1.771655483e-38
-0.05489306897 0.001282465877 0.08065143973 1.771655483e-38
-0.054982353 0.001231082948 0.0806972608 1.771655483e-38
-0.05494371802 0.001285478473 0.08062464744 1.771655483e-38
-0.05502784997 0.001238152152 0.08061745018 1.771655483e-38
-0.05475819483 0.001311558299 0.08069868386 1.771655483e-38
-0.05498732999 0.001279023942 0.08061028272 1.771655483e-38
-0.05481935292 0.001283399994 0.08072491735 1.771655483e-38
-0.05456843972 0.00135089457 0.08081623912 1.771655483e-38
-0.05480323359 0.001298377523 0.08069221675 1.771655483e-38
-0.05476050451 0.001312901732 0.08068182319 1.771655483e-38
-0.05450194702 0.001342957374 0.08091653138 1.771655483e-38
-0.05450952053 0.001321752323 0.08093549311 1.771655483e-38
-0.05509204045 0.001236823155 0.08059019595 1.771655483e-38
-0.0550134927 0.001212888397 0.08076839894 1.771655483e-38
-0.05494999886 0.001239997335 0.08070796728 1.771655483e-38
-0.0547003001 0.001329458784 0.08068649471 1.771655483e-38
-0.0546512343 0.001338297268 0.08073846251 1.771655483e-38
-0.05498160049 0.00125660724 0.08063200116 1.771655483e-38
-0.05472499505 0.001310772961 0.08077008277 1.771655483e-38
-0.05470747128 0.001325452933 0.08067837358 1.771655483e-38
-0.05448380485 0.001323822886 0.08095621318 1.771655483e-38
-0.05485910922 0.001269585686 0.08080147952 1.771655483e-38
-0.05454983935 0.001319481991 0.08090657741 1.771655483e-38
-0.05501816422 0.001249561785 0.08061954379 1.771655483e-38
-0.05500429869 0.001264817547 0.08061811328 1.771655483e-38
-0.05494709685 0.001225011889 0.08082000911 1.771655483e-38
-0.0549884811 0.001234762603 0.08065462112 1.771655483e-38
-0.05486755818 0.001293631969 0.08062825352 1.771655483e-38
-0.05475358665 0.001282680547 0.08079646528 1.771655483e-38
-0.05462024733 0.001335312147 0.08080487698 1.771655483e-38
-0.05481372401 0.00129497028 0.08069761842 1.771655483e-38
-0.05492639542 0.00123165641 0.0808249563 1.771655483e-38
-0.05475468934 0.001305509824 0.08073622733 1.771655483e-38
-0.05493095145 0.001284971833 0.08063079417 1.771655483e-38
-0.05479257926 0.001299886499 0.08069933206 1.771655483e-38
-0.05484419316 0.001244001323 0.08085785061 1.771655483e-38
-0.05495996028 0.001231921837 0.08078639954 1.771655483e-38
-0.05453515425 0.001334517729 0.08090426028 2.348204041e-38
-0.0546239689 0.001332981512 0.08081515133 2.348204041e-38
-0.05494806543 0.001285147388 0.08061588556 2.348204041e-38
-0.05459331349 0.001301534241 0.08090214431 2.348204041e-38
-0.05482485145 0.001303233206 0.08064131439 2.348204041e-38
-0.05470507592 0.001283094287 0.08085489273 2.348204041e-38
-0.05476620421 0.00130783231 0.08069738746 2.348204041e-38
-0.05493677408 0.00124357827 0.08078223467 2.348204041e-38
-0.0544655472 0.00133074075 0.08096161485 2.348204041e-38
-0.05466501042 0.001321453368 0.08080554008 2.348204041e-38
-0.05473645031 0.001296495786 0.08079518378 2.348204041e-38
-0.05496690795 0.001283719204 0.08061310649 2.348204041e-38
-0.05502776429 0.001226648223 0.08063081652 2.348204041e-38
-0.05481188372 0.00125875813 0.08085405082 2.348204041e-38
-0.05491944775 0.001285890117 0.08063476533 2.348204041e-38
-0.05502182245 0.001219237456 0.08070603758 2.348204041e-38
-0.05491410196 0.001254554605 0.08070479333 2.348204041e-38
-0.05467161536 0.00133250677 0.08072221279 2.348204041e-38
-0.05497966707 0.001281701727 0.08060535043 2.348204041e-38
-0.0549974367 0.001227705739 0.08068682998 2.348204041e-38
-0.0550436303 0.001245670021 0.08061002195 2.348204041e-38
-0.05475971103 0.001280903816 0.08083876222 2.348204041e-38
-0.05500262976 0.001268777531 0.08061552793 2.348204041e-38
-0.05480754003 0.001295777736 0.08070769161 2.348204041e-38
-0.05473353714 0.001295537455 0.08080061525 2.348204041e-38
-0.0545793362 0.001337812748 0.08086611331 2.348204041e-38
-0.05465832353 0.001310820924 0.08083981276 2.348204041e-38
-0.05501509458 0.001240960555 0.08062189072 2.348204041e-38
-0.05478172377 0.001278661191 0.08082309365 2.348204041e-38
-0.05477827042 0.001308964565 0.08067370206 2.348204041e-38
-0.05481486768 0.001271079062 0.08076509088 2.348204041e-38
-0.05456145108 0.001321616117 0.08089670539 2.348204041e-38
-0.05482449755 0.001273442293 0.08082248271 2.348204041e-38
-0.054597646 0.001321172109 0.08087813109 2.348204041e-38
-0.05470783263 0.001290338812 0.08082737029 2.348204041e-38
-0.05453736335 0.001310254447 0.0809353292 2.348204041e-38
-0.05490742996 0.001244262559 0.0808205381 2.348204041e-38
-0.05476085097 0.001281302422 0.08079586923 2.348204041e-38
-0.05467804149 0.001328736776 0.08076068014 2.348204041e-38
-0.05478070304 0.001279215561 0.08083631843 2.348204041e-38
-0.0547099188 0.001304467674 0.0808076784 2.348204041e-38
-0.05497708172 0.001224691514 0.08078426868 2.348204041e-38
-0.05468981713 0.001326046651 0.08075676858 2.348204041e-38
-0.05474736542 0.001300157979 0.08077268302 2.348204041e-38
-0.05478151143 0.00128599396 0.08075448871 2.348204041e-38
-0.05485145375 0.001284082187 0.08068176359 2.348204041e-38
-0.05486659706 0.001277609961 0.08068220317 2.348204041e-38
-0.05470805988 0.001326072495 0.08067833632 2.348204041e-38
-0.05482743308 0.001273986185 0.08080575615 2.348204041e-38
-0.05461342633 0.001349464059 0.08072774112 2.348204041e-38
-0.0546698682 0.001321780728 0.08079730719 2.348204041e-38
-0.05493393168 0.001282017445 0.08063489199 2.348204041e-38
-0.0545248054 0.0013148773 0.08093776554 2.348204041e-38
-0.05470549315 0.001321292482 0.08074621856 2.348204041e-38
-0.05490279943 0.001273760572 0.08065360785 2.348204041e-38
-0.05497777462 0.001230620313 0.08072433621 2.348204041e-38
-0.05490745604 0.001275176648 0.08065085113 2.348204041e-38
-0.05494632944 0.001285530627 0.08061684668 2.348204041e-38
-0.0544965528 0.001331698848 0.08093250543 2.348204041e-38
-0.05478609353 0.001278204145 0.0807730332 2.348204041e-38
-0.05501269549 0.001242582453 0.08062268049 2.348204041e-38
-0.05483550578 0.001285745762 0.08070038259 2.348204041e-38
-0.05452588946 0.001329418272 0.08091330528 2.348204041e-38
-0.05473909527 0.001308721723 0.08075267076 2.348204041e-38
-0.05471038446 0.001301903045 0.08081233501 2.348204041e-38
-0.05489401892 0.00126231811 0.08079151064 2.348204041e-38
-0.05463857949 0.001328147482 0.08081764728 2.348204041e-38
-0.05489754677 0.00126097328 0.08076771349 2.348204041e-38
-0.0549322553 0.00124991755 0.08069720864 2.348204041e-38
-0.05478608608 0.001306560123 0.08067607135 2.348204041e-38
-0.05468023196 0.001284566475 0.08086768538 2.348204041e-38
-0.05447414517 0.001332746353 0.08094994724 2.348204041e-38
-0.05494977534 0.001252618153 0.0806606859 2.348204041e-38
-0.0550272055 0.001215348952 0.0807165429 2.348204041e-38
-0.05476583168 0.001305414364 0.08070170879 2.348204041e-38
-0.05476351455 0.001303997124 0.08072789758 2.348204041e-38
-0.05502549186 0.001249141293 0.08061662316 2.348204041e-38
-0.05485745519 0.001288189087 0.08066429198 2.348204041e-38
-0.0549159646 0.001248739427 0.08080167323 2.348204041e-38
-0.05463099852 0.001331501175 0.08080906421 2.348204041e-38
-0.05454972014 0.001312281471 0.08091983199 2.348204041e-38
-0.05474255979 0.001306579914 0.08076671511 2.348204041e-38
-0.05479631945 0.001295656431 0.08072251081 2.348204041e-38
-0.05469164997 0.001323529053 0.08077178895 2.348204041e-38
-0.05471931398 0.001324837096 0.08068866283 2.348204041e-38
-0.05462129042 0.001347780693 0.08072366565 2.348204041e-38
-0.05469169468 0.001327647362 0.08071102202 2.348204041e-38
-0.05459681526 0.001345819328 0.08079256117 2.348204041e-38
-0.0550180003 0.001216344535 0.08074010164 2.348204041e-38
-0.05478250235 0.001300984761 0.08073145896 2.348204041e-38
-0.05447051674 0.00133570144 0.08094985038 2.348204041e-38
-0.05477679893 0.001257165801 0.08087117225 2.348204041e-38
-0.05484862998 0.001286600484 0.08067398518 2.348204041e-38
-0.05454269797 0.001351267099 0.08086260408 2.348204041e-38
-0.05482690036 0.001270075794 0.08077254891 2.348204041e-38
-0.0549745895 0.001232333481 0.08070287853 2.348204041e-38
-0.05491760746 0.001268817578 0.08065216988 2.348204041e-38
-0.05498056114 0.00125489221 0.08063324541 2.348204041e-38
-0.05473989993 0.001320492011 0.08066860586 2.348204041e-38
-0.05504027754 0.001261222642 0.08060225844 2.348204041e-38
-0.05449198186 0.00133085181 0.08093822747 2.348204041e-38
-0.0545854792 0.001351631247 0.08076619357 2.348204041e-38
-0.05496720225 0.001267728163 0.08063398302 2.348204041e-38
-0.05470329523 0.001272714231 0.08088625222 2.348204041e-38
-0.05494676903 0.001244933577 0.08069221675 2.348204041e-38
-0.05485170335 0.0012812973 0.08069086075 2.348204041e-38
-0.0545476228 0.001320852665 0.08090630919 2.348204041e-38
-0.05485096574 0.001269407338 0.08081637323 2.348204041e-38
-0.05479456484 0.001302467426 0.08068431914 2.348204041e-38
-0.05489033461 0.001262659905 0.08079946041 2.348204041e-38
-0.05478105694 0.001306208316 0.08068744093 2.348204041e-38
-0.05486445129 0.001267934218 0.08078683168 2.348204041e-38
-0.05472918227 0.001307405997 0.08077950776 2.348204041e-38
-0.05479298532 0.001288895961 0.08073785901 2.348204041e-38
-0.0548774004 0.001286881045 0.08065401018 2.348204041e-38
-0.05478503183 0.001310302876 0.08065852523 2.348204041e-38
-0.05471992493 0.001320931595 0.0807049349 2.348204041e-38
-0.05469558015 0.001295906957 0.0808307156 2.348204041e-38
-0.05481059849 0.001278687501 0.08074128628 2.348204041e-38
-0.05497093126 0.001281363657 0.08060352504 2.348204041e-38
-0.05447115749 0.001331428299 0.08095374703 2.348204041e-38
-0.05492212251 0.001235778211 0.08082201332 2.348204041e-38
-0.05498893559 0.001214137534 0.08079884201 2.348204041e-38
-0.05485196784 0.001264957478 0.08075741678 2.348204041e-38
-0.05482442304 0.001263473416 0.08084142953 2.348204041e-38
-0.05485088378 0.001268051565 0.08073295653 2.348204041e-38
-0.05493102968 0.001246859087 0.08073358238 2.348204041e-38
-0.05458973348 0.001304692356 0.08089884371 2.348204041e-38
-0.05498079956 0.001252563205 0.0806344673 2.348204041e-38
-0.05480586737 0.001283386722 0.08073653281 2.348204041e-38
-0.05458315089 0.001343112206 0.08083309978 2.348204041e-38
-0.05489991605 0.001259042649 0.08079583943 2.348204041e-38
-0.05476295948 0.001269303262 0.08086144179 2.348204041e-38
-0.05464997143 0.001311215805 0.08084587008 2.348204041e-38
-0.0545507744 0.001309230924 0.08092524111 2.348204041e-38
-0.05484237894 0.001299571013 0.08062949777 2.348204041e-38
-0.05469220504 0.001283257967 0.08086254448 2.348204041e-38
-0.05458616093 0.001304591075 0.08090162277 2.348204041e-38
-0.05479887128 0.001275387127 0.0807858333 2.348204041e-38
-0.05467803776 0.001333866967 0.08069476485 2.348204041e-38
-0.05496051535 0.001254432136 0.08064132184 2.348204041e-38
-0.05509986356 0.001247157576 0.08057702333 2.348204041e-38
-0.05483283848 0.00126800104 0.08076363057 2.348204041e-38
-0.05466657504 0.001333069988 0.08069739491 2.348204041e-38
-0.0549868755 0.001281639095 0.08060679585 2.348204041e-38
-0.05478526652 0.001278680749 0.08083041012 2.348204041e-38
-0.05496721715 0.00123290089 0.08076640218 2.348204041e-38
-0.05459294468 0.001301302109 0.08090353757 2.348204041e-38
-0.05501118302 0.00122462213 0.08069294691 2.348204041e-38
-0.0544751063 0.001330166822 0.08095166832 2.348204041e-38
-0.05466803536 0.001324271318 0.08079024404 2.348204041e-38
-0.05500579998 0.001221440732 0.08072002232 2.348204041e-38
-0.05465107784 0.001338964095 0.08071224391 2.348204041e-38
-0.05483903363 0.001271605957 0.08073468506 2.348204041e-38
-0.05489132181 0.001278589945 0.08065472543 2.348204041e-38
-0.05477362499 0.001302712131 0.08073700219 2.348204041e-38
-0.05486446619 0.00129486504 0.08064656705 2.348204041e-38
-0.05500689149 0.001225509448 0.08069423586 2.348204041e-38
-0.05487432703 0.001262891805 0.08081553876 2.348204041e-38
-0.05446665362 0.001332916785 0.08095629513 2.348204041e-38
-0.05485209078 0.00129655865 0.08065331727 2.348204041e-38
-0.05467065424 0.001334839733 0.0806959793 2.348204041e-38
-0.05477492884 0.001308975974 0.08068431169 2.348204041e-38
-0.05499821156 0.001263263635 0.08062174916 2.348204041e-38
-0.05497539788 0.00120919547 0.08082234114 2.348204041e-38
-0.05457879975 0.001341926167 0.08085184544 2.348204041e-38
-0.05474872515 0.00130898552 0.08070866019 2.348204041e-38
-0.05458429083 0.001305885846 0.08090171218 2.348204041e-38
-0.0549307391 0.001286482206 0.0806177333 2.348204041e-38
-0.05451278761 0.001318534603 0.0809385851 2.348204041e-38
-0.05448081344 0.001327753998 0.08095002919 2.348204041e-38
-0.05448399484 0.001328555401 0.08094665408 2.348204041e-38
-0.05456694216 0.00131297647 0.08090329915 2.348204041e-38
-0.05467707291 0.00132751232 0.0807691738 2.348204041e-38
-0.05487564579 0.001260075253 0.08073227108 2.348204041e-38
-0.05456873775 0.001330217812 0.08088745177 2.348204041e-38
-0.05458510295 0.001329254359 0.08087904751 2.348204041e-38
-0.05493664369 0.001244138461 0.08071255684 2.348204041e-38
-0.0549204424 0.001274866983 0.08064658195 2.348204041e-38
-0.05491521955 0.001254195115 0.08075095713 2.348204041e-38
-0.05489996821 0.001279336167 0.08065085113 2.348204041e-38
-0.05480697751 0.001306164777 0.08064965159 2.348204041e-38
-0.05495862663 0.001285007456 0.0806164816 2.348204041e-38
-0.05474736542 0.001286270563 0.08079650998 2.348204041e-38
-0.05461568385 0.001324467594 0.08086106926 2.348204041e-38
-0.05466426164 0.001281727105 0.08089183271 2.348204041e-38
-0.05462911725 0.001329267165 0.08082779497 2.348204041e-38
-0.05497928709 0.00125396112 0.0806343928 2.348204041e-38
-0.05484392866 0.001297753537 0.08063206822 2.348204041e-38
-0.05467875302 0.001329674153 0.08075030893 2.348204041e-38
-0.05468295887 0.001332954504 0.08069340885 2.348204041e-38
-0.05476600677 0.001303342637 0.08073087037 2.348204041e-38
-0.05466736481 0.001293500187 0.08085347712 2.348204041e-38
-0.05464508757 0.001327900914 0.08080808818 2.348204041e-38
-0.05461180583 0.001332973829 0.08083667606 2.348204041e-38
-0.05479234457 0.001299243886 0.08072064072 2.348204041e-38
-0.05496256053 0.00123498519 0.08076449484 2.348204041e-38
-0.05475014448 0.001306818565 0.08073427528 2.348204041e-38
-0.05462024361 0.001325730002 0.08085310459 2.348204041e-38
-0.05490069091 0.001288559753 0.0806395188 2.348204041e-38
-0.05500374734 0.001228998648 0.0806575641 2.348204041e-38
-0.05499307811 0.001231606118 0.08066604286 2.348204041e-38
-0.05487811565 0.001280088676 0.08065924048 2.348204041e-38
-0.05461381376 0.001328895567 0.08085066825 2.348204041e-38
-0.05474475026 0.001267406391 0.08087213337 2.348204041e-38
-0.05462895334 0.001333174063 0.0807999149 2.348204041e-38
-0.05491121486 0.001288833329 0.08063406497 2.348204041e-38
-0.05474196002 0.001314214431 0.08070655912 2.348204041e-38
-0.05499253049 0.001254622359 0.08062830567 2.348204041e-38
-0.05497612804 0.001231345581 0.08073496819 2.348204041e-38
-0.0546682477 0.001312856097 0.08082845062 2.348204041e-38
-0.05474850908 0.0012827795 0.08082041889 2.348204041e-38
-0.05476102605 0.001314480323 0.08067332208 2.348204041e-38
-0.05495859683 0.001236826647 0.08076284826 2.348204041e-38
-0.05478192866 0.001300334698 0.08071979135 2.348204041e-38
-0.05488235503 0.001290179091 0.08064614236 2.348204041e-38
-0.05493234843 0.00124361529 0.08079212159 2.348204041e-38
-0.05473527312 0.001282147132 0.08084304631 2.348204041e-38
-0.05505535007 0.001265448052 0.0805824697 2.348204041e-38
-0.05489309132 0.001282366225 0.08065143228 2.348204041e-38
-0.0549823381 0.001230998663 0.08069723845 2.348204041e-38
-0.05494374782 0.001285379054 0.08062463999 2.348204041e-38
-0.05502786115 0.001238054596 0.08061745763 2.348204041e-38
-0.05475822836 0.001311464701 0.08069871366 2.348204041e-38
-0.05498734862 0.001278922195 0.08061027527 2.348204041e-38
-0.05481936038 0.001283316407 0.0807249099 2.348204041e-38
-0.0545684807 0.001350822626 0.08081623912 2.348204041e-38
-0.05480324849 0.001298292074 0.08069221675 2.348204041e-38
-0.05476053432 0.001312794397 0.080681853 2.348204041e-38
-0.05450195819 0.001342894742 0.08091651648 2.348204041e-38
-0.05450952798 0.001321686665 0.08093547076 2.348204041e-38
-0.0550920628 0.001236724667 0.0805902034 2.348204041e-38
-0.05501348525 0.001212797593 0.08076836169 2.348204041e-38
-0.05494998395 0.001239900012 0.08070794493 2.348204041e-38
-0.05470033363 0.0013293745 0.08068650216 2.348204041e-38
-0.05465126783 0.00133822416 0.08073846996 2.348204041e-38
-0.05498161539 0.001256499439 0.08063200861 2.348204041e-38
-0.05472502112 0.001310686814 0.08077008277 2.348204041e-38
-0.05470750853 0.001325371908 0.08067837358 2.348204041e-38
-0.05448383838 0.001323764911 0.08095619828 2.348204041e-38
-0.0548591055 0.001269506989 0.08080145717 2.348204041e-38
-0.05454984307 0.001319413306 0.08090656251 2.348204041e-38
-0.05501817912 0.001249453519 0.08061955124 2.348204041e-38
-0.05500431359 0.001264714403 0.08061810583 2.348204041e-38
-0.05494711176 0.001224934123 0.08081997931 2.348204041e-38
-0.05498846993 0.001234664815 0.08065462112 2.348204041e-38
-0.05486757308 0.001293525333 0.08062826842 2.348204041e-38
-0.05475358665 0.001282596262 0.08079647273 2.348204041e-38
-0.05462028831 0.001335239736 0.08080487698 2.348204041e-38
-0.05481373891 0.001294882735 0.08069761842 2.348204041e-38
-0.05492640287 0.001231582835 0.0808249265 2.348204041e-38
-0.05475470424 0.001305429032 0.08073622733 2.348204041e-38
-0.05493097752 0.00128487451 0.08063079417 2.348204041e-38
-0.05479259416 0.001299805939 0.08069935441 2.348204041e-38
-0.05484421551 0.001243927982 0.08085782826 2.348204041e-38
-0.05495995656 0.001231837319 0.08078636229 2.348204041e-38
-0.05453518406 0.001334436238 0.08090424538 2.345219836e-38
-0.0546240136 0.001332896529 0.08081515878 2.345219836e-38
-0.05494809151 0.001285033068 0.08061587811 2.345219836e-38
-0.05459334701 0.001301455311 0.08090212941 2.345219836e-38
-0.05482488126 0.001303112833 0.08064132184 2.345219836e-38
-0.05470509827 0.001282999059 0.08085488528 2.345219836e-38
-0.05476625264 0.001307733823 0.08069738746 2.345219836e-38
-0.05493677035 0.001243486302 0.08078220487 2.345219836e-38
-0.05446560681 0.001330676721 0.08096159995 2.345219836e-38
-0.0546650514 0.001321350457 0.08080554008 2.345219836e-38
-0.05473646522 0.001296401722 0.08079516888 2.345219836e-38
-0.05496693403 0.001283600694 0.08061309904 2.345219836e-38
-0.05502776802 0.001226548804 0.08063081652 2.345219836e-38
-0.05481190979 0.001258681761 0.08085403591 2.345219836e-38
-0.05491947383 0.001285777893 0.08063474298 2.345219836e-38
-0.05502181128 0.001219146186 0.08070599288 2.345219836e-38
-0.05491409823 0.001254452625 0.08070477098 2.345219836e-38
-0.05467165262 0.001332408749 0.08072222024 2.345219836e-38
-0.05497969687 0.001281583216 0.08060535043 2.345219836e-38
-0.0549974218 0.001227598172 0.08068678528 2.345219836e-38
-0.0550436452 0.001245557563 0.0806100145 2.345219836e-38
-0.05475971103 0.001280806027 0.08083875477 2.345219836e-38
-0.05500265211 0.001268667635 0.08061550558 2.345219836e-38
-0.05480756238 0.001295680879 0.08070767671 2.345219836e-38
-0.05473355204 0.00129544572 0.0808006078 2.345219836e-38
-0.0545793809 0.001337722177 0.0808660984 2.345219836e-38
-0.0546583645 0.001310728258 0.08083982021 2.345219836e-38
-0.05501510203 0.001240850193 0.08062189072 2.345219836e-38
-0.05478172749 0.001278560143 0.0808230862 2.345219836e-38
-0.0547782965 0.001308849547 0.08067370206 2.345219836e-38
-0.05481488258 0.001270983834 0.08076509833 2.345219836e-38
-0.05456148088 0.001321532764 0.08089669049 2.345219836e-38
-0.05482451618 0.001273347996 0.0808224678 2.345219836e-38
-0.05459768325 0.001321084099 0.08087813109 2.345219836e-38
-0.05470786616 0.001290234039 0.08082737774 2.345219836e-38
-0.0545374006 0.001310186228 0.08093532175 2.345219836e-38
-0.05490744859 0.001244189451 0.0808205083 2.345219836e-38
-0.05476086214 0.001281212782 0.08079586923 2.345219836e-38
-0.05467807874 0.001328644576 0.08076068014 2.345219836e-38
-0.05478070676 0.001279115444 0.08083630353 2.345219836e-38
-0.0547099486 0.001304360107 0.08080767095 2.345219836e-38
-0.05497708172 0.001224604435 0.08078423887 2.345219836e-38
-0.05468985438 0.001325950492 0.08075677603 2.345219836e-38
-0.05474738032 0.001300069503 0.08077266812 2.345219836e-38
-0.05478152633 0.001285898732 0.08075448126 2.345219836e-38
-0.0548514761 0.001283977646 0.08068176359 2.345219836e-38
-0.05486661196 0.001277514966 0.08068220317 2.345219836e-38
-0.05470811576 0.001325968886 0.08067832887 2.345219836e-38
-0.05482744053 0.001273893053 0.08080574125 2.345219836e-38
-0.05461345986 0.001349373488 0.08072774857 2.345219836e-38
-0.05466990545 0.001321679913 0.08079729974 2.345219836e-38
-0.05493395776 0.001281906618 0.08063486218 2.345219836e-38
-0.05452485383 0.001314813737 0.08093775809 2.345219836e-38
-0.05470553413 0.001321195858 0.08074622601 2.345219836e-38
-0.0549028255 0.001273657894 0.08065357804 2.345219836e-38
-0.05497776717 0.00123052462 0.0807243064 2.345219836e-38
-0.05490747839 0.001275073504 0.08065082878 2.345219836e-38
-0.0549463518 0.001285415143 0.08061683923 2.345219836e-38
-0.05449659377 0.00133163156 0.08093249798 2.345219836e-38
-0.05478610471 0.00127810589 0.08077304065 2.345219836e-38
-0.05501271039 0.001242469996 0.08062268049 2.345219836e-38
-0.05483552068 0.001285651466 0.08070037514 2.345219836e-38
-0.05452591553 0.001329354011 0.08091329038 2.345219836e-38
-0.05473912507 0.001308628125 0.08075266331 2.345219836e-38
-0.05471040681 0.00130179571 0.08081232756 2.345219836e-38
-0.05489401519 0.001262222882 0.08079147339 2.345219836e-38
-0.05463862047 0.001328052487 0.08081765473 2.345219836e-38
-0.05489753932 0.001260871068 0.08076766878 2.345219836e-38
-0.0549322553 0.001249814639 0.08069720119 2.345219836e-38
-0.05478611216 0.001306447433 0.0806760639 2.345219836e-38
-0.05468026176 0.001284473343 0.08086767793 2.345219836e-38
-0.05447419733 0.001332686283 0.08094991744 2.345219836e-38
-0.05494977534 0.001252516173 0.08066067845 2.345219836e-38
-0.05502719432 0.001215258846 0.0807165131 2.345219836e-38
-0.05476586521 0.00130532193 0.08070172369 2.345219836e-38
-0.0547635369 0.001303909114 0.08072788268 2.345219836e-38
-0.05502550304 0.001249029068 0.08061662316 2.345219836e-38
-0.05485747755 0.001288081054 0.08066427708 2.345219836e-38
-0.0549159646 0.001248651184 0.08080165088 2.345219836e-38
-0.05463104695 0.00133141526 0.08080906421 2.345219836e-38
-0.05454976112 0.001312212786 0.08091980964 2.345219836e-38
-0.05474258214 0.001306488412 0.08076670021 2.345219836e-38
-0.05479632691 0.001295561669 0.08072249591 2.345219836e-38
-0.05469169095 0.001323427772 0.08077178895 2.345219836e-38
-0.05471935496 0.001324733486 0.08068867773 2.345219836e-38
-0.05462133139 0.001347689657 0.08072367311 2.345219836e-38
-0.05469173193 0.001327548176 0.08071103692 2.345219836e-38
-0.05459686741 0.001345728058 0.08079256117 2.345219836e-38
-0.05501798913 0.001216244651 0.08074007183 2.345219836e-38
-0.05478251725 0.00130089419 0.08073145151 2.345219836e-38
-0.0544705689 0.001335642999 0.08094982803 2.345219836e-38
-0.05477682501 0.001257083379 0.0808711648 2.345219836e-38
-0.05484865606 0.001286493847 0.08067397773 2.345219836e-38
-0.05454273522 0.001351186773 0.08086259663 2.345219836e-38
-0.05482691899 0.001269983593 0.08077254146 2.345219836e-38
-0.05497458205 0.001232241513 0.08070285618 2.345219836e-38
-0.05491762236 0.001268721186 0.08065214008 2.345219836e-38
-0.05498057976 0.001254782081 0.08063324541 2.345219836e-38
-0.05473993719 0.00132038747 0.08066860586 2.345219836e-38
-0.05504029989 0.001261121361 0.08060225099 2.345219836e-38
-0.05449203029 0.001330794534 0.08093820512 2.345219836e-38
-0.0545855239 0.001351543935 0.08076620102 2.345219836e-38
-0.05496722832 0.001267620828 0.08063396066 2.345219836e-38
-0.05470331758 0.001272643916 0.08088622987 2.345219836e-38
-0.0549467653 0.001244827872 0.0806921944 2.345219836e-38
-0.05485171825 0.001281200908 0.0806908533 2.345219836e-38
-0.05454764888 0.001320779324 0.08090629429 2.345219836e-38
-0.05485096574 0.001269322354 0.08081635088 2.345219836e-38
-0.05479459092 0.001302368473 0.08068431169 2.345219836e-38
-0.05489032716 0.001262565609 0.08079943061 2.345219836e-38
-0.05478109047 0.001306106802 0.08068744093 2.345219836e-38
-0.05486445129 0.001267844578 0.08078680187 2.345219836e-38
-0.05472921208 0.001307311002 0.08077950031 2.345219836e-38
-0.05479300022 0.001288808184 0.08073785901 2.345219836e-38
-0.05487743393 0.001286769286 0.08065398782 2.345219836e-38
-0.0547850579 0.00131019135 0.08065852523 2.345219836e-38
-0.0547199659 0.001320830779 0.0807049498 2.345219836e-38
-0.05469561368 0.001295801951 0.08083072305 2.345219836e-38
-0.05481061712 0.001278595533 0.08074128628 2.345219836e-38
-0.05497096106 0.001281245612 0.08060351014 2.345219836e-38
-0.05447120965 0.001331370091 0.08095372468 2.345219836e-38
-0.05492213368 0.001235704403 0.08082198352 2.345219836e-38
-0.05498892814 0.001214053016 0.08079880476 2.345219836e-38
-0.05485198647 0.001264868304 0.08075740188 2.345219836e-38
-0.05482444912 0.001263397746 0.08084140718 2.345219836e-38
-0.05485088378 0.001267952845 0.08073294908 2.345219836e-38
-0.05493102595 0.001246756874 0.08073355258 2.345219836e-38
-0.05458977073 0.001304622972 0.08089882135 2.345219836e-38
-0.05498081446 0.00125245098 0.0806344673 2.345219836e-38
-0.05480589345 0.001283301506 0.08073653281 2.345219836e-38
-0.05458319932 0.001343027689 0.08083309978 2.345219836e-38
-0.05489991605 0.001258948818 0.08079581708 2.345219836e-38
-0.05476298183 0.001269221772 0.08086142689 2.345219836e-38
-0.0546500124 0.001311124535 0.08084587753 2.345219836e-38
-0.05455081537 0.001309170853 0.08092522621 2.345219836e-38
-0.05484239012 0.001299443655 0.08062949777 2.345219836e-38
-0.05469223112 0.001283171121 0.08086252958 2.345219836e-38
-0.05458619818 0.001304525416 0.08090160787 2.345219836e-38
-0.05479888618 0.001275293296 0.08078582585 2.345219836e-38
-0.05467807502 0.001333771041 0.08069476485 2.345219836e-38
-0.05496051908 0.001254329924 0.08064131439 2.345219836e-38
-0.05509990454 0.001247050939 0.08057701588 2.345219836e-38
-0.05483284965 0.001267908141 0.08076362312 2.345219836e-38
-0.0546665974 0.001332985703 0.08069738001 2.345219836e-38
-0.05498690158 0.001281523844 0.08060678095 2.345219836e-38
-0.05478527024 0.00127858296 0.08083040267 2.345219836e-38
-0.05496721342 0.001232806128 0.08076637238 2.345219836e-38
-0.05459297076 0.001301231096 0.08090353012 2.345219836e-38
-0.05501117557 0.001224531326 0.08069290966 2.345219836e-38
-0.05447516218 0.001330110244 0.08095164597 2.345219836e-38
-0.05466807634 0.00132417446 0.08079023659 2.345219836e-38
-0.05500578135 0.001221342012 0.08071999252 2.345219836e-38
-0.05465111136 0.001338871196 0.08071225137 2.345219836e-38
-0.05483904108 0.001271504909 0.08073467761 2.345219836e-38
-0.05489134789 0.001278484939 0.08065469563 2.345219836e-38
-0.05477363989 0.001302620396 0.08073699474 2.345219836e-38
-0.05486448854 0.00129474909 0.08064656705 2.345219836e-38
-0.05500687659 0.001225417014 0.08069419861 2.345219836e-38
-0.05487433821 0.001262811711 0.08081551641 2.345219836e-38
-0.05446670949 0.001332858345 0.08095627278 2.345219836e-38
-0.05485211313 0.00129644596 0.08065332472 2.345219836e-38
-0.05467070267 0.00133474404 0.0806959793 2.345219836e-38
-0.05477496237 0.001308866311 0.08068431169 2.345219836e-38
-0.05499823764 0.00126315956 0.08062173426 2.345219836e-38
-0.05497539788 0.001209117239 0.08082229644 2.345219836e-38
-0.05457884446 0.001341843279 0.08085183799 2.345219836e-38
-0.05474876612 0.001308881445 0.08070867509 2.345219836e-38
-0.05458432436 0.001305817626 0.08090168983 2.345219836e-38
-0.05493076146 0.001286366023 0.08061772585 2.345219836e-38
-0.05451282859 0.001318462193 0.0809385702 2.345219836e-38
-0.0544808656 0.001327690668 0.08095000684 2.345219836e-38
-0.05448403955 0.001328493003 0.08094663173 2.345219836e-38
-0.05456697568 0.001312904526 0.0809032619 2.345219836e-38
-0.05467711389 0.001327422448 0.0807691738 2.345219836e-38
-0.05487564951 0.001259973971 0.08073225617 2.345219836e-38
-0.05456876382 0.001330133528 0.08088743687 2.345219836e-38
-0.05458514392 0.001329163788 0.08087904006 2.345219836e-38
-0.05493663996 0.001244029263 0.08071252704 2.345219836e-38
-0.05492046848 0.001274756389 0.0806465596 2.345219836e-38
-0.05491521209 0.001254094532 0.08075091988 2.345219836e-38
-0.05489999801 0.001279227436 0.08065082878 2.345219836e-38
-0.05480700359 0.001306046266 0.08064965159 2.345219836e-38
-0.05495864525 0.001284894301 0.08061645925 2.345219836e-38
-0.05474736914 0.001286174636 0.08079650998 2.345219836e-38
-0.05461571366 0.001324376324 0.08086106926 2.345219836e-38
-0.05466428399 0.0012816526 0.08089180291 2.345219836e-38
-0.05462915823 0.0013291738 0.08082778752 2.345219836e-38
-0.05497931316 0.001253845636 0.08063438535 2.345219836e-38
-0.05484393984 0.001297627809 0.08063206822 2.345219836e-38
-0.05467879027 0.001329570776 0.08075031638 2.345219836e-38
-0.05468299612 0.00133286207 0.0806934163 2.345219836e-38
-0.05476602167 0.001303250436 0.08073086292 2.345219836e-38
-0.05466739461 0.001293419395 0.08085347712 2.345219836e-38
-0.05464512855 0.001327808946 0.08080808818 2.345219836e-38
-0.0546118468 0.00133288512 0.08083667606 2.345219836e-38
-0.05479235575 0.001299149822 0.08072062582 2.345219836e-38
-0.05496255308 0.001234892523 0.08076446503 2.345219836e-38
-0.05475017801 0.001306727994 0.08073427528 2.345219836e-38
-0.05462028086 0.001325636171 0.08085310459 2.345219836e-38
-0.05490072072 0.001288447296 0.080639489 2.345219836e-38
-0.05500374362 0.001228890847 0.0806575492 2.345219836e-38
-0.05499307066 0.001231500413 0.08066601306 2.345219836e-38
-0.05487814918 0.001279979944 0.08065921813 2.345219836e-38
-0.05461385846 0.001328799175 0.08085065335 2.345219836e-38
-0.05474476889 0.001267324667 0.08087212592 2.345219836e-38
-0.05462900177 0.001333089313 0.0807999149 2.345219836e-38
