# .PCD v0.7 - Point Cloud Data file format
VERSION 0.7
FIELDS x y z rgb
SIZE 4 4 4 4
TYPE F F F F
COUNT 1 1 1 1
WIDTH 830
HEIGHT 1
VIEWPOINT 0 0 0 1 0 0 0
POINTS 830
DATA ascii
-0.07882782817 -0.4112783968 0.2257228494 5.820783626e-39
-0.1113731265 -0.4284209609 0.1665382683 5.820783626e-39
0.1526052058 -0.3023033738 0.05791300535 5.820783626e-39
-0.1406568587 -0.3657398522 0.2147215903 5.820783626e-39
-0.08412890881 -0.3586263061 0.2329779863 5.820783626e-39
-0.1008102521 -0.3705029786 0.04723231494 5.820783626e-39
0.1386239529 -0.2888865769 0.1367529333 5.820783626e-39
0.1075777262 -0.2610069513 0.1752661765 5.820783626e-39
0.07398606837 -0.4207322001 -0.02055810764 5.820783626e-39
-0.05430951342 -0.1619236469 -0.0124878455 5.820783626e-39
0.06544725597 -0.4025816023 -0.002909220755 5.820783626e-39
0.03525695577 -0.408434391 0.2337370813 5.820783626e-39
-0.05536905676 -0.185032919 -0.05700853467 5.820783626e-39
0.1620706171 -0.366035223 0.07084681094 5.820783626e-39
0.1533068568 -0.409440726 -0.003219831735 5.820783626e-39
0.1428604573 -0.3149691224 -0.03056995198 5.820783626e-39
-0.06845785677 -0.2852996588 0.02687190473 5.820783626e-39
0.04990148172 -0.3192362785 -0.1272902787 5.820783626e-39
-0.1122301221 -0.1806131899 0.02638671547 5.820783626e-39
-0.1633496135 -0.4227479696 0.1209305152 5.820783626e-39
0.1467141807 -0.2800394297 0.08057042956 5.820783626e-39
0.1048513502 -0.4193936288 0.05747723579 5.820783626e-39
-0.1852920949 -0.2639395595 0.1250306666 5.820783626e-39
0.150150761 -0.3275060952 -0.003665272146 5.820783626e-39
-0.002461928874 -0.1453820765 0.05151165277 5.820783626e-39
0.136573866 -0.3267199397 -0.05431396514 5.820783626e-39
-0.0534446165 -0.2470821142 0.114561893 5.820783626e-39
-0.05384718999 -0.4274458587 0.1811707318 5.820783626e-39
0.109129101 -0.4163047075 -0.01267399825 5.820783626e-39
-0.0533098951 -0.1547886282 0.01654104888 5.820783626e-39
-0.1202604994 -0.2145314217 -0.06768095493 5.820783626e-39
-0.089923352 -0.1876797527 0.1542295218 5.820783626e-39
-0.1622267067 -0.4194810688 0.1500491798 5.820783626e-39
0.1195434183 -0.2376369685 -0.01588787884 5.820783626e-39
-0.1358734071 -0.2196067274 0.09280202538 5.820783626e-39
0.1165475398 -0.4259602726 -0.05395816639 5.820783626e-39
0.09299081564 -0.3110873997 0.1984424591 5.820783626e-39
-0.120081082 -0.1750376523 -0.002930220217 5.820783626e-39
0.03911774233 -0.148615092 0.04505553097 5.820783626e-39
0.1453009397 -0.2937462926 0.1225151047 5.820783626e-39
0.005208585411 -0.3006695807 0.2159888744 5.820783626e-39
0.02630581334 -0.2356569171 0.1005552188 5.820783626e-39
0.1580615342 -0.3886761367 0.1299647391 5.820783626e-39
0.08342973888 -0.1466666907 0.08257436752 5.820783626e-39
-0.1461130232 -0.235888958 0.08153033257 5.820783626e-39
-0.1269401312 -0.2258725613 0.14713341 5.820783626e-39
-0.05992616341 -0.2609198689 -0.1110563278 5.820783626e-39
-0.09859627485 -0.2994818389 0.01630738005 5.820783626e-39
-0.02114305273 -0.435220629 -0.04866474867 5.820783626e-39
0.01217250898 -0.1879206002 0.1815952659 5.820783626e-39
-0.1859031469 -0.3465594649 0.1716530919 5.820783626e-39
-0.09741990268 -0.4508745372 0.05401629955 5.820783626e-39
0.1021748632 -0.3976239562 0.01998192817 5.820783626e-39
0.06329086423 -0.1831478179 0.1620074213 5.820783626e-39
-0.1283334345 -0.2300536335 -0.07568725199 5.820783626e-39
-0.05779697374 -0.15253824 0.03999041766 5.820783626e-39
-0.04721033573 -0.3002852798 -0.1239020973 5.820783626e-39
-0.1685824394 -0.4151113331 0.1558676958 5.820783626e-39
-0.09994352609 -0.4147312343 0.2099191248 5.820783626e-39
0.1247352362 -0.3697544634 0.1928274632 5.820783626e-39
-0.01524570584 -0.4541126788 0.07461149246 5.820783626e-39
-0.02884590998 -0.350284934 0.07097131759 5.820783626e-39
0.07856042683 -0.4313851297 -0.06430628896 5.820783626e-39
0.08905664086 -0.163795799 0.1103426442 5.820783626e-39
-0.1995917857 -0.2478736639 -0.05728896707 5.820783626e-39
-0.1372539699 -0.2915517092 -0.1073492989 5.820783626e-39
0.1199744791 -0.1876321137 0.06270992011 5.820783626e-39
-0.05912993103 -0.1667517126 0.1500657797 5.820783626e-39
0.1413142681 -0.3431107998 0.1608258188 5.820783626e-39
0.1335477233 -0.3544376493 0.176851958 5.820783626e-39
-0.1934303194 -0.3960900009 0.08889918774 5.820783626e-39
0.1376664042 -0.2531511188 0.02578116208 5.820783626e-39
-0.1095074117 -0.4326810241 0.1498009264 5.820783626e-39
0.07474535704 -0.3330744505 0.2082807124 5.820783626e-39
-0.04776024446 -0.1711422205 0.1673963368 5.820783626e-39
-0.04747674242 -0.2208249569 0.1267092228 5.820783626e-39
0.129367128 -0.4233919978 -0.04849520698 5.820783626e-39
-0.04873119667 -0.4410071671 -0.07524996251 5.820783626e-39
-0.1676009148 -0.2156221867 0.007164318115 5.820783626e-39
0.025339026 -0.2765536904 0.06223831326 5.820783626e-39
-0.07119567692 -0.2009935975 0.176538676 5.820783626e-39
0.123797968 -0.198850736 0.03702604026 5.820783626e-39
-0.2149706632 -0.37020275 0.09773816913 5.820783626e-39
0.1108957231 -0.4378181398 0.1415900588 5.820783626e-39
-0.1032829881 -0.3617534041 -0.01835894771 5.820783626e-39
0.04578691348 -0.4408898354 0.148081243 5.820783626e-39
-0.1785857081 -0.2437700182 0.07641156018 5.820783626e-39
-0.07214149833 -0.2089927197 0.180603385 5.820783626e-39
0.1101938337 -0.4259366691 -0.04369838536 5.820783626e-39
0.057909403 -0.4225685894 0.02788318694 5.820783626e-39
-0.06677696854 -0.3776407838 0.2397125661 5.820783626e-39
-0.2168885469 -0.2556013465 0.08680703491 5.820783626e-39
0.1058838814 -0.4323171973 0.07838169485 5.820783626e-39
0.1301399767 -0.2636902332 -0.01634213328 5.820783626e-39
-0.004052467644 -0.2611665726 0.1276470721 5.820783626e-39
0.02526126429 -0.2895390987 0.04927775264 5.820783626e-39
-0.173670724 -0.3243708014 0.1674580574 5.820783626e-39
0.02427503094 -0.162608251 -0.007031189278 5.820783626e-39
0.006309706718 -0.4372448027 -0.0619610548 5.820783626e-39
0.1298383027 -0.4053536654 0.0201231949 5.820783626e-39
-0.06762360781 -0.2866861224 0.2132655978 5.820783626e-39
0.01216369495 -0.3576501608 0.02845752984 5.820783626e-39
-0.2209071815 -0.3742395639 0.1165349856 5.820783626e-39
0.03958222643 -0.3398396373 0.2159160078 5.820783626e-39
-0.07004012913 -0.2276067883 0.190361172 5.820783626e-39
-0.05758619681 -0.1953697801 0.1331880987 5.820783626e-39
-0.09899485111 -0.1883850545 -0.044334203 5.820783626e-39
0.05066575482 -0.1707300246 -0.0181509275 5.820783626e-39
0.09469288588 -0.4379301667 0.1588481367 5.820783626e-39
0.0009803585708 -0.3950880468 0.01574997976 5.820783626e-39
0.04943535104 -0.1495812833 0.04524032772 5.820783626e-39
-0.07690601796 -0.3864715993 -0.1504061967 5.820783626e-39
-0.1458089203 -0.3877280951 0.05161904544 5.820783626e-39
-0.1894664764 -0.2766059637 -0.00153356418 5.820783626e-39
-0.0464354232 -0.3697168827 0.2365877032 5.820783626e-39
-0.06748264283 -0.2078910321 0.06092534214 5.820783626e-39
0.03313575312 -0.2502789497 0.1149657294 5.820783626e-39
0.1097391248 -0.1807774901 0.09423763305 5.820783626e-39
0.1473140121 -0.2969762087 0.1129134074 5.820783626e-39
-0.07775127143 -0.2391199023 0.05218327045 5.820783626e-39
0.08237236738 -0.4311416447 -0.06177855283 5.820783626e-39
-0.01771241799 -0.2597780824 0.1249960437 5.820783626e-39
0.08763204515 -0.2115181983 -0.0457528159 5.820783626e-39
-0.1444311291 -0.2807033062 0.01488532498 5.820783626e-39
0.01556749269 -0.3827676177 -0.01217887178 5.820783626e-39
0.02323242649 -0.4141810536 0.006464205682 5.820783626e-39
-0.02278902754 -0.2037691027 0.1887289882 5.820783626e-39
0.07225239277 -0.4098873734 0.02451903746 5.820783626e-39
-0.0100514628 -0.3536553681 -0.1409812868 5.820783626e-39
0.08152391016 -0.145255506 0.08477215469 5.820783626e-39
0.08778426051 -0.2065426409 0.1612962186 5.820783626e-39
-0.03076234087 -0.2045968473 0.08217041939 5.820783626e-39
0.135266602 -0.2752341628 0.1358580589 5.820783626e-39
-0.01262034848 -0.4395285547 -0.08839184791 5.820783626e-39
0.09064328671 -0.4145830572 0.04057265818 5.820783626e-39
-0.1042460501 -0.265073359 0.03041903675 5.820783626e-39
0.02965882048 -0.2394447476 -0.1033917293 5.820783626e-39
-0.1016275063 -0.2778554559 0.08350813389 5.820783626e-39
-0.03780731559 -0.4380951226 0.1537578404 5.820783626e-39
0.03291613236 -0.3953749537 -0.005112668499 5.820783626e-39
-0.01186170429 -0.175433591 0.1746822596 5.820783626e-39
0.1570746452 -0.3284818828 0.05929776281 5.820783626e-39
0.02388609573 -0.2715545297 0.06644048542 5.820783626e-39
-0.05252831429 -0.2895720005 0.2160506546 5.820783626e-39
0.02214692906 -0.2935671806 0.04491445422 5.820783626e-39
-0.1442819089 -0.2133388966 0.09447725862 5.820783626e-39
-0.2185699046 -0.2956628799 0.1189960614 5.820783626e-39
-0.01213845983 -0.3484247327 0.2270253003 5.820783626e-39
-0.117335856 -0.4316059351 -0.08080129325 5.820783626e-39
-0.03203700483 -0.3101530969 -0.1282637417 5.820783626e-39
-0.02076661214 -0.1869323403 0.1512621641 5.820783626e-39
0.099892959 -0.1613812596 0.05952797085 5.820783626e-39
0.06950598955 -0.4257328212 0.03948454559 5.820783626e-39
0.1622525454 -0.422115624 0.1145788059 5.820783626e-39
0.0465769358 -0.4172739983 0.2337157726 5.820783626e-39
0.03556733951 -0.2357756495 0.1201776341 5.820783626e-39
0.1501204818 -0.4097689986 0.0687956512 5.820783626e-39
0.1799126714 -0.4021944702 0.07154593617 5.820783626e-39
-0.09367242455 -0.2735176682 0.02871990204 5.820783626e-39
-0.03416560963 -0.4530204237 0.08915217966 5.820783626e-39
0.1711185724 -0.4022740424 0.0196284242 5.820783626e-39
0.1471306533 -0.2930060029 0.1069094613 5.820783626e-39
0.01766413823 -0.349740833 0.02132095024 5.820783626e-39
0.1534894109 -0.3167305887 0.08297460526 5.820783626e-39
0.03298824653 -0.436670959 -0.07213599235 5.820783626e-39
0.1335504651 -0.405149579 0.05689626932 5.820783626e-39
-0.04164627939 -0.4276805222 0.02618122101 5.820783626e-39
-0.2043948919 -0.2949513793 0.1287183464 5.820783626e-39
0.02482522652 -0.143604815 0.0628945902 5.820783626e-39
-0.0533253327 -0.4091201723 0.02928109467 5.820783626e-39
0.004220221192 -0.3018124402 0.03578197211 5.820783626e-39
0.00844341144 -0.1636299491 -0.01824639365 5.820783626e-39
-0.1032512039 -0.4456148744 0.104070209 5.820783626e-39
0.1313196421 -0.2164714336 0.07199858874 5.820783626e-39
0.04333370551 -0.1821466684 -0.04875827208 5.820783626e-39
-0.01972009242 -0.1481368095 0.06688777357 5.820783626e-39
0.03299501911 -0.4324761331 0.1791776419 5.820783626e-39
-0.01074947417 -0.2545844316 0.1286724806 5.820783626e-39
-0.1679760069 -0.3613948524 0.1932989657 5.820783626e-39
-0.01618787274 -0.1883200109 0.1814589202 5.820783626e-39
-0.01867575943 -0.2124203742 0.1410969794 5.820783626e-39
0.05272713676 -0.1877149045 0.1719068885 5.820783626e-39
0.00706159696 -0.3568103313 -0.000921331346 5.820783626e-39
0.1729510576 -0.4061236978 0.0747519359 5.820783626e-39
-0.04645751789 -0.3449168801 0.0737875253 5.820783626e-39
-0.1297778487 -0.4362482727 -0.09354004264 5.820783626e-39
0.09904380143 -0.3976258934 0.2150141895 5.820783626e-39
-0.1210329384 -0.3453224897 0.2153535783 5.820783626e-39
0.08598940074 -0.4248769283 0.225750953 5.820783626e-39
0.1102721244 -0.276936233 0.1783176363 5.820783626e-39
-0.04514237493 -0.3193190098 0.2224717736 5.820783626e-39
0.08810542524 -0.3188008666 -0.1156482771 5.820783626e-39
0.04033228382 -0.1414824575 0.1012085006 5.820783626e-39
0.1317871064 -0.2356750071 0.01816479117 5.820783626e-39
0.009013932198 -0.4500554204 0.05048497021 5.820783626e-39
-0.07797171175 -0.4541993737 0.07450024784 5.820783626e-39
0.05630055442 -0.1993854046 -0.06573378295 5.820783626e-39
0.03272557631 -0.2542422712 0.2060415745 5.820783626e-39
0.09171712399 -0.2910951078 -0.1022829637 5.820783626e-39
-0.1519628167 -0.2191914022 0.09031672031 5.820783626e-39
0.02655969188 -0.3789375126 -0.009423037991 5.820783626e-39
0.1328706145 -0.223536402 0.08101066947 5.820783626e-39
-0.1676079184 -0.3364942074 -0.02125648223 5.820783626e-39
-0.1216723025 -0.4356288016 -0.08779379725 5.820783626e-39
0.08137021959 -0.4440987706 0.1100285873 5.820783626e-39
0.07447715104 -0.1404487491 0.09074021131 5.820783626e-39
0.1449947655 -0.2850239277 0.02171183378 5.820783626e-39
0.03904882446 -0.3604910374 0.2210022807 5.820783626e-39
0.1164230257 -0.4173000157 -0.058640562 6.490113838e-41
-0.1115162149 -0.4612684548 -0.05221568793 6.490113838e-41
-0.03365924954 -0.3386144638 0.08632706106 6.490113838e-41
-0.06570231169 -0.3460718095 0.07060737908 6.490113838e-41
0.07651130855 -0.3185488284 0.05710503459 6.490113838e-41
0.04722454026 -0.4300646484 0.1888497472 6.490113838e-41
0.1300441176 -0.3804841042 0.03801286966 6.490113838e-41
-0.1751188636 -0.4604620934 0.005046151578 6.490113838e-41
-0.1982074231 -0.3413237631 0.04010034353 6.490113838e-41
-0.1292831898 -0.3818051815 0.176076442 6.490113838e-41
0.05337719247 -0.4608970284 -0.1060260907 6.490113838e-41
0.09734930098 -0.4164638519 0.1517866552 6.490113838e-41
0.1406222284 -0.4353492856 0.09362066537 6.490113838e-41
0.06427937746 -0.3427940011 -0.03934920579 6.490113838e-41
0.06395328045 -0.3379257917 0.1205001399 6.490113838e-41
0.09532026947 -0.4158297479 -0.06895637512 6.490113838e-41
-0.1291342527 -0.3255363703 -0.04075429961 6.490113838e-41
-0.01206820086 -0.3248205781 -0.04482387006 6.490113838e-41
0.06668451428 -0.3161450028 0.07560011744 6.490113838e-41
-0.2208584547 -0.4423502982 0.06489544362 6.490113838e-41
0.04936009273 -0.3156139255 -0.01921133883 6.490113838e-41
0.06933861971 -0.4364707172 0.1851204634 6.490113838e-41
0.1144646704 -0.3540332615 0.0602139011 6.490113838e-41
-0.1795262545 -0.3744400144 0.02655193955 6.490113838e-41
-0.1513306946 -0.3452268839 -0.07240109146 6.490113838e-41
-0.07310247421 -0.3523479402 0.1593578458 6.490113838e-41
0.1589273065 -0.4680991471 0.07570211589 6.490113838e-41
-0.2139083743 -0.3922426701 0.008140239865 6.490113838e-41
0.01405424252 -0.3484018445 0.1526064277 6.490113838e-41
0.1404549778 -0.4427226484 -0.0482872203 6.490113838e-41
0.007545780391 -0.3473128974 0.1520884931 6.490113838e-41
0.04360636696 -0.3071275949 0.005396921188 6.490113838e-41
0.01910964772 -0.369039923 -0.05096362904 6.490113838e-41
0.102798149 -0.3412972093 0.05006627738 6.490113838e-41
0.03943228349 -0.3233091533 0.1093360111 6.490113838e-41
-0.1986327618 -0.4055621922 -0.03433983028 6.490113838e-41
0.0444075875 -0.4053426981 -0.06946745515 6.490113838e-41
-0.2174343765 -0.4183476865 0.01020959392 6.490113838e-41
0.1169260591 -0.3471494913 0.009063601494 6.490113838e-41
-0.1362410933 -0.3366953731 0.07260159403 6.490113838e-41
-0.2741807997 -0.3561285138 0.1077521965 6.490113838e-41
-0.02270629257 -0.332628876 0.1008743718 6.490113838e-41
0.05263812467 -0.3243526816 -0.032914076 6.490113838e-41
-0.1028563976 -0.4546611905 0.2321329415 6.490113838e-41
0.1205366254 -0.4259194732 -0.06015096605 6.490113838e-41
-0.02633279189 -0.33996737 0.04850140214 6.490113838e-41
0.06390228868 -0.359703213 0.1432132423 6.490113838e-41
0.1277558059 -0.3689620495 0.02505527437 6.490113838e-41
-0.269464165 -0.3718607724 0.1079954281 6.490113838e-41
-0.2655162811 -0.3284161091 0.07580002397 6.490113838e-41
0.1453413516 -0.4352049232 0.06650859863 6.490113838e-41
-0.02664515004 -0.4502777457 0.2236813009 6.490113838e-41
0.03189964965 -0.4451549649 0.2073677778 6.490113838e-41
-0.04572793841 -0.3523756862 0.1602524817 6.490113838e-41
0.1295910031 -0.4188948572 0.1016070023 6.490113838e-41
0.114209339 -0.3984867334 0.1120473072 6.490113838e-41
-0.1861121058 -0.4413354695 -0.03126050532 6.490113838e-41
0.06960518658 -0.3432949185 -0.03820959479 6.490113838e-41
-0.1931678504 -0.3942056 -0.01123841293 6.490113838e-41
0.09923090041 -0.4693079293 0.2056498528 6.490113838e-41
0.07635955513 -0.3675650656 -0.04455940798 6.490113838e-41
0.1576282233 -0.4674121141 0.08148127794 6.490113838e-41
-0.1289476603 -0.4652724564 -0.01320987754 6.490113838e-41
0.1516947448 -0.4430614114 0.01864708588 6.490113838e-41
-0.01473054662 -0.3157986403 -0.00943261385 6.490113838e-41
0.1317792982 -0.4497577548 -0.06628660113 6.490113838e-41
0.0121688731 -0.3349785805 -0.04830470309 6.490113838e-41
-0.1991383433 -0.3773008883 0.1443007886 6.490113838e-41
0.1388092935 -0.4196120203 0.07457114011 6.490113838e-41
-0.205713883 -0.431751579 -0.001522257924 6.490113838e-41
-0.07054282725 -0.4223195314 0.2144071758 6.490113838e-41
0.1529791504 -0.4498168528 0.0355950743 6.490113838e-41
0.09712785482 -0.3248050213 -0.002791807055 6.490113838e-41
0.1537405849 -0.4478232861 -0.001819942147 6.490113838e-41
0.03943987563 -0.3335360885 0.1264334321 6.490113838e-41
-0.2551672459 -0.3636271358 0.06191967428 6.490113838e-41
-0.1650789529 -0.4522633255 -0.0242776759 6.490113838e-41
0.06888365746 -0.3299014866 -0.03188646212 6.490113838e-41
0.02835753933 -0.3873859942 -0.06068291515 6.490113838e-41
0.04264107719 -0.3632144332 0.1560530365 6.490113838e-41
-0.2411559373 -0.3695182502 0.1198858246 6.490113838e-41
0.1380721182 -0.4014607072 0.02192034572 6.490113838e-41
-0.01627742127 -0.3694425523 0.1757565737 6.490113838e-41
-0.1209464073 -0.4647226036 -0.03421650454 6.490113838e-41
0.1136836857 -0.4309817553 0.1393228769 6.490113838e-41
0.01207022741 -0.3529727161 -0.05114999413 6.490113838e-41
0.1081107259 -0.3383417428 0.0128297396 6.490113838e-41
0.1342232972 -0.4240062833 0.09642227739 6.490113838e-41
0.08922372758 -0.4186160862 0.1615509391 6.490113838e-41
0.05976068601 -0.3127162755 0.04750259221 6.490113838e-41
0.1505889595 -0.4777172506 0.1291653812 6.490113838e-41
0.1095292121 -0.3466047645 0.04555675387 6.490113838e-41
-0.03308096528 -0.3742438257 0.1818544567 6.490113838e-41
-0.001723852009 -0.3924512267 0.1834920943 6.490113838e-41
0.08247210085 -0.4090553522 -0.06734015048 6.490113838e-41
-0.04973129928 -0.3225503266 -0.03470352292 6.490113838e-41
-0.2014556825 -0.3747020662 -0.03183698282 6.490113838e-41
0.09382648766 -0.3536050916 0.1190190837 6.490113838e-41
-0.08407186717 -0.4558534324 0.2333582938 6.490113838e-41
-0.118172355 -0.3413767219 0.1417896152 6.490113838e-41
-0.1950418651 -0.4254244864 -0.01345937699 6.490113838e-41
0.1052126735 -0.3497290611 0.09562968463 6.490113838e-41
0.0225620307 -0.3952951729 -0.06536580622 6.490113838e-41
0.06434634328 -0.3221746683 -0.02608205937 6.490113838e-41
0.09059159458 -0.4327039123 -0.07941479981 6.490113838e-41
-0.2471883297 -0.372481674 0.1238598451 6.490113838e-41
-0.2734758258 -0.353164643 0.1021595672 6.490113838e-41
0.1282645315 -0.4631490707 0.1583887935 6.490113838e-41
-0.1873971373 -0.3106994927 0.06189789623 6.490113838e-41
0.006929691881 -0.3253350556 0.1199058816 6.490113838e-41
-0.1459539682 -0.466062218 -0.03875184059 6.490113838e-41
0.1091819555 -0.3506215811 0.06271612644 6.490113838e-41
-0.055230923 -0.4087176025 -0.07666878402 6.490113838e-41
0.02279540524 -0.4224396348 -0.08133204281 6.490113838e-41
0.1257897168 -0.3734849095 0.05191217363 6.490113838e-41
0.06555591524 -0.3433764875 0.1270855069 6.490113838e-41
0.1350825578 -0.452092886 0.1302519441 6.490113838e-41
0.1315641701 -0.4565422237 0.1434555948 6.490113838e-41
-0.1520638168 -0.3989653289 0.1874481738 6.490113838e-41
0.1384903938 -0.4098694026 0.0473054722 6.490113838e-41
-0.2517740726 -0.3254827559 0.07399985194 6.490113838e-41
0.1103017926 -0.442393899 0.1563063562 6.490113838e-41
0.07355484366 -0.3494389653 0.1304988265 6.490113838e-41
0.05246144161 -0.333022356 0.1195573583 6.490113838e-41
-0.1141820401 -0.4640918672 -0.03141401708 6.490113838e-41
-0.2119313627 -0.3996650577 -0.05302358419 6.490113838e-41
-0.05009368807 -0.3651970029 -0.0613514483 6.490113838e-41
0.02767019346 -0.3191816807 0.05452204496 6.490113838e-41
0.05365707353 -0.3688845634 0.1535568535 6.490113838e-41
0.1305827349 -0.3844376206 0.04392737895 6.490113838e-41
-0.1659947634 -0.4186824858 0.1964882612 6.490113838e-41
-0.1806183308 -0.465335995 0.0275427103 6.490113838e-41
-0.1330527663 -0.3244711161 -0.03935462236 6.490113838e-41
-0.2172486782 -0.4298754632 0.02618864551 6.490113838e-41
-0.06558138132 -0.3931297958 0.1980745196 6.490113838e-41
0.05110981688 -0.3731837869 0.1568581164 6.490113838e-41
-0.1355002522 -0.4664336145 -0.02499845251 6.490113838e-41
-0.1856683344 -0.3623260856 0.03828158975 6.490113838e-41
0.04402036592 -0.4536342025 0.2108994126 6.490113838e-41
-0.09819673002 -0.4248940945 0.2172352672 6.490113838e-41
-0.2079897672 -0.4408209622 0.002598728985 6.490113838e-41
0.141807586 -0.4153845012 0.02457997203 6.490113838e-41
0.06084653363 -0.3224874735 0.0963428691 6.490113838e-41
0.01369855925 -0.3280259967 0.05888770521 6.490113838e-41
-0.06881099939 -0.4438203573 0.2250915468 6.490113838e-41
0.1146489531 -0.3470187485 -0.008428242058 6.490113838e-41
-0.1988923103 -0.4354904294 -0.04537827894 6.490113838e-41
-0.171543777 -0.4504415095 -0.01225738786 6.490113838e-41
0.04600582644 -0.4093925655 0.1766256392 6.490113838e-41
-0.01607846096 -0.3348853588 0.09259989113 6.490113838e-41
-0.1927223057 -0.4245611131 0.1888585985 6.490113838e-41
0.1009367406 -0.4431875944 0.1671615243 6.490113838e-41
0.04911254719 -0.3822699785 0.161834836 6.490113838e-41
0.05545608327 -0.3378571272 0.1252737641 6.490113838e-41
0.04039819911 -0.3695651293 -0.05001040548 6.490113838e-41
0.12416251 -0.3566685915 -0.001771621406 6.490113838e-41
-0.1874653101 -0.4662546813 0.03801368922 6.490113838e-41
-0.05340371281 -0.3342644274 0.09721197933 6.490113838e-41
0.1103070378 -0.341352284 0.01694273949 6.490113838e-41
0.08043684065 -0.466314584 -0.1079543829 6.490113838e-41
-0.09118647128 -0.3714202046 0.1808141768 6.490113838e-41
-0.107686922 -0.3731785715 -0.06910120696 6.490113838e-41
0.05734251067 -0.4513542652 0.2037549913 6.490113838e-41
0.03811790422 -0.3182165027 -0.02669502422 6.490113838e-41
0.0648753494 -0.3152966797 0.07098378986 6.490113838e-41
0.1194090843 -0.3604668379 0.06221665442 6.490113838e-41
0.1373140216 -0.4272152781 0.09240496904 6.490113838e-41
0.01429161057 -0.3172958493 -0.03030779399 6.490113838e-41
-0.144725889 -0.4662261903 -0.0369444117 6.490113838e-41
0.05652978644 -0.3251040578 0.103623651 6.490113838e-41
0.1339142621 -0.3866317868 -0.00272513926 6.490113838e-41
-0.07523019612 -0.3448995352 -0.06259267032 6.490113838e-41
-0.1410955638 -0.3424723148 0.03531701118 6.490113838e-41
-0.1279225647 -0.3381593823 0.07232412696 6.490113838e-41
0.07906806469 -0.3643325865 0.1363322437 6.490113838e-41
-0.1935545504 -0.3819852471 0.02141767368 6.490113838e-41
0.1145562828 -0.4563559592 -0.09115938842 6.490113838e-41
0.1085193008 -0.3459068835 0.04607263952 6.490113838e-41
0.1101204157 -0.3652538061 0.096888192 6.490113838e-41
0.06320913136 -0.3127198517 -0.002432599664 6.490113838e-41
0.1269767433 -0.4103299975 0.09785223752 6.490113838e-41
-0.1928698421 -0.439034462 -0.05321165919 6.490113838e-41
-0.2058133334 -0.4087050557 0.001476805657 6.490113838e-41
-0.02978664637 -0.3249339461 -0.04642608762 6.490113838e-41
0.1202670485 -0.4017488658 -0.04479764774 6.490113838e-41
-0.009739417583 -0.3524653614 0.1590517759 6.490113838e-41
-0.2449646145 -0.3458382487 0.03812980652 6.490113838e-41
-0.1408179998 -0.3422454596 0.05729382485 6.490113838e-41
0.08715064824 -0.3481763005 0.1192479357 6.490113838e-41
0.150414288 -0.4503791034 0.06941240281 6.490113838e-41
0.03143361583 -0.3163682222 0.05207496136 6.490113838e-41
0.05512517318 -0.4110082686 0.1738849878 6.490113838e-41
0.008645828813 -0.3313512504 0.05842220783 6.490113838e-41
-0.02289007977 -0.376649648 0.1807147264 6.490113838e-41
-0.1040691361 -0.4464254081 0.2281691134 6.490113838e-41
0.07808721066 -0.4445731342 0.1873310506 6.490113838e-41
-0.2167656124 -0.3426187634 -0.06278031319 6.490113838e-41
0.1002490819 -0.4392445982 -0.08133780211 6.490113838e-41
0.07537260652 -0.3319435716 0.1029657051 6.490113838e-41
0.1203601211 -0.3557694852 0.04198181629 6.490113838e-41
-0.1999909431 -0.3767282963 0.02276715636 6.490113838e-41
-0.1461060494 -0.4724965692 0.02225647494 6.490113838e-41
0.1036778986 -0.4730758667 0.208289355 6.490113838e-41
0.07035557926 -0.3169548512 0.06855239719 6.490113838e-41
-0.169008553 -0.4619675577 0.005783047527 6.490113838e-41
-0.1354184449 -0.4718002975 0.01432475448 6.490113838e-41
-0.02525794879 -0.3182771206 -0.03530373797 6.490113838e-41
-0.1944484711 -0.3058602512 0.06210786104 6.490113838e-41
-0.124375321 -0.4663526118 -0.003660425544 6.490113838e-41
0.1375692338 -0.4252561033 0.08885141462 6.490113838e-41
-0.02179925516 -0.3385829329 0.0874209702 6.490113838e-41
0.1457816213 -0.4417634308 0.08180154115 6.490113838e-41
-0.1743857712 -0.4542025328 -0.04175937921 6.490113838e-41
-0.188766107 -0.453809768 -0.002417270094 6.490113838e-41
-0.06973808259 -0.3310506344 0.1247711107 6.490113838e-41
-0.09269495308 -0.4414335787 0.2259272039 6.490113838e-41
0.100873217 -0.3323453665 0.01385123655 6.490113838e-41
-0.04407056794 -0.3369603157 0.1352769434 6.490113838e-41
0.001396823674 -0.3330299854 0.0501139462 6.490113838e-41
0.1089265198 -0.348713547 -0.01782235876 6.490113838e-41
-0.1923077852 -0.3301247954 0.09576480836 6.490113838e-41
0.1296891272 -0.3882652223 0.06027355045 6.490113838e-41
0.1215813756 -0.3681065738 -0.01570849307 6.490113838e-41
0.08404041827 -0.3197116256 -0.004260394722 6.490113838e-41
-0.2213387638 -0.4389461279 0.04923088849 6.490113838e-41
0.06075677648 -0.3241714239 0.09957938641 6.490113838e-41
-0.06475267559 -0.4552365243 0.2320145965 6.490113838e-41
0.08414898813 -0.3557643592 0.1283022761 6.490113838e-41
0.06951345503 -0.328709662 0.1017724052 6.490113838e-41
0.1043359935 -0.3507243395 0.1033839658 6.490113838e-41
-0.09777467698 -0.3383416533 0.04415466636 6.490113838e-41
-0.1426174045 -0.4701019526 0.01351100951 6.490113838e-41
0.001794766635 -0.3311349154 0.1308184266 6.490113838e-41
-0.222021848 -0.3480280638 -0.07027564943 6.490113838e-41
0.1205921918 -0.470977217 0.183693409 6.490113838e-41
-0.003169957548 -0.4403932095 0.2115385234 6.490113838e-41
0.1164162606 -0.4789835513 0.2034574747 6.490113838e-41
0.1158057004 -0.4081541002 0.1175611094 6.490113838e-41
0.05852172151 -0.4287827611 0.1833084226 6.490113838e-41
0.1425181776 -0.4485088885 -0.05146903172 6.490113838e-41
0.09469455481 -0.3296615481 0.04071389884 6.490113838e-41
0.1366278529 -0.4022132158 0.04260846227 6.490113838e-41
-0.1763002872 -0.323310554 0.06512179971 6.490113838e-41
-0.1601106524 -0.3224996328 0.1067765877 6.490113838e-41
0.1256253868 -0.3811508417 -0.02058705315 6.490113838e-41
0.09745767713 -0.3901902437 0.1361069977 6.490113838e-41
0.1396506429 -0.4318060577 -0.03977763653 6.490113838e-41
-0.03300024569 -0.3809688687 0.1852078736 6.490113838e-41
-0.1386126131 -0.3446127772 0.04598627239 6.490113838e-41
0.1297717839 -0.390365839 0.06491319835 6.490113838e-41
-0.1458725333 -0.3424520791 -0.07054267824 6.490113838e-41
-0.2188017517 -0.3476956487 -0.06659677625 6.490113838e-41
-0.2126960307 -0.4406291842 0.009903848171 6.490113838e-41
0.1050019413 -0.3433954716 0.04688093811 6.490113838e-41
0.1440005451 -0.4267545044 0.04678691179 6.490113838e-41
0.1014549583 -0.4529267848 0.1780374348 6.490113838e-41
0.05072898045 -0.3638084233 -0.1193121448 5.962428276e-39
0.1059677899 -0.4384469688 -0.06931245327 5.962428276e-39
0.01142372563 -0.4269559085 0.04311295599 5.962428276e-39
0.02095598355 -0.4066418707 0.02559248731 5.962428276e-39
0.05706994608 -0.3024870753 0.1506024599 5.962428276e-39
-0.04443547875 -0.3527089953 0.2768346965 5.962428276e-39
0.1469711363 -0.2907592654 0.01475010812 5.962428276e-39
0.1375768334 -0.4531484246 0.09958385676 5.962428276e-39
0.02274827287 -0.4678453803 0.09109548479 5.962428276e-39
-0.1911797971 -0.4525217414 0.1017416492 5.962428276e-39
-0.07483602315 -0.4417482316 -0.1464731097 5.962428276e-39
0.07476197183 -0.330971688 0.2516665161 5.962428276e-39
0.1756516397 -0.3680020273 0.1116068885 5.962428276e-39
-0.04703362286 -0.2736472189 -0.01709639654 5.962428276e-39
-0.01470758021 -0.2486796677 0.1875281334 5.962428276e-39
-0.004134595394 -0.3677382171 -0.1176506653 5.962428276e-39
-0.1424389184 -0.3807008564 -0.001517843455 5.962428276e-39
-0.1232931018 -0.2868074775 0.05519526452 5.962428276e-39
0.04192595556 -0.3301686943 0.1629530787 5.962428276e-39
0.009819593281 -0.4407176971 0.2244576812 5.962428276e-39
-0.06230225414 -0.2620539665 0.06958641857 5.962428276e-39
-0.000788114965 -0.3618812263 0.2746515572 5.962428276e-39
0.1296550781 -0.2704041004 0.1063593999 5.962428276e-39
0.06511244178 -0.4414904416 0.02356120199 5.962428276e-39
-0.2049825937 -0.3537919223 -0.009357761592 5.962428276e-39
-0.1262502819 -0.4493595362 0.06695307046 5.962428276e-39
0.1810654551 -0.422924161 0.06359624118 5.962428276e-39
0.05979807302 -0.4659612477 0.0971178636 5.962428276e-39
-0.0972212851 -0.2824161947 0.1498605311 5.962428276e-39
0.1265097708 -0.3913850784 -0.1207800657 5.962428276e-39
-0.09791265428 -0.3040235639 0.1388270259 5.962428276e-39
-0.04922310263 -0.2983454466 0.09723902494 5.962428276e-39
-0.1106284112 -0.2948303223 -0.04318013042 5.962428276e-39
0.09405343235 -0.2534977198 0.1028316841 5.962428276e-39
-0.01883991063 -0.3505046368 0.1390017271 5.962428276e-39
0.009327832609 -0.4572319388 -0.02085207403 5.962428276e-39
-0.08958185464 -0.3522188962 -0.09926963598 5.962428276e-39
0.05047127977 -0.4610669315 0.1373172104 5.962428276e-39
0.0714893043 -0.2673107088 0.01033495739 5.962428276e-39
0.0209342204 -0.4636345208 0.04251421988 5.962428276e-39
-0.1221581697 -0.4347108901 0.2466005683 5.962428276e-39
-0.01389711723 -0.4370827377 0.04648447037 5.962428276e-39
-0.05979865044 -0.256362319 0.02777286619 5.962428276e-39
-0.2024468929 -0.3735643923 0.2181161642 5.962428276e-39
0.06279501319 -0.3741344213 -0.1238659024 5.962428276e-39
-0.02820089459 -0.3741602004 0.04626169056 5.962428276e-39
-0.01198115945 -0.2819461823 0.2274135947 5.962428276e-39
0.1201064736 -0.2827343643 0.001086696982 5.962428276e-39
-0.1011106372 -0.433262825 0.2553094625 5.962428276e-39
-0.1336525977 -0.4483996928 0.197440505 5.962428276e-39
0.1745416522 -0.3741348088 0.05041974038 5.962428276e-39
-0.1387278289 -0.3874641061 0.2688803077 5.962428276e-39
-0.07035276294 -0.3819348216 0.2864819169 5.962428276e-39
-0.1194774061 -0.4107368588 0.08802796155 5.962428276e-39
0.168852821 -0.3435844183 0.1505386233 5.962428276e-39
0.1450183839 -0.3167387247 0.1954967678 5.962428276e-39
0.07121543586 -0.4545193911 -0.006993774325 5.962428276e-39
-0.03958198056 -0.2743692398 -0.01947489753 5.962428276e-39
0.06536626816 -0.4458741248 0.01525957882 5.962428276e-39
0.07504825294 -0.4305830002 0.274846077 5.962428276e-39
-0.03545400128 -0.2972414494 -0.06744150817 5.962428276e-39
0.1804132462 -0.4212256968 0.07221700251 5.962428276e-39
0.1537500769 -0.4399394393 0.008231524378 5.962428276e-39
0.1704533249 -0.3876751065 -0.034634877 5.962428276e-39
-0.09802406281 -0.3248262703 0.05513091385 5.962428276e-39
0.09336166084 -0.4054012001 -0.1364961267 5.962428276e-39
-0.1106004342 -0.2596473098 0.0146936439 5.962428276e-39
-0.1896970421 -0.4495629668 0.1501479745 5.962428276e-39
0.1740091294 -0.3502066135 0.07584619522 5.962428276e-39
0.09991760552 -0.458741188 0.08798336983 5.962428276e-39
-0.1767640114 -0.3403558731 0.2107999027 5.962428276e-39
0.1750292778 -0.3946972787 -0.008199132979 5.962428276e-39
0.01655608788 -0.2570453882 0.04801899195 5.962428276e-39
0.1665379703 -0.3971523941 -0.06210672483 5.962428276e-39
-0.04436902702 -0.3058416247 0.1550190747 5.962428276e-39
-0.07460318506 -0.4451279044 0.2112134695 5.962428276e-39
0.1100999862 -0.4482956827 -0.001796863973 5.962428276e-39
-0.03900107369 -0.2607758641 0.008394237608 5.962428276e-39
-0.1093030125 -0.3208344281 -0.07942922413 5.962428276e-39
-0.05788862333 -0.282407105 0.2214844525 5.962428276e-39
-0.1885285378 -0.443551302 0.1784871519 5.962428276e-39
0.1519032419 -0.3333896399 -0.03328799456 5.962428276e-39
-0.1433500946 -0.2638244629 0.1574962735 5.962428276e-39
0.1188321561 -0.4407723248 -0.04622564837 5.962428276e-39
0.1312675923 -0.3522297442 0.2277576923 5.962428276e-39
-0.1118951291 -0.2730596662 -0.0140705388 5.962428276e-39
0.05889638141 -0.2594525814 0.0385947153 5.962428276e-39
0.1721410453 -0.3516038954 0.1307961643 5.962428276e-39
0.04269406572 -0.3342094421 0.2603367269 5.962428276e-39
0.02262300625 -0.3059915602 0.1311981976 5.962428276e-39
0.1752950102 -0.4345479906 0.1415527463 5.962428276e-39
0.1051032394 -0.2568969131 0.08350498229 5.962428276e-39
-0.1582726836 -0.2742159665 0.146579653 5.962428276e-39
-0.113651067 -0.3154208362 0.2295782268 5.962428276e-39
-0.02922604233 -0.3598717153 -0.1101840362 5.962428276e-39
-0.1342547089 -0.3274713755 0.03286574781 5.962428276e-39
-0.03391467035 -0.4560515285 -0.03285732493 5.962428276e-39
0.06557162106 -0.2827225029 0.2185755968 5.962428276e-39
-0.1834904104 -0.379906565 0.2373100519 5.962428276e-39
-0.1132546142 -0.469363153 0.08549338579 5.962428276e-39
0.1032394767 -0.4435136914 0.03788851202 5.962428276e-39
0.1039361805 -0.2776662707 0.1842190921 5.962428276e-39
-0.1166140363 -0.3318640292 -0.0882229954 5.962428276e-39
-0.04420401528 -0.2552090287 0.03334285319 5.962428276e-39
-0.01161655411 -0.3925908804 -0.1278239787 5.962428276e-39
-0.1962765753 -0.4414167106 0.1837090552 5.962428276e-39
-0.1228071749 -0.4365246892 0.2399560213 5.962428276e-39
0.1503056884 -0.4098475277 0.2216915488 5.962428276e-39
-0.02346353233 -0.4669332504 0.1063803807 5.962428276e-39
-0.04030901194 -0.3980365694 0.09242460877 5.962428276e-39
0.07389065623 -0.4472872317 -0.0572761856 5.962428276e-39
0.1222569644 -0.2644740939 0.1191728339 5.962428276e-39
-0.1901106089 -0.3306427598 -0.07994940877 5.962428276e-39
-0.1174431741 -0.3769952059 -0.1107688621 5.962428276e-39
0.150270611 -0.2860084176 0.06443645805 5.962428276e-39
-0.01105705276 -0.2487118989 0.1987221837 5.962428276e-39
0.1649142057 -0.3891400099 0.1825270355 5.962428276e-39
0.1579714566 -0.3978670537 0.2042748928 5.962428276e-39
-0.2238159925 -0.430010587 0.1160950884 5.962428276e-39
0.1650238484 -0.3407937884 0.01296528056 5.962428276e-39
-0.1308646649 -0.451923281 0.1812185049 5.962428276e-39
0.1170635819 -0.3699645996 0.2439155579 5.962428276e-39
0.007779058069 -0.2660141587 0.2168319523 5.962428276e-39
-0.02651190385 -0.2842234373 0.1718077362 5.962428276e-39
0.1339746714 -0.438573122 -0.04059137031 5.962428276e-39
-0.0683016479 -0.4560137093 -0.06795781851 5.962428276e-39
-0.1753710955 -0.2776422501 -0.00465066731 5.962428276e-39
0.003812093288 -0.3399991393 0.09585020691 5.962428276e-39
-0.03253783658 -0.2935857177 0.2359897196 5.962428276e-39
0.1544500142 -0.2964775264 0.02544530854 5.962428276e-39
-0.2485171407 -0.4048614502 0.1231612042 5.962428276e-39
0.09858769178 -0.4529470205 0.1668866873 5.962428276e-39
-0.1387491375 -0.3846744299 -0.002959948033 5.962428276e-39
0.0347991623 -0.4533278048 0.1739244163 5.962428276e-39
-0.1912258416 -0.2817943096 0.1479821205 5.962428276e-39
-0.03711044788 -0.2983447313 0.2405543327 5.962428276e-39
0.112318933 -0.444157511 -0.03527841717 5.962428276e-39
0.05398897454 -0.4620740414 0.0612526536 5.962428276e-39
-0.04700373486 -0.398778975 0.2896340787 5.962428276e-39
-0.2157631814 -0.3214150369 0.1687891185 5.962428276e-39
0.0950897038 -0.4625028968 0.1072980538 5.962428276e-39
0.1604881734 -0.3532039523 -0.02995047718 5.962428276e-39
0.0114257969 -0.3229495287 0.166970402 5.962428276e-39
0.001388948411 -0.3519426584 0.08142624795 5.962428276e-39
-0.1709746271 -0.366717875 0.2364879251 5.962428276e-39
0.04675518349 -0.2725093365 -0.01962132007 5.962428276e-39
-0.005576711148 -0.4563429356 -0.05391848087 5.962428276e-39
0.1290991902 -0.4462753832 0.03499412537 5.962428276e-39
-0.04806342721 -0.3284552097 0.266723305 5.962428276e-39
0.003961402923 -0.4250403643 0.05406934768 5.962428276e-39
-0.2558669448 -0.4067935944 0.1412009299 5.962428276e-39
0.08337271214 -0.3720980883 0.2590084076 5.962428276e-39
-0.0404022038 -0.3057132363 0.2494867444 5.962428276e-39
-0.03207823262 -0.2585156858 0.1803495288 5.962428276e-39
-0.08801792562 -0.2973926961 -0.0535897091 5.962428276e-39
0.07645882666 -0.2810954452 -0.03406845778 5.962428276e-39
0.08490850031 -0.4495688975 0.1833962202 5.962428276e-39
-0.01724730432 -0.4544804096 0.02872669697 5.962428276e-39
0.06931784749 -0.2607946396 0.03865829855 5.962428276e-39
-0.0305528231 -0.4568576217 -0.1581557095 5.962428276e-39
-0.1733045429 -0.4225186408 0.0814293623 5.962428276e-39
-0.2225314528 -0.2947835326 -0.004553269595 5.962428276e-39
-0.02282044664 -0.3925613761 0.2852723897 5.962428276e-39
-0.07709228247 -0.2611337304 0.06107889116 5.962428276e-39
0.04357248172 -0.3257130384 0.1569463909 5.962428276e-39
0.1420818716 -0.2782953382 0.1026139632 5.962428276e-39
0.1743802726 -0.3568076491 0.1168753281 5.962428276e-39
-0.09699600935 -0.2844747901 0.0683093816 5.962428276e-39
0.07865996659 -0.4469590187 -0.05450958014 5.962428276e-39
-0.001336473972 -0.3173611164 0.1643279195 5.962428276e-39
0.1183267534 -0.3206466436 -0.06170476228 5.962428276e-39
-0.1768230349 -0.3039578795 0.02551688999 5.962428276e-39
-0.002312522382 -0.4370211959 0.0001599863172 5.962428276e-39
0.02252293006 -0.4621018171 0.03566130996 5.962428276e-39
0.0272061266 -0.2919964194 0.2358141541 5.962428276e-39
0.07192143798 -0.4566780925 0.05570349842 5.962428276e-39
0.03480167314 -0.4355122447 -0.1531448364 5.962428276e-39
0.1036081612 -0.2563208342 0.08647123724 5.962428276e-39
0.1299141198 -0.2888409495 0.1811105907 5.962428276e-39
-0.03426582366 -0.2701110244 0.08944163471 5.962428276e-39
0.1682611257 -0.332639873 0.1489238739 5.962428276e-39
-0.0304812789 -0.4515281022 -0.08527689427 5.962428276e-39
0.08784511685 -0.4581770301 0.07290486991 5.962428276e-39
-0.1336939037 -0.2994109988 0.0485426411 5.962428276e-39
0.06641231477 -0.3420217633 -0.1052651182 5.962428276e-39
-0.1132769212 -0.3237524629 0.1281089485 5.962428276e-39
-0.05651206151 -0.4525821209 0.1834788918 5.962428276e-39
0.0372630544 -0.450748086 0.0201940611 5.962428276e-39
0.04376268759 -0.272127986 0.2158283293 5.962428276e-39
0.1765919328 -0.3938550055 0.05430049449 5.962428276e-39
0.002656538039 -0.3351351917 0.09973786026 5.962428276e-39
-0.02938478813 -0.327316761 0.2675746381 5.962428276e-39
-0.002395942807 -0.3548927009 0.0761410147 5.962428276e-39
-0.1474319249 -0.2706690431 0.1674899459 5.962428276e-39
-0.2080674917 -0.3599039018 0.2034890354 5.962428276e-39
0.01692562923 -0.3758786023 0.2748780847 5.962428276e-39
-0.146053955 -0.4459031522 -0.07489392161 5.962428276e-39
0.006222192198 -0.400912255 -0.1339534521 5.962428276e-39
0.02196170017 -0.2664776444 0.1926799715 5.962428276e-39
0.1213356405 -0.2694666982 0.05740606785 5.962428276e-39
0.06298500299 -0.4631668925 0.07317624241 5.962428276e-39
0.1531675607 -0.4484848082 0.1391810775 5.962428276e-39
0.0872926861 -0.4407036901 0.2729204893 5.962428276e-39
0.05123065785 -0.3211101592 0.1615119576 5.962428276e-39
0.143597126 -0.4503375888 0.09594251961 5.962428276e-39
0.1722816974 -0.4384683073 0.09732943028 5.962428276e-39
-0.1235038862 -0.3088186383 0.05107633024 5.962428276e-39
-0.04678876325 -0.464237988 0.1216578856 5.962428276e-39
0.1674632132 -0.4382155538 0.03424011171 5.962428276e-39
0.1752636135 -0.3545142412 0.1096715704 5.962428276e-39
0.01393232867 -0.4187744856 0.05095770955 5.962428276e-39
0.1767501384 -0.3795969784 0.08241281658 5.962428276e-39
0.02280021831 -0.4532850981 -0.06566564739 5.962428276e-39
0.1275779754 -0.449573189 0.08592394739 5.962428276e-39
-0.05822874606 -0.4650458992 0.05089212954 5.962428276e-39
-0.1954541206 -0.3586705625 0.2116995752 5.962428276e-39
0.04475821182 -0.2571912408 0.06034196168 5.962428276e-39
-0.07583007216 -0.4506281614 0.04949895293 5.962428276e-39
-0.02082198113 -0.3563055992 0.0664139688 5.962428276e-39
0.03009698913 -0.2755073309 -0.03284503892 5.962428276e-39
-0.1216990054 -0.4611414075 0.1370295584 5.962428276e-39
0.1636910886 -0.3028540611 0.06850270927 5.962428276e-39
0.07216945291 -0.2948408127 -0.06464340538 5.962428276e-39
-0.003289725631 -0.2558972836 0.06641814858 5.962428276e-39
0.0167301856 -0.4450578988 0.2059726119 5.962428276e-39
0.007186885923 -0.3165957928 0.1688157916 5.962428276e-39
-0.1690150648 -0.3869287372 0.2516599894 5.962428276e-39
0.03651912138 -0.2821911573 0.226573348 5.962428276e-39
0.01557251438 -0.2902430892 0.1845088601 5.962428276e-39
0.09842786193 -0.2819207311 0.197712034 5.962428276e-39
-0.01996640116 -0.41220662 0.009718105197 5.962428276e-39
0.1655139476 -0.4421218932 0.1010234877 5.962428276e-39
-0.05699101835 -0.3906709552 0.1002255306 5.962428276e-39
-0.1574963778 -0.44825688 -0.08733937144 5.962428276e-39
0.1285137832 -0.4314117432 0.2473453283 5.962428276e-39
-0.1179845184 -0.3707083166 0.27060467 5.962428276e-39
0.1169015914 -0.4550699294 0.2598311603 5.962428276e-39
0.1457330585 -0.3287681341 0.2011587322 5.962428276e-39
-0.0220814757 -0.3493536413 0.2744421363 5.962428276e-39
0.127973035 -0.3999804854 -0.125609383 5.962428276e-39
0.0582892783 -0.2632791996 0.1094883904 5.962428276e-39
0.1608502269 -0.3287333548 0.00446774438 5.962428276e-39
0.00439177826 -0.468064785 0.08212200552 5.962428276e-39
-0.09449960291 -0.4674292803 0.1078251824 5.962428276e-39
0.08841001987 -0.3137609959 -0.07956196368 5.962428276e-39
0.08407863975 -0.3089158535 0.2377103567 5.962428276e-39
0.1308162957 -0.3769360781 -0.1098510325 5.962428276e-39
-0.1571463943 -0.2738146484 0.1642983258 5.962428276e-39
0.02060839161 -0.4349777997 0.00288945809 5.962428276e-39
0.165734157 -0.3055177629 0.0805606693 5.962428276e-39
-0.1998305321 -0.3535220325 -0.006248526275 5.962428276e-39
-0.1495086104 -0.4480654895 -0.08178152144 5.962428276e-39
0.06971891224 -0.4607576728 0.136868149 5.962428276e-39
0.09727497399 -0.2537240088 0.09420346469 5.962428276e-39
0.1694624722 -0.365894258 0.008874580264 5.962428276e-39
0.08129121363 -0.3897185028 0.2634893358 5.962428276e-39
0.05072898045 -0.3638084233 -0.1193121448 1.184631237e-38
0.1059677899 -0.4384469688 -0.06931245327 1.184631237e-38
0.01142372563 -0.4269559085 0.04311295599 1.184631237e-38
0.02095598355 -0.4066418707 0.02559248731 1.184631237e-38
0.05706994608 -0.3024870753 0.1506024599 1.184631237e-38
-0.04443547875 -0.3527089953 0.2768346965 1.184631237e-38
0.1469711363 -0.2907592654 0.01475010812 1.184631237e-38
0.1375768334 -0.4531484246 0.09958385676 1.184631237e-38
0.02274827287 -0.4678453803 0.09109548479 1.184631237e-38
-0.1911797971 -0.4525217414 0.1017416492 1.184631237e-38
-0.07483602315 -0.4417482316 -0.1464731097 1.184631237e-38
0.07476197183 -0.330971688 0.2516665161 1.184631237e-38
0.1756516397 -0.3680020273 0.1116068885 1.184631237e-38
-0.04703362286 -0.2736472189 -0.01709639654 1.184631237e-38
-0.01470758021 -0.2486796677 0.1875281334 1.184631237e-38
-0.004134595394 -0.3677382171 -0.1176506653 1.184631237e-38
-0.1424389184 -0.3807008564 -0.001517843455 1.184631237e-38
-0.1232931018 -0.2868074775 0.05519526452 1.184631237e-38
0.04192595556 -0.3301686943 0.1629530787 1.184631237e-38
0.009819593281 -0.4407176971 0.2244576812 1.184631237e-38
-0.06230225414 -0.2620539665 0.06958641857 1.184631237e-38
-0.000788114965 -0.3618812263 0.2746515572 1.184631237e-38
0.1296550781 -0.2704041004 0.1063593999 1.184631237e-38
0.06511244178 -0.4414904416 0.02356120199 1.184631237e-38
-0.2049825937 -0.3537919223 -0.009357761592 1.184631237e-38
-0.1262502819 -0.4493595362 0.06695307046 1.184631237e-38
0.1810654551 -0.422924161 0.06359624118 1.184631237e-38
0.05979807302 -0.4659612477 0.0971178636 1.184631237e-38
-0.0972212851 -0.2824161947 0.1498605311 1.184631237e-38
0.1265097708 -0.3913850784 -0.1207800657 1.184631237e-38
-0.09791265428 -0.3040235639 0.1388270259 1.184631237e-38
-0.04922310263 -0.2983454466 0.09723902494 1.184631237e-38
-0.1106284112 -0.2948303223 -0.04318013042 1.184631237e-38
0.09405343235 -0.2534977198 0.1028316841 1.184631237e-38
-0.01883991063 -0.3505046368 0.1390017271 1.184631237e-38
0.009327832609 -0.4572319388 -0.02085207403 1.184631237e-38
-0.08958185464 -0.3522188962 -0.09926963598 1.184631237e-38
0.05047127977 -0.4610669315 0.1373172104 1.184631237e-38
0.0714893043 -0.2673107088 0.01033495739 1.184631237e-38
0.0209342204 -0.4636345208 0.04251421988 1.184631237e-38
-0.1221581697 -0.4347108901 0.2466005683 1.184631237e-38
-0.01389711723 -0.4370827377 0.04648447037 1.184631237e-38
-0.05979865044 -0.256362319 0.02777286619 1.184631237e-38
-0.2024468929 -0.3735643923 0.2181161642 1.184631237e-38
0.06279501319 -0.3741344213 -0.1238659024 1.184631237e-38
-0.02820089459 -0.3741602004 0.04626169056 1.184631237e-38
-0.01198115945 -0.2819461823 0.2274135947 1.184631237e-38
0.1201064736 -0.2827343643 0.001086696982 1.184631237e-38
-0.1011106372 -0.433262825 0.2553094625 1.184631237e-38
-0.1336525977 -0.4483996928 0.197440505 1.184631237e-38
0.1745416522 -0.3741348088 0.05041974038 1.184631237e-38
-0.1387278289 -0.3874641061 0.2688803077 1.184631237e-38
-0.07035276294 -0.3819348216 0.2864819169 1.184631237e-38
-0.1194774061 -0.4107368588 0.08802796155 1.184631237e-38
0.168852821 -0.3435844183 0.1505386233 1.184631237e-38
0.1450183839 -0.3167387247 0.1954967678 1.184631237e-38
0.07121543586 -0.4545193911 -0.006993774325 1.184631237e-38
-0.03958198056 -0.2743692398 -0.01947489753 1.184631237e-38
0.06536626816 -0.4458741248 0.01525957882 1.184631237e-38
0.07504825294 -0.4305830002 0.274846077 1.184631237e-38
-0.03545400128 -0.2972414494 -0.06744150817 1.184631237e-38
0.1804132462 -0.4212256968 0.07221700251 1.184631237e-38
0.1537500769 -0.4399394393 0.008231524378 1.184631237e-38
0.1704533249 -0.3876751065 -0.034634877 1.184631237e-38
-0.09802406281 -0.3248262703 0.05513091385 1.184631237e-38
0.09336166084 -0.4054012001 -0.1364961267 1.184631237e-38
-0.1106004342 -0.2596473098 0.0146936439 1.184631237e-38
-0.1896970421 -0.4495629668 0.1501479745 1.184631237e-38
0.1740091294 -0.3502066135 0.07584619522 1.184631237e-38
0.09991760552 -0.458741188 0.08798336983 1.184631237e-38
-0.1767640114 -0.3403558731 0.2107999027 1.184631237e-38
0.1750292778 -0.3946972787 -0.008199132979 1.184631237e-38
0.01655608788 -0.2570453882 0.04801899195 1.184631237e-38
0.1665379703 -0.3971523941 -0.06210672483 1.184631237e-38
-0.04436902702 -0.3058416247 0.1550190747 1.184631237e-38
-0.07460318506 -0.4451279044 0.2112134695 1.184631237e-38
0.1100999862 -0.4482956827 -0.001796863973 1.184631237e-38
-0.03900107369 -0.2607758641 0.008394237608 1.184631237e-38
-0.1093030125 -0.3208344281 -0.07942922413 1.184631237e-38
-0.05788862333 -0.282407105 0.2214844525 1.184631237e-38
-0.1885285378 -0.443551302 0.1784871519 1.184631237e-38
0.1519032419 -0.3333896399 -0.03328799456 1.184631237e-38
-0.1433500946 -0.2638244629 0.1574962735 1.184631237e-38
0.1188321561 -0.4407723248 -0.04622564837 1.184631237e-38
0.1312675923 -0.3522297442 0.2277576923 1.184631237e-38
-0.1118951291 -0.2730596662 -0.0140705388 1.184631237e-38
0.05889638141 -0.2594525814 0.0385947153 1.184631237e-38
0.1721410453 -0.3516038954 0.1307961643 1.184631237e-38
0.04269406572 -0.3342094421 0.2603367269 1.184631237e-38
0.02262300625 -0.3059915602 0.1311981976 1.184631237e-38
0.1752950102 -0.4345479906 0.1415527463 1.184631237e-38
0.1051032394 -0.2568969131 0.08350498229 1.184631237e-38
-0.1582726836 -0.2742159665 0.146579653 1.184631237e-38
-0.113651067 -0.3154208362 0.2295782268 1.184631237e-38
-0.02922604233 -0.3598717153 -0.1101840362 1.184631237e-38
-0.1342547089 -0.3274713755 0.03286574781 1.184631237e-38
-0.03391467035 -0.4560515285 -0.03285732493 1.184631237e-38
0.06557162106 -0.2827225029 0.2185755968 1.184631237e-38
-0.1834904104 -0.379906565 0.2373100519 1.184631237e-38
-0.1132546142 -0.469363153 0.08549338579 1.184631237e-38
0.1032394767 -0.4435136914 0.03788851202 1.184631237e-38
0.1039361805 -0.2776662707 0.1842190921 1.184631237e-38
-0.1166140363 -0.3318640292 -0.0882229954 1.184631237e-38
-0.04420401528 -0.2552090287 0.03334285319 1.184631237e-38
-0.01161655411 -0.3925908804 -0.1278239787 1.184631237e-38
-0.1962765753 -0.4414167106 0.1837090552 1.184631237e-38
-0.1228071749 -0.4365246892 0.2399560213 1.184631237e-38
0.1503056884 -0.4098475277 0.2216915488 1.184631237e-38
-0.02346353233 -0.4669332504 0.1063803807 1.184631237e-38
-0.04030901194 -0.3980365694 0.09242460877 1.184631237e-38
