# .PCD v0.7 - Point Cloud Data file format
VERSION 0.7
FIELDS x y z rgb
SIZE 4 4 4 4
TYPE F F F F
COUNT 1 1 1 1
WIDTH 830
HEIGHT 1
VIEWPOINT 0 0 0 1 0 0 0
POINTS 830
DATA ascii
0.1422134638 -0.2696372867 0.1327868104 5.820783626e-39
-0.1543743461 -0.3898923993 0.1354616284 5.820783626e-39
0.1625822634 -0.3566413522 0.1781843007 5.820783626e-39
0.04552847147 -0.2706327438 0.1300115883 5.820783626e-39
0.0311727114 -0.2053094506 0.1386213154 5.820783626e-39
0.03065378778 -0.3740170896 0.2394935191 5.820783626e-39
0.009311374277 -0.4584180713 0.198420763 5.820783626e-39
0.06306068599 -0.4308022857 0.2368050218 5.820783626e-39
0.03410489112 -0.2929696441 0.119276017 5.820783626e-39
0.1490625441 -0.268147707 0.03690803424 5.820783626e-39
0.1286885142 -0.4581882358 0.05508651957 5.820783626e-39
-0.03535362706 -0.45998317 0.1391271055 5.820783626e-39
-0.1654697657 -0.4028908014 0.0752684921 5.820783626e-39
0.1550559253 -0.3875346482 0.01209193468 5.820783626e-39
-0.06738196313 -0.4600550532 0.02371989563 5.820783626e-39
-0.1694184989 -0.3676341176 0.06122244895 5.820783626e-39
-0.1466954499 -0.2706924081 0.0957826525 5.820783626e-39
-0.1056984812 -0.3507062197 -0.02888855338 5.820783626e-39
0.1027950794 -0.454777956 0.01177244261 5.820783626e-39
-0.09124977887 -0.2955836356 0.02545456961 5.820783626e-39
-0.07835108042 -0.3739872873 -0.03931120038 5.820783626e-39
-0.0399136059 -0.3817195892 0.2627161443 5.820783626e-39
0.156601429 -0.3934025168 0.04998710752 5.820783626e-39
0.03693988174 -0.4646138549 0.1265872568 5.820783626e-39
0.04041181877 -0.4497421384 -0.008794754744 5.820783626e-39
0.07761506736 -0.4574374557 0.218901068 5.820783626e-39
0.09259301424 -0.2469439209 0.1986911297 5.820783626e-39
-0.04996268824 -0.4599026442 0.1248634756 5.820783626e-39
0.1264264584 -0.3721509874 -0.03817620128 5.820783626e-39
0.04128782824 -0.4569109082 0.08027441055 5.820783626e-39
-0.08580382168 -0.1994665712 0.1012603641 5.820783626e-39
-0.0310674943 -0.4614208937 0.07594191283 5.820783626e-39
-0.06497739255 -0.1957869977 0.154470697 5.820783626e-39
-0.07209686935 -0.3584136963 -0.04316052794 5.820783626e-39
-0.01779901236 -0.4597772956 0.02737238258 5.820783626e-39
0.1517500281 -0.2438444793 0.1238164306 5.820783626e-39
0.1003393233 -0.3509895802 -0.02796383947 5.820783626e-39
-0.1056896448 -0.2390314937 0.1916263849 5.820783626e-39
-0.0192613937 -0.3251539469 0.07477878779 5.820783626e-39
0.07436239719 -0.2548222542 0.2194319963 5.820783626e-39
-0.02416573465 -0.4619014859 0.08473653346 5.820783626e-39
-0.1133145988 -0.2807998657 -0.04226528108 5.820783626e-39
0.005980154499 -0.3012197614 0.235994041 5.820783626e-39
0.01830402203 -0.4410297871 0.2393823862 5.820783626e-39
0.09883020818 -0.3899710774 -0.03722577542 5.820783626e-39
-0.08788865805 -0.222875461 0.1880097389 5.820783626e-39
0.07280030847 -0.3905918598 0.1126283407 5.820783626e-39
-0.05919546261 -0.1900668591 0.120301649 5.820783626e-39
0.1493129581 -0.3465295434 0.210234493 5.820783626e-39
0.05137198046 -0.2160685658 -0.003385238349 5.820783626e-39
-0.00198771432 -0.3465659022 0.08404945582 5.820783626e-39
0.1525427103 -0.3990085125 0.03012273461 5.820783626e-39
0.02710019425 -0.4512773752 -0.01390779763 5.820783626e-39
-0.04127754644 -0.3891317248 0.2620471418 5.820783626e-39
0.004420379177 -0.4098638892 -0.04681224376 6.490113838e-41
-0.1435679346 -0.3967024088 0.1812692583 6.490113838e-41
0.1234203875 -0.2768579721 0.1221195385 6.490113838e-41
-0.04778731987 -0.2054891884 0.1971648633 6.490113838e-41
0.08574405313 -0.4635363221 0.1594220102 6.490113838e-41
0.0518579334 -0.4494758844 -0.009044751525 6.490113838e-41
-0.09425880015 -0.2338945866 0.05291206762 6.490113838e-41
0.118775174 -0.3088454902 -0.0201503709 6.490113838e-41
-0.08595794439 -0.2312832326 0.05797420815 6.490113838e-41
0.06455597281 -0.4204249978 -0.03857252747 6.490113838e-41
0.01013189182 -0.4534002542 -0.01576718688 6.490113838e-41
-0.05105667189 -0.318125248 0.003122530878 6.490113838e-41
-0.05664180592 -0.4595615268 0.08615050465 6.490113838e-41
0.1406321377 -0.4347905517 0.1779203862 6.490113838e-41
0.07117949426 -0.4604139924 0.05443236232 6.490113838e-41
-0.04227087274 -0.2211922258 0.2123212814 6.490113838e-41
0.1482759863 -0.2322493345 0.08346793801 6.490113838e-41
-0.06877879798 -0.430711627 0.2632220089 6.490113838e-41
0.1614632756 -0.3817711473 0.1016246453 6.490113838e-41
-0.01695702597 -0.2557678521 -0.002155095339 6.490113838e-41
0.1575372517 -0.2632870078 0.06813248247 6.490113838e-41
-0.04353677109 -0.4599938393 0.1307777762 6.490113838e-41
-0.05744503066 -0.4589785933 0.1365052164 6.490113838e-41
0.1669047624 -0.2874937057 0.1314709634 6.490113838e-41
0.1077775359 -0.4591901302 0.06640328467 6.490113838e-41
0.1226867735 -0.4287284613 0.2079359591 6.490113838e-41
-0.05151030049 -0.3271471262 -0.04581128061 6.490113838e-41
0.0583855547 -0.4623423815 0.05556372181 6.490113838e-41
-0.1597429067 -0.3233644068 0.1212684661 6.490113838e-41
0.1623922437 -0.3604807556 0.0767429173 6.490113838e-41
-0.1468049139 -0.3730574846 0.18504107 6.490113838e-41
0.03959323093 -0.2357215881 0.2124180496 6.490113838e-41
0.04571419582 -0.2582515478 0.2263638377 6.490113838e-41
-0.1397441626 -0.2478897274 0.08229013532 6.490113838e-41
-0.120405972 -0.454882741 -0.02193152159 6.490113838e-41
0.1480058581 -0.4435802698 0.02574359626 6.490113838e-41
0.03224022686 -0.2164269388 0.0003729462624 6.490113838e-41
0.001773029566 -0.3817506433 0.07956895232 6.490113838e-41
0.008134545758 -0.4599663019 0.1834295988 6.490113838e-41
0.01640258543 -0.1995739788 0.1308059096 6.490113838e-41
-0.1599405259 -0.4112209678 0.09539501369 6.490113838e-41
0.1520588696 -0.4099295139 -0.02672431618 6.490113838e-41
-0.1197033226 -0.3099840581 -0.03055116534 6.490113838e-41
-0.1352493614 -0.462721467 0.1673345417 6.490113838e-41
0.03679644689 -0.459143877 0.02692041174 6.490113838e-41
0.115424633 -0.2510969043 0.1077728048 6.490113838e-41
0.00957451947 -0.3260954022 0.2381470501 6.490113838e-41
-0.1034604013 -0.3718951046 -0.02721904963 6.490113838e-41
0.166780442 -0.3111096323 0.1619004011 6.490113838e-41
0.06089115143 -0.4522744417 0.01293615252 6.490113838e-41
0.1447442174 -0.4494464397 0.03997378051 6.490113838e-41
-0.07381060719 -0.2098185122 0.1804350913 6.490113838e-41
-0.1481407136 -0.3369368613 0.1829371899 6.490113838e-41
0.1492415071 -0.3922550082 -0.02266649902 6.490113838e-41
-0.03636300936 -0.4173281193 0.2540988028 6.490113838e-41
0.03019974567 -0.2618736923 -0.03409201652 6.490113838e-41
-0.04039354995 -0.2457430363 0.2310514152 6.490113838e-41
0.1341693848 -0.2644129992 0.1252996176 6.490113838e-41
-0.1593365073 -0.4411633611 0.06174616516 6.490113838e-41
0.006326936185 -0.1916069388 0.1324700415 6.490113838e-41
-0.1382247806 -0.2754160464 0.1692323387 6.490113838e-41
-0.01211873814 -0.3753911853 -0.04578606784 6.490113838e-41
-0.151074931 -0.3030786812 0.1521469653 6.490113838e-41
0.07967162132 -0.4552592039 0.03515579924 6.490113838e-41
0.03783496097 -0.4477901459 -0.02640283108 6.490113838e-41
-0.1650539935 -0.3864688277 0.0905835852 6.490113838e-41
0.1167532951 -0.4508082271 0.1955791116 6.490113838e-41
-0.07004660368 -0.2967149615 -0.0172444731 6.490113838e-41
-0.04225951806 -0.4597597122 0.04935015738 6.490113838e-41
0.1011976153 -0.4549489021 0.02168064937 6.490113838e-41
-0.1589252651 -0.3621041775 0.1245502383 6.490113838e-41
-0.06465537846 -0.4035019279 -0.04357803613 6.490113838e-41
-0.08324080706 -0.4263198376 -0.03313865513 6.490113838e-41
-0.06671725214 -0.3290316164 0.01350669935 6.490113838e-41
-0.008246149868 -0.4262975454 0.247092694 6.490113838e-41
0.1162175238 -0.3739448488 0.2387544811 6.490113838e-41
0.09259156883 -0.3692096472 0.1259427071 6.490113838e-41
0.04194096103 -0.4089978337 0.07888287306 6.490113838e-41
-0.1264732182 -0.4379784465 -0.004142217338 6.490113838e-41
-0.03703851625 -0.4015366435 0.2569397092 6.490113838e-41
0.01054343581 -0.3216597438 -0.04059386998 6.490113838e-41
-0.1623005867 -0.3818973899 0.009175658226 6.490113838e-41
0.04115494341 -0.4393584132 0.2363558412 6.490113838e-41
-0.164465636 -0.4191484451 0.03537962958 6.490113838e-41
0.1257025003 -0.2965897918 0.2038957477 6.490113838e-41
-0.1569178998 -0.4403035045 0.07985661924 6.490113838e-41
-0.03729425743 -0.268437922 -0.01579201967 6.490113838e-41
-0.1660854667 -0.3383319378 0.08229096234 6.490113838e-41
0.08613829315 -0.2404755801 0.1813057065 6.490113838e-41
0.1264196038 -0.4520227313 0.1761420369 6.490113838e-41
0.03483553603 -0.4561505914 0.2284137607 6.490113838e-41
-0.09408764541 -0.2070623636 0.1199656501 6.490113838e-41
0.07474402338 -0.4418694973 0.2332425416 6.490113838e-41
0.1019247174 -0.289100498 0.2313819826 6.490113838e-41
0.1481794715 -0.4287796617 0.06714238971 6.490113838e-41
0.08190640807 -0.4218045473 -0.0408231616 6.490113838e-41
0.1576607227 -0.3195100725 0.1771844178 6.490113838e-41
0.09120546281 -0.4532735348 -0.003730334342 6.490113838e-41
0.03176018596 -0.2761474252 0.04056024551 6.490113838e-41
0.1549538076 -0.4042155147 0.09640267491 6.490113838e-41
0.1533774585 -0.4136744738 0.167399928 6.490113838e-41
0.1124075651 -0.3795987368 -0.03696845472 6.490113838e-41
0.04663660005 -0.4598596692 0.09947774559 6.490113838e-41
0.08876860142 -0.309720695 0.2381144166 6.490113838e-41
0.0004420541227 -0.3440062404 -0.04304873943 6.490113838e-41
0.00453097932 -0.3638419509 0.2429428995 6.490113838e-41
0.04390167817 -0.2552524507 0.1307539344 6.490113838e-41
0.1641335636 -0.3114774227 0.09493859112 6.490113838e-41
0.09913776815 -0.4614461064 0.07229392231 6.490113838e-41
0.01473334804 -0.4547153115 0.2217647433 6.490113838e-41
-0.0006378889084 -0.4608195424 0.1613045335 6.490113838e-41
0.1058989912 -0.2176321745 0.02947062999 6.490113838e-41
-0.04910282418 -0.4543333054 0.1851870716 6.490113838e-41
0.05413770676 -0.275452733 0.05780775845 6.490113838e-41
0.128557995 -0.4437580109 0.1866542101 6.490113838e-41
-0.04935904965 -0.188080281 0.1621632725 6.490113838e-41
0.1147896051 -0.3339630663 -0.02605254203 6.490113838e-41
0.02668870799 -0.4212082624 0.0774987489 6.490113838e-41
-0.02840910107 -0.320831567 0.2542921305 6.490113838e-41
-0.0648445785 -0.457005322 -0.01503332704 6.490113838e-41
0.0001141317189 -0.4543385506 0.214735806 6.490113838e-41
-0.03630487248 -0.1959106624 0.09776416421 6.490113838e-41
-0.01198968291 -0.4605897069 0.1465344727 6.490113838e-41
-0.1675228477 -0.3504860997 0.08051896095 6.490113838e-41
0.008090132847 -0.452647388 -0.01973607391 6.490113838e-41
0.1188056916 -0.223898977 0.01384441927 6.490113838e-41
0.08011803031 -0.2364917099 0.1665747166 6.490113838e-41
0.08584186435 -0.4061333537 -0.03823210299 6.490113838e-41
0.1515246928 -0.4170129895 0.1727499813 6.490113838e-41
-0.009368445724 -0.4622392058 0.1076218188 6.490113838e-41
0.1378172189 -0.3244210482 -0.01404885203 6.490113838e-41
-0.02951443568 -0.4081955552 0.2544313371 6.490113838e-41
0.06118538231 -0.4591074586 0.2248593271 6.490113838e-41
0.1225884259 -0.4577910304 0.0628188327 6.490113838e-41
-0.06674458086 -0.2156462371 0.2060275972 6.490113838e-41
0.05343366414 -0.4595794678 0.2220897675 6.490113838e-41
-0.1670978665 -0.4032340646 0.05712773278 6.490113838e-41
-0.07850454748 -0.3958506584 -0.03823055327 6.490113838e-41
0.1073300689 -0.2390992641 -0.00675971061 6.490113838e-41
0.04848943651 -0.3227068186 0.2368673682 6.490113838e-41
0.048678983 -0.4631766081 0.1171572581 6.490113838e-41
-0.01586113498 -0.4600456357 0.156614393 6.490113838e-41
-0.02141260356 -0.4370529056 0.2471162975 6.490113838e-41
-0.02147805691 -0.3907657266 0.2518169582 6.490113838e-41
0.1038515866 -0.3018070459 0.1099857166 6.490113838e-41
0.0837598294 -0.3341777325 -0.02830118686 6.490113838e-41
-0.1183094978 -0.2818700075 -0.04178117961 6.490113838e-41
0.08099626005 -0.3844586611 0.2419234812 6.490113838e-41
-0.05763443932 -0.3336701393 0.04081117362 6.490113838e-41
-0.1658038348 -0.4113283157 0.06505301595 6.490113838e-41
0.06798781455 -0.4506964087 -0.01863175631 6.490113838e-41
0.04959219694 -0.4574863911 0.0838393569 6.490113838e-41
-0.05939101055 -0.4599650502 0.1194063574 6.490113838e-41
0.07561741769 -0.3886275887 -0.03466279805 6.490113838e-41
0.1061073393 -0.4548603296 0.006258293986 6.490113838e-41
0.100036338 -0.3461868763 0.1505453885 6.490113838e-41
-0.1486177146 -0.4434064031 0.1202572286 6.490113838e-41
-0.1343511343 -0.435890317 0.001948587596 6.490113838e-41
0.05323586985 -0.4492346048 -0.02071773261 6.490113838e-41
0.06425267458 -0.4603195786 0.05040222406 6.490113838e-41
0.06991942972 -0.2867485285 0.2338378131 6.490113838e-41
-0.08244222403 -0.2664821744 -0.04306568205 6.490113838e-41
-0.03961927816 -0.4611806273 0.0717170909 6.490113838e-41
-0.05278703943 -0.4518448114 0.2260258496 6.490113838e-41
0.02180582471 -0.4616507888 0.1745197177 6.490113838e-41
0.01473636366 -0.3908190131 0.05022301897 6.490113838e-41
-0.04745220765 -0.4590646029 0.1419786215 6.490113838e-41
0.1499008983 -0.4236314893 0.1063627079 6.490113838e-41
-0.06612849236 -0.2051466554 0.08891227096 6.490113838e-41
0.1385574043 -0.4567024708 0.0155621171 6.490113838e-41
-0.009765915573 -0.4623366594 0.1052020714 6.490113838e-41
0.1489845365 -0.3695186973 -0.01436010003 6.490113838e-41
-0.06069632992 -0.4225990176 0.2608762085 6.490113838e-41
0.03131603077 -0.4586960673 0.02073166892 6.490113838e-41
0.04081676528 -0.4613057971 0.2038577795 6.490113838e-41
0.04643430188 -0.4403774142 0.2359369099 6.490113838e-41
0.02265573107 -0.2082768381 0.1295572072 6.490113838e-41
0.01336243004 -0.3470736146 0.2390840352 6.490113838e-41
0.045896139 -0.2265066355 0.202963531 6.490113838e-41
0.1004796773 -0.3599030972 0.1337514371 6.490113838e-41
0.1065411717 -0.4535279274 -0.01587933302 6.490113838e-41
0.0442340672 -0.283559978 0.2326011956 6.490113838e-41
-0.03606465831 -0.4592631459 0.01229569688 6.490113838e-41
0.01394074783 -0.3726157248 0.2407876253 6.490113838e-41
-0.1429448724 -0.3506747484 0.2093431652 6.490113838e-41
-0.004234213382 -0.320019722 -0.04137101769 6.490113838e-41
0.07359133661 -0.2219724953 0.1801507175 6.490113838e-41
0.03194255009 -0.242162019 0.1233806908 6.490113838e-41
0.08467228711 -0.4534042478 0.02176727355 6.490113838e-41
0.008226107806 -0.2451628745 0.2219810486 6.490113838e-41
-0.04169197008 -0.4515887499 0.2238928378 6.490113838e-41
-0.04392755404 -0.4584002495 0.1177027375 6.490113838e-41
-0.03686792776 -0.2328642905 0.2232377529 6.490113838e-41
-0.06149208173 -0.4007157087 -0.04441680759 6.490113838e-41
0.04643245786 -0.2474813759 0.2213087976 6.490113838e-41
-0.04549720511 -0.4515791535 0.2275827527 6.490113838e-41
-0.007291048765 -0.455258131 0.2019762397 6.490113838e-41
-0.1343384683 -0.3053045273 -0.0298827216 6.490113838e-41
0.08188278973 -0.4537416697 0.02984002233 6.490113838e-41
0.003607170656 -0.2182566822 0.1084290296 6.490113838e-41
0.04195372015 -0.2568987608 0.225997597 6.490113838e-41
-0.02018368244 -0.4569551945 0.04511572421 6.490113838e-41
0.1422134638 -0.2696372867 0.1327868104 6.490113838e-41
-0.1543743461 -0.3898923993 0.1354616284 6.490113838e-41
0.1625822634 -0.3566413522 0.1781843007 6.490113838e-41
0.04552847147 -0.2706327438 0.1300115883 6.490113838e-41
0.0311727114 -0.2053094506 0.1386213154 6.490113838e-41
0.03065378778 -0.3740170896 0.2394935191 6.490113838e-41
0.009311374277 -0.4584180713 0.198420763 6.490113838e-41
0.06306068599 -0.4308022857 0.2368050218 6.490113838e-41
0.03410489112 -0.2929696441 0.119276017 6.490113838e-41
0.1490625441 -0.268147707 0.03690803424 6.490113838e-41
0.1286885142 -0.4581882358 0.05508651957 6.490113838e-41
-0.03535362706 -0.45998317 0.1391271055 6.490113838e-41
-0.1654697657 -0.4028908014 0.0752684921 6.490113838e-41
0.1550559253 -0.3875346482 0.01209193468 6.490113838e-41
-0.06738196313 -0.4600550532 0.02371989563 6.490113838e-41
-0.1694184989 -0.3676341176 0.06122244895 6.490113838e-41
-0.1466954499 -0.2706924081 0.0957826525 6.490113838e-41
-0.1056984812 -0.3507062197 -0.02888855338 6.490113838e-41
0.1027950794 -0.454777956 0.01177244261 6.490113838e-41
-0.09124977887 -0.2955836356 0.02545456961 6.490113838e-41
-0.07835108042 -0.3739872873 -0.03931120038 6.490113838e-41
-0.0399136059 -0.3817195892 0.2627161443 6.490113838e-41
0.156601429 -0.3934025168 0.04998710752 6.490113838e-41
0.03693988174 -0.4646138549 0.1265872568 6.490113838e-41
0.04041181877 -0.4497421384 -0.008794754744 6.490113838e-41
0.07761506736 -0.4574374557 0.218901068 6.490113838e-41
0.09259301424 -0.2469439209 0.1986911297 6.490113838e-41
-0.04996268824 -0.4599026442 0.1248634756 6.490113838e-41
0.1264264584 -0.3721509874 -0.03817620128 6.490113838e-41
0.04128782824 -0.4569109082 0.08027441055 6.490113838e-41
-0.08580382168 -0.1994665712 0.1012603641 6.490113838e-41
-0.0310674943 -0.4614208937 0.07594191283 6.490113838e-41
-0.06497739255 -0.1957869977 0.154470697 6.490113838e-41
-0.07209686935 -0.3584136963 -0.04316052794 6.490113838e-41
-0.01779901236 -0.4597772956 0.02737238258 6.490113838e-41
0.1517500281 -0.2438444793 0.1238164306 6.490113838e-41
0.1003393233 -0.3509895802 -0.02796383947 6.490113838e-41
-0.1056896448 -0.2390314937 0.1916263849 6.490113838e-41
-0.0192613937 -0.3251539469 0.07477878779 6.490113838e-41
0.07436239719 -0.2548222542 0.2194319963 6.490113838e-41
-0.02416573465 -0.4619014859 0.08473653346 6.490113838e-41
-0.1133145988 -0.2807998657 -0.04226528108 6.490113838e-41
0.005980154499 -0.3012197614 0.235994041 6.490113838e-41
0.01830402203 -0.4410297871 0.2393823862 6.490113838e-41
0.09883020818 -0.3899710774 -0.03722577542 6.490113838e-41
-0.08788865805 -0.222875461 0.1880097389 6.490113838e-41
0.07280030847 -0.3905918598 0.1126283407 6.490113838e-41
-0.05919546261 -0.1900668591 0.120301649 6.490113838e-41
0.1493129581 -0.3465295434 0.210234493 6.490113838e-41
0.05137198046 -0.2160685658 -0.003385238349 6.490113838e-41
-0.00198771432 -0.3465659022 0.08404945582 6.490113838e-41
0.1525427103 -0.3990085125 0.03012273461 6.490113838e-41
0.02710019425 -0.4512773752 -0.01390779763 6.490113838e-41
-0.04127754644 -0.3891317248 0.2620471418 6.490113838e-41
-0.01957380772 -0.4740912318 -0.02030456066 5.962428276e-39
-0.1169539839 -0.4314696789 0.2179951072 5.962428276e-39
0.05671712756 -0.347533226 0.07020885497 5.962428276e-39
-0.1115648746 -0.2841578126 0.2155478299 5.962428276e-39
0.1005631983 -0.421092391 0.1632943153 5.962428276e-39
0.0682316497 -0.3983718753 -0.0234779343 5.962428276e-39
-0.1257127523 -0.3273897171 0.1075626761 5.962428276e-39
0.07969176769 -0.4184592366 -0.02804289013 5.962428276e-39
-0.1239546835 -0.3233215809 0.1076298654 5.962428276e-39
0.03333409503 -0.4706320763 -0.03454343975 5.962428276e-39
0.02025969699 -0.3944058418 -0.03067695349 5.962428276e-39
-0.1318665147 -0.3484931886 0.01264509931 5.962428276e-39
-0.04076114669 -0.4227446914 0.09646172076 5.962428276e-39
0.1381836981 -0.384051621 0.1628855169 5.962428276e-39
0.08497931063 -0.4028739929 0.03903950006 5.962428276e-39
-0.1102789938 -0.2812740505 0.2182460725 5.962428276e-39
0.06326698512 -0.2860534787 -0.003754101694 5.962428276e-39
-0.08321383595 -0.3950043321 0.2427914739 5.962428276e-39
0.1339454502 -0.3229453564 0.05226587877 5.962428276e-39
-0.1043646634 -0.3416791856 -0.006580591202 5.962428276e-39
0.08294036984 -0.2972736955 -0.003807023168 5.962428276e-39
-0.03419428691 -0.4274639487 0.1423019618 5.962428276e-39
-0.05259236321 -0.4247997999 0.1458077431 5.962428276e-39
0.1024474353 -0.2855670452 0.0522749424 5.962428276e-39
0.1221880615 -0.4008635283 0.04693830013 5.962428276e-39
0.108849436 -0.3833316267 0.1991784871 5.962428276e-39
-0.09036521614 -0.4157560468 0.0003253594041 5.962428276e-39
0.07133300602 -0.4030744433 0.0410373807 5.962428276e-39
-0.119399488 -0.3818941712 0.189486295 5.962428276e-39
0.1294073313 -0.3062910438 0.02371544763 5.962428276e-39
-0.1194268614 -0.412830174 0.223724246 5.962428276e-39
-0.03444297984 -0.2637668848 0.1960524023 5.962428276e-39
-0.02301780134 -0.2713850737 0.1978870928 5.962428276e-39
-0.1214834303 -0.3526119292 0.1636634469 5.962428276e-39
-0.105114013 -0.3918386102 -0.04109691828 5.962428276e-39
0.1470101178 -0.3881604671 0.002354286611 5.962428276e-39
-0.01626748964 -0.3421075642 -0.02438503504 5.962428276e-39
-0.05040387437 -0.3445851207 0.05821340531 5.962428276e-39
0.01344467513 -0.4271888733 0.1905465573 5.962428276e-39
-0.0609533228 -0.2716973424 0.1334706843 5.962428276e-39
-0.1132976562 -0.4519274831 0.1602930725 5.962428276e-39
0.1272165626 -0.3965273499 -0.03319673985 5.962428276e-39
-0.1301341206 -0.4113708138 0.03694048524 5.962428276e-39
-0.1167636067 -0.4783405662 0.1905302703 5.962428276e-39
0.0490927808 -0.3991600275 0.01254633069 5.962428276e-39
0.05048935115 -0.3131610751 0.05100781471 5.962428276e-39
-0.03511495516 -0.3063054681 0.2153933048 5.962428276e-39
-0.1185753196 -0.4427140355 0.0416742973 5.962428276e-39
0.1047679186 -0.3208992481 0.1020390689 5.962428276e-39
0.07594925165 -0.3978685737 -0.003594249487 5.962428276e-39
0.1419527531 -0.3821301758 0.007021665573 5.962428276e-39
-0.1186458319 -0.3018147647 0.2178986669 5.962428276e-39
-0.1215905249 -0.385927856 0.2261808813 5.962428276e-39
0.1220474094 -0.3928132653 -0.03025325388 5.962428276e-39
-0.06124036387 -0.377997309 0.2279043496 5.962428276e-39
0.003784980625 -0.3878956437 -0.02423074096 5.962428276e-39
-0.1097749323 -0.2879600525 0.2271032333 5.962428276e-39
0.06391375512 -0.325439781 0.06774158776 5.962428276e-39
-0.1097541004 -0.4784995317 0.1356431097 5.962428276e-39
-0.07126832008 -0.2701621652 0.143871069 5.962428276e-39
-0.1241201311 -0.3509589732 0.2228493094 5.962428276e-39
-0.03906070068 -0.456463635 -0.01775532961 5.962428276e-39
-0.121327728 -0.3684684038 0.2100358903 5.962428276e-39
0.09479806572 -0.4003234506 0.01735287905 5.962428276e-39
0.05481281877 -0.4008363485 -0.03667459637 5.962428276e-39
-0.1155359894 -0.4315667152 0.16219607 5.962428276e-39
0.1156678051 -0.4004352093 0.1897982061 5.962428276e-39
-0.1325347573 -0.3665805161 0.01681743562 5.962428276e-39
-0.0243216753 -0.4075568318 0.04812350124 5.962428276e-39
0.1159863323 -0.4071679115 0.002691075206 5.962428276e-39
-0.1174834222 -0.407497108 0.1858673096 5.962428276e-39
-0.09033417702 -0.463042438 0.01723936945 5.962428276e-39
-0.09649929404 -0.4731159806 0.03311057761 5.962428276e-39
-0.1343560219 -0.3451806605 0.02916575968 5.962428276e-39
-0.03723426536 -0.3709594607 0.2188551128 5.962428276e-39
0.07847993076 -0.3472920358 0.2036022842 5.962428276e-39
0.02555569448 -0.4203116298 0.09032739699 5.962428276e-39
-0.02328353003 -0.4126390219 0.05858701468 5.962428276e-39
-0.1153452098 -0.4778657556 0.0669996962 5.962428276e-39
-0.05864555761 -0.3708609939 0.2337065935 5.962428276e-39
-0.01814173162 -0.4223963618 -0.02387982607 5.962428276e-39
-0.123406142 -0.4484776855 0.0882800743 5.962428276e-39
0.01490336657 -0.3805060983 0.2124448121 5.962428276e-39
-0.115551427 -0.4666532874 0.113727659 5.962428276e-39
0.06002730876 -0.3339215517 0.1451876909 5.962428276e-39
-0.1085118055 -0.4772372842 0.1448099166 5.962428276e-39
-0.118063882 -0.3558678627 0.00284256041 5.962428276e-39
-0.1172797978 -0.400150001 0.1624335796 5.962428276e-39
0.0174325835 -0.2936313152 0.147744 5.962428276e-39
0.1283916831 -0.3957104087 0.1644640565 5.962428276e-39
0.01635874622 -0.401153028 0.2123409808 5.962428276e-39
-0.1184556782 -0.3165335655 0.1847649813 5.962428276e-39
0.045263201 -0.3894390464 0.2071174383 5.962428276e-39
0.04414096475 -0.3068921566 0.1900232434 5.962428276e-39
0.1383398473 -0.3553779125 0.02490740269 5.962428276e-39
0.05074611306 -0.4649275541 -0.04311008006 5.962428276e-39
0.08114744723 -0.3851307631 0.1161279678 5.962428276e-39
0.1096183211 -0.4160759449 -0.01375947893 5.962428276e-39
-0.05130755529 -0.3033474088 -0.0131983161 5.962428276e-39
0.1344231963 -0.3396895528 0.05062323809 5.962428276e-39
0.1413922906 -0.3583586216 0.1453022957 5.962428276e-39
0.079277955 -0.4583204389 -0.04177356511 5.962428276e-39
0.066878438 -0.4111844301 0.09903113544 5.962428276e-39
0.03378708661 -0.3170933425 0.1970313787 5.962428276e-39
-0.02960445359 -0.43703866 -0.02240093052 5.962428276e-39
-0.02897888049 -0.3262362182 0.2141571641 5.962428276e-39
-0.01645568386 -0.2977761924 0.1099377275 5.962428276e-39
0.1157130152 -0.2865521014 0.02831892297 5.962428276e-39
0.1142900437 -0.4042673111 0.05580316857 5.962428276e-39
0.001488991082 -0.4064669609 0.212028265 5.962428276e-39
0.00988792628 -0.4289772511 0.1724758744 5.962428276e-39
0.04158308357 -0.3299804926 -0.02021189034 5.962428276e-39
-0.05163015798 -0.4174500704 0.1849258542 5.962428276e-39
-0.01564853638 -0.314114809 0.007852643728 5.962428276e-39
0.1277798712 -0.3937605619 0.1784133762 5.962428276e-39
-0.1060720235 -0.2815739512 0.2014554441 5.962428276e-39
0.07796437293 -0.4375981092 -0.03219216317 5.962428276e-39
-0.0348389633 -0.3967423439 0.05847463757 5.962428276e-39
-0.08053582907 -0.3342597783 0.2497069538 5.962428276e-39
-0.05039463565 -0.4020171762 -0.03310049325 5.962428276e-39
-0.00736591965 -0.4133087993 0.2105200291 5.962428276e-39
-0.1097452193 -0.2937434316 0.1301997751 5.962428276e-39
0.001017294824 -0.4288324118 0.1590954065 5.962428276e-39
-0.1168420762 -0.4086505771 0.160440892 5.962428276e-39
0.01804270037 -0.3937513232 -0.03470469266 5.962428276e-39
0.06192360073 -0.3483028412 -0.0175864622 5.962428276e-39
0.01105454564 -0.2977023125 0.1384675503 5.962428276e-39
0.05727699026 -0.4653469324 -0.03822939098 5.962428276e-39
0.143017754 -0.3657889962 0.1535057724 5.962428276e-39
0.007247934118 -0.4242852926 0.1179294139 5.962428276e-39
0.09772235155 -0.3925068378 -0.025756374 5.962428276e-39
-0.05492099002 -0.3703961968 0.2276916802 5.962428276e-39
0.04074861854 -0.4058084488 0.2070110738 5.962428276e-39
0.129820466 -0.394963026 0.03377704695 5.962428276e-39
-0.1207117587 -0.3004039824 0.2272787392 5.962428276e-39
0.03672583774 -0.4086498022 0.2076199949 5.962428276e-39
-0.113285467 -0.4521037936 0.1342228204 5.962428276e-39
-0.1011129767 -0.4587645531 0.026212506 5.962428276e-39
0.06355677545 -0.3715738058 -0.01761612296 5.962428276e-39
-0.001617610455 -0.3130269051 0.2042014003 5.962428276e-39
0.06973281503 -0.4211462736 0.1202482134 5.962428276e-39
-0.008424431086 -0.4261925817 0.1669758856 5.962428276e-39
-0.05029663816 -0.3797823787 0.2184548378 5.962428276e-39
-0.04569891468 -0.3559782505 0.226198554 5.962428276e-39
0.04337780923 -0.3677000999 0.06547378004 5.962428276e-39
0.05563829839 -0.4315758944 -0.0240207985 5.962428276e-39
-0.1348955482 -0.3915102482 0.03062998131 5.962428276e-39
0.03937447816 -0.3505195975 0.2040665746 5.962428276e-39
-0.1292236894 -0.3202987313 0.04220841825 5.962428276e-39
-0.1113935113 -0.4557729959 0.1408927441 5.962428276e-39
0.08774660528 -0.4127910137 -0.02672828734 5.962428276e-39
0.07168328762 -0.4088156223 0.07786949724 5.962428276e-39
-0.04850241169 -0.4284259677 0.1294522583 5.962428276e-39
0.04709650949 -0.4626296759 -0.03048229218 5.962428276e-39
0.1232561618 -0.4166962504 -0.00569140166 5.962428276e-39
0.02657213807 -0.3964220881 0.1053002477 5.962428276e-39
-0.1097279936 -0.4753706455 0.1703660041 5.962428276e-39
-0.1200208664 -0.4769022465 0.07557355613 5.962428276e-39
0.07229287177 -0.4062153101 -0.03039705008 5.962428276e-39
0.07786139846 -0.4022431374 0.03533134982 5.962428276e-39
0.007670681924 -0.2942228317 0.1972511113 5.962428276e-39
-0.1228671372 -0.3818330765 0.01723028347 5.962428276e-39
-0.02345434204 -0.414111793 0.07282526046 5.962428276e-39
-0.06565237045 -0.407723248 0.2116475999 5.962428276e-39
0.03331271559 -0.4317587614 0.1851895154 5.962428276e-39
-0.05970722064 -0.3678401411 0.02352882922 5.962428276e-39
-0.04225577787 -0.4249065518 0.1515018344 5.962428276e-39
0.1330489218 -0.3509165347 0.06306770444 5.962428276e-39
-0.1172549427 -0.309725523 0.1358827651 5.962428276e-39
0.1469419301 -0.4111218452 -0.0002940446138 5.962428276e-39
0.006698934361 -0.4235008359 0.1144107133 5.962428276e-39
0.1173086166 -0.3760287464 -0.02505176514 5.962428276e-39
-0.0765068531 -0.3873268366 0.2401652038 5.962428276e-39
0.04309492186 -0.3989297748 0.006193108857 5.962428276e-39
0.04092317075 -0.4240735769 0.2045820653 5.962428276e-39
0.01975825056 -0.3820770383 0.2115837038 5.962428276e-39
-0.05343705788 -0.2768915892 0.125870496 5.962428276e-39
-0.0243342109 -0.316181004 0.2107464671 5.962428276e-39
-0.02579816058 -0.2567113638 0.1884381175 5.962428276e-39
0.03054188751 -0.4174083471 0.09476152807 5.962428276e-39
0.1273826212 -0.4205967784 -0.02008233219 5.962428276e-39
-0.01768311858 -0.2804979086 0.2005289197 5.962428276e-39
-0.01978041604 -0.4043053985 -0.003489069641 5.962428276e-39
-0.01551012322 -0.33636415 0.2127755284 5.962428276e-39
-0.1220214516 -0.3933691382 0.2420839071 5.962428276e-39
-0.03626961634 -0.4205873609 -0.02219202369 5.962428276e-39
0.002587996423 -0.2767304182 0.1531080306 5.962428276e-39
-0.03035829589 -0.2878267169 0.1065015346 5.962428276e-39
0.09986406565 -0.4021453261 0.002729594707 5.962428276e-39
-0.06164600328 -0.2814871371 0.2173199058 5.962428276e-39
-0.05353717878 -0.4084734321 0.2117108405 5.962428276e-39
-0.02550856769 -0.4302062988 0.1326224804 5.962428276e-39
-0.1076130271 -0.280179739 0.2213052511 5.962428276e-39
-0.08877179027 -0.4615984559 0.01476204768 5.962428276e-39
-0.02615201101 -0.2666089535 0.1953634322 5.962428276e-39
-0.05931447819 -0.4068573117 0.212931931 5.962428276e-39
-0.00994206965 -0.4192525148 0.2032178342 5.962428276e-39
-0.1335975826 -0.405862093 0.04342111945 5.962428276e-39
0.0974021852 -0.4012080431 0.01129664853 5.962428276e-39
-0.07435771823 -0.2803356051 0.1029016376 5.962428276e-39
-0.02677263692 -0.2727500498 0.2001104653 5.962428276e-39
-0.0008192174137 -0.4059624076 0.03846801817 5.962428276e-39
0.06959836185 -0.3300177157 0.0750637576 5.962428276e-39
-0.11658445 -0.4300830364 0.1886131763 5.962428276e-39
0.1249672323 -0.3389325738 0.1295984238 5.962428276e-39
-0.01338299736 -0.3036620021 0.1076385006 5.962428276e-39
-0.04520742223 -0.2755605876 0.1324507743 5.962428276e-39
-0.0006750971079 -0.3402095139 0.209833473 5.962428276e-39
0.009896086529 -0.4242861867 0.2009260356 5.962428276e-39
0.03211332113 -0.3779008687 0.2092777193 5.962428276e-39
-0.02192636952 -0.3086125255 0.09709142148 5.962428276e-39
0.08935385942 -0.3308476806 -0.005313165486 5.962428276e-39
0.1323621422 -0.3929409981 0.02318850905 5.962428276e-39
-0.0268201828 -0.4268077016 0.1501770914 5.962428276e-39
-0.1131620109 -0.4470597506 0.1495875269 5.962428276e-39
0.1341701001 -0.3634442985 -0.004524938762 5.962428276e-39
-0.05312364921 -0.4032704234 0.01632161438 5.962428276e-39
-0.1181772649 -0.4254717231 0.1412520558 5.962428276e-39
-0.1191428602 -0.3617750406 0.174947083 5.962428276e-39
-0.122350648 -0.4302495122 0.04047270492 5.962428276e-39
0.1190682203 -0.4131737947 -0.002877749503 5.962428276e-39
-0.1337866485 -0.3411560655 0.06611535698 5.962428276e-39
-0.1053006649 -0.444237113 0.0243021585 5.962428276e-39
-0.07065059245 -0.3695449829 0.2490533888 5.962428276e-39
0.1355148107 -0.3341070414 0.008610289544 5.962428276e-39
0.05679992959 -0.4277567863 0.1355024278 5.962428276e-39
0.05452165008 -0.3941592574 -0.02345701307 5.962428276e-39
0.06046951562 -0.406915307 0.202870667 5.962428276e-39
0.02686336264 -0.288642019 0.1602236927 5.962428276e-39
-0.03865591809 -0.4283946157 0.1354424059 5.962428276e-39
0.0907279104 -0.4517876506 -0.0462134853 5.962428276e-39
0.06438033283 -0.4084299207 0.0750445798 5.962428276e-39
-0.1189345568 -0.3133922815 0.1616809964 5.962428276e-39
-0.01506667957 -0.4140814543 0.0765837729 5.962428276e-39
-0.1145166606 -0.2942409515 0.2010659575 5.962428276e-39
-0.1041971296 -0.4333786964 0.01848157868 5.962428276e-39
-0.0004215911031 -0.4048438072 0.013811443 5.962428276e-39
0.0776347518 -0.294469595 0.0457573235 5.962428276e-39
0.06702535599 -0.4447888136 -0.03088729084 5.962428276e-39
-0.1252568364 -0.3227729797 0.2331837416 5.962428276e-39
-0.08904147148 -0.308177948 0.05278352275 5.962428276e-39
0.01165189222 -0.2775737941 0.1875557005 5.962428276e-39
-0.008613567799 -0.4166321754 0.08654081076 5.962428276e-39
-0.1334023178 -0.3919599652 0.02856431901 5.962428276e-39
-0.04513900355 -0.3018585145 0.2214403749 5.962428276e-39
-0.007636032999 -0.3823405504 0.2161515057 5.962428276e-39
0.06850842386 -0.4612057805 -0.03896527737 5.962428276e-39
-0.1229803264 -0.3130884767 0.2260669172 5.962428276e-39
0.0109003894 -0.4203947783 0.08427976817 5.962428276e-39
-0.1119805425 -0.2981366515 0.1703116 5.962428276e-39
0.0880497843 -0.3489547074 0.1525475383 5.962428276e-39
0.006577007473 -0.3476162553 -0.02333792299 5.962428276e-39
-0.05515084043 -0.3218763471 0.06154615432 5.962428276e-39
0.1384852976 -0.3534512818 0.003842279315 5.962428276e-39
0.03863930702 -0.392360568 -0.02802020311 5.962428276e-39
-0.06706738472 -0.3711176217 0.2462247908 5.962428276e-39
-0.009808484465 -0.4595023394 -0.0596171543 1.184631237e-38
-0.1364507973 -0.4100279808 0.1937864423 1.184631237e-38
0.07807102799 -0.2178064287 0.06915471703 1.184631237e-38
-0.09419038892 -0.203869611 0.1831270456 1.184631237e-38
0.1523400098 -0.4016414285 0.1819321066 1.184631237e-38
0.1186248362 -0.450955689 0.01281541586 1.184631237e-38
-0.1459281445 -0.2310436666 0.04603838921 1.184631237e-38
0.09731116891 -0.3731916547 -0.04058945924 1.184631237e-38
-0.1426037848 -0.2224407494 0.04712599888 1.184631237e-38
0.0508723855 -0.4696909189 -0.05339676887 1.184631237e-38
0.05737764388 -0.442245841 -0.00500818342 1.184631237e-38
-0.1349347383 -0.2611708343 -0.04639285058 1.184631237e-38
-0.003514844924 -0.4517561793 0.1099208668 1.184631237e-38
0.1678575426 -0.2962891459 0.1709962785 1.184631237e-38
0.1370692998 -0.4447362423 0.07776536047 1.184631237e-38
-0.08925758302 -0.2060324848 0.1933346987 1.184631237e-38
0.09535184503 -0.1608442068 0.01248806715 1.184631237e-38
-0.04741676524 -0.381210506 0.2590895593 1.184631237e-38
0.1617399901 -0.2297109365 0.07068239897 1.184631237e-38
-0.07775275409 -0.2499910891 -0.06037975103 1.184631237e-38
0.1134564131 -0.1915543675 0.004108354449 1.184631237e-38
0.01427378133 -0.4522371888 0.1693651229 1.184631237e-38
-0.0005292221904 -0.4504854679 0.1744820476 1.184631237e-38
0.1236586571 -0.1640366167 0.07457541674 1.184631237e-38
0.1568233073 -0.3948282003 0.06709649414 1.184631237e-38
0.1430340111 -0.2943442166 0.19366768 1.184631237e-38
-0.06472283602 -0.3865121901 -0.05605690926 1.184631237e-38
0.1217472255 -0.4516694546 0.07757422328 1.184631237e-38
-0.151987046 -0.3407908976 0.1425742656 1.184631237e-38
0.1548583508 -0.211991787 0.040646635 1.184631237e-38
-0.1370933354 -0.38408041 0.1976823211 1.184631237e-38
-0.007904611528 -0.1457427591 0.1517959833 1.184631237e-38
0.008379518986 -0.1582697183 0.1674549729 1.184631237e-38
-0.1549517661 -0.2865940928 0.1043781191 1.184631237e-38
-0.08415022492 -0.43732512 -0.02560225874 1.184631237e-38
0.1585759968 -0.3486100435 0.002031512558 1.184631237e-38
0.001332487911 -0.2465349585 -0.05537805706 1.184631237e-38
-0.04242825881 -0.2902600169 0.042495884 1.184631237e-38
0.07496505976 -0.4274863601 0.2221783102 1.184631237e-38
-0.03114102408 -0.1288614124 0.09023980051 1.184631237e-38
-0.1488383859 -0.4275065064 0.1149936765 1.184631237e-38
0.1333731413 -0.3720628023 -0.05233839154 1.184631237e-38
-0.1384374946 -0.3620900214 -0.02055816352 1.184631237e-38
-0.1283819973 -0.4764177203 0.1760807931 1.184631237e-38
0.09157839417 -0.4500568509 0.04369390011 1.184631237e-38
0.07543058693 -0.1703456044 0.05445121974 1.184631237e-38
0.009675847366 -0.2380598187 0.210273087 1.184631237e-38
-0.1178952754 -0.416727066 -0.02015350759 1.184631237e-38
0.1226618737 -0.196321398 0.1018305719 1.184631237e-38
0.1271394938 -0.4509108067 0.03488033637 1.184631237e-38
0.159143135 -0.3490212262 0.01545817405 1.184631237e-38
-0.1125956327 -0.2195224762 0.1777885109 1.184631237e-38
-0.1386021525 -0.3442482948 0.1988660991 1.184631237e-38
0.1302141249 -0.3606914282 -0.04777374864 1.184631237e-38
-0.02345173433 -0.3460528553 0.2401721478 1.184631237e-38
0.01736644469 -0.3256081939 -0.057984896 1.184631237e-38
-0.08552037179 -0.2122245878 0.2091844976 1.184631237e-38
0.08738702536 -0.1933036894 0.07072994858 1.184631237e-38
-0.146288082 -0.4579284191 0.08240900934 1.184631237e-38
-0.04096704349 -0.1315631568 0.09498303384 1.184631237e-38
-0.1390483379 -0.291682452 0.1886900961 1.184631237e-38
-0.02384926379 -0.4275650978 -0.06083767861 1.184631237e-38
-0.1455672234 -0.317348659 0.169290781 1.184631237e-38
0.1417278796 -0.4356825948 0.05147886649 1.184631237e-38
0.1015676856 -0.4489109516 -0.007097601891 1.184631237e-38
-0.1540665478 -0.403149128 0.111405462 1.184631237e-38
0.1576181352 -0.3308325112 0.1964034736 1.184631237e-38
-0.1368020028 -0.2847890854 -0.03766942769 1.184631237e-38
-0.0004073418677 -0.442360878 0.06122314185 1.184631237e-38
0.1506989598 -0.4157311916 0.02442761883 1.184631237e-38
-0.1490364373 -0.3765585124 0.1461231709 1.184631237e-38
-0.07626539469 -0.4457820654 -0.04114876688 1.184631237e-38
-0.09202738106 -0.4611576796 -0.02572301775 1.184631237e-38
-0.1472243369 -0.2652125359 -0.03485333174 1.184631237e-38
-0.002005271614 -0.3319042325 0.2243690789 1.184631237e-38
0.1096976697 -0.2193771899 0.1761949211 1.184631237e-38
0.0430791378 -0.3277234435 0.07317386568 1.184631237e-38
0.005436664447 -0.321646452 0.04099761695 1.184631237e-38
-0.1166945696 -0.468955934 0.006634306163 1.184631237e-38
-0.02440161631 -0.3361249268 0.2425956428 1.184631237e-38
-0.003210708499 -0.3826466799 -0.06221414357 1.184631237e-38
-0.1622653455 -0.4182264805 0.02973317727 1.184631237e-38
0.06846959889 -0.3264476657 0.226749301 1.184631237e-38
-0.154259637 -0.4418632984 0.05722993985 1.184631237e-38
0.06383313239 -0.2811158597 0.1272094995 1.184631237e-38
-0.1442048252 -0.457562685 0.09870800376 1.184631237e-38
-0.1001348794 -0.2704625726 -0.05304925889 1.184631237e-38
-0.1614022851 -0.3635206819 0.1036463976 1.184631237e-38
0.03468158841 -0.1715814769 0.1170494035 1.184631237e-38
0.1651542336 -0.336399138 0.1784881055 1.184631237e-38
0.068003878 -0.3603577018 0.2282342613 1.184631237e-38
-0.1266667694 -0.2238842249 0.1258021742 1.184631237e-38
0.107134968 -0.3175575733 0.2269570827 1.184631237e-38
0.07067257166 -0.1676622778 0.1495816857 1.184631237e-38
0.1605962962 -0.3006554842 0.03739283979 1.184631237e-38
0.07168266177 -0.4693642259 -0.05501241982 1.184631237e-38
0.09083949775 -0.2886588573 0.1051149517 1.184631237e-38
0.1524992287 -0.4426736236 0.01349524036 1.184631237e-38
-0.01639373228 -0.1748797745 -0.01574057341 1.184631237e-38
0.1645842046 -0.2646817863 0.06946224719 1.184631237e-38
0.1655895859 -0.2622549832 0.1495321244 1.184631237e-38
0.09482382238 -0.4430350065 -0.05649810284 1.184631237e-38
0.1185928732 -0.4507823586 0.1385404468 1.184631237e-38
0.07359756529 -0.1769566238 0.1668935865 1.184631237e-38
-0.01323183253 -0.402330637 -0.06260869652 1.184631237e-38
0.0135726817 -0.2648648918 0.213486135 1.184631237e-38
-0.0006926096976 -0.1959038675 0.08638377488 1.184631237e-38
0.1320822686 -0.1724486053 0.0399255082 1.184631237e-38
0.1527181119 -0.405993104 0.08000095934 1.184631237e-38
0.04895014316 -0.3770762086 0.2269534171 1.184631237e-38
0.07504040748 -0.4487333894 0.2098672986 1.184631237e-38
0.06596810371 -0.2202269137 -0.03721028566 1.184631237e-38
0.01157576032 -0.4410781264 0.2194618881 1.184631237e-38
0.01691317745 -0.1861142367 0.01286005601 1.184631237e-38
0.1652522236 -0.3175699711 0.1864311993 1.184631237e-38
-0.09286904335 -0.1896967441 0.1550355852 1.184631237e-38
0.09482208639 -0.3998414278 -0.04626037925 1.184631237e-38
-0.01318400726 -0.337277174 0.0416812934 1.184631237e-38
-0.04544075206 -0.2781044245 0.2424199879 1.184631237e-38
-0.02701633796 -0.4411104918 -0.01595492661 1.184631237e-38
0.03799762577 -0.3919375539 0.2255804539 1.184631237e-38
-0.1053286642 -0.171320498 0.07259848714 1.184631237e-38
0.05790100992 -0.4512329698 0.1909454465 1.184631237e-38
-0.1608307511 -0.3742711842 0.1018794626 1.184631237e-38
0.05496092141 -0.4418544173 -0.00952539593 1.184631237e-38
0.07741445303 -0.2594294548 -0.03922719508 1.184631237e-38
0.02741507441 -0.1838383377 0.1098629758 1.184631237e-38
0.07409700006 -0.4584516883 -0.05374546349 1.184631237e-38
0.1647101194 -0.2648235857 0.1542133093 1.184631237e-38
0.05307906866 -0.4549440742 0.1354041696 1.184631237e-38
0.1165866852 -0.3384241462 -0.03564789146 1.184631237e-38
-0.01882451028 -0.3339907825 0.237297684 1.184631237e-38
0.1014209241 -0.3553595841 0.2294992805 1.184631237e-38
0.1605414003 -0.3730352521 0.05180282891 1.184631237e-38
-0.1097421944 -0.2249077857 0.1984960139 1.184631237e-38
0.09550715238 -0.3630384505 0.2293539941 1.184631237e-38
-0.1566189378 -0.4253956079 0.07684658468 1.184631237e-38
-0.09164330363 -0.4380438328 -0.03391651064 1.184631237e-38
0.07473731041 -0.2998137474 -0.04386872053 1.184631237e-38
0.04857192561 -0.2047445178 0.1958833933 1.184631237e-38
0.1228854358 -0.4489166141 0.1554351747 1.184631237e-38
0.05394545943 -0.451044023 0.2022459805 1.184631237e-38
-0.01320311427 -0.3466666043 0.2283138335 1.184631237e-38
-0.01148569584 -0.3144563437 0.2325752079 1.184631237e-38
0.06350748986 -0.2359509766 0.06130248681 1.184631237e-38
0.06474387646 -0.3924036622 -0.05122271925 1.184631237e-38
-0.1438935697 -0.3297874928 -0.02279795706 1.184631237e-38
0.09481743723 -0.24016729 0.207945317 1.184631237e-38
-0.1342264116 -0.2296049893 -0.01594175398 1.184631237e-38
-0.1540146917 -0.4300960302 0.08479560912 1.184631237e-38
0.1417225599 -0.4616340399 0.01007318869 1.184631237e-38
0.1240217984 -0.4518017173 0.1145850718 1.184631237e-38
-0.005308352411 -0.4514837265 0.1534010619 1.184631237e-38
0.06048258021 -0.4428963661 -0.05322999507 1.184631237e-38
0.155695647 -0.4239957929 0.01294986159 1.184631237e-38
0.03871122003 -0.3369985819 0.09170649946 1.184631237e-38
-0.1380752027 -0.4596261382 0.1371119469 1.184631237e-38
-0.1239368916 -0.466326654 0.01279174909 1.184631237e-38
0.1231546253 -0.4552508593 0.003918938339 1.184631237e-38
0.1299051493 -0.4497569203 0.07428570837 1.184631237e-38
0.04225014895 -0.1685805619 0.1695001721 1.184631237e-38
-0.1125442982 -0.3188419342 -0.04234237224 1.184631237e-38
0.01180527918 -0.4500927925 0.09135217965 1.184631237e-38
-0.01873636246 -0.3994240165 0.2330726087 1.184631237e-38
0.09440037608 -0.428321898 0.2168956101 1.184631237e-38
-0.02597348392 -0.2902597487 0.01424656808 1.184631237e-38
0.01151542924 -0.4510617256 0.1812513471 1.184631237e-38
0.1662607789 -0.2902534902 0.0834242627 1.184631237e-38
-0.1240610629 -0.1957713962 0.07589217275 1.184631237e-38
0.1624093354 -0.3819666207 0.001826316118 1.184631237e-38
0.05195091665 -0.4546781182 0.132216543 1.184631237e-38
0.1279812306 -0.3352417946 -0.039865233 1.184631237e-38
-0.04083586857 -0.3674509525 0.2544729412 1.184631237e-38
0.08421593904 -0.44904989 0.03618784249 1.184631237e-38
0.09687654674 -0.3883436918 0.2266253531 1.184631237e-38
0.07503353804 -0.3260987997 0.2270251811 1.184631237e-38
-0.02638511732 -0.1296250224 0.08614770323 1.184631237e-38
0.02267478034 -0.2408086061 0.20855546 1.184631237e-38
-0.003402713686 -0.1392791718 0.1415901482 1.184631237e-38
0.04713948071 -0.3286581337 0.07801321149 1.184631237e-38
0.1620742381 -0.4367591143 -0.0008947998285 1.184631237e-38
0.02240984142 -0.1838510633 0.1861549914 1.184631237e-38
0.004593681544 -0.4440068007 0.01411285624 1.184631237e-38
0.0276851505 -0.259742707 0.2101207376 1.184631237e-38
-0.1384819597 -0.3556105494 0.2156082392 1.184631237e-38
-0.01927366108 -0.3822846413 -0.06246707588 1.184631237e-38
0.02236701176 -0.1481599361 0.1177852899 1.184631237e-38
-0.01381498948 -0.1720469594 0.0800768584 1.184631237e-38
0.143942669 -0.4329271317 0.03457123414 1.184631237e-38
-0.0363384001 -0.1773282737 0.1850766838 1.184631237e-38
-0.008826605976 -0.3966426849 0.2302872539 1.184631237e-38
0.01334777661 -0.4501742721 0.1488649398 1.184631237e-38
-0.08440336585 -0.2066801935 0.2002169788 1.184631237e-38
-0.07298488915 -0.4438678622 -0.04323349148 1.184631237e-38
0.003000440076 -0.1483602524 0.1578529477 1.184631237e-38
-0.01457353309 -0.3942751288 0.2317373455 1.184631237e-38
0.04027695209 -0.4100857377 0.2244140208 1.184631237e-38
-0.1515344679 -0.3551751375 -0.01131807268 1.184631237e-38
0.1428954899 -0.4340981245 0.04444162175 1.184631237e-38
-0.0455677025 -0.1328417808 0.06642325222 1.184631237e-38
0.004278728738 -0.1586107761 0.1685187817 1.184631237e-38
0.02407200262 -0.4452123642 0.05546341836 1.184631237e-38
0.09068481624 -0.2018410563 0.07594049722 1.184631237e-38
-0.1440820247 -0.4050896168 0.154524833 1.184631237e-38
0.1346156299 -0.2329262793 0.1254514456 1.184631237e-38
0.001714993268 -0.2129855454 0.08589544147 1.184631237e-38
-0.02015170828 -0.1296411753 0.09175871313 1.184631237e-38
0.05032915249 -0.2504219115 0.2102635801 1.184631237e-38
0.0656567961 -0.4091672897 0.2254267633 1.184631237e-38
0.09223541617 -0.3059774041 0.2256400883 1.184631237e-38
-0.007854118943 -0.2254295349 0.07691164315 1.184631237e-38
0.1094893664 -0.233297199 -0.02338453382 1.184631237e-38
0.1597093046 -0.3640788496 0.03776784986 1.184631237e-38
0.02496530302 -0.4525553584 0.1790118217 1.184631237e-38
-0.154511556 -0.4204478264 0.09561366588 1.184631237e-38
0.1463067234 -0.2954251766 -0.02219717205 1.184631237e-38
-0.02964266017 -0.4409968257 0.0315435566 1.184631237e-38
-0.1626825035 -0.394146502 0.08246675134 1.184631237e-38
-0.1585223228 -0.3047430515 0.1139278561 1.184631237e-38
-0.1214395463 -0.3993445635 -0.02199091017 1.184631237e-38
0.1528258175 -0.4226786494 0.01740198955 1.184631237e-38
-0.1551672667 -0.2561113834 -0.00215600431 1.184631237e-38
-0.09307266772 -0.4203628898 -0.03631584346 1.184631237e-38
-0.03308697417 -0.3198364377 0.2474421859 1.184631237e-38
0.1558223069 -0.2724950314 0.01906589046 1.184631237e-38
0.1156310439 -0.4519530535 0.1636815518 1.184631237e-38
0.1023937166 -0.448998034 0.01035663113 1.184631237e-38
0.1212300658 -0.3449701369 0.226128757 1.184631237e-38
0.04434585571 -0.1660731733 0.1268475056 1.184631237e-38
0.006409473717 -0.4519385695 0.1604880095 1.184631237e-38
0.1076076925 -0.4374123812 -0.05839075893 1.184631237e-38
0.1123275459 -0.4518489242 0.1083062142 1.184631237e-38
-0.1246497035 -0.2094481885 0.1022608876 1.184631237e-38
0.02195899747 -0.4504776597 0.09647212923 1.184631237e-38
-0.1072086394 -0.2010169923 0.1486724168 1.184631237e-38
-0.08707419038 -0.4088372588 -0.04196118563 1.184631237e-38
0.02584830113 -0.4460362196 0.03242575005 1.184631237e-38
0.09998457134 -0.1586563587 0.06411767751 1.184631237e-38
0.08297275007 -0.411329329 -0.04662586749 1.184631237e-38
-0.127333492 -0.2575893998 0.2039820254 1.184631237e-38
-0.06563253701 -0.2184263766 0.03278246894 1.184631237e-38
0.03377169743 -0.1441375911 0.1458238065 1.184631237e-38
0.03171633929 -0.4520446658 0.1071466058 1.184631237e-38
-0.1393180192 -0.3302654624 -0.02622546256 1.184631237e-38
-0.003007553518 -0.2196870148 0.2065501213 1.184631237e-38
0.036397513 -0.3418424129 0.2246223092 1.184631237e-38
0.08359932899 -0.4486708045 -0.05451701581 1.184631237e-38
-0.1201533675 -0.2389373779 0.1924372315 1.184631237e-38
0.02977336943 -0.3364973068 0.06588890404 1.184631237e-38
-0.1089693159 -0.1876350492 0.1080715656 1.184631237e-38
0.09712815285 -0.2928507924 0.1387666464 1.184631237e-38
0.02413609065 -0.2547548711 -0.05241391808 1.184631237e-38
-0.0441393666 -0.255374521 0.04547707364 1.184631237e-38
0.1506697536 -0.2932612002 -0.002370171249 1.184631237e-38
0.08221787214 -0.4462545514 0.001279495656 1.184631237e-38
-0.03081447259 -0.3266070485 0.2470782399 1.184631237e-38
-0.009808484465 -0.4595023394 -0.0596171543 1.771655483e-38
-0.1364507973 -0.4100279808 0.1937864423 1.771655483e-38
0.07807102799 -0.2178064287 0.06915471703 1.771655483e-38
-0.09419038892 -0.203869611 0.1831270456 1.771655483e-38
0.1523400098 -0.4016414285 0.1819321066 1.771655483e-38
0.1186248362 -0.450955689 0.01281541586 1.771655483e-38
-0.1459281445 -0.2310436666 0.04603838921 1.771655483e-38
0.09731116891 -0.3731916547 -0.04058945924 1.771655483e-38
