# .PCD v0.7 - Point Cloud Data file format
VERSION 0.7
FIELDS x y z rgb
SIZE 4 4 4 4
TYPE F F F F
COUNT 1 1 1 1
WIDTH 842
HEIGHT 1
VIEWPOINT 0 0 0 1 0 0 0
POINTS 842
DATA ascii
0.02950909548 -0.4219955206 -0.01134914532 5.820783626e-39
0.3426466584 -0.2249097377 0.3495723903 5.820783626e-39
-0.04952807724 -0.5304650068 0.2097816318 5.820783626e-39
0.09860794246 -0.4879980683 0.4510661364 5.820783626e-39
0.431022495 -0.3755124509 0.4431316853 5.820783626e-39
0.3843660355 -0.2536642253 0.4295918941 5.820783626e-39
0.1482557207 -0.4483425617 0.0665409863 5.820783626e-39
0.1198499128 -0.4870192111 0.2716140151 5.820783626e-39
0.0303319823 -0.4989061356 0.1007121652 5.820783626e-39
0.2469533682 -0.4865814447 0.3335920572 5.820783626e-39
-0.04270604253 -0.4882555604 0.4478210807 5.820783626e-39
0.006560180336 -0.4814165235 0.06299164146 5.820783626e-39
0.2502712011 -0.4836488962 0.1881236583 5.820783626e-39
-0.09097054601 -0.4874695539 0.461178869 5.820783626e-39
-0.105802536 -0.4460527003 -0.002242267132 5.820783626e-39
-0.1105196401 -0.4884683192 0.3994545639 5.820783626e-39
0.1013751328 -0.4866402745 0.3754377365 5.820783626e-39
-0.2213906944 -0.5243359804 0.2867678404 5.820783626e-39
-0.06395080686 -0.4334777594 -0.009910099208 5.820783626e-39
-0.2383726984 -0.4850746393 -0.06250602007 5.820783626e-39
0.3493364453 -0.4733361602 0.08028778434 5.820783626e-39
0.394274652 -0.4512346685 0.3133389056 5.820783626e-39
0.4313184619 -0.377910614 0.3180759847 5.820783626e-39
0.1997552067 -0.4833626151 0.01092557237 5.820783626e-39
-0.3328048289 -0.486646235 0.3701050282 5.820783626e-39
-0.3014787436 -0.4878929853 0.2074764967 5.820783626e-39
0.4319186509 -0.3657390475 0.4390164912 5.820783626e-39
0.05639431626 -0.4773401022 0.09848558903 5.820783626e-39
0.3892630935 -0.3935432136 0.4542453885 5.820783626e-39
-0.2353630215 -0.487947911 0.3674941063 5.820783626e-39
-0.25541538 -0.4876081347 0.1122285724 5.820783626e-39
0.443870008 -0.2590353191 0.3903387785 5.820783626e-39
0.4343950748 -0.3289597034 0.3701249957 5.820783626e-39
-0.3431053162 -0.4951117039 0.3297528327 5.820783626e-39
0.04649429023 -0.4401831627 0.01492433157 5.820783626e-39
-0.2576343715 -0.4876955152 0.2883528769 5.820783626e-39
-0.3528086841 -0.487119019 0.1611075997 5.820783626e-39
0.4090445638 -0.4510197043 0.4447735846 5.820783626e-39
0.2829202414 -0.3509683311 0.3624790311 5.820783626e-39
0.009855991229 -0.4981027246 0.1074844301 5.820783626e-39
0.2198817581 -0.4864579439 0.2497421503 5.820783626e-39
-0.001121435314 -0.4963270426 0.1023320705 5.820783626e-39
0.3874796331 -0.4795950651 0.3919414878 5.820783626e-39
-0.2903824747 -0.4874703884 0.3491826355 5.820783626e-39
-0.1102632061 -0.4493192434 -0.08554592729 5.820783626e-39
0.2106147557 -0.48468858 0.122655943 5.820783626e-39
-0.0084659243 -0.4884248972 0.2770682573 5.820783626e-39
0.005909889936 -0.4866848588 0.425681591 5.820783626e-39
0.3701848686 -0.478834033 0.4545376599 5.820783626e-39
-0.2633672655 -0.4875059724 0.4207164347 5.820783626e-39
-0.0328801088 -0.4729505777 0.05168962479 5.820783626e-39
0.09314028174 -0.4515907764 0.05932634324 5.820783626e-39
0.1118878201 -0.4877800643 0.115698725 5.820783626e-39
-0.1426851749 -0.5127084851 0.4278529584 5.820783626e-39
0.3826014102 -0.1846734285 0.4228673279 5.820783626e-39
-0.08008772135 -0.4340625703 -0.02930689976 5.820783626e-39
0.1041797474 -0.488307327 0.4690541327 5.820783626e-39
-0.02531236038 -0.4883508086 0.4249833822 2.898180898e-39
0.4520962238 -0.2985344231 0.4168763161 2.898180898e-39
0.4320923686 -0.3248603642 0.3692105711 2.898180898e-39
0.2941707373 -0.4949064851 0.433249563 2.898180898e-39
-0.05309032649 -0.4871173501 0.4040797651 2.898180898e-39
-0.4589051902 -0.4627789259 0.4573693871 2.898180898e-39
-0.1508588195 -0.3972916305 -0.08107638359 2.898180898e-39
0.2011297941 -0.4869539142 0.1508242488 2.898180898e-39
-0.4406948388 -0.4839652181 0.467740804 2.898180898e-39
-0.4321940839 -0.4872555733 0.3961956501 2.898180898e-39
-0.3841381967 -0.4907615185 0.2023807466 2.898180898e-39
-0.2364243269 -0.3362975717 0.2752622068 2.898180898e-39
0.0406935364 -0.4884620309 0.1483163089 2.898180898e-39
0.01952637546 -0.4866089225 0.06343206763 2.898180898e-39
0.4013318419 -0.3069394231 0.2420633286 2.898180898e-39
0.3408049345 -0.4844681025 0.2257360369 2.898180898e-39
0.330009073 -0.4978798926 0.4252637625 2.898180898e-39
0.3986877501 -0.47814399 0.2509067953 2.898180898e-39
-0.4046765268 -0.4840027392 0.4560284317 2.898180898e-39
0.3767546713 -0.4839466512 0.3991981745 2.898180898e-39
-0.1578556448 -0.4876254201 0.1930814236 2.898180898e-39
0.3833014667 -0.4920056462 0.4091714025 2.898180898e-39
0.3777175248 -0.4893038571 0.3862788677 2.898180898e-39
-0.01254686993 -0.4864372313 0.05294390395 2.898180898e-39
0.3946357667 -0.4899347723 0.3955074549 2.898180898e-39
-0.1283093989 -0.280148387 0.22429353 2.898180898e-39
-0.1300749481 -0.4866098762 0.4255072176 2.898180898e-39
0.3941454589 -0.4843973517 0.2864068747 2.898180898e-39
-0.162012592 -0.3711355031 0.2138661444 2.898180898e-39
0.440690428 -0.2816579938 0.3743272126 2.898180898e-39
-0.3706806898 -0.4902786613 0.2441217005 2.898180898e-39
0.1123739108 -0.4883172214 0.1974581927 2.898180898e-39
0.339417994 -0.484711349 0.2323656529 2.898180898e-39
-0.3318237066 -0.4895621538 0.2055755705 2.898180898e-39
-0.1175316498 -0.3968015909 -0.04528426751 2.898180898e-39
-0.07748732716 -0.259333998 0.1901857853 2.898180898e-39
-0.1436652988 -0.3806809187 -0.001594439149 2.898180898e-39
0.186686933 -0.4852074385 -0.04854487255 2.898180898e-39
-0.2653707862 -0.4403805733 0.0778818205 2.898180898e-39
0.4246154428 -0.2644758821 0.3097915947 2.898180898e-39
0.2545985579 -0.4864183962 0.1966351718 2.898180898e-39
-0.1779461205 -0.4128820896 -0.09172649682 2.898180898e-39
-0.4649868608 -0.4528365433 0.4333847761 2.898180898e-39
-0.07283907384 -0.4868624508 0.04934284464 2.898180898e-39
0.0856834501 -0.4880025387 0.1201740652 2.898180898e-39
-0.4313030839 -0.4856386185 0.4528948665 2.898180898e-39
-0.1007555649 -0.4853618145 -0.04466344044 2.898180898e-39
-0.08432184905 -0.4876084924 0.427647233 2.898180898e-39
-0.09443027526 -0.4829377532 -0.1379772127 2.898180898e-39
-0.1904024184 -0.4425085485 -0.1185899675 2.898180898e-39
-0.1163419187 -0.4446169138 -0.1518872529 2.898180898e-39
-0.1238270029 -0.4186915159 -0.1274561584 2.898180898e-39
0.2420583963 -0.487306118 0.2713279426 2.898180898e-39
0.1731128395 -0.4880643785 0.2588210404 2.898180898e-39
0.3186149895 -0.4863601923 0.3152812123 2.898180898e-39
0.4325271845 -0.46630615 0.3614403009 2.898180898e-39
0.4340031743 -0.293053627 0.334903419 2.898180898e-39
0.3988877833 -0.189294517 0.240307495 2.898180898e-39
0.3476960361 -0.3387128711 0.2777626216 2.898180898e-39
-0.1901072562 -0.4877420068 0.2216988355 2.898180898e-39
-0.2063391805 -0.4698682427 -0.1610770077 2.898180898e-39
-0.4429207742 -0.4238805473 0.4211832285 2.898180898e-39
0.4316055775 -0.4552110136 0.3211301863 2.898180898e-39
-0.1812275201 -0.4401961863 0.3807503283 2.898180898e-39
-0.437949121 -0.4345478415 0.4356677532 2.898180898e-39
-0.04124141857 -0.488001585 0.4242757261 2.898180898e-39
-0.2541399002 -0.1933722049 0.3541242778 2.898180898e-39
-0.298907876 -0.4166945517 0.3877816796 2.898180898e-39
0.01439195685 -0.4880514443 0.2460296005 2.898180898e-39
0.4164844155 -0.3350999355 0.3061987162 2.898180898e-39
0.3668133914 -0.4837114811 0.2153789997 2.898180898e-39
-0.08122242987 -0.3971823752 -0.08254000545 2.898180898e-39
0.4126258492 -0.1895859838 0.2654948831 2.898180898e-39
-0.3135478497 -0.3347680867 0.3686297834 2.898180898e-39
0.3317544758 -0.4954196215 0.4328789711 2.898180898e-39
0.4533895254 -0.2710012794 0.417637676 2.898180898e-39
0.4423598349 -0.1435088366 0.3998297155 2.898180898e-39
0.0793582499 -0.4327871203 -0.01554543525 2.898180898e-39
0.2979305089 -0.4862646759 0.2770986855 2.898180898e-39
-0.1970203817 -0.2938354015 0.2503778934 2.898180898e-39
0.3943126202 -0.486987412 0.3552828431 2.898180898e-39
0.116028659 -0.4903118908 0.4280324578 2.898180898e-39
-0.1376436651 -0.3374205232 0.1878394783 2.898180898e-39
0.3833013177 -0.4829560518 0.2260065377 2.898180898e-39
0.03071420453 -0.492290616 0.4192732871 2.898180898e-39
-0.213401258 -0.4141961932 -0.004257578403 2.898180898e-39
0.02406235598 -0.4877619743 0.357830584 2.898180898e-39
0.3035942614 -0.4900265932 0.3791901767 2.898180898e-39
-0.373195976 -0.3732409179 0.38528651 2.898180898e-39
-0.188967675 -0.4023593068 -0.05771901086 2.898180898e-39
-0.2330162525 -0.4880713224 -0.03174637631 2.898180898e-39
0.3777241111 -0.4126414359 0.1611022502 2.898180898e-39
0.4056060016 -0.3873057961 0.2856828868 2.898180898e-39
0.4206903279 -0.3136838377 0.2969623506 2.898180898e-39
0.2993758023 -0.4847892225 0.04785845429 2.898180898e-39
-0.311652869 -0.4870105386 0.3739434779 2.898180898e-39
-0.2463045865 -0.4882088304 0.2033246905 2.898180898e-39
0.4442196786 -0.2764996588 0.4048958421 2.898180898e-39
-0.1134512499 -0.2780882716 0.2116304636 2.898180898e-39
0.4448643625 -0.2940538228 0.4247718155 2.898180898e-39
-0.1600206643 -0.4869354665 0.3382820189 2.898180898e-39
-0.1957785785 -0.487683475 0.1155339479 2.898180898e-39
0.4219992161 -0.1813147664 0.3551392555 2.898180898e-39
0.4216313362 -0.2639790773 0.3320966363 2.898180898e-39
-0.4286982715 -0.4564194083 0.4202940166 2.898180898e-39
-0.06515131891 -0.4089501798 -0.05485570058 2.898180898e-39
-0.1873759031 -0.4876850843 0.2533770204 2.898180898e-39
-0.3326769173 -0.4895387292 0.1829831302 2.898180898e-39
0.4489045739 -0.3384696841 0.4238684475 2.898180898e-39
0.3785178363 -0.305114001 0.2712916434 2.898180898e-39
-0.2144281566 -0.3333008289 0.256016016 2.898180898e-39
0.369900018 -0.484557569 0.2856163979 2.898180898e-39
-0.2095120251 -0.3673343658 0.2492723018 2.898180898e-39
0.4405474067 -0.4210067093 0.3771982193 2.898180898e-39
-0.2281506807 -0.4873584807 0.3307299018 2.898180898e-39
-0.1977897733 -0.4537941813 -0.1369271129 2.898180898e-39
0.3438805938 -0.4850851297 0.170898512 2.898180898e-39
0.1146004573 -0.4882919192 0.2367536277 2.898180898e-39
0.08370438218 -0.4006750286 0.3322544396 2.898180898e-39
0.4449875653 -0.3859441876 0.4333586395 2.898180898e-39
-0.242240265 -0.4852575958 0.4229457974 2.898180898e-39
-0.1479355395 -0.3974974155 0.147855252 2.898180898e-39
-0.04808587581 -0.4029587209 0.004769291729 2.898180898e-39
0.2841894627 -0.4851251245 0.1649003178 2.898180898e-39
-0.4322853088 -0.330706507 0.3942987025 2.898180898e-39
0.4331583381 -0.08784981072 0.3793714643 2.898180898e-39
-0.1898976415 -0.4241332114 -0.08622349799 2.898180898e-39
0.3554614186 -0.4969511032 0.4178818166 2.898180898e-39
-0.2958684266 -0.4866119325 0.4616729915 6.490113838e-41
0.4487231672 -0.4627349973 0.4258329868 6.490113838e-41
0.4379667938 -0.4288375974 0.3557665646 6.490113838e-41
-0.007461901754 -0.4908413887 0.4189008176 6.490113838e-41
-0.3111798763 -0.4851281643 0.4316279292 6.490113838e-41
-0.4758456349 -0.4309877753 0.468397826 6.490113838e-41
-0.06282821298 -0.4002457857 -0.07241162658 6.490113838e-41
0.03214818239 -0.4879772663 0.07354170084 6.490113838e-41
-0.4627132416 -0.4613565505 0.4736375511 6.490113838e-41
-0.4132888317 -0.441339314 0.4143114984 6.490113838e-41
-0.3890507519 -0.4542210996 0.1938807219 6.490113838e-41
-0.2285437733 -0.3394409418 0.3540287614 6.490113838e-41
-0.1479457617 -0.4876055717 0.07832510024 6.490113838e-41
-0.1069955006 -0.4866940975 -0.01389582083 6.490113838e-41
0.3808755577 -0.3616198599 0.2338224798 6.490113838e-41
0.2009177506 -0.4871357083 0.1398893744 6.490113838e-41
-0.01062380988 -0.49412328 0.4582567215 6.490113838e-41
0.2668434083 -0.4857227802 0.1649924219 6.490113838e-41
-0.4556249976 -0.4725980759 0.4718393981 6.490113838e-41
0.07562497258 -0.4971709847 0.4340237677 6.490113838e-41
-0.3605766296 -0.4879751801 0.1094468683 6.490113838e-41
0.2021820098 -0.4921414852 0.365190655 6.490113838e-41
0.2218517512 -0.4903267324 0.3201530576 6.490113838e-41
-0.1487984508 -0.4866421819 -0.03431765735 6.490113838e-41
0.2423299253 -0.4911322594 0.3390683234 6.490113838e-41
-0.1294626445 -0.2802157998 0.2830435932 6.490113838e-41
-0.3657328188 -0.4855253398 0.4653249383 6.490113838e-41
0.2735206485 -0.4866288304 0.2003381252 6.490113838e-41
-0.1491771042 -0.3936308622 0.2875384986 6.490113838e-41
0.395327121 -0.4782349467 0.3765066266 6.490113838e-41
-0.4072415531 -0.4703338146 0.2348314822 6.490113838e-41
-0.08695846796 -0.489133954 0.1275610179 6.490113838e-41
0.1932232678 -0.4874460101 0.147397235 6.490113838e-41
-0.4150131047 -0.48369205 0.1534166336 6.490113838e-41
-0.05225671083 -0.3827130497 -0.03919182718 6.490113838e-41
-0.06906106323 -0.2722634971 0.2338972688 6.490113838e-41
-0.09083940834 -0.4088491797 0.002958757803 6.490113838e-41
0.06235914677 -0.4850328565 -0.1209775358 6.490113838e-41
-0.2149099559 -0.4291604757 0.07035905123 6.490113838e-41
0.414316088 -0.3348137438 0.3087251484 6.490113838e-41
0.0698120743 -0.4882460535 0.1104765236 6.490113838e-41
-0.1105104089 -0.3890513182 -0.0807980299 6.490113838e-41
-0.4514550865 -0.3785194755 0.4428159893 6.490113838e-41
-0.212037921 -0.4863983393 -0.0440367572 6.490113838e-41
-0.08155629784 -0.4877080321 0.04729811102 6.490113838e-41
-0.4463181496 -0.4683917165 0.4566695392 6.490113838e-41
-0.2015272975 -0.4761514664 -0.1246139854 6.490113838e-41
-0.3375406563 -0.4866787791 0.4698313475 6.490113838e-41
-0.1672036499 -0.4601596594 -0.2042613775 6.490113838e-41
-0.1259693056 -0.3846037984 -0.09929333627 6.490113838e-41
-0.06052979827 -0.3858094811 -0.1471529603 6.490113838e-41
-0.05351924151 -0.3994792402 -0.1194823384 6.490113838e-41
0.02942043357 -0.4895834923 0.1972797364 6.490113838e-41
-0.04917075485 -0.4892116785 0.1975286752 6.490113838e-41
0.1433734298 -0.4891790748 0.2220701277 6.490113838e-41
0.3186905682 -0.4891616106 0.2991619408 6.490113838e-41
0.4247924685 -0.3752115667 0.3314997852 6.490113838e-41
0.3351339996 -0.311082691 0.2103295773 6.490113838e-41
0.04408840835 -0.4028343856 0.2970383465 6.490113838e-41
-0.3860383332 -0.4887587428 0.1565987915 6.490113838e-41
-0.1546507627 -0.3897979558 -0.1273874342 6.490113838e-41
-0.4335901439 -0.3322750628 0.4395299554 6.490113838e-41
0.340128988 -0.4867446721 0.2503723502 6.490113838e-41
-0.4192391634 -0.3954863548 0.4289260209 6.490113838e-41
-0.4893327057 -0.3630073071 0.458963871 6.490113838e-41
-0.3062956631 -0.4864130914 0.4614745378 6.490113838e-41
-0.2767585814 -0.1992506236 0.3983908594 6.490113838e-41
-0.4661119878 -0.3566948771 0.4377958775 6.490113838e-41
-0.2089491785 -0.4881643057 0.2087915689 6.490113838e-41
0.4169021547 -0.4058808982 0.2911851704 6.490113838e-41
0.2230300009 -0.485774219 0.1203745008 6.490113838e-41
0.02094115131 -0.4237985313 -0.09676520526 6.490113838e-41
0.3486802578 -0.328209877 0.235860467 6.490113838e-41
-0.3322325051 -0.3275668323 0.4184400737 6.490113838e-41
0.04094483703 -0.492315352 0.4180922508 6.490113838e-41
0.4538224339 -0.4325893521 0.4276397824 6.490113838e-41
0.4666461349 -0.3542385399 0.3874158263 6.490113838e-41
0.1607540846 -0.3945990205 -0.01503171027 6.490113838e-41
0.1117224023 -0.4891142249 0.1916204393 6.490113838e-41
-0.1998045146 -0.2758430243 0.3290093541 6.490113838e-41
0.2557826936 -0.4883725643 0.2711843252 6.490113838e-41
-0.1914815605 -0.4867932498 0.440995276 6.490113838e-41
-0.1166926622 -0.3648580611 0.2468904555 6.490113838e-41
0.241587162 -0.4851883948 0.111507982 6.490113838e-41
-0.2993885279 -0.4884944856 0.4560185671 6.490113838e-41
-0.1725593656 -0.4117208123 -0.005120445043 6.490113838e-41
-0.2480159104 -0.4868920445 0.3555875719 6.490113838e-41
0.08710069209 -0.4900543094 0.315454483 6.490113838e-41
-0.3717189133 -0.3168531656 0.4189829826 6.490113838e-41
-0.1462987214 -0.3752591014 -0.05096726492 6.490113838e-41
-0.2683542073 -0.4440385699 -0.09804098308 6.490113838e-41
0.3426786661 -0.4492104948 0.03575291485 6.490113838e-41
0.4064491093 -0.4553149343 0.2671917975 6.490113838e-41
0.4108629227 -0.3704333603 0.2950813174 6.490113838e-41
0.173108086 -0.4844432473 -0.09817449749 6.490113838e-41
-0.4295701981 -0.4884079695 0.3971972167 6.490113838e-41
-0.3994426727 -0.488966316 0.1266819388 6.490113838e-41
0.4466717839 -0.394233048 0.4037712216 6.490113838e-41
-0.1083247513 -0.3058607578 0.2622101903 6.490113838e-41
0.4510718584 -0.4823298752 0.4321087599 6.490113838e-41
-0.3882777095 -0.4869505167 0.3582943678 6.490113838e-41
-0.3558013439 -0.4885967076 0.03477655351 6.490113838e-41
0.4294456542 -0.2581428289 0.3451705277 6.490113838e-41
0.4219921529 -0.3401792049 0.3287217021 6.490113838e-41
-0.4058350027 -0.3714635968 0.4330833256 6.490113838e-41
0.02760975249 -0.4081324637 -0.07047258317 6.490113838e-41
-0.3935927153 -0.488565743 0.2253196985 6.490113838e-41
-0.4085208774 -0.4829856157 0.1128686965 6.490113838e-41
0.4406631887 -0.492030561 0.4337241352 6.490113838e-41
0.1200317666 -0.4028177261 0.2873990834 6.490113838e-41
-0.209580034 -0.3261858225 0.3388505876 6.490113838e-41
0.2334164381 -0.4875788689 0.1986773312 6.490113838e-41
-0.2032584101 -0.3593736291 0.33757779 6.490113838e-41
0.3892848492 -0.4885720611 0.3528974652 6.490113838e-41
-0.4126677215 -0.48754251 0.3551182747 6.490113838e-41
-0.137736246 -0.3792459965 -0.1108470112 6.490113838e-41
0.1937920153 -0.4846165776 0.01204185933 6.490113838e-41
-0.09630972147 -0.4889763594 0.1812552363 6.490113838e-41
-0.2823649943 -0.3742519319 0.3724676669 6.490113838e-41
0.4085943103 -0.4949772358 0.4365677834 6.490113838e-41
-0.4140579998 -0.4844825268 0.4547310174 6.490113838e-41
-0.1255302429 -0.4197925329 0.1983138174 6.490113838e-41
0.03984477371 -0.4124942124 0.001276200637 6.490113838e-41
0.1257527173 -0.4868169129 0.06616649032 6.490113838e-41
-0.4454876184 -0.2738718092 0.4212965667 6.490113838e-41
0.4660117924 -0.2617350817 0.3621027172 6.490113838e-41
-0.1384888142 -0.3796728253 -0.07519336045 6.490113838e-41
0.02540698089 -0.4953105748 0.4510140419 6.490113838e-41
-0.2320565134 -0.4868146181 0.4641681314 3.015101038e-39
0.4414723814 -0.3041841686 0.3876847625 3.015101038e-39
0.4201775789 -0.3072671294 0.319488585 3.015101038e-39
0.142869696 -0.4966517091 0.4564084113 3.015101038e-39
-0.2492439002 -0.4856340289 0.4405155182 3.015101038e-39
-0.4745710194 -0.3817266226 0.4533583522 3.015101038e-39
-0.2282949984 -0.3918459415 -0.1341805905 3.015101038e-39
0.1662733555 -0.4883093834 0.1017708182 3.015101038e-39
-0.4552218914 -0.4559534192 0.4622836411 3.015101038e-39
-0.4318143427 -0.4830504656 0.4187791348 3.015101038e-39
-0.4169296622 -0.4874266982 0.2400537282 3.015101038e-39
-0.3414492905 -0.336175859 0.3337445855 3.015101038e-39
-0.06074334681 -0.4892565012 0.09836168587 3.015101038e-39
-0.04483298212 -0.4876247048 0.01875139959 3.015101038e-39
0.3900930882 -0.2990161777 0.2041418105 3.015101038e-39
0.3355705142 -0.486171186 0.1916329414 3.015101038e-39
0.1481252164 -0.4983875751 0.4307141006 3.015101038e-39
0.3923130631 -0.4800668359 0.2131765038 3.015101038e-39
-0.4397788346 -0.4724906087 0.460532248 3.015101038e-39
0.21993348 -0.4994289279 0.4029577076 3.015101038e-39
-0.2790148258 -0.4875814319 0.1563790888 3.015101038e-39
0.333207339 -0.4938136041 0.4026774764 3.015101038e-39
0.3431997895 -0.4906920791 0.3673115671 3.015101038e-39
-0.08168839663 -0.4875000417 0.004695860669 3.015101038e-39
0.363206774 -0.4910120964 0.3848355114 3.015101038e-39
-0.2392487079 -0.3810095787 0.2890932262 3.015101038e-39
-0.318010956 -0.4861010313 0.4686383307 3.015101038e-39
0.3934812546 -0.4851548076 0.2544586658 3.015101038e-39
-0.2907502949 -0.3798819184 0.2779919207 3.015101038e-39
0.4127590954 -0.3456125557 0.3425142765 3.015101038e-39
-0.4207067192 -0.4874131083 0.2839877605 3.015101038e-39
0.02453955822 -0.4903692007 0.154829815 3.015101038e-39
0.3290946186 -0.4865057468 0.197585851 3.015101038e-39
-0.4040098786 -0.4880943894 0.2145913839 3.015101038e-39
-0.2189278603 -0.3755608201 -0.1065116078 3.015101038e-39
-0.2035493851 -0.3688287437 0.2603023052 3.015101038e-39
-0.2364563644 -0.3894224763 -0.0504325442 3.015101038e-39
0.2049186677 -0.4853135347 -0.06975996494 3.015101038e-39
-0.3268688023 -0.4227537513 0.1364875436 3.015101038e-39
0.4120510817 -0.2382027805 0.2628850639 3.015101038e-39
0.2012124509 -0.4886521101 0.1478819102 3.015101038e-39
-0.2486117035 -0.4096224606 -0.1409726739 3.015101038e-39
-0.4518253505 -0.4147963524 0.439986676 3.015101038e-39
-0.1422046125 -0.4870616794 0.00580758974 3.015101038e-39
0.009668964893 -0.4887446761 0.06619840115 3.015101038e-39
-0.4480179548 -0.4751925468 0.4480936229 3.015101038e-39
-0.1411682963 -0.4865095615 -0.0648458302 3.015101038e-39
-0.2860654891 -0.4867523909 0.4700500071 3.015101038e-39
-0.1017256454 -0.48326689 -0.1610001326 3.015101038e-39
-0.2658079565 -0.4350392818 -0.1604483873 3.015101038e-39
-0.1824361533 -0.4576063156 -0.2170745283 3.015101038e-39
-0.2131504714 -0.4274916947 -0.1910106838 3.015101038e-39
0.1719572693 -0.4895712733 0.2197316587 3.015101038e-39
0.08919072151 -0.4901704192 0.222113803 3.015101038e-39
0.2742647529 -0.4884564579 0.2620695829 3.015101038e-39
0.4200375974 -0.4753889441 0.3317412734 3.015101038e-39
0.4172032773 -0.2742222548 0.300058037 3.015101038e-39
0.3464989364 -0.21521689 0.1784473509 3.015101038e-39
0.1418300569 -0.376753509 0.2682215273 3.015101038e-39
-0.3336600661 -0.4873321354 0.2022233009 3.015101038e-39
-0.2627780437 -0.4678313136 -0.1675864905 3.015101038e-39
-0.4439557195 -0.3839337528 0.4362503588 3.015101038e-39
0.4170345664 -0.4520051777 0.2807798982 3.015101038e-39
-0.3779181242 -0.3809031844 0.4032372534 3.015101038e-39
-0.490054667 -0.3297834098 0.4383607805 3.015101038e-39
-0.2439528555 -0.4865226746 0.4643929303 3.015101038e-39
-0.3639913499 -0.2632842064 0.3862525821 3.015101038e-39
-0.4417366982 -0.3409158885 0.409532696 3.015101038e-39
-0.1368340701 -0.4879404604 0.2181424648 3.015101038e-39
0.4148337245 -0.3095323145 0.2834276259 3.015101038e-39
0.368153125 -0.4846874475 0.1774049103 3.015101038e-39
-0.173038274 -0.3903672099 -0.1535530388 3.015101038e-39
0.3554571867 -0.2294123471 0.2027934939 3.015101038e-39
-0.4093658924 -0.2735518217 0.3986049592 3.015101038e-39
0.1988518834 -0.4973823428 0.45486027 3.015101038e-39
0.4398485422 -0.2692927718 0.3828602433 3.015101038e-39
0.4709380567 -0.2052363902 0.3504811823 3.015101038e-39
-0.03443080187 -0.4115613401 -0.08650296926 3.015101038e-39
0.2491078079 -0.4887413681 0.226849705 3.015101038e-39
-0.3081413507 -0.3539353311 0.3194993436 3.015101038e-39
0.3743778169 -0.4878252447 0.3225538731 3.015101038e-39
-0.09217454493 -0.4890767932 0.4559886456 3.015101038e-39
-0.2554990947 -0.3954164684 0.2630824149 3.015101038e-39
0.380862385 -0.4843001962 0.1781521887 3.015101038e-39
-0.20891653 -0.4852941036 0.4380456209 3.015101038e-39
-0.2828730941 -0.4135912955 -0.02139189839 3.015101038e-39
-0.1778682321 -0.4867267609 0.3774804175 3.015101038e-39
0.2329866737 -0.4910348654 0.3471713066 3.015101038e-39
-0.419785738 -0.3389621973 0.4077346325 3.015101038e-39
-0.2625053525 -0.3986657858 -0.1061700284 3.015101038e-39
-0.3033638895 -0.4871687293 -0.06227564439 3.015101038e-39
0.3796210885 -0.4133586586 0.0789244473 3.015101038e-39
0.3990795612 -0.3855403364 0.2514929473 3.015101038e-39
0.4046055377 -0.2975685 0.2536870539 3.015101038e-39
0.3405175507 -0.4839684665 -0.005925957114 3.015101038e-39
-0.4136682749 -0.4848293066 0.3972973526 3.015101038e-39
-0.374006331 -0.4879832864 0.1881184578 3.015101038e-39
0.4313610196 -0.2554933131 0.35597229 3.015101038e-39
-0.2292430252 -0.3773975074 0.2758019567 3.015101038e-39
0.4633399248 -0.3464981914 0.3894827664 3.015101038e-39
-0.3289160728 -0.4863156974 0.3582920432 3.015101038e-39
-0.2909204662 -0.4873650074 0.08401638269 3.015101038e-39
0.4168376625 -0.170593366 0.2818674147 3.015101038e-39
0.4233180881 -0.2360553443 0.282447964 3.015101038e-39
-0.4323155582 -0.4216092825 0.4239016473 3.015101038e-39
-0.1691203862 -0.3893214762 -0.1251981407 3.015101038e-39
-0.3480834365 -0.4871820509 0.2616201043 3.015101038e-39
-0.399589628 -0.488204658 0.1841025501 3.015101038e-39
0.4526154399 -0.3703005314 0.4084820747 3.015101038e-39
0.2111760527 -0.3599226773 0.2539786398 3.015101038e-39
-0.3240386546 -0.3486451209 0.3199544847 3.015101038e-39
0.35728091 -0.4864664376 0.2508270144 3.015101038e-39
-0.3238651156 -0.352883637 0.3131737411 3.015101038e-39
0.4230556786 -0.40595752 0.3460512459 3.015101038e-39
-0.3862919509 -0.4864140749 0.3591972291 3.015101038e-39
-0.2698645592 -0.4488992989 -0.1681323498 3.015101038e-39
0.3624409437 -0.4848954976 0.1059931964 3.015101038e-39
0.02003818937 -0.4899323583 0.2053520977 3.015101038e-39
-0.1917746216 -0.3619520962 0.351731509 3.015101038e-39
0.453812927 -0.4280652404 0.4123019576 3.015101038e-39
-0.380223453 -0.4843507409 0.4474622905 3.015101038e-39
-0.2760410309 -0.3971024454 0.2331518382 3.015101038e-39
-0.1528965086 -0.4215097129 -0.04705641046 3.015101038e-39
0.2798351049 -0.4862426221 0.1218635589 3.015101038e-39
-0.4414745271 -0.3306996226 0.4139957428 3.015101038e-39
0.4757774174 -0.118358627 0.3258467615 3.015101038e-39
-0.2649232149 -0.4161042869 -0.132595703 3.015101038e-39
0.1831016093 -0.4992147088 0.4219987988 3.015101038e-39
-0.1516606659 -0.4793445468 0.4008406997 5.962428276e-39
0.4187281132 -0.2275368124 0.3515279591 5.962428276e-39
0.4109888375 -0.2359351963 0.2807948589 5.962428276e-39
0.1983141154 -0.4922395349 0.3790707886 5.962428276e-39
-0.2323722988 -0.4867902994 0.3653283715 5.962428276e-39
-0.4482891858 -0.2982092798 0.3952366412 5.962428276e-39
-0.1777494252 -0.3808953166 -0.1649831384 5.962428276e-39
0.1526587754 -0.4861238599 0.02419568226 5.962428276e-39
-0.4333221018 -0.3931428194 0.4129097164 5.962428276e-39
-0.4028276801 -0.3821514845 0.3462029994 5.962428276e-39
-0.3848198056 -0.4535145462 0.1469208747 5.962428276e-39
-0.3245934546 -0.3138326705 0.3444681764 5.962428276e-39
-0.08287063986 -0.4875331223 0.004708558321 5.962428276e-39
-0.05253204703 -0.4862951934 -0.07662785053 5.962428276e-39
0.3634907603 -0.2636797428 0.2045317292 5.962428276e-39
0.3469465971 -0.4847974181 0.1414379478 5.962428276e-39
0.2522809803 -0.4315610528 0.3737556636 5.962428276e-39
0.3918942511 -0.4456220567 0.1564085782 5.962428276e-39
-0.4208310843 -0.4367102385 0.4181882143 5.962428276e-39
0.3195672631 -0.3799545169 0.3433541358 5.962428276e-39
-0.3255877197 -0.4880442917 0.03818841651 5.962428276e-39
0.3479366302 -0.4924409986 0.3533510566 5.962428276e-39
0.3686756492 -0.4890626073 0.2967960238 5.962428276e-39
-0.08887874335 -0.486399889 -0.08767150342 5.962428276e-39
0.387882024 -0.4882330298 0.320887655 5.962428276e-39
-0.2097024918 -0.2974097729 0.319470197 5.962428276e-39
-0.2736318409 -0.4678332508 0.4157654941 5.962428276e-39
0.401894331 -0.4555763006 0.2022713423 5.962428276e-39
-0.2441421598 -0.3823418021 0.2960146964 5.962428276e-39
0.446649462 -0.2059135884 0.3193100691 5.962428276e-39
-0.3956643045 -0.4653176665 0.1767878234 5.962428276e-39
0.0150437858 -0.4881699681 0.04540017992 5.962428276e-39
0.3417055905 -0.4851899743 0.1453461647 5.962428276e-39
-0.4012307823 -0.4863494635 0.09990745783 5.962428276e-39
-0.1694007963 -0.3916418552 -0.1274930388 5.962428276e-39
-0.147576496 -0.3805255294 0.2793811858 5.962428276e-39
-0.1876072288 -0.4222968221 -0.07329502702 5.962428276e-39
0.1790001243 -0.4852052331 -0.1095019132 5.962428276e-39
-0.3196397722 -0.3771421313 0.07799598575 5.962428276e-39
0.3768372536 -0.1793985963 0.2385396361 5.962428276e-39
0.2106747776 -0.4864866138 0.07225716114 5.962428276e-39
-0.2124008238 -0.3674487174 -0.1680405438 5.962428276e-39
-0.4192885756 -0.3471490741 0.3987909555 5.962428276e-39
-0.1531518102 -0.4865133464 -0.09621663392 5.962428276e-39
-0.005395158194 -0.4867447615 -0.02254616097 5.962428276e-39
-0.4227636456 -0.4355043173 0.3903196156 5.962428276e-39
-0.1721944511 -0.4847741723 -0.1506599188 5.962428276e-39
-0.2063142061 -0.4672298431 0.4175749719 5.962428276e-39
-0.1525417417 -0.475707829 -0.2366419286 5.962428276e-39
-0.2280625254 -0.378962189 -0.1907369345 5.962428276e-39
-0.1571642607 -0.4089547992 -0.2477954179 5.962428276e-39
-0.1729681492 -0.3729403615 -0.2225835323 5.962428276e-39
0.1868750453 -0.4885407984 0.1305058599 5.962428276e-39
0.08639151603 -0.4895308614 0.1095900089 5.962428276e-39
0.2949956954 -0.4876403213 0.1922219545 5.962428276e-39
0.4143090844 -0.4220581651 0.269056052 5.962428276e-39
0.4068651795 -0.208875075 0.2563044131 5.962428276e-39
0.3778876662 -0.1087929308 0.2095076144 5.962428276e-39
0.2592362463 -0.2399145812 0.2484538555 5.962428276e-39
-0.3707503974 -0.4884412885 0.07915000618 5.962428276e-39
-0.246427983 -0.42660743 -0.2221810669 5.962428276e-39
-0.4110987186 -0.3000590205 0.393168956 5.962428276e-39
0.4067723751 -0.392980516 0.2316622734 5.962428276e-39
-0.2967035472 -0.2723535299 0.3593967855 5.962428276e-39
-0.4576947689 -0.2256308645 0.3828718364 5.962428276e-39
-0.1695138514 -0.47802037 0.4016341567 5.962428276e-39
-0.3646071851 -0.1173798293 0.3770100772 5.962428276e-39
-0.391806066 -0.2313338816 0.3651019931 5.962428276e-39
-0.1700580418 -0.4885326028 0.105115056 5.962428276e-39
0.4002982378 -0.2501629591 0.2379585207 5.962428276e-39
0.3852666616 -0.4726184011 0.1324147731 5.962428276e-39
-0.1043396816 -0.3930790722 -0.1921965778 5.962428276e-39
0.3877441585 -0.1129211485 0.2257492244 5.962428276e-39
-0.3952628374 -0.2386759222 0.3853689432 5.962428276e-39
0.2472202182 -0.4913841784 0.3803306222 5.962428276e-39
0.418200314 -0.1956240535 0.3481871188 5.962428276e-39
0.4761006534 -0.08927053213 0.3102634251 5.962428276e-39
0.03145482391 -0.3991402984 -0.1350235343 5.962428276e-39
0.2665567994 -0.4874700308 0.1552103311 5.962428276e-39
-0.2675484717 -0.3319244385 0.3437147737 5.962428276e-39
0.3993622661 -0.4776239395 0.2618472874 5.962428276e-39
-0.01813766174 -0.4917224348 0.379062295 5.962428276e-39
-0.1964166909 -0.4180531204 0.2683770657 5.962428276e-39
0.3854178488 -0.4602150917 0.1281678975 5.962428276e-39
-0.1052959338 -0.4033202827 0.3817459941 5.962428276e-39
-0.2535353899 -0.3810426593 -0.0658505857 5.962428276e-39
-0.1742697805 -0.4883471131 0.2944850624 5.962428276e-39
0.2422105968 -0.4924903512 0.2674359381 5.962428276e-39
-0.4047080278 -0.2587096989 0.3716905415 5.962428276e-39
-0.2284253389 -0.3740186691 -0.131084308 5.962428276e-39
-0.3005404472 -0.4702247381 -0.1577705294 5.962428276e-39
0.3592741787 -0.391865015 0.01569079049 5.962428276e-39
0.3894637525 -0.33571437 0.2026144415 5.962428276e-39
0.3774100244 -0.2458967268 0.2093898654 5.962428276e-39
0.3266791701 -0.4841396213 -0.03819292411 5.962428276e-39
-0.4044618905 -0.4814957976 0.3204706013 5.962428276e-39
-0.3840793669 -0.4892947376 0.06565582752 5.962428276e-39
0.4174849987 -0.1952226013 0.3267922997 5.962428276e-39
-0.1840747446 -0.3535238504 0.308498919 5.962428276e-39
0.4722962677 -0.210714519 0.3344229758 5.962428276e-39
-0.3622132838 -0.4874194264 0.2800274491 5.962428276e-39
-0.333978951 -0.4886017144 -0.01572713256 5.962428276e-39
0.4060924053 -0.1153611988 0.2743836343 5.962428276e-39
0.4038192034 -0.1861616075 0.2536888719 5.962428276e-39
-0.4079412818 -0.3315905333 0.3732354343 5.962428276e-39
-0.1100126207 -0.4042590261 -0.1667515635 5.962428276e-39
-0.3780224025 -0.4884022772 0.1462503672 5.962428276e-39
-0.3981140554 -0.4854248166 0.06389060616 5.962428276e-39
0.4314531684 -0.2657374144 0.3656759858 5.962428276e-39
0.3053746521 -0.2305337191 0.2410048097 5.962428276e-39
-0.2974127233 -0.3292176127 0.3393713534 5.962428276e-39
0.3797691762 -0.4828425944 0.2045332193 5.962428276e-39
-0.3008423448 -0.3358947039 0.3303600848 5.962428276e-39
0.4153527617 -0.3374893963 0.2911572158 5.962428276e-39
-0.3885088563 -0.4877108037 0.2648542523 5.962428276e-39
-0.236687839 -0.3990510404 -0.2066788524 5.962428276e-39
0.3738705814 -0.4828111529 0.0543387644 5.962428276e-39
0.005813162774 -0.4892696142 0.08353924751 5.962428276e-39
-0.08245358616 -0.2427891195 0.3110865653 5.962428276e-39
0.450469166 -0.3005640209 0.3624441326 5.962428276e-39
-0.3867468834 -0.4703756571 0.3915905356 5.962428276e-39
-0.2281777561 -0.4245071411 0.2183361799 5.962428276e-39
-0.1035094336 -0.4375997186 -0.07476904988 5.962428276e-39
0.2811160684 -0.4848416448 0.07165856659 5.962428276e-39
-0.4253026247 -0.2322687954 0.4034510851 5.962428276e-39
0.4789450765 -0.02277809381 0.3001010716 5.962428276e-39
-0.2291435301 -0.3658511937 -0.1589855999 5.962428276e-39
0.2831990421 -0.4121283889 0.3612576723 5.962428276e-39
-0.2906379402 -0.4870343804 0.344104439 8.906165387e-39
0.401409328 -0.3668763936 0.3265882432 8.906165387e-39
0.3991014361 -0.3622911572 0.2285579592 8.906165387e-39
0.04282455146 -0.4923856854 0.2959059179 8.906165387e-39
-0.338983804 -0.4877728224 0.2839684486 8.906165387e-39
-0.4167996943 -0.4213120043 0.3991216421 8.906165387e-39
-0.1156958118 -0.409313947 -0.1700841784 8.906165387e-39
-0.002982004546 -0.4862578213 -0.07375597954 8.906165387e-39
-0.4048165083 -0.4353052378 0.3710764945 8.906165387e-39
-0.3578186035 -0.3727363646 0.2721351385 8.906165387e-39
-0.3185379803 -0.3853597045 0.03964706138 8.906165387e-39
-0.2233401239 -0.3569213152 0.3528713584 8.906165387e-39
-0.1706289649 -0.4872588515 -0.08039744198 8.906165387e-39
-0.1620128602 -0.4864525199 -0.1547180563 8.906165387e-39
0.3583452702 -0.3585216403 0.1363575608 8.906165387e-39
0.2098466307 -0.4853695631 0.01905144192 8.906165387e-39
0.07545401156 -0.4949705601 0.3725696206 8.906165387e-39
0.3026953042 -0.4836604595 0.04362931103 8.906165387e-39
-0.4028813541 -0.4629384279 0.343321681 8.906165387e-39
0.154455483 -0.496771723 0.3829298317 8.906165387e-39
-0.3615229726 -0.4871581495 -0.06995339692 8.906165387e-39
0.2042554021 -0.4900850058 0.190018177 8.906165387e-39
0.2177248448 -0.4879096746 0.1411752105 8.906165387e-39
-0.2033044249 -0.4861432314 -0.1703154743 8.906165387e-39
0.2412061691 -0.488155067 0.1652525663 8.906165387e-39
-0.1110501736 -0.2830792665 0.3372720182 8.906165387e-39
-0.3647330105 -0.4868284166 0.3513023555 8.906165387e-39
0.2916960716 -0.4850532413 0.08857634664 8.906165387e-39
-0.1434874237 -0.3976026177 0.2992537618 8.906165387e-39
0.421294719 -0.3373096287 0.3435277939 8.906165387e-39
-0.3319851756 -0.397893697 0.07291445136 8.906165387e-39
-0.1211898774 -0.487586081 -0.03739155084 8.906165387e-39
0.201570183 -0.4856690466 0.02007663436 8.906165387e-39
-0.3367651403 -0.4262868464 -0.0008611269295 8.906165387e-39
-0.1004710793 -0.4120286405 -0.1158204824 8.906165387e-39
-0.04659254104 -0.2962315381 0.2817431986 8.906165387e-39
-0.110258244 -0.462867409 -0.05086324736 8.906165387e-39
0.0423226282 -0.4842723608 -0.1988743395 8.906165387e-39
-0.2258381099 -0.4491051733 0.0323517248 8.906165387e-39
0.3748455346 -0.3149867952 0.2160797715 8.906165387e-39
0.03935830295 -0.4863443077 -0.03796699271 8.906165387e-39
-0.1546304971 -0.3991026878 -0.1730834097 8.906165387e-39
-0.4017937779 -0.311124891 0.3849039078 8.906165387e-39
-0.2528390586 -0.4839220047 -0.1827156395 8.906165387e-39
-0.1137616858 -0.486833334 -0.1022654176 8.906165387e-39
-0.3808628619 -0.3741573095 0.3280038834 8.906165387e-39
-0.2316051275 -0.4659267366 -0.2381356806 8.906165387e-39
-0.3372166157 -0.4867357016 0.3679169416 8.906165387e-39
-0.1749799848 -0.4314318597 -0.2675753236 8.906165387e-39
-0.1663982272 -0.3874591589 -0.200949952 8.906165387e-39
-0.07747346908 -0.3919598758 -0.24005045 8.906165387e-39
-0.09270364791 -0.400701046 -0.2227797061 8.906165387e-39
0.01537370123 -0.4873673916 0.004652254283 8.906165387e-39
-0.0730130747 -0.4881801307 -0.001614460722 8.906165387e-39
0.125744611 -0.4875556827 0.04469230026 8.906165387e-39
0.3440684676 -0.4852335751 0.1833549887 8.906165387e-39
0.3979061246 -0.3231243491 0.2136518657 8.906165387e-39
0.3824872375 -0.202098608 0.2604271173 8.906165387e-39
0.2025987208 -0.3518432975 0.3145996034 8.906165387e-39
-0.3756005466 -0.4814875126 -0.04015511647 8.906165387e-39
-0.1876462698 -0.3698104024 -0.2346184701 8.906165387e-39
-0.4039141536 -0.2760769725 0.37934798 8.906165387e-39
0.3619509041 -0.4736548066 0.156312272 8.906165387e-39
-0.3562556207 -0.4427924752 0.4289965332 8.906165387e-39
-0.4448213577 -0.4185702801 0.4255224764 8.906165387e-39
-0.3086075783 -0.4870333076 0.3444203734 8.906165387e-39
-0.2739567757 -0.06137567759 0.3714836538 8.906165387e-39
-0.4238322973 -0.4160693884 0.4253742993 8.906165387e-39
-0.2560038269 -0.4877502918 0.002384152263 8.906165387e-39
0.3904295564 -0.362098515 0.1859606355 8.906165387e-39
0.257992208 -0.4833645821 -0.005580464378 8.906165387e-39
-0.01000047475 -0.4198516309 -0.1892925352 8.906165387e-39
0.3945004642 -0.210974738 0.2779162228 8.906165387e-39
-0.3224966526 -0.317197293 0.3933397532 8.906165387e-39
0.08480210602 -0.4931907058 0.2896519005 8.906165387e-39
0.4026121199 -0.325961262 0.3391920328 8.906165387e-39
0.4638096392 -0.2119553983 0.3256027699 8.906165387e-39
0.2090149671 -0.449131757 -0.06248490885 8.906165387e-39
0.08870273083 -0.4871180654 0.01415773667 8.906165387e-39
-0.1799822301 -0.3251516521 0.352791816 8.906165387e-39
0.2687304914 -0.4863607883 0.1271265596 8.906165387e-39
-0.169361949 -0.4878108501 0.3092827499 8.906165387e-39
-0.09709598124 -0.4166952372 0.2716875374 8.906165387e-39
0.2864745855 -0.4834199548 -0.01414158195 8.906165387e-39
-0.2250654548 -0.4859678745 0.4232116342 8.906165387e-39
-0.1918932945 -0.4287601709 -0.07215954363 8.906165387e-39
-0.2911177576 -0.4880013466 0.1768443882 8.906165387e-39
0.09434397519 -0.4895761013 0.1133368313 8.906165387e-39
-0.3494244516 -0.3287624121 0.359282732 8.906165387e-39
-0.1909445971 -0.3916271329 -0.1227186173 8.906165387e-39
-0.2442760468 -0.3929909468 -0.1869658977 8.906165387e-39
0.325948 -0.413061142 -0.05732541904 8.906165387e-39
0.3819237649 -0.4135946035 0.1452441216 8.906165387e-39
0.3741749823 -0.3533815145 0.1970442235 8.906165387e-39
0.1766077876 -0.4840840101 -0.1433618069 8.906165387e-39
-0.3921211958 -0.4650735855 0.208255291 8.906165387e-39
-0.3537608981 -0.4613229036 -0.03216194361 8.906165387e-39
0.4017261565 -0.3171210587 0.2851080894 8.906165387e-39
-0.09467180073 -0.2974998951 0.3152809143 8.906165387e-39
0.438796401 -0.3399573565 0.3514557183 8.906165387e-39
-0.392539978 -0.4896318018 0.1480731219 8.906165387e-39
-0.3244636953 -0.4692016244 -0.1117908061 8.906165387e-39
0.3973695636 -0.2125778496 0.2348220795 8.906165387e-39
0.3995763361 -0.2976137996 0.2143550217 8.906165387e-39
-0.3758575022 -0.3098991215 0.3326591253 8.906165387e-39
0.002144474536 -0.4203362763 -0.1529049128 8.906165387e-39
-0.3863214552 -0.4856430888 0.004461726174 8.906165387e-39
-0.3291724622 -0.4234704375 -0.02180398256 8.906165387e-39
0.3986501396 -0.4226176441 0.3526402116 8.906165387e-39
0.2741523385 -0.3257709742 0.3039508462 8.906165387e-39
-0.1976615936 -0.3668842912 0.3468032181 8.906165387e-39
0.2455661595 -0.4859752655 0.07274098694 8.906165387e-39
-0.1973234862 -0.37624681 0.3394287527 8.906165387e-39
0.3951252103 -0.4455057085 0.2306183875 8.906165387e-39
-0.3951280117 -0.4830207825 0.1409167051 8.906165387e-39
-0.1716142446 -0.3807630539 -0.2168302387 8.906165387e-39
0.2263222784 -0.4835472703 -0.08339762688 8.906165387e-39
-0.1371930689 -0.4879805744 -0.01285045221 8.906165387e-39
-0.1693933308 -0.4177161753 0.3821464181 8.906165387e-39
0.4020895958 -0.457002461 0.3614825606 8.906165387e-39
-0.404919982 -0.488053143 0.2892553806 8.906165387e-39
-0.1182127744 -0.4502117932 0.2048119158 8.906165387e-39
0.03119859658 -0.4457751513 -0.03376310319 8.906165387e-39
0.1316870004 -0.4851953089 -0.0617310591 8.906165387e-39
-0.4151323438 -0.2276744545 0.4064198732 8.906165387e-39
0.473315388 -0.1291260719 0.3088794649 8.906165387e-39
-0.1801923215 -0.3938197494 -0.1604248434 8.906165387e-39
0.1080047861 -0.4958701134 0.3742080629 8.906165387e-39
0.01751276292 -0.4910387397 0.2925590575 1.184631237e-38
0.4143027961 -0.2123942375 0.2732980251 1.184631237e-38
0.4077042937 -0.2089368552 0.1992890984 1.184631237e-38
0.3538557887 -0.4958598018 0.2911268175 1.184631237e-38
-0.06587217748 -0.4901956916 0.2188904434 1.184631237e-38
-0.4327102005 -0.4515550137 0.39036569 1.184631237e-38
-0.1920742393 -0.3867243826 -0.2588790655 1.184631237e-38
0.2191773504 -0.4847740829 0.005063302815 1.184631237e-38
-0.4122452438 -0.4738674164 0.3493866026 1.184631237e-38
-0.3863039911 -0.4690118432 0.2019505352 1.184631237e-38
-0.3738820255 -0.4832473397 -0.02647631615 1.184631237e-38
-0.2554341853 -0.3922071457 0.2640410364 1.184631237e-38
0.01521698199 -0.4865156412 -0.0501002185 1.184631237e-38
0.01067923568 -0.4864015579 -0.09314529598 1.184631237e-38
0.3166727424 -0.2665522397 0.1048739702 1.184631237e-38
0.3773055971 -0.4638918638 0.1069368571 1.184631237e-38
0.3831870854 -0.4730830789 0.343896091 1.184631237e-38
0.3856863379 -0.406876266 0.09920167923 1.184631237e-38
-0.3945710659 -0.4830739796 0.3045823872 1.184631237e-38
0.4316486418 -0.3972164989 0.3275250793 1.184631237e-38
-0.1985367388 -0.4864555299 -0.06226832047 1.184631237e-38
0.4129108489 -0.4645674229 0.2521964312 1.184631237e-38
0.4048942924 -0.4550816417 0.2159876823 1.184631237e-38
-0.03521507233 -0.4866447449 -0.1153612882 1.184631237e-38
0.4110433459 -0.4420217872 0.2268013209 1.184631237e-38
-0.1586078405 -0.2987256944 0.2081490308 1.184631237e-38
-0.1406750977 -0.4887569547 0.2933060527 1.184631237e-38
0.3898575604 -0.4106831253 0.1413164735 1.184631237e-38
-0.1823148131 -0.4319953918 0.1598671079 1.184631237e-38
0.4645188749 -0.1894321293 0.2894278169 1.184631237e-38
-0.3784437776 -0.4882075787 -0.0004885271192 1.184631237e-38
0.1201644614 -0.486461252 -0.000251725316 1.184631237e-38
0.37504372 -0.4668984115 0.1112211496 1.184631237e-38
-0.3559304178 -0.4890970886 -0.03768355772 1.184631237e-38
-0.171463713 -0.402240634 -0.2328852266 1.184631237e-38
-0.1060250476 -0.3415386975 0.1053979099 1.184631237e-38
-0.2221638262 -0.3930497169 -0.1972098351 1.184631237e-38
0.2093065083 -0.4843204618 -0.1274901181 1.184631237e-38
-0.2856386304 -0.4023043513 -0.09642361104 1.184631237e-38
0.3680074215 -0.1902881563 0.1493927687 1.184631237e-38
0.2751699984 -0.4850234985 0.05821677297 1.184631237e-38
-0.2183302343 -0.3907544911 -0.263856858 1.184631237e-38
-0.4105307758 -0.4217874706 0.3637866974 1.184631237e-38
-0.08385895938 -0.4861616492 -0.1334274262 1.184631237e-38
0.08168141544 -0.4857334197 -0.04975054041 1.184631237e-38
-0.409693867 -0.4869639277 0.2738085985 1.184631237e-38
-0.09722142667 -0.4843827784 -0.1929108351 1.184631237e-38
-0.05162530392 -0.489385277 0.3158202171 1.184631237e-38
-0.06997463852 -0.4821149111 -0.2621489167 1.184631237e-38
-0.2103710771 -0.4179385006 -0.2838408649 1.184631237e-38
-0.1043578386 -0.4320580065 -0.2859452069 1.184631237e-38
-0.1385445893 -0.4079063535 -0.2811776698 1.184631237e-38
0.2739005089 -0.4865030944 0.08320646733 1.184631237e-38
0.2021424472 -0.4876351953 0.04653440416 1.184631237e-38
0.3558360338 -0.4862055779 0.1479155719 1.184631237e-38
0.4064641595 -0.3723388314 0.1919864714 1.184631237e-38
0.4005219042 -0.1942408234 0.1870537549 1.184631237e-38
0.4594314098 -0.08841505647 0.2041431814 1.184631237e-38
0.3935632706 -0.2547057271 0.2675182223 1.184631237e-38
-0.2433600575 -0.4875360131 -0.027083233 1.184631237e-38
-0.2059546262 -0.4547216892 -0.3001655936 1.184631237e-38
-0.3995549679 -0.354827106 0.3596636653 1.184631237e-38
0.3954461515 -0.3587928414 0.1603926122 1.184631237e-38
-0.1162988618 -0.4654492438 0.4065927267 1.184631237e-38
-0.4246528745 -0.4453142285 0.4188485146 1.184631237e-38
-0.003754751757 -0.4902769327 0.2896494865 1.184631237e-38
-0.3426572084 -0.04971718788 0.3521637619 1.184631237e-38
-0.2774292827 -0.4468208551 0.4108498991 1.184631237e-38
-0.02731580287 -0.4882130027 -0.0009270422161 1.184631237e-38
0.3941807449 -0.2441623062 0.1678105742 1.184631237e-38
0.3824537098 -0.4411264956 0.07008525729 1.184631237e-38
-0.07691239566 -0.4008084238 -0.2549904883 1.184631237e-38
0.4629952312 -0.09219937027 0.218434453 1.184631237e-38
-0.3462199271 -0.3290847242 0.3485567868 1.184631237e-38
0.3901590705 -0.4951447248 0.3026829064 1.184631237e-38
0.4167113602 -0.1867920756 0.2772192061 1.184631237e-38
0.4586952925 -0.08558928967 0.2894985974 1.184631237e-38
0.06582541764 -0.4175257683 -0.2021763772 1.184631237e-38
0.3314994276 -0.4857013226 0.1202649325 1.184631237e-38
-0.2129601538 -0.355373472 0.2510697544 1.184631237e-38
0.4040008187 -0.4254417419 0.1870881617 1.184631237e-38
0.1514075994 -0.4944393933 0.2657214403 1.184631237e-38
-0.1409530491 -0.4477106631 0.1019342691 1.184631237e-38
0.3817538619 -0.4256944656 0.06594112515 1.184631237e-38
0.06611473858 -0.4951258302 0.3881959617 1.184631237e-38
-0.2540691495 -0.3817845285 -0.1885149628 1.184631237e-38
-0.002394245006 -0.490481317 0.1290022284 1.184631237e-38
0.344694674 -0.488209784 0.1756970733 1.184631237e-38
-0.3618734479 -0.3427972794 0.2952071428 1.184631237e-38
-0.2390349358 -0.3802683055 -0.2232724726 1.184631237e-38
-0.2531405687 -0.4862846434 -0.2221123427 1.184631237e-38
0.3184204996 -0.3553406298 0.0004542786628 1.184631237e-38
0.3908972144 -0.3105950356 0.1444011778 1.184631237e-38
0.3687232435 -0.2528849244 0.1186061502 1.184631237e-38
0.3353944719 -0.4689494669 -0.03612747043 1.184631237e-38
-0.3668686748 -0.488630712 0.1491618901 1.184631237e-38
-0.2857658267 -0.4878832996 -0.0441162996 1.184631237e-38
0.418241322 -0.1676316261 0.2331690788 1.184631237e-38
-0.1414675862 -0.323281467 0.1751195192 1.184631237e-38
0.4352099597 -0.1974614263 0.3133415878 1.184631237e-38
-0.2720862925 -0.4879555702 0.1054828465 1.184631237e-38
-0.2133238167 -0.4858881533 -0.1143476516 1.184631237e-38
0.3970926404 -0.118243739 0.1978324652 1.184631237e-38
0.3981627226 -0.1781689078 0.188505277 1.184631237e-38
-0.3774572313 -0.4153121412 0.2701357603 1.184631237e-38
-0.07481623441 -0.4077636003 -0.2425027639 1.184631237e-38
-0.2674440145 -0.4877834916 0.009826300666 1.184631237e-38
-0.3484371603 -0.4886035919 -0.05799268559 1.184631237e-38
0.4170005918 -0.2571406066 0.2978378236 1.184631237e-38
0.4179863632 -0.214135468 0.2584380209 1.184631237e-38
-0.2322176695 -0.3976643384 0.2449655086 1.184631237e-38
0.3904898167 -0.4377699494 0.1491860747 1.184631237e-38
-0.2349174321 -0.4048672318 0.2236042619 1.184631237e-38
0.4104483128 -0.3086309433 0.2031568438 1.184631237e-38
-0.3283980787 -0.4875090122 0.09760923684 1.184631237e-38
-0.2088069022 -0.4348208308 -0.294308871 1.184631237e-38
0.3675630093 -0.4549480081 0.02615895867 1.184631237e-38
0.1374221593 -0.4879180193 0.01677793637 1.184631237e-38
0.1254448593 -0.4248250425 0.3476753235 1.184631237e-38
0.4178490937 -0.2883870006 0.3137716949 1.184631237e-38
-0.3252934813 -0.4884482324 0.229732722 1.184631237e-38
-0.1904947013 -0.4572865367 0.01619606465 1.184631237e-38
-0.1133059412 -0.4184605479 -0.182612434 1.184631237e-38
0.3363983333 -0.4829390049 0.03980581835 1.184631237e-38
-0.4141313732 -0.2618909478 0.3981221616 1.184631237e-38
0.4648420215 -0.02006810904 0.2777884305 1.184631237e-38
-0.2330007255 -0.3970166445 -0.2505055368 1.184631237e-38
0.4056195617 -0.441609025 0.3379729986 1.184631237e-38
0.1840395033 -0.4942589402 0.247166872 1.478322936e-38
0.4180045128 -0.2013372779 0.2418092489 1.478322936e-38
0.4034875035 -0.1978285164 0.1758833975 1.478322936e-38
0.4349856079 -0.484957397 0.2907344699 1.478322936e-38
0.1011089906 -0.4935799241 0.1722781509 1.478322936e-38
-0.4070926011 -0.4888611436 0.3649531603 1.478322936e-38
-0.2206339389 -0.403243959 -0.2977026701 1.478322936e-38
0.3019066751 -0.4837115407 0.03509008884 1.478322936e-38
-0.3859495819 -0.4910873771 0.2930766046 1.478322936e-38
-0.3857504129 -0.4899801314 0.09168209136 1.478322936e-38
-0.3317783773 -0.4888790846 -0.05207541212 1.478322936e-38
-0.2492007911 -0.2341264635 0.0774377659 1.478322936e-38
0.1139330044 -0.4860414267 -0.03605913743 1.478322936e-38
0.1038749442 -0.4852161109 -0.07380577922 1.478322936e-38
0.3052234054 -0.2540212274 0.06878316402 1.478322936e-38
0.3853786588 -0.4191864729 0.08404853195 1.478322936e-38
0.4430027306 -0.4453958869 0.3340672553 1.478322936e-38
