# .PCD v0.7 - Point Cloud Data file format
VERSION 0.7
FIELDS x y z rgb
SIZE 4 4 4 4
TYPE F F F F
COUNT 1 1 1 1
WIDTH 836
HEIGHT 1
VIEWPOINT 0 0 0 1 0 0 0
POINTS 836
DATA ascii
0.08618944883 -0.4707205296 -0.1166272014 5.820783626e-39
0.1345137507 -0.4684791565 -0.2097021192 5.820783626e-39
-0.209725976 -0.1996536255 0.331674993 5.820783626e-39
0.2374309003 -0.4747268558 0.09718405455 5.820783626e-39
0.07925755531 -0.4745513797 0.2711575627 5.820783626e-39
0.4236307442 -0.4362021685 0.04478726536 5.820783626e-39
0.4589337707 -0.4428383112 -0.08098858595 5.820783626e-39
0.4498267472 -0.4376904964 -0.05255201459 5.820783626e-39
0.06149465963 -0.4602891207 0.04427073896 5.820783626e-39
-0.1061748788 -0.4623451233 0.3571466208 5.820783626e-39
-0.1097272113 -0.4645559788 0.3490548134 5.820783626e-39
0.4060173929 -0.4604443312 0.1018169448 5.820783626e-39
0.3772642314 -0.4775453806 0.09715079516 5.820783626e-39
0.1567314416 -0.4652229548 0.09863016009 5.820783626e-39
0.0441846922 -0.4621315598 0.03150168806 5.820783626e-39
0.1910113096 -0.4729421139 0.2250338346 5.820783626e-39
-0.02874734253 -0.4639804959 0.2542746961 5.820783626e-39
0.3432167768 -0.4691309929 -0.01245305873 5.820783626e-39
-0.0774397403 -0.475680232 -0.04418423772 5.820783626e-39
-0.1505962461 -0.3987225294 -0.01323206164 5.820783626e-39
0.2540734112 -0.4751123786 0.1966157407 5.820783626e-39
0.3286319375 -0.4778450727 0.1156880632 5.820783626e-39
-0.1274796277 -0.4639073014 -0.02358708717 5.820783626e-39
-0.1624737978 -0.4484013319 0.2339001149 2.898180898e-39
-0.06641244143 -0.481457293 -0.152649641 2.898180898e-39
-0.06475860626 -0.4725561142 0.08894769847 2.898180898e-39
0.1144918054 -0.4727373719 -0.1755043417 2.898180898e-39
0.05537593737 -0.4602837563 -0.2376109809 2.898180898e-39
0.196016252 -0.4646964073 -0.03707438707 2.898180898e-39
-0.05095591024 -0.485615015 -0.1676585376 2.898180898e-39
0.1536359191 -0.4690930843 -0.1030623168 2.898180898e-39
-0.04232168198 -0.4002897739 -0.2180342227 2.898180898e-39
0.4168731272 -0.4746064544 0.11412476 2.898180898e-39
-0.07761029154 -0.4764197469 0.04666873068 2.898180898e-39
-0.06523545831 -0.4677577019 0.2481035441 2.898180898e-39
0.427482456 -0.4630551338 -0.01366860047 2.898180898e-39
0.152479589 -0.4671487212 -0.02349880897 2.898180898e-39
0.3261591792 -0.4699698091 0.05667493492 2.898180898e-39
0.0860234499 -0.4680763483 0.2703740895 2.898180898e-39
0.07279446721 -0.4685338736 0.2795921862 2.898180898e-39
0.002508856356 -0.465377152 0.2608042955 2.898180898e-39
-0.05003321543 -0.4136128724 0.3827880025 2.898180898e-39
0.1311054975 -0.4659981728 0.2247335613 2.898180898e-39
0.4284943938 -0.4040811658 0.1078241169 2.898180898e-39
0.2834008336 -0.4573468566 -0.02871983685 2.898180898e-39
-0.1680138409 -0.2383352518 0.1074717864 2.898180898e-39
-0.1226782501 -0.4773679972 0.03619087487 2.898180898e-39
-0.04418992624 -0.4884831905 -0.1216237694 2.898180898e-39
0.4077680707 -0.4653269053 0.1993148178 2.898180898e-39
0.2600923181 -0.4584427476 -0.070730187 2.898180898e-39
0.245469451 -0.4581822157 -0.1828011572 2.898180898e-39
0.1374185681 -0.4677036405 -0.01981582679 2.898180898e-39
-0.1622223854 -0.4482144713 0.169089213 2.898180898e-39
0.1328960359 -0.4679589868 -0.02065589093 2.898180898e-39
-0.1715960801 -0.4161808193 0.2954135537 2.898180898e-39
0.1880697608 -0.4280706644 -0.2305347919 2.898180898e-39
0.3740808964 -0.450707078 -0.07071304321 2.898180898e-39
0.2852627039 -0.4555957913 -0.1998725086 2.898180898e-39
0.4305022657 -0.4561628699 -0.05556732416 2.898180898e-39
0.3932543695 -0.4512428045 -0.08388682455 2.898180898e-39
-0.1554460824 -0.4662154913 0.1638909876 2.898180898e-39
0.115350619 -0.4468576312 -0.2396138757 2.898180898e-39
-0.0885065645 -0.468979001 0.1516675949 2.898180898e-39
0.4052825272 -0.4429286718 0.2136014998 2.898180898e-39
0.2919610143 -0.4685556889 0.06088599563 2.898180898e-39
0.3020036221 -0.4712331891 0.07787098736 2.898180898e-39
-0.1868453324 -0.1895321608 0.2684946954 2.898180898e-39
0.4351302087 -0.4167792797 0.07322017848 2.898180898e-39
0.4405407012 -0.4549437761 -0.04692923278 2.898180898e-39
0.4091889858 -0.4578545094 -0.04363827407 2.898180898e-39
0.4123094678 -0.451416254 -0.1285734326 2.898180898e-39
0.07893177867 -0.4235150516 0.3362509906 2.898180898e-39
-0.1602174491 -0.4422441721 0.3521091044 2.898180898e-39
0.4209873974 -0.4722542763 0.1043335423 2.898180898e-39
-0.1211412624 -0.469311893 0.313923955 2.898180898e-39
0.3884474039 -0.4526014328 -0.1565830708 2.898180898e-39
0.421208322 -0.4726382494 0.08514848351 2.898180898e-39
-0.1088611782 -0.4839666486 -0.02702578343 2.898180898e-39
0.03240409493 -0.4050361514 -0.2417234927 2.898180898e-39
-0.1825141907 -0.1065888852 0.3503391743 2.898180898e-39
-0.1542910784 -0.2795438468 0.03721135482 2.898180898e-39
0.274220854 -0.4561619759 -0.2121009231 2.898180898e-39
0.2948332131 -0.4701560736 0.0723599866 2.898180898e-39
-0.1439328045 -0.4267749786 -0.003224890679 2.898180898e-39
0.03186301515 -0.4808185697 -0.1078800857 2.898180898e-39
0.3765933514 -0.4846947789 0.2117595077 2.898180898e-39
-0.1517855376 -0.4666719437 0.1823708117 2.898180898e-39
0.130570218 -0.4669815302 0.1138828024 2.898180898e-39
0.2122453302 -0.4618408084 -0.1565951109 2.898180898e-39
-0.1753815264 -0.3876264095 0.3287382722 2.898180898e-39
0.0332669504 -0.4657477736 0.1250731349 2.898180898e-39
-0.1168950722 -0.4176625609 -0.09047589451 2.898180898e-39
0.2140336335 -0.4687125683 0.1044243351 2.898180898e-39
0.08585233986 -0.4763035774 -0.1804693937 2.898180898e-39
-0.05262652412 -0.3830948472 0.3842277229 2.898180898e-39
0.1186433583 -0.465421617 0.1279543638 2.898180898e-39
0.4698905349 -0.3862842023 -0.06775731593 2.898180898e-39
0.4604709148 -0.342782706 -0.05089576542 2.898180898e-39
0.2234720588 -0.45974648 -0.1814252287 2.898180898e-39
0.137353301 -0.3905504346 -0.2309407294 2.898180898e-39
0.1839539707 -0.4588246346 -0.237386629 2.898180898e-39
0.4442290962 -0.4529770017 -0.06939166784 2.898180898e-39
0.3341614306 -0.4529507756 -0.07099231333 2.898180898e-39
0.03366779536 -0.4753187299 -0.03315274417 2.898180898e-39
0.1703279912 -0.4684693217 0.2164256126 2.898180898e-39
-0.1294090897 -0.4713113308 0.1051512733 2.898180898e-39
0.4521485567 -0.4000453949 0.003397045657 2.898180898e-39
-0.1960940808 -0.1485729963 0.3751437962 2.898180898e-39
-0.1682338715 -0.2364040762 0.1074525788 2.898180898e-39
0.1328190267 -0.4645274282 0.1460058242 2.898180898e-39
0.06166914478 -0.4758824706 -0.06841363758 2.898180898e-39
0.2618364394 -0.4590373039 -0.03713134676 2.898180898e-39
-0.1872672886 -0.3137682378 0.2864612043 2.898180898e-39
-0.180595383 -0.3514546454 0.3343122602 2.898180898e-39
0.4681179523 -0.38005656 -0.06320741028 2.898180898e-39
-0.1468679905 -0.4624019265 0.0267381072 2.898180898e-39
0.4032000601 -0.4224912524 0.2189399451 2.898180898e-39
0.05541893467 -0.4681801796 0.2794467807 2.898180898e-39
0.3612703085 -0.4533096552 -0.1649269313 2.898180898e-39
0.1508195102 -0.4469104409 0.3094306886 2.898180898e-39
-0.1622759849 -0.292809397 0.1006280556 2.898180898e-39
-0.1842562705 -0.07109329104 0.3833324909 2.898180898e-39
-0.05382127687 -0.468544662 0.3452413082 2.898180898e-39
-0.1838203818 -0.2376470417 0.2345492095 2.898180898e-39
-0.07362604141 -0.3993427157 -0.1827360243 2.898180898e-39
-0.1610948443 -0.4452929497 0.1972059309 2.898180898e-39
0.03679048643 -0.4653748274 0.2489135563 2.898180898e-39
0.1764452904 -0.4755872488 0.2713682652 2.898180898e-39
0.1130700409 -0.4730015397 -0.09511665255 2.898180898e-39
0.1320098341 -0.4673442841 -0.2212779671 2.898180898e-39
-0.1927722842 -0.2693897188 0.3096540272 2.898180898e-39
0.285795778 -0.4729796648 0.09892040491 2.898180898e-39
0.158370316 -0.4753009081 0.2782762349 2.898180898e-39
0.4308965802 -0.3726781607 0.08318814635 2.898180898e-39
0.4644375145 -0.3730184436 -0.05300718546 2.898180898e-39
0.4547035098 -0.3704247475 -0.01830522157 2.898180898e-39
0.1093424335 -0.4684011936 0.03874725848 2.898180898e-39
-0.07697713375 -0.4675591588 0.345979929 2.898180898e-39
-0.08084250987 -0.4684878588 0.33444646 2.898180898e-39
0.4268842041 -0.4016957879 0.14650774 2.898180898e-39
0.4265798926 -0.457244575 0.1409124583 2.898180898e-39
0.2033510506 -0.4670578837 0.09726886451 2.898180898e-39
0.09016947448 -0.4690523148 0.02575160563 2.898180898e-39
0.2751991153 -0.4787626266 0.2311636358 2.898180898e-39
-0.004236237146 -0.4642230868 0.2295178026 2.898180898e-39
0.3847124577 -0.4675635695 0.009809486568 2.898180898e-39
-0.04092851654 -0.483927846 -0.07361936569 2.898180898e-39
-0.1303457022 -0.4339727759 -0.04896694422 2.898180898e-39
0.3280144632 -0.484852612 0.207339108 2.898180898e-39
0.3888470829 -0.4831700921 0.1413340271 2.898180898e-39
-0.0918007344 -0.4863333106 -0.05534301698 2.898180898e-39
-0.1629142612 -0.4498913884 0.2173570246 6.490113838e-41
-0.08262070268 -0.4839653373 -0.1564819217 6.490113838e-41
-0.07970111817 -0.4703478813 0.09684428573 6.490113838e-41
0.06343396008 -0.4755083919 -0.189926073 6.490113838e-41
0.01486429293 -0.4632378221 -0.2422869951 6.490113838e-41
0.1783462167 -0.4653071761 -0.02257029526 6.490113838e-41
-0.0716117844 -0.4848525524 -0.1729252338 6.490113838e-41
0.1196767539 -0.4725700021 -0.1081088334 6.490113838e-41
-0.06567958742 -0.3968085647 -0.2120047063 6.490113838e-41
0.4366926551 -0.4459741116 0.1797242165 6.490113838e-41
-0.09363359213 -0.4736357331 0.05732765794 6.490113838e-41
-0.06653679907 -0.4650576115 0.2491744608 6.490113838e-41
0.4241732061 -0.4654727578 0.03631169349 6.490113838e-41
0.1412738264 -0.4661616087 -0.009833104908 6.490113838e-41
0.3337748647 -0.466488719 0.1071587503 6.490113838e-41
0.1200910509 -0.4567924738 0.2965267897 6.490113838e-41
0.1055948138 -0.4526569843 0.3011902273 6.490113838e-41
0.01993925124 -0.4644311666 0.2775516212 6.490113838e-41
-0.03755022585 -0.3610786796 0.3680986464 6.490113838e-41
0.1635580808 -0.4635462761 0.2615247667 6.490113838e-41
0.4490087628 -0.3608883023 0.1741364747 6.490113838e-41
0.2688525915 -0.4602452517 0.0015863562 6.490113838e-41
-0.1605270952 -0.2555312514 0.09710036963 6.490113838e-41
-0.1397096366 -0.4753049016 0.04665863514 6.490113838e-41
-0.07580613345 -0.4872895479 -0.1271733344 6.490113838e-41
0.428140372 -0.4013112187 0.2404492199 6.490113838e-41
0.2317164689 -0.4629858732 -0.06052933633 6.490113838e-41
0.1981784552 -0.4637134671 -0.185949713 6.490113838e-41
0.1276650727 -0.4663927555 -0.006560735404 6.490113838e-41
-0.1597010195 -0.4496785998 0.1621049345 6.490113838e-41
0.1225508302 -0.4666691422 -0.008051013574 6.490113838e-41
-0.1665223837 -0.4308596849 0.2753608227 6.490113838e-41
0.1358129233 -0.4265734553 -0.231847629 6.490113838e-41
0.3540615141 -0.4532374144 -0.05396941304 6.490113838e-41
0.2347394824 -0.4598116875 -0.2005448341 6.490113838e-41
0.4170167148 -0.4576244354 -0.02236917056 6.490113838e-41
0.3732020259 -0.4524618983 -0.06113333255 6.490113838e-41
-0.1623750776 -0.4604541063 0.1581910998 6.490113838e-41
0.06699145585 -0.4473855495 -0.2413500398 6.490113838e-41
-0.1011808142 -0.4671472907 0.1572251916 6.490113838e-41
0.4192140698 -0.3659694195 0.251868695 6.490113838e-41
0.3015572727 -0.4650578499 0.1107062474 6.490113838e-41
0.3173931539 -0.4680472016 0.1318505704 6.490113838e-41
-0.1863019466 -0.2264501899 0.2503755093 6.490113838e-41
0.4442803562 -0.3917295337 0.1444214135 6.490113838e-41
0.4329767227 -0.4553108215 -0.008916901425 6.490113838e-41
0.3961400688 -0.4570343494 -0.01234269328 6.490113838e-41
0.3826634884 -0.4521603584 -0.1152579486 6.490113838e-41
0.1117660925 -0.3653565645 0.3466205895 6.490113838e-41
-0.1636181176 -0.4501634836 0.3387908041 6.490113838e-41
0.4351128042 -0.4456731677 0.1702464521 6.490113838e-41
-0.1256148815 -0.4651368856 0.3024685681 6.490113838e-41
0.3480058908 -0.4543451667 -0.1489327997 6.490113838e-41
0.4303118885 -0.4537080526 0.1518677622 6.490113838e-41
-0.118888706 -0.4798868895 -0.02331865393 6.490113838e-41
-0.004878306761 -0.4075270295 -0.2433751374 6.490113838e-41
-0.1790485084 -0.125582099 0.3368882239 6.490113838e-41
-0.1460497975 -0.2845447659 0.03612647951 6.490113838e-41
0.2180286646 -0.4593055844 -0.2137587667 6.490113838e-41
0.3082394004 -0.4668296576 0.1244115382 6.490113838e-41
-0.1391315907 -0.4361365438 -0.00111560151 6.490113838e-41
0.0006442200392 -0.4791198373 -0.1152923852 6.490113838e-41
0.4101749361 -0.4268629551 0.2554070652 6.490113838e-41
-0.1594003886 -0.4621841311 0.1740152836 6.490113838e-41
0.1449379176 -0.4641746879 0.1472736895 6.490113838e-41
0.1699083 -0.4689289331 -0.1588440537 6.490113838e-41
-0.1679091603 -0.4071421921 0.313785255 6.490113838e-41
0.02950288355 -0.4661158323 0.1469089091 6.490113838e-41
-0.1225070134 -0.4206266999 -0.09608383477 6.490113838e-41
0.225562498 -0.4637648463 0.1504694521 6.490113838e-41
0.03618874773 -0.4781586528 -0.1980996579 6.490113838e-41
-0.03310143575 -0.3214937449 0.3644096851 6.490113838e-41
0.1348014325 -0.4632431865 0.1605206728 6.490113838e-41
0.4718761444 -0.375449419 -0.009786527604 6.490113838e-41
0.4649505913 -0.3077840805 0.01743634604 6.490113838e-41
0.1754486859 -0.4658946395 -0.1865712106 6.490113838e-41
0.09574120492 -0.3959899545 -0.2280722409 6.490113838e-41
0.1261593699 -0.4569321871 -0.2401836067 6.490113838e-41
0.4310694337 -0.453297019 -0.03454704583 6.490113838e-41
0.3131553531 -0.4560866952 -0.05679353327 6.490113838e-41
0.01023622882 -0.4738637209 -0.03097858094 6.490113838e-41
0.2025518119 -0.4644174576 0.2538431287 6.490113838e-41
-0.1460188478 -0.4684995413 0.109048754 6.490113838e-41
0.4574256241 -0.3832173347 0.08148934692 6.490113838e-41
-0.1852264702 -0.1794502437 0.3598780334 6.490113838e-41
-0.1604577452 -0.253146857 0.09719279408 6.490113838e-41
0.1526471525 -0.4622551203 0.1800117195 6.490113838e-41
0.03650300205 -0.4740388989 -0.06930457056 6.490113838e-41
0.2451145947 -0.461725533 -0.01082264632 6.490113838e-41
-0.1784565896 -0.3403735161 0.2665457726 6.490113838e-41
-0.1727464348 -0.3738536835 0.3190633655 6.490113838e-41
0.4708186984 -0.3657444715 -0.003728333861 6.490113838e-41
-0.1469176561 -0.4632096887 0.03342910856 6.490113838e-41
0.4164065123 -0.3385831714 0.2554833591 6.490113838e-41
0.08602472395 -0.4582033753 0.299163878 6.490113838e-41
0.3185583055 -0.456064105 -0.1599505693 6.490113838e-41
0.1882075965 -0.3938553929 0.3286287189 6.490113838e-41
-0.1574063748 -0.309666872 0.09292564541 6.490113838e-41
-0.1761014014 -0.07754681259 0.3718360364 6.490113838e-41
-0.04529318959 -0.4442033768 0.3404588103 6.490113838e-41
-0.1790749282 -0.2724119425 0.2177616358 6.490113838e-41
-0.09399556369 -0.3955557346 -0.1830915213 6.490113838e-41
-0.1587132812 -0.4482595921 0.1853612065 6.490113838e-41
0.06124443188 -0.4649902582 0.2754907012 6.490113838e-41
0.2147138566 -0.4332283139 0.3002226353 6.490113838e-41
0.08305795491 -0.4735922813 -0.1002495289 6.490113838e-41
0.07719261199 -0.4704648852 -0.2282325625 6.490113838e-41
-0.1855687648 -0.2993480265 0.2888344228 6.490113838e-41
0.3001657128 -0.4690072536 0.155977577 6.490113838e-41
0.1956330538 -0.4315829873 0.3049502969 6.490113838e-41
0.4500467181 -0.3314474225 0.15147838 6.490113838e-41
0.4683162868 -0.3518853188 0.01057636179 6.490113838e-41
0.4595635235 -0.3420915008 0.05894326419 6.490113838e-41
0.1092173457 -0.466455102 0.05912271142 6.490113838e-41
-0.06950625777 -0.4509503245 0.3404138386 6.490113838e-41
-0.07269584388 -0.4643101692 0.3299333751 6.490113838e-41
0.447011888 -0.3430401087 0.1980729103 6.490113838e-41
0.4438817799 -0.4126028419 0.1983086467 6.490113838e-41
0.2147675455 -0.4632958174 0.1417458802 6.490113838e-41
0.08609330654 -0.4675904512 0.04160379991 6.490113838e-41
0.3112350702 -0.445650816 0.2728261352 6.490113838e-41
0.007564543746 -0.4641138911 0.250279367 6.490113838e-41
0.3832712471 -0.4648491144 0.06077454984 6.490113838e-41
-0.0673821643 -0.4833997488 -0.07126753777 6.490113838e-41
-0.1301891208 -0.4424452782 -0.04762532562 6.490113838e-41
0.3645856977 -0.4547508359 0.2565672398 6.490113838e-41
0.4224817753 -0.4644438624 0.2029057443 6.490113838e-41
-0.1071873903 -0.4839772582 -0.04958360642 6.490113838e-41
-0.1548594087 -0.4209955335 0.2061403692 3.015101038e-39
-0.07724113762 -0.4701866508 -0.1471809745 3.015101038e-39
-0.1047418267 -0.4749361873 0.08386210352 3.015101038e-39
0.06512059271 -0.476541996 -0.182114616 3.015101038e-39
0.03057183698 -0.4412041903 -0.2168591619 3.015101038e-39
0.174419865 -0.4682106376 -0.03876663744 3.015101038e-39
-0.06454956532 -0.4743601084 -0.1630797237 3.015101038e-39
0.1132626384 -0.4738176465 -0.1184158772 3.015101038e-39
-0.0535816215 -0.3636851907 -0.1943679005 3.015101038e-39
0.4295642674 -0.4157387018 0.1682654321 3.015101038e-39
-0.1146557853 -0.4789460301 0.04432545975 3.015101038e-39
-0.09370903671 -0.4685181975 0.2358176857 3.015101038e-39
0.4237225354 -0.4418155551 0.03425244987 3.015101038e-39
0.13040784 -0.4690415859 -0.02707775868 3.015101038e-39
0.3388581276 -0.4667331576 0.1060915962 3.015101038e-39
0.1104995161 -0.4525216818 0.2866948545 3.015101038e-39
0.09540244192 -0.4484527111 0.2907015383 3.015101038e-39
-0.002065256238 -0.4671911001 0.2656519413 3.015101038e-39
-0.05407278985 -0.3482223153 0.3563967347 3.015101038e-39
0.1602850556 -0.4663729668 0.25854671 3.015101038e-39
0.4342134297 -0.3170546591 0.1583166569 3.015101038e-39
0.2713043094 -0.4629074931 -0.005795540288 3.015101038e-39
-0.1558944583 -0.2109392285 0.09933097661 3.015101038e-39
-0.1356956512 -0.4705091715 0.0420624651 3.015101038e-39
-0.07392665744 -0.4834781289 -0.1258790195 3.015101038e-39
0.410663873 -0.3638401926 0.2241613865 3.015101038e-39
0.2330781072 -0.4658288956 -0.06470898539 3.015101038e-39
0.1977657676 -0.4636515379 -0.1754267365 3.015101038e-39
0.1149283946 -0.4692701697 -0.02384278737 3.015101038e-39
-0.1455479115 -0.4236531258 0.1625195444 3.015101038e-39
0.1092056036 -0.4695386291 -0.02577066235 3.015101038e-39
-0.161184147 -0.387206316 0.2553191781 3.015101038e-39
0.1567201614 -0.4040252566 -0.2023334354 3.015101038e-39
0.3594841361 -0.4554413557 -0.05657988787 3.015101038e-39
0.2331718653 -0.4590290189 -0.1872509271 3.015101038e-39
0.4208932221 -0.4381300211 -0.01447056048 3.015101038e-39
0.3768799901 -0.4547437429 -0.06339285523 3.015101038e-39
-0.1488015503 -0.4507815838 0.1560609639 3.015101038e-39
0.08737847209 -0.424969852 -0.2122036368 3.015101038e-39
-0.1260793358 -0.4698164463 0.1447346509 3.015101038e-39
0.4031397998 -0.3281318545 0.2304081172 3.015101038e-39
0.3044461012 -0.4653256536 0.1080484241 3.015101038e-39
0.3219438195 -0.4690855145 0.1302601099 3.015101038e-39
-0.1713861525 -0.1861966401 0.2384876311 3.015101038e-39
0.4312076569 -0.3495212197 0.1307351738 3.015101038e-39
0.4331304729 -0.4259886742 -0.001942565665 3.015101038e-39
0.4037985504 -0.4552975893 -0.006737750024 3.015101038e-39
0.3851825595 -0.4528899193 -0.105248481 3.015101038e-39
0.1094156429 -0.3511573672 0.3302352428 3.015101038e-39
-0.162165761 -0.4294930696 0.3142821193 3.015101038e-39
0.4291984141 -0.4159770906 0.1609049141 3.015101038e-39
-0.1466178149 -0.4649533033 0.2834707499 3.015101038e-39
0.3520672023 -0.4536502361 -0.1357780397 3.015101038e-39
0.4247661531 -0.4258499742 0.1435821056 3.015101038e-39
-0.1169490442 -0.4740499258 -0.02040218003 3.015101038e-39
0.01062574331 -0.3808479309 -0.2182325572 3.015101038e-39
-0.1582763344 -0.1051611081 0.3263424337 3.015101038e-39
-0.1466996372 -0.2382179648 0.03948559612 3.015101038e-39
0.2188995332 -0.4581576586 -0.1976873875 3.015101038e-39
0.3125982285 -0.4677728415 0.1232013404 3.015101038e-39
-0.1308496147 -0.4066411555 0.0112362206 3.015101038e-39
-0.01569825783 -0.4817031622 -0.1293980181 3.015101038e-39
0.3987851441 -0.3939272165 0.2404020131 3.015101038e-39
-0.1502303928 -0.4528981447 0.1699322611 3.015101038e-39
0.1336082965 -0.4668767452 0.1302866787 3.015101038e-39
0.1687669307 -0.4688618183 -0.1566386968 3.015101038e-39
-0.1650619358 -0.3604137897 0.2897580266 3.015101038e-39
0.005449070595 -0.4710101485 0.1302614957 3.015101038e-39
-0.1162816659 -0.3904337883 -0.08538802713 3.015101038e-39
0.2246136814 -0.464882791 0.1379323006 3.015101038e-39
0.03667221218 -0.4786227942 -0.1880369186 3.015101038e-39
-0.04602902755 -0.3058445454 0.3533771336 3.015101038e-39
0.1216301024 -0.4674016237 0.145218268 3.015101038e-39
0.4573311508 -0.3364728093 -0.01643019728 3.015101038e-39
0.4480099678 -0.2628439665 0.005001007579 3.015101038e-39
0.1749183834 -0.4659793973 -0.1766834408 3.015101038e-39
0.1151294112 -0.3741503358 -0.2018270195 3.015101038e-39
0.1439037174 -0.4335739017 -0.2113134563 3.015101038e-39
0.4340149164 -0.4207834005 -0.02560984902 3.015101038e-39
0.3209478557 -0.4580259919 -0.05750226974 3.015101038e-39
-0.009531405754 -0.4761445522 -0.04972480237 3.015101038e-39
0.2013985962 -0.4673271179 0.2524162233 3.015101038e-39
-0.1492196769 -0.4653337598 0.1032765284 3.015101038e-39
0.442222625 -0.3386337459 0.06369292736 3.015101038e-39
-0.1681381613 -0.154008925 0.3443616331 3.015101038e-39
-0.1559600085 -0.2088953257 0.09942096472 3.015101038e-39
0.1417211443 -0.4666496515 0.1656069607 3.015101038e-39
0.02043098211 -0.4760317802 -0.08780952543 3.015101038e-39
0.2467610538 -0.4643204212 -0.02003497444 3.015101038e-39
-0.1775513589 -0.2906515896 0.2479142249 3.015101038e-39
-0.1696955413 -0.3255497217 0.2957211137 3.015101038e-39
0.455619961 -0.3257625401 -0.01099533401 3.015101038e-39
-0.1358377486 -0.446639061 0.03650479764 3.015101038e-39
0.4003902078 -0.3029870391 0.2320376337 3.015101038e-39
0.07423829287 -0.4538155198 0.2886042893 3.015101038e-39
0.3226474226 -0.4554041624 -0.1456746757 3.015101038e-39
0.1851895005 -0.3828924894 0.3149386346 3.015101038e-39
-0.1545505077 -0.2702636123 0.09413518757 3.015101038e-39
-0.1598709226 -0.07181362808 0.3583916724 3.015101038e-39
-0.06721002609 -0.4433211088 0.3329023421 3.015101038e-39
-0.1751306951 -0.2235071957 0.2061891556 3.015101038e-39
-0.08352296054 -0.3622152209 -0.1678840667 3.015101038e-39
-0.1496134549 -0.4191076756 0.1806206703 3.015101038e-39
0.04380032048 -0.4676395655 0.2623256147 3.015101038e-39
0.2113697976 -0.4259685278 0.2910635769 3.015101038e-39
0.07322858274 -0.4747365117 -0.1149410903 3.015101038e-39
0.08977176994 -0.4688712955 -0.2078884393 3.015101038e-39
-0.1815675199 -0.2664670646 0.268889159 3.015101038e-39
0.3051761389 -0.4695817232 0.1511470973 3.015101038e-39
0.1928878576 -0.4240121245 0.2950527668 3.015101038e-39
0.4345748425 -0.2827367783 0.132647723 3.015101038e-39
0.4520332813 -0.3100860119 0.001551500522 3.015101038e-39
0.4444405138 -0.2968345582 0.04147634655 3.015101038e-39
0.09255811572 -0.4687106609 0.0374096334 3.015101038e-39
-0.0916069448 -0.4533126354 0.3291458488 3.015101038e-39
-0.1008646265 -0.467500031 0.3126040101 3.015101038e-39
0.4321801662 -0.29985255 0.1821727902 3.015101038e-39
0.4292629957 -0.3783369064 0.1831158102 3.015101038e-39
0.2118808478 -0.4650194049 0.1282837689 3.015101038e-39
0.06548898667 -0.4696609378 0.01860688254 3.015101038e-39
0.3142852783 -0.4340624213 0.2675889432 3.015101038e-39
-0.01866080426 -0.4670040607 0.2375107557 3.015101038e-39
0.3864482641 -0.4649004936 0.06141772866 3.015101038e-39
-0.07927587628 -0.4851185083 -0.08034065366 3.015101038e-39
-0.1238256171 -0.4148252606 -0.03666292876 3.015101038e-39
0.3690215051 -0.4369192719 0.2516556382 3.015101038e-39
0.4171869755 -0.4391179085 0.1917868257 3.015101038e-39
-0.1071652025 -0.4777455926 -0.04904167354 3.015101038e-39
-0.1567903459 -0.3481092751 0.2038068622 5.962428276e-39
-0.08246536553 -0.4113064706 -0.1198861897 5.962428276e-39
-0.1278110743 -0.4662436843 0.09377333522 5.962428276e-39
0.06077838317 -0.4684676528 -0.178737998 5.962428276e-39
0.04120455682 -0.3826497197 -0.2187390327 5.962428276e-39
0.1510668397 -0.4715722799 -0.06360213459 5.962428276e-39
-0.06782796979 -0.419906795 -0.13725546 5.962428276e-39
0.08067624271 -0.476408124 -0.1437404156 5.962428276e-39
-0.05425183848 -0.2828591168 -0.1846093982 5.962428276e-39
0.4097568691 -0.4179131985 0.1596908122 5.962428276e-39
-0.1231628805 -0.4613842964 0.06298351288 5.962428276e-39
-0.1391019076 -0.4666054845 0.2225547731 5.962428276e-39
0.4093906581 -0.4342746735 0.01444185339 5.962428276e-39
0.0995047465 -0.4736426473 -0.05328898132 5.962428276e-39
0.3264445066 -0.4635729194 0.08855848759 5.962428276e-39
0.07263157517 -0.4693519473 0.2897484601 5.962428276e-39
0.05766234919 -0.4665555954 0.2944409251 5.962428276e-39
-0.06401598454 -0.4717314243 0.253100574 5.962428276e-39
-0.07076657563 -0.3825018406 0.3493223786 5.962428276e-39
0.1195071191 -0.4699883461 0.2590043843 5.962428276e-39
0.4151156247 -0.3208795786 0.1571151316 5.962428276e-39
0.2568032444 -0.4647358656 -0.03192059696 5.962428276e-39
-0.1639139801 -0.1662885696 0.1256365031 5.962428276e-39
-0.1342485398 -0.4329112172 0.07206919044 5.962428276e-39
-0.07789863646 -0.4508520961 -0.09318657964 5.962428276e-39
0.3946022093 -0.3711730242 0.2301884145 5.962428276e-39
0.2107268572 -0.4660182595 -0.09493454546 5.962428276e-39
0.1781112701 -0.4577752948 -0.1860578656 5.962428276e-39
0.07814459503 -0.4745336175 -0.04965765774 5.962428276e-39
-0.1452551633 -0.3522601128 0.1768483669 5.962428276e-39
0.07098374516 -0.4749345779 -0.05128767341 5.962428276e-39
-0.1658551097 -0.3158415258 0.2428529412 5.962428276e-39
0.185769245 -0.3541055024 -0.1981138289 5.962428276e-39
0.3462675512 -0.4532757401 -0.08494890481 5.962428276e-39
0.2098034024 -0.4474461079 -0.201164186 5.962428276e-39
0.4104237556 -0.430344224 -0.03808537871 5.962428276e-39
0.3681437671 -0.452185452 -0.09257355332 5.962428276e-39
-0.1373839527 -0.3996050954 0.1719352901 5.962428276e-39
0.1165703684 -0.3759159148 -0.2101461887 5.962428276e-39
-0.1474916637 -0.4586520791 0.1520238072 5.962428276e-39
0.3876151443 -0.3338212967 0.2386672646 5.962428276e-39
0.2938755751 -0.4632828236 0.0868736729 5.962428276e-39
0.3106666207 -0.4649296403 0.1124357954 5.962428276e-39
-0.1651845276 -0.1414968967 0.2357961386 5.962428276e-39
0.4156246781 -0.3478617966 0.1247934848 5.962428276e-39
0.4203774333 -0.4147710204 -0.02431461029 5.962428276e-39
0.3934496045 -0.4526957273 -0.02712162025 5.962428276e-39
0.3850876987 -0.4481405616 -0.1241087168 5.962428276e-39
0.1009791419 -0.3735356927 0.3392753303 5.962428276e-39
-0.1601006538 -0.3663548231 0.2863799334 5.962428276e-39
0.4098258913 -0.4173849821 0.1502353549 5.962428276e-39
-0.1517026424 -0.4381750226 0.2659524083 5.962428276e-39
0.328879565 -0.448746562 -0.1611182839 5.962428276e-39
0.4056791067 -0.4255698025 0.1291497797 5.962428276e-39
-0.1197851524 -0.4291624427 0.01385709085 5.962428276e-39
0.01968262345 -0.3053094149 -0.2143346369 5.962428276e-39
-0.1582048088 -0.08845434338 0.3128002882 5.962428276e-39
-0.1611777544 -0.1789244115 0.05886694044 5.962428276e-39
0.1996305883 -0.435438931 -0.2066027224 5.962428276e-39
0.3016637564 -0.4641070366 0.1037831977 5.962428276e-39
-0.1374233067 -0.344661504 0.03912527487 5.962428276e-39
-0.03443200886 -0.4814682603 -0.123343125 5.962428276e-39
0.3862958848 -0.401817888 0.2470806688 5.962428276e-39
-0.1383241266 -0.4078355134 0.1830817312 5.962428276e-39
0.09143985063 -0.4719237089 0.1230376214 5.962428276e-39
0.1441908777 -0.46692729 -0.1685266793 5.962428276e-39
-0.1707226038 -0.3007541001 0.2676295638 5.962428276e-39
-0.04802391306 -0.4740342498 0.1305405051 5.962428276e-39
-0.1287815869 -0.3259048462 -0.0596504882 5.962428276e-39
0.2085818201 -0.466396153 0.125028044 5.962428276e-39
0.04134585336 -0.4650575519 -0.1814340353 5.962428276e-39
-0.06505966932 -0.3345758915 0.3489721715 5.962428276e-39
0.0759614557 -0.4718106389 0.1413121969 5.962428276e-39
0.446223259 -0.3264747858 -0.03898604959 5.962428276e-39
0.4337852895 -0.2637225091 -0.01457389444 5.962428276e-39
0.1567484736 -0.4603795409 -0.1836447418 5.962428276e-39
0.137173757 -0.2950122058 -0.211757943 5.962428276e-39
0.1669663191 -0.3879494965 -0.2050991654 5.962428276e-39
0.4228144288 -0.4108762443 -0.05066610873 5.962428276e-39
0.3018270731 -0.4577160478 -0.08801737428 5.962428276e-39
-0.05377646163 -0.4865878224 -0.04938193411 5.962428276e-39
0.1689117551 -0.4701156616 0.2531590164 5.962428276e-39
-0.1413737983 -0.4286232591 0.1262990534 5.962428276e-39
0.4288476706 -0.3327253461 0.04736796021 5.962428276e-39
-0.1605993211 -0.1270052791 0.3316841722 5.962428276e-39
-0.1641114205 -0.1648487747 0.1257578731 5.962428276e-39
0.1023134515 -0.4706706405 0.1614536494 5.962428276e-39
-0.02106564119 -0.4853221774 -0.1034704 5.962428276e-39
0.2293253839 -0.4666422009 -0.04489731789 5.962428276e-39
-0.1760956198 -0.2329971939 0.2401060015 5.962428276e-39
-0.1769544333 -0.277069211 0.2696286142 5.962428276e-39
0.4447853863 -0.3167865276 -0.03368657827 5.962428276e-39
-0.1347293109 -0.3757297695 0.0736925602 5.962428276e-39
0.3846338391 -0.3073057532 0.2408677787 5.962428276e-39
0.0314675644 -0.4713338614 0.2904390693 5.962428276e-39
0.288710624 -0.4516879916 -0.171655193 5.962428276e-39
0.1772938073 -0.397916317 0.3208450377 5.962428276e-39
-0.1601069123 -0.2076182365 0.1177396327 5.962428276e-39
-0.1632980555 -0.06443266571 0.3459445536 5.962428276e-39
-0.1039775759 -0.4698910713 0.3131050766 5.962428276e-39
-0.1699005067 -0.1731078029 0.2068358362 5.962428276e-39
-0.0861267969 -0.2826455832 -0.1532725096 5.962428276e-39
-0.1528363824 -0.3447501361 0.1888307333 5.962428276e-39
-0.01586458459 -0.4712607861 0.2562097609 5.962428276e-39
0.1929208487 -0.4361919165 0.2958433926 5.962428276e-39
0.03901937604 -0.4798175693 -0.1408645362 5.962428276e-39
0.09894244373 -0.4283296466 -0.2058544457 5.962428276e-39
-0.1713466346 -0.2028831542 0.2581065893 5.962428276e-39
0.2920131683 -0.4669075608 0.13927944 5.962428276e-39
0.1737578958 -0.4352588058 0.2996548414 5.962428276e-39
0.4138818085 -0.2860143185 0.1296927482 5.962428276e-39
0.4403800964 -0.3048136234 -0.01997519843 5.962428276e-39
0.4303766787 -0.295432806 0.02407454513 5.962428276e-39
0.04707097635 -0.4753440022 0.02474956773 5.962428276e-39
-0.1322646588 -0.4649057388 0.302007556 5.962428276e-39
-0.1423528492 -0.4635920525 0.2883718014 5.962428276e-39
0.4127467573 -0.3044925928 0.1819531769 5.962428276e-39
0.4130054712 -0.3803122938 0.1824312806 5.962428276e-39
0.195822075 -0.4667291045 0.1144594699 5.962428276e-39
0.02018429339 -0.4769607186 0.008939180523 5.962428276e-39
0.2930363417 -0.4435926676 0.2735747993 5.962428276e-39
-0.08216684312 -0.4706392288 0.2279110104 5.962428276e-39
0.3744229376 -0.4611991644 0.04088039696 5.962428276e-39
-0.08318821341 -0.4658521414 -0.052211456 5.962428276e-39
-0.1324250102 -0.3536008 -0.01200633682 5.962428276e-39
0.3464471698 -0.4425000548 0.2524466515 5.962428276e-39
0.3931573033 -0.4480375051 0.1882547587 5.962428276e-39
-0.1072341055 -0.4361009598 -0.01692812704 5.962428276e-39
-0.1533472985 -0.3305647075 0.1715348214 8.906165387e-39
-0.09259779006 -0.3680817187 -0.1614190638 8.906165387e-39
-0.1432896703 -0.4537478089 0.0638589859 8.906165387e-39
0.03372892737 -0.439227879 -0.1974962205 8.906165387e-39
0.03819963336 -0.3369609714 -0.2119142711 8.906165387e-39
0.1049433053 -0.4746748209 -0.1089180186 8.906165387e-39
-0.0779093951 -0.3749170303 -0.1750769913 8.906165387e-39
0.04057026654 -0.4705991745 -0.1724262685 8.906165387e-39
-0.0586300455 -0.2248699367 -0.1959574968 8.906165387e-39
0.3888961673 -0.3772283792 0.1622614712 8.906165387e-39
-0.1361675858 -0.4441570044 0.03317308798 8.906165387e-39
-0.1351339519 -0.4623722434 0.1937316805 8.906165387e-39
0.3871889114 -0.4189972281 0.01361078024 8.906165387e-39
0.05017183721 -0.477226913 -0.1007456109 8.906165387e-39
0.3098357022 -0.4664221406 0.09037062526 8.906165387e-39
0.07162927836 -0.4553729892 0.275229454 8.906165387e-39
0.06027817354 -0.4539144039 0.27914837 8.906165387e-39
-0.0597493127 -0.4749332666 0.2338431925 8.906165387e-39
-0.06223124266 -0.3610382378 0.3260330856 8.906165387e-39
0.1162265986 -0.4712647796 0.2449248135 8.906165387e-39
0.3899194896 -0.2788790464 0.150075689 8.906165387e-39
0.2261358351 -0.4682796597 -0.06346043199 8.906165387e-39
-0.1638182402 -0.1442421228 0.08575885743 8.906165387e-39
-0.1303550452 -0.4043738544 0.04833126068 8.906165387e-39
-0.09478523582 -0.4117109179 -0.1388571262 8.906165387e-39
0.3695113063 -0.3188798428 0.2151225507 8.906165387e-39
0.1711622328 -0.4689290524 -0.1341700107 8.906165387e-39
0.1476704478 -0.4438611269 -0.2038237005 8.906165387e-39
0.03108510375 -0.4779854417 -0.09802994877 8.906165387e-39
-0.1460300684 -0.3337251544 0.1373894066 8.906165387e-39
0.02470166609 -0.4785157442 -0.1001587138 8.906165387e-39
-0.1605621278 -0.3068554401 0.2056664973 8.906165387e-39
0.169500947 -0.3065338135 -0.1953760684 8.906165387e-39
0.3065556884 -0.4586017132 -0.1192264855 8.906165387e-39
0.1784424335 -0.4206340313 -0.2070786506 8.906165387e-39
0.3863314688 -0.422557354 -0.05045606196 8.906165387e-39
0.3312256634 -0.4562631845 -0.1225783974 8.906165387e-39
-0.1366108805 -0.3772542477 0.1411545426 8.906165387e-39
0.1053989604 -0.3282284439 -0.2029933333 8.906165387e-39
-0.1487919539 -0.4471580386 0.1214189157 8.906165387e-39
0.3629116416 -0.2781493664 0.221312508 8.906165387e-39
0.2784771323 -0.4673380852 0.08613771945 8.906165387e-39
0.2957789004 -0.4670748711 0.1166789681 8.906165387e-39
-0.1598283201 -0.132013455 0.2097438276 8.906165387e-39
0.3906566501 -0.3147318363 0.1234970838 8.906165387e-39
0.400455147 -0.4063187242 -0.02894056775 8.906165387e-39
0.3672291934 -0.4439028502 -0.04388864338 8.906165387e-39
0.3422344923 -0.4487575889 -0.1528871804 8.906165387e-39
0.1099212393 -0.350204438 0.3157866895 8.906165387e-39
-0.1544822603 -0.3574770689 0.2527929842 8.906165387e-39
0.3886758089 -0.3782624602 0.1531422287 8.906165387e-39
-0.1407053769 -0.4293653965 0.2334062606 8.906165387e-39
0.2845459878 -0.4510630965 -0.1848765314 8.906165387e-39
0.3871547282 -0.3936589062 0.1341829151 8.906165387e-39
-0.1303370893 -0.3920481801 -0.01779524051 8.906165387e-39
0.01944915578 -0.2452702522 -0.2151505202 8.906165387e-39
-0.1615224034 -0.08481445909 0.2788108587 8.906165387e-39
-0.1576987356 -0.1481072903 0.02008135244 8.906165387e-39
0.179414466 -0.4041507244 -0.2045864165 8.906165387e-39
0.2860681117 -0.4671034217 0.1050319225 8.906165387e-39
-0.135119766 -0.3093931675 0.00768568553 8.906165387e-39
-0.05643368885 -0.4561164975 -0.1546556503 8.906165387e-39
0.3600438535 -0.3493800163 0.2305356413 8.906165387e-39
-0.1384659261 -0.3855404556 0.1515179724 8.906165387e-39
0.07228102535 -0.4744499922 0.1077288464 8.906165387e-39
0.1120017618 -0.4588656425 -0.1920452416 8.906165387e-39
-0.1674547195 -0.2942633331 0.2304687053 8.906165387e-39
-0.07135931402 -0.4728420973 0.1073745489 8.906165387e-39
-0.1350968927 -0.2723675966 -0.105939433 8.906165387e-39
0.1969611496 -0.4680309296 0.1158018038 8.906165387e-39
0.01454760972 -0.4291157126 -0.2000273913 8.906165387e-39
-0.05766834691 -0.3137075305 0.3215427101 8.906165387e-39
0.05847291276 -0.4748042226 0.1237689108 8.906165387e-39
0.4137564301 -0.3172857165 -0.03689435869 8.906165387e-39
0.4003383219 -0.2427676916 -0.009318675846 8.906165387e-39
0.1306729764 -0.4442133904 -0.2020257711 8.906165387e-39
0.1193757653 -0.2389812171 -0.2060412616 8.906165387e-39
0.1626666337 -0.3633144498 -0.1933574378 8.906165387e-39
0.4005516469 -0.4044973254 -0.06075741351 8.906165387e-39
0.2600281537 -0.4606873989 -0.126688838 8.906165387e-39
-0.08047050238 -0.4750651121 -0.09238614142 8.906165387e-39
0.167358309 -0.4707545042 0.2449757308 8.906165387e-39
-0.1335607618 -0.4078294635 0.09685361385 8.906165387e-39
0.3975290954 -0.3143266737 0.0472920537 8.906165387e-39
-0.1670556068 -0.1181915998 0.2967436016 8.906165387e-39
-0.1638234556 -0.1427814811 0.08590583503 8.906165387e-39
0.08751595765 -0.4737994671 0.1494304985 8.906165387e-39
-0.0520301275 -0.4750944376 -0.1408034265 8.906165387e-39
0.1929040104 -0.4700313807 -0.08414840698 8.906165387e-39
-0.1607706696 -0.2190241367 0.2108341753 8.906165387e-39
-0.1650172621 -0.2674561739 0.2371036112 8.906165387e-39
0.4118646681 -0.3067848682 -0.03122342937 8.906165387e-39
-0.1286785901 -0.3580366373 0.04360180348 8.906165387e-39
0.3606891334 -0.2485856861 0.2222812921 8.906165387e-39
0.03334804997 -0.464038372 0.2727484405 8.906165387e-39
0.2466802597 -0.4506863952 -0.1940040886 8.906165387e-39
0.1791900694 -0.3713450432 0.3065778315 8.906165387e-39
-0.1575208455 -0.1835096627 0.08067800105 8.906165387e-39
-0.1669907719 -0.06682573259 0.3147216141 8.906165387e-39
-0.09580147266 -0.4674207568 0.2820439637 8.906165387e-39
-0.1608174443 -0.1603667885 0.1853271276 8.906165387e-39
-0.0941446051 -0.2288755774 -0.1693917215 8.906165387e-39
-0.1516533047 -0.3270743489 0.1537623405 8.906165387e-39
-0.01779387519 -0.4743859768 0.2372950166 8.906165387e-39
0.1954918206 -0.4157371521 0.2896601558 8.906165387e-39
0.003902132623 -0.4731180668 -0.1661190242 8.906165387e-39
0.07899057865 -0.3951169252 -0.2054663301 8.906165387e-39
-0.1597886384 -0.1918057948 0.2297819853 8.906165387e-39
0.2835098505 -0.4667401314 0.1403714865 8.906165387e-39
0.1763618737 -0.4155890644 0.2933627367 8.906165387e-39
0.3899086416 -0.248652488 0.1258081496 8.906165387e-39
0.4069220126 -0.2900863588 -0.01730090566 8.906165387e-39
0.3981842101 -0.2741407752 0.02392085642 8.906165387e-39
0.0128373811 -0.47650069 -0.002092352137 8.906165387e-39
-0.1230724081 -0.4629323483 0.2675745487 8.906165387e-39
-0.1305206567 -0.4603002071 0.2531293035 8.906165387e-39
0.388356328 -0.2575069666 0.1754849851 8.906165387e-39
0.3890560269 -0.3403075933 0.1815800965 8.906165387e-39
0.1799433231 -0.4687405229 0.1044237465 8.906165387e-39
-0.01848551445 -0.4782857299 -0.02342997305 8.906165387e-39
0.2912666202 -0.413269341 0.2677780092 8.906165387e-39
-0.08425852656 -0.4711485505 0.2042845488 8.906165387e-39
0.3526665568 -0.4580121636 0.03898837417 8.906165387e-39
-0.1000697985 -0.4389042258 -0.08892022818 8.906165387e-39
-0.1330369413 -0.3102293313 -0.05471285433 8.906165387e-39
0.3454910219 -0.4010719657 0.2494223565 8.906165387e-39
0.3833381534 -0.4028766751 0.1920969635 8.906165387e-39
-0.1236957014 -0.3969125748 -0.05440597981 8.906165387e-39
-0.1507849246 -0.2988313735 0.1363714337 1.184631237e-38
-0.09330008179 -0.2960122824 -0.1792499721 1.184631237e-38
-0.1448130012 -0.4268081784 0.02284915745 1.184631237e-38
0.03047409654 -0.3909186721 -0.1971865296 1.184631237e-38
0.03969474137 -0.2528885901 -0.2014404982 1.184631237e-38
0.04833845422 -0.4749830365 -0.1591759771 1.184631237e-38
-0.07863005251 -0.3053116798 -0.1908790767 1.184631237e-38
0.01295741554 -0.4439129829 -0.1985960305 1.184631237e-38
-0.0382318832 -0.1668807566 -0.2004992962 1.184631237e-38
0.3654856086 -0.3627456427 0.127357319 1.184631237e-38
-0.1392220408 -0.4070627093 -0.001057179645 1.184631237e-38
-0.137193501 -0.4494466186 0.1452686936 1.184631237e-38
0.3751278222 -0.4036911726 -0.03627721965 1.184631237e-38
-0.01098308899 -0.4769880772 -0.1524535269 1.184631237e-38
0.2816027403 -0.4707166553 0.03494854644 1.184631237e-38
0.030397214 -0.4553516507 0.2358558029 1.184631237e-38
0.02144392952 -0.4540104866 0.2400560528 1.184631237e-38
-0.09135992825 -0.4685909152 0.1825292259 1.184631237e-38
-0.06827751547 -0.3543598056 0.2990342677 1.184631237e-38
0.07074328512 -0.4728595018 0.1985256374 1.184631237e-38
0.3678529859 -0.2651054859 0.1099320948 1.184631237e-38
0.1860288084 -0.469203651 -0.1203700453 1.184631237e-38
-0.1511975229 -0.09831603616 0.04767482728 1.184631237e-38
-0.1303200871 -0.3679756522 0.008416634053 1.184631237e-38
-0.09709818661 -0.3593347669 -0.165510878 1.184631237e-38
0.3440102637 -0.3083984256 0.1793614179 1.184631237e-38
0.1300912052 -0.4667099714 -0.1837951392 1.184631237e-38
0.1417592019 -0.3978225589 -0.1970579028 1.184631237e-38
-0.03164685518 -0.4765116572 -0.1497163326 1.184631237e-38
-0.1453659087 -0.2979058623 0.09811998904 1.184631237e-38
-0.03799140453 -0.4758942127 -0.1512646228 1.184631237e-38
-0.1595314443 -0.275083214 0.1810914725 1.184631237e-38
0.169807151 -0.2354530096 -0.1843586713 1.184631237e-38
0.273424387 -0.461794138 -0.1650869995 1.184631237e-38
0.1911743581 -0.3787674904 -0.1912132502 1.184631237e-38
0.3646279871 -0.409465611 -0.1004588231 1.184631237e-38
0.2984930277 -0.4579034448 -0.163895309 1.184631237e-38
-0.1407871544 -0.3355766535 0.09172564 1.184631237e-38
0.09956786782 -0.2502945065 -0.1946438402 1.184631237e-38
-0.1412329376 -0.4225573838 0.07302638888 1.184631237e-38
0.3377858996 -0.26641047 0.1871882975 1.184631237e-38
0.2443605661 -0.471417129 0.02907012776 1.184631237e-38
0.2652234733 -0.4719927311 0.06553898752 1.184631237e-38
-0.1544468105 -0.1109450683 0.182344988 1.184631237e-38
0.3676078916 -0.3044712842 0.08033254743 1.184631237e-38
0.3827809691 -0.3915954828 -0.07518288493 1.184631237e-38
0.3434511721 -0.4319711924 -0.09827170521 1.184631237e-38
0.3164160252 -0.4448903203 -0.1766027063 1.184631237e-38
0.06802789122 -0.3477779627 0.2826378644 1.184631237e-38
-0.1586609185 -0.332914114 0.2194880098 1.184631237e-38
0.3664916754 -0.3635709882 0.1181919798 1.184631237e-38
-0.1417463571 -0.3974298835 0.194351688 1.184631237e-38
0.272043556 -0.4244503379 -0.1860973835 1.184631237e-38
0.3699580431 -0.3787046373 0.09859423339 1.184631237e-38
-0.12766698 -0.347456485 -0.06229678541 1.184631237e-38
0.02602802217 -0.1865007877 -0.2064495981 1.184631237e-38
-0.1651611775 -0.08223384619 0.2551480234 1.184631237e-38
-0.1419819295 -0.09904845059 -0.01998703741 1.184631237e-38
0.198460117 -0.3693130314 -0.1869218349 1.184631237e-38
0.2539798021 -0.4717673063 0.05240460485 1.184631237e-38
-0.1310383379 -0.2368231267 -0.03957974166 1.184631237e-38
-0.07690920681 -0.4103052914 -0.1912546754 1.184631237e-38
0.3316742182 -0.3403117657 0.197236523 1.184631237e-38
-0.1399304569 -0.3414281011 0.1018697619 1.184631237e-38
0.01195637416 -0.474887073 0.04906739295 1.184631237e-38
0.09638684988 -0.4178354144 -0.1992634088 1.184631237e-38
-0.1626389623 -0.2644779086 0.2093747407 1.184631237e-38
-0.1284934431 -0.470674336 0.04127747566 1.184631237e-38
-0.1315490305 -0.1993627548 -0.1211356074 1.184631237e-38
0.1449465305 -0.4719482064 0.06585785747 1.184631237e-38
0.01741256937 -0.3853521347 -0.1963732839 1.184631237e-38
-0.06224867702 -0.3098482192 0.3008517325 1.184631237e-38
0.0004789605737 -0.4746976495 0.06463772804 1.184631237e-38
0.3952248991 -0.3033390343 -0.0680866316 1.184631237e-38
0.3808823526 -0.2203194797 -0.04962259531 1.184631237e-38
0.1227817684 -0.3957619667 -0.1971507072 1.184631237e-38
0.126081109 -0.1801601052 -0.1975713223 1.184631237e-38
0.172466442 -0.3037604094 -0.181671083 1.184631237e-38
0.3805373609 -0.3903165758 -0.1073635146 1.184631237e-38
0.2242878377 -0.4643034935 -0.1753161401 1.184631237e-38
-0.1074212417 -0.4471814632 -0.1329607517 1.184631237e-38
0.121265769 -0.4696497321 0.1976250708 1.184631237e-38
-0.1287186295 -0.3771115541 0.0544764027 1.184631237e-38
0.3816836774 -0.3020150065 0.002109545283 1.184631237e-38
-0.1680896729 -0.1080008298 0.2733891904 1.184631237e-38
-0.1509896815 -0.09685199708 0.0474210903 1.184631237e-38
0.03217407316 -0.4744102359 0.09048978239 1.184631237e-38
-0.08318207413 -0.4433869123 -0.1765227765 1.184631237e-38
0.1494888365 -0.4707762003 -0.1397355795 1.184631237e-38
-0.1560070813 -0.1833960116 0.1833402067 1.184631237e-38
-0.1620411128 -0.2312358767 0.216036588 1.184631237e-38
0.3938744962 -0.2919454575 -0.05910701305 1.184631237e-38
-0.1318835169 -0.3037692904 0.001296823844 1.184631237e-38
0.3349741101 -0.2352415919 0.1892454773 1.184631237e-38
-0.002224102616 -0.4639487863 0.2328220904 1.184631237e-38
0.2364006639 -0.4169572592 -0.1920498908 1.184631237e-38
0.1380354911 -0.3707262874 0.2772326171 1.184631237e-38
-0.1549273282 -0.1371403784 0.0470873937 1.184631237e-38
-0.1686464697 -0.06476336718 0.2929064333 1.184631237e-38
-0.1064416319 -0.4625751376 0.2399555892 1.184631237e-38
-0.1584236026 -0.1302152276 0.153902024 1.184631237e-38
-0.07700242102 -0.1642715335 -0.1815369725 1.184631237e-38
-0.1475145221 -0.293213129 0.1158230081 1.184631237e-38
-0.05674717948 -0.4712377191 0.1884747595 1.184631237e-38
0.1546606421 -0.4144285917 0.2621313334 1.184631237e-38
-0.0290565826 -0.4423676729 -0.1943187118 1.184631237e-38
0.09594070166 -0.3585566282 -0.1880123019 1.184631237e-38
-0.1566703469 -0.1611900479 0.2000813633 1.184631237e-38
0.2475585639 -0.4722059369 0.09251646698 1.184631237e-38
0.1339916885 -0.4131765366 0.2648035884 1.184631237e-38
0.367272377 -0.2293949276 0.08281200379 1.184631237e-38
0.3891936541 -0.2754233479 -0.04838045686 1.184631237e-38
0.3798625171 -0.2562109232 -0.01958805881 1.184631237e-38
-0.05534597859 -0.4784514904 -0.068693012 1.184631237e-38
-0.1236922517 -0.4496350288 0.2299873084 1.184631237e-38
-0.1291851699 -0.4447777271 0.2155175358 1.184631237e-38
0.363524437 -0.2384264618 0.1309432834 1.184631237e-38
0.3622759581 -0.3230180442 0.1418035626 1.184631237e-38
0.1259956956 -0.4723439813 0.05299993604 1.184631237e-38
-0.08181554079 -0.4782053232 -0.09050367028 1.184631237e-38
0.2581776083 -0.4081017375 0.239637062 1.184631237e-38
-0.1121463105 -0.4659367204 0.1501436234 1.184631237e-38
0.3353461623 -0.4456727505 -0.0172465723 1.184631237e-38
-0.1176579669 -0.387714386 -0.1338562965 1.184631237e-38
-0.1297744513 -0.2336454093 -0.08565019071 1.184631237e-38
0.3179239631 -0.3923878074 0.2157612741 1.184631237e-38
0.3587475419 -0.3882804811 0.1646845043 1.184631237e-38
-0.120330736 -0.349845469 -0.09739893675 1.184631237e-38
-0.1558683515 -0.2544714808 0.08388070762 1.478322936e-38
-0.07956667989 -0.2339419425 -0.1699903756 1.478322936e-38
-0.1332403272 -0.3836147785 -0.0386883989 1.478322936e-38
0.03952701762 -0.3404112458 -0.1793925315 1.478322936e-38
0.04660277441 -0.2011050135 -0.1856488287 1.478322936e-38
-0.00652969908 -0.4502349496 -0.1957732141 1.478322936e-38
-0.06454718858 -0.2410280108 -0.173870042 1.478322936e-38
0.009500973858 -0.3871018291 -0.1876811832 1.478322936e-38
-0.01288167201 -0.1116933078 -0.1801171452 1.478322936e-38
0.319193095 -0.3434140086 0.08064076304 1.478322936e-38
-0.1203538328 -0.3648990989 -0.05481763184 1.478322936e-38
-0.1465435028 -0.4194762707 0.07200437039 1.478322936e-38
0.3171866834 -0.4067466855 -0.0894997716 1.478322936e-38
-0.05639737472 -0.4477838874 -0.1910547018 1.478322936e-38
0.2308355868 -0.4712344408 -0.02738535218 1.478322936e-38
-0.0152852498 -0.4709844589 0.1409104615 1.478322936e-38
-0.0237775296 -0.4705224037 0.1488891095 1.478322936e-38
-0.1292151511 -0.4652937651 0.08560070395 1.478322936e-38
-0.08247580379 -0.4035294354 0.2528617382 1.478322936e-38
0.009727298282 -0.4711393714 0.09448441863 1.478322936e-38
0.3212660551 -0.2489075512 0.06442803144 1.478322936e-38
0.1005704626 -0.470371902 -0.1857260615 1.478322936e-38
-0.1469894648 -0.05435994267 0.005970837548 1.478322936e-38
-0.121051766 -0.3130133152 -0.0494569093 1.478322936e-38
-0.08834575862 -0.2895323336 -0.1620103419 1.478322936e-38
0.3040297627 -0.2951377332 0.1394790262 1.478322936e-38
0.06815481186 -0.4354872704 -0.1987898052 1.478322936e-38
0.1310003996 -0.3624148369 -0.1793667376 1.478322936e-38
-0.07381892204 -0.4458088875 -0.1897084713 1.478322936e-38
-0.1536248475 -0.2490517348 0.04974868894 1.478322936e-38
-0.07726359367 -0.4437069893 -0.1896873116 1.478322936e-38
-0.1584811509 -0.2291439921 0.1328056753 1.478322936e-38
0.160036698 -0.1800273508 -0.1818716526 1.478322936e-38
0.2063851655 -0.4548707604 -0.1891414225 1.478322936e-38
0.1780292988 -0.3475989103 -0.1778759956 1.478322936e-38
0.3032453656 -0.4224345684 -0.1478455812 1.478322936e-38
0.2303348035 -0.4513887763 -0.1855494529 1.478322936e-38
-0.1493414044 -0.3024636507 0.03628657386 1.478322936e-38
0.09735079855 -0.1966056973 -0.1850474477 1.478322936e-38
-0.1417420805 -0.3849493265 0.002584879287 1.478322936e-38
0.2975372672 -0.2564712465 0.1450382322 1.478322936e-38
0.1771996915 -0.4705376029 -0.03615450114 1.478322936e-38
0.2096620649 -0.4718222618 0.002396275289 1.478322936e-38
-0.1646484137 -0.0811169669 0.1348549128 1.478322936e-38
0.3206400573 -0.2906251848 0.03775667399 1.478322936e-38
