# .PCD v0.7 - Point Cloud Data file format
VERSION 0.7
FIELDS x y z rgb
SIZE 4 4 4 4
TYPE F F F F
COUNT 1 1 1 1
WIDTH 837
HEIGHT 1
VIEWPOINT 0 0 0 1 0 0 0
POINTS 837
DATA ascii
0.2462373227 -0.4594790339 -0.09498518705 1.478322936e-38
0.01219756808 -0.4860432148 -0.09393176436 1.478322936e-38
-0.1928836405 -0.3810358047 0.4046112895 1.478322936e-38
0.1624709517 -0.2996909022 -0.2616477907 1.478322936e-38
-0.1667706966 -0.3118733168 0.2529954612 1.478322936e-38
0.2342601568 -0.4670459628 -0.2442975491 1.478322936e-38
-0.1940823644 -0.3450302482 0.4036872983 1.478322936e-38
0.1624310613 -0.2722505331 -0.2183374614 1.478322936e-38
0.1822317988 -0.2881108224 -0.2338209599 1.478322936e-38
-0.1772957742 -0.3455119431 0.2479186654 1.478322936e-38
0.1810430735 -0.255612582 -0.2652753294 1.478322936e-38
-0.1658532768 -0.2671599388 0.267139405 1.478322936e-38
0.09257818758 -0.3782860935 -0.2469673604 1.478322936e-38
0.07777145505 -0.4053423107 -0.2548656166 1.478322936e-38
-0.1856114119 -0.3811550438 0.40270105 1.478322936e-38
0.09141016006 -0.4878211021 0.01767513528 1.478322936e-38
0.2631119788 -0.4757671952 -0.09285929799 1.478322936e-38
-0.1857946515 -0.3914338052 0.2148803473 1.478322936e-38
0.144388929 -0.2869073451 -0.2571326494 1.478322936e-38
-0.1144576669 -0.2724761665 0.3563739955 1.478322936e-38
-0.119220078 -0.3060453236 0.2259445935 1.771655483e-38
-0.006646733731 -0.4019237757 -0.1165803671 1.771655483e-38
-0.1303287446 -0.422699213 0.2433306575 1.771655483e-38
-0.00492673181 -0.4867632389 -0.1702516526 1.771655483e-38
0.05210277438 -0.4002009928 0.1108327955 1.771655483e-38
-0.1439738125 -0.4607625008 -0.1015371382 1.771655483e-38
0.09059779346 -0.4194642305 0.1444476694 1.771655483e-38
0.002099521458 -0.3675555885 -0.05379767343 1.771655483e-38
-0.02015647665 -0.3166288733 0.05774872005 1.771655483e-38
-0.1911523044 -0.4849634171 0.2584610879 1.771655483e-38
0.2273102105 -0.388527751 -0.2503014505 1.771655483e-38
-0.01638579927 -0.3466136754 0.1327295452 1.771655483e-38
0.1662329286 -0.2858521044 -0.117250666 1.771655483e-38
0.09552462399 -0.2908878624 -0.1171970665 1.771655483e-38
0.1808758825 -0.4891650081 0.01803735644 1.771655483e-38
0.1023471802 -0.2792463601 -0.03232240304 1.771655483e-38
-0.06316368282 -0.4806674719 -0.2761814594 1.771655483e-38
-0.06119705364 -0.3489522636 0.2629566491 1.771655483e-38
0.09845411777 -0.2829394042 -0.2217095643 1.771655483e-38
-0.01744325273 -0.3218493462 0.07048466802 1.771655483e-38
-0.02282013744 -0.4146969914 0.2553610504 1.771655483e-38
-0.05450411513 -0.2892796099 0.160050869 1.771655483e-38
0.03013462201 -0.3240413964 -0.09463047981 1.771655483e-38
-0.09450875223 -0.422886312 0.2696578205 1.771655483e-38
0.2735841572 -0.4733757377 -0.1126015782 1.771655483e-38
0.2373731732 -0.3342104256 -0.2057101279 1.771655483e-38
-0.0190012604 -0.3238600492 0.03047948703 1.771655483e-38
-0.172754392 -0.4879173338 0.2780438066 1.771655483e-38
-0.1012704819 -0.478959471 -0.2411184162 1.771655483e-38
-0.09598948061 -0.4923575819 -0.2875637114 1.771655483e-38
-0.04141499847 -0.4872351587 0.1138786972 1.771655483e-38
-0.01955187693 -0.2985956371 0.115364939 1.771655483e-38
-0.03634539247 -0.4877891541 0.1463098973 1.771655483e-38
0.1768351793 -0.3098493516 -0.2429124266 1.771655483e-38
-0.1433238238 -0.446659565 0.2357469648 1.771655483e-38
0.266272217 -0.4552498162 -0.2387233526 1.771655483e-38
0.1392065883 -0.4217275381 0.08964313567 1.771655483e-38
-0.02135813981 -0.486497581 0.01492096484 1.771655483e-38
0.05693466216 -0.3671534061 -0.06448453665 1.771655483e-38
0.2126077414 -0.3520537019 -0.2481315881 1.771655483e-38
-0.07755789161 -0.3570560813 0.1350024641 1.771655483e-38
0.253020376 -0.4404712319 -0.245720163 1.771655483e-38
-0.07206346095 -0.4197290242 -0.04148527607 1.771655483e-38
-0.0305191651 -0.3562827706 0.2358557135 1.771655483e-38
0.2114751041 -0.3850364089 -0.1801649183 1.771655483e-38
-0.002540163696 -0.3660090566 -0.06964175403 1.771655483e-38
-0.06511376798 -0.3124858737 0.2551526427 1.771655483e-38
-0.0100227911 -0.3578769565 -0.01653284952 1.771655483e-38
0.2003375888 -0.4821628034 0.08735641837 1.771655483e-38
-0.07025632262 -0.4157982469 -0.03508437052 1.771655483e-38
0.1657293886 -0.4885110557 -0.05303325877 1.771655483e-38
-0.1889299899 -0.4832533598 -0.1651490182 1.771655483e-38
-0.01075691544 -0.4865809381 -0.04725581035 1.771655483e-38
-0.07279106975 -0.4804078937 -0.2598963678 1.771655483e-38
0.1243162751 -0.3319275975 -0.2490055412 1.771655483e-38
0.09924000502 -0.4141969383 -0.2376066297 1.771655483e-38
-0.1227441132 -0.3545682728 0.2471307665 1.771655483e-38
0.1161442846 -0.3003041744 -0.2458188981 1.771655483e-38
-0.1776675582 -0.4873307347 0.2773215473 1.771655483e-38
-0.05122201517 -0.3696672022 0.2523321509 1.771655483e-38
0.2297763824 -0.4131883085 -0.08842158318 1.771655483e-38
0.28115803 -0.4710078835 -0.1235341281 1.771655483e-38
-0.07038427889 -0.410251677 -0.01828130707 1.771655483e-38
-0.04705023021 -0.2957888544 0.05587143451 1.771655483e-38
0.159421593 -0.314139396 -0.2495176941 1.771655483e-38
-0.1785412431 -0.4879608154 0.221211493 1.771655483e-38
0.2186842561 -0.3686071038 -0.1488000304 1.771655483e-38
-0.02726597339 -0.3202678561 0.008512552828 1.771655483e-38
0.1286542863 -0.4877086282 -0.1856929809 1.771655483e-38
-0.162816003 -0.464740932 0.06859806925 1.771655483e-38
-0.124861002 -0.4857302606 0.1360638142 1.771655483e-38
0.1586113423 -0.288757503 -0.2348424941 1.771655483e-38
0.179682374 -0.3109168708 -0.2396244556 1.771655483e-38
-0.08963608742 -0.3781822026 0.2698521018 1.771655483e-38
0.009025264531 -0.3807032704 0.1633987278 1.771655483e-38
0.04100592062 -0.306027174 -0.06589975953 1.771655483e-38
0.1123078316 -0.3779733777 -0.03496140614 1.771655483e-38
0.01075884327 -0.4839276671 0.2501853108 1.771655483e-38
-0.02867323533 -0.4866978824 -0.09500798583 1.771655483e-38
0.1832053959 -0.3603056371 -0.2559982538 1.771655483e-38
-0.1737829149 -0.48380059 -0.1908395737 1.771655483e-38
-0.001945230179 -0.487298429 0.07254394144 1.771655483e-38
0.2155871093 -0.4707730114 -0.2678911686 1.771655483e-38
-0.2132198662 -0.4782528877 -0.01368539408 1.771655483e-38
0.04855168238 -0.4469227493 0.2557935715 1.771655483e-38
-0.03559917212 -0.4108966291 -0.07294897735 1.771655483e-38
0.1181799322 -0.4183484912 -0.2544946373 1.771655483e-38
0.1888693869 -0.3120110333 -0.2417037338 1.771655483e-38
0.1113117933 -0.3777671754 -0.2409208864 1.771655483e-38
0.02127657272 -0.3518361449 -0.1684269309 1.771655483e-38
-0.1098413914 -0.4868771136 -0.09874580801 1.771655483e-38
0.2387557477 -0.3475404382 -0.1848811209 1.771655483e-38
0.03333921731 -0.3725359738 -0.1024497449 1.771655483e-38
0.1229678243 -0.290717423 -0.2486550063 1.771655483e-38
-0.08543051779 -0.4104394913 0.2690213025 1.771655483e-38
0.008632916957 -0.379743576 -0.1080997884 1.771655483e-38
-0.05814406648 -0.3150647581 0.2361525893 1.771655483e-38
-0.03635682166 -0.3144572973 0.1206333786 1.771655483e-38
0.1112728864 -0.4421961606 0.1863890737 1.771655483e-38
0.2207545489 -0.3624961376 -0.2482347041 1.771655483e-38
0.0445314981 -0.3192768991 -0.1531824917 1.771655483e-38
0.1160843968 -0.4333097637 -0.2577001452 1.771655483e-38
0.1157693863 -0.3405884802 -0.2548749149 1.771655483e-38
0.1001957953 -0.3684648275 -0.2346095294 1.771655483e-38
-0.0002813823521 -0.488245666 -0.2918485105 1.771655483e-38
0.03442605585 -0.4865262508 -0.06862421334 1.771655483e-38
-0.09517717361 -0.4367399514 -0.0226518698 1.771655483e-38
-0.07232010365 -0.3752330244 0.09552143514 1.771655483e-38
0.2760930061 -0.4393527508 -0.1028707176 1.771655483e-38
0.04369792342 -0.4867789447 -0.1298743784 1.771655483e-38
-0.1194790453 -0.4732420743 0.2834099829 1.771655483e-38
0.1826247275 -0.3142724335 -0.2469112724 1.771655483e-38
-0.07936823368 -0.3709902465 0.1188206524 1.771655483e-38
0.2634079456 -0.4620931149 -0.2433478385 1.771655483e-38
-0.1264810711 -0.4571868479 0.2583657503 1.771655483e-38
0.1953497678 -0.3140314221 -0.2139562815 1.771655483e-38
0.204894796 -0.3144709766 -0.2233821005 1.771655483e-38
-0.1005995274 -0.4191358984 0.1188791394 1.771655483e-38
0.2073087245 -0.3618605137 -0.1879969388 1.771655483e-38
-0.07049287856 -0.3277598917 0.1494132578 1.771655483e-38
0.156979993 -0.3789688647 -0.2475649267 1.771655483e-38
0.1089443266 -0.4134908319 -0.2367548198 1.771655483e-38
-0.1024582684 -0.4700244069 0.2832604647 1.771655483e-38
0.1255241334 -0.4880057871 -0.009474795312 1.771655483e-38
0.2838620543 -0.4555822015 -0.1035606712 1.771655483e-38
-0.1435279697 -0.4589815736 0.07906548679 1.771655483e-38
0.1646699011 -0.307690084 -0.2447961122 1.771655483e-38
-0.03964067623 -0.3395111263 0.2278327793 1.771655483e-38
-0.1462767571 -0.3045847118 0.2563171983 2.06466517e-38
-0.01932061464 -0.3925777376 -0.08607424796 2.06466517e-38
-0.1333147138 -0.4240320325 0.2641265094 2.06466517e-38
0.05526337028 -0.4880898595 -0.101603657 2.06466517e-38
0.04119106382 -0.3753601313 0.09179951996 2.06466517e-38
-0.1384064704 -0.4688238204 -0.01247836277 2.06466517e-38
0.06178335473 -0.3892407119 0.1155424267 2.06466517e-38
0.000403159298 -0.3636959791 -0.04614150152 2.06466517e-38
-0.05303968117 -0.291372329 0.0905438289 2.06466517e-38
-0.1645784527 -0.4830396175 0.302931875 2.06466517e-38
0.2290690988 -0.3885520399 -0.2192700654 2.06466517e-38
-0.0236896649 -0.3150933087 0.1417783499 2.06466517e-38
0.1575455517 -0.2418052852 -0.1315514445 2.06466517e-38
0.06832948327 -0.252094388 -0.1342141181 2.06466517e-38
0.2309946269 -0.4741415679 0.1280094683 2.06466517e-38
0.06797553599 -0.2399772108 -0.05638187006 2.06466517e-38
-0.03401581198 -0.4839996397 -0.2563233376 2.06466517e-38
-0.06816673279 -0.3434351683 0.2796550989 2.06466517e-38
0.08135901392 -0.2602261007 -0.2105408162 2.06466517e-38
-0.03820433095 -0.2983163297 0.08572874218 2.06466517e-38
0.00519262813 -0.3895252049 0.2612524331 2.06466517e-38
-0.05519244447 -0.2569685578 0.1677138805 2.06466517e-38
0.01380413305 -0.3174025416 -0.07865460217 2.06466517e-38
-0.07777218521 -0.3947185278 0.2869365811 2.06466517e-38
0.3233241439 -0.436150074 -0.05403629318 2.06466517e-38
0.2921325862 -0.3103238046 -0.1570679843 2.06466517e-38
-0.04573718086 -0.310233593 0.06938658655 2.06466517e-38
-0.1092407554 -0.4800241292 0.3069731593 2.06466517e-38
-0.07784426212 -0.4898612499 -0.197184667 2.06466517e-38
-0.04602665827 -0.4949137568 -0.266286999 2.06466517e-38
0.02302913368 -0.4897432029 0.2380715907 2.06466517e-38
-0.05351266637 -0.2698853612 0.1452157348 2.06466517e-38
0.0333676599 -0.4901344776 0.261577785 2.06466517e-38
0.1945450008 -0.2835473716 -0.2097730786 2.06466517e-38
-0.1483789831 -0.4436309338 0.2678340077 2.06466517e-38
0.3312122226 -0.4261522889 -0.1825932115 2.06466517e-38
0.1086312085 -0.3932969272 0.07802153379 2.06466517e-38
0.02585632354 -0.4884496927 0.1437040716 2.06466517e-38
0.0603537634 -0.3563541174 -0.06308741868 2.06466517e-38
0.2151959836 -0.3157582283 -0.2268913835 2.06466517e-38
-0.0963217169 -0.3380974233 0.2068510056 2.06466517e-38
0.3124666512 -0.4104968309 -0.2005205601 2.06466517e-38
-0.0993449688 -0.4189312458 0.05593361706 2.06466517e-38
-0.009111041203 -0.3428528309 0.2431749105 2.06466517e-38
0.238747865 -0.3590848446 -0.1765464395 2.06466517e-38
-0.008686564863 -0.3624497056 -0.06179892644 2.06466517e-38
-0.06241096929 -0.3034729958 0.2719215751 2.06466517e-38
-0.008525665849 -0.3492961824 -0.009311098605 2.06466517e-38
0.1787480861 -0.442994535 0.1519159675 2.06466517e-38
-0.09604218602 -0.410887897 0.0618766658 2.06466517e-38
0.246690169 -0.4869093001 0.03616829216 2.06466517e-38
-0.1369854361 -0.489474535 -0.07884179056 2.06466517e-38
0.03929889947 -0.4875718951 0.04375839978 2.06466517e-38
-0.05306418613 -0.4903927445 -0.2352165431 2.06466517e-38
0.123934105 -0.317584753 -0.2192199379 2.06466517e-38
0.1077984571 -0.4153686166 -0.2180592567 2.06466517e-38
-0.1353990734 -0.366276592 0.263731122 2.06466517e-38
0.1026072353 -0.2839016616 -0.2174388021 2.06466517e-38
-0.1177607477 -0.480037272 0.3065419495 2.06466517e-38
-0.0207638219 -0.3566231728 0.2624035776 2.06466517e-38
0.2345000058 -0.3763765693 -0.0648008883 2.06466517e-38
0.3343565464 -0.4318310022 -0.06822998822 2.06466517e-38
-0.09401662648 -0.4055874944 0.0725806728 2.06466517e-38
-0.06695468724 -0.2707939446 0.0625622645 2.06466517e-38
0.1772871315 -0.2803975046 -0.217732802 2.06466517e-38
-0.1100005955 -0.4889163971 0.3113033175 2.06466517e-38
0.2623978257 -0.3477360308 -0.105366841 2.06466517e-38
-0.05126064643 -0.2948776484 0.02437004074 2.06466517e-38
0.2003158778 -0.488745451 -0.1206240654 2.06466517e-38
-0.1719799191 -0.4694039822 0.1644947678 2.06466517e-38
-0.04825241491 -0.4892787337 0.2448975742 2.06466517e-38
0.1399012655 -0.257309854 -0.2244880646 2.06466517e-38
0.197348401 -0.2799057961 -0.2035830468 2.06466517e-38
-0.07931531966 -0.359266609 0.2860795856 2.06466517e-38
0.01517651603 -0.3602799773 0.1668217331 2.06466517e-38
0.006175763439 -0.261167407 -0.07229992747 2.06466517e-38
0.1015714258 -0.3554342985 -0.04259790108 2.06466517e-38
0.05409056321 -0.4634881914 0.2875364125 2.06466517e-38
0.02640525252 -0.4878612161 -0.02120859548 2.06466517e-38
0.2066333294 -0.3228785992 -0.2252119333 2.06466517e-38
-0.1245066375 -0.4907088876 -0.1171721071 2.06466517e-38
0.04956679419 -0.4903316498 0.2027108222 2.06466517e-38
0.2523365319 -0.4332984388 -0.2434726506 2.06466517e-38
-0.1840869486 -0.4846213162 0.1030830219 2.06466517e-38
0.04630286992 -0.4117643833 0.2407281399 2.06466517e-38
-0.04553105682 -0.4042356908 -0.01331329718 2.06466517e-38
0.128058672 -0.3447691798 -0.2362639159 2.06466517e-38
0.2062058598 -0.2853002846 -0.2020133883 2.06466517e-38
0.1036232412 -0.3048295081 -0.2296704799 2.06466517e-38
0.01729397103 -0.3513630331 -0.1356521398 2.06466517e-38
-0.03130498901 -0.4882718921 -0.01391965523 2.06466517e-38
0.2874983549 -0.320310533 -0.1299237162 2.06466517e-38
0.03295433149 -0.365213871 -0.1102260053 2.06466517e-38
0.1379169971 -0.2620512247 -0.2225984782 2.06466517e-38
-0.07101300359 -0.3850446939 0.2869110405 2.06466517e-38
-0.01045304909 -0.3674754798 -0.06503464282 2.06466517e-38
-0.03636018187 -0.3026901782 0.2507846653 2.06466517e-38
-0.07138651609 -0.2927426994 0.166512683 2.06466517e-38
0.0809160322 -0.4054570496 0.1632478535 2.06466517e-38
0.228512466 -0.3347892165 -0.2251779884 2.06466517e-38
0.02929690853 -0.3072178364 -0.1350320727 2.06466517e-38
0.1375059634 -0.366586566 -0.2414704412 2.06466517e-38
0.1218626946 -0.290653795 -0.2359937876 2.06466517e-38
0.1118807644 -0.3709043264 -0.2136344761 2.06466517e-38
0.08628298342 -0.4833271503 -0.2784515321 2.06466517e-38
0.07593736053 -0.4876358211 0.006637744606 2.06466517e-38
-0.1199084818 -0.4364387989 0.06302876025 2.06466517e-38
-0.08943277597 -0.3567512929 0.1904474348 2.06466517e-38
0.3010278344 -0.4001972973 -0.05567174777 2.06466517e-38
0.0950961262 -0.4876350462 -0.05830713734 2.06466517e-38
-0.08989919722 -0.4596226215 0.2922032475 2.06466517e-38
0.2020208687 -0.2887079716 -0.2106922418 2.06466517e-38
-0.09728389978 -0.3531720638 0.2049044222 2.06466517e-38
0.326094687 -0.4344069064 -0.1909442097 2.06466517e-38
-0.1218885928 -0.4543640018 0.2786383331 2.06466517e-38
0.2398259044 -0.2692792714 -0.1764378995 2.06466517e-38
0.2432799041 -0.2848367393 -0.1859248877 2.06466517e-38
-0.1216841489 -0.4136099815 0.1968466491 2.06466517e-38
0.23174344 -0.3267179728 -0.1929360181 2.06466517e-38
-0.08910432458 -0.3088048697 0.2055979371 2.06466517e-38
0.1561593413 -0.3812904954 -0.2143605202 2.06466517e-38
0.1148704141 -0.4160295129 -0.214370504 2.06466517e-38
-0.07703645527 -0.449939996 0.2919802666 2.06466517e-38
0.2114744782 -0.4901501536 0.1068683565 2.06466517e-38
0.3171817064 -0.415260762 -0.05163365975 2.06466517e-38
-0.1563590318 -0.4614608288 0.1694675237 2.06466517e-38
0.1798127741 -0.2790835798 -0.2155948132 2.06466517e-38
-0.02008469775 -0.3269537389 0.2368857265 2.06466517e-38
-0.1355283558 -0.4126051068 0.2699231803 2.348204041e-38
-0.06775033474 -0.4716244936 -0.07655100524 2.348204041e-38
-0.1113871336 -0.4687070847 0.3047635853 2.348204041e-38
0.1776040792 -0.4873138964 -0.0294460915 2.348204041e-38
0.07732644677 -0.3709151745 0.04443621635 2.348204041e-38
-0.1037129909 -0.4905714989 0.03876192868 2.348204041e-38
0.1063016653 -0.3846592307 0.05507227033 2.348204041e-38
0.08275717497 -0.3442962468 -0.0645788908 2.348204041e-38
-0.04666215554 -0.3739185035 0.1045075357 2.348204041e-38
-0.06662237644 -0.4832842946 0.333640337 2.348204041e-38
0.2665113211 -0.3853348494 -0.1915249676 2.348204041e-38
-0.03545981646 -0.3220497668 0.08781440556 2.348204041e-38
0.1793000251 -0.2364862412 -0.156208232 2.348204041e-38
0.08661323786 -0.2697039247 -0.1539511532 2.348204041e-38
0.2734144032 -0.4381176829 0.08007819206 2.348204041e-38
0.08496403694 -0.2673136592 -0.07324446738 2.348204041e-38
0.0651396215 -0.4944050312 -0.2173174769 2.348204041e-38
-0.0413238816 -0.3368546963 0.2956162393 2.348204041e-38
0.1128189713 -0.282150209 -0.1757129282 2.348204041e-38
-0.03387439251 -0.2990992665 0.03211098537 2.348204041e-38
0.03142746538 -0.3891226649 0.2565514743 2.348204041e-38
-0.06521855295 -0.2549996078 0.1374414712 2.348204041e-38
0.007580172271 -0.3691122532 -0.03673970327 2.348204041e-38
-0.048382774 -0.3785036206 0.3084489405 2.348204041e-38
0.3573763371 -0.408059299 -0.03808388487 2.348204041e-38
0.3611066341 -0.3143111467 -0.1265527457 2.348204041e-38
-0.04830871522 -0.3781502843 0.09224507213 2.348204041e-38
-0.03906909004 -0.4713728428 0.3261584938 2.348204041e-38
-0.008507076651 -0.4897122085 -0.1175083369 2.348204041e-38
0.09438507259 -0.4918249249 -0.1784348488 2.348204041e-38
0.1017672271 -0.4909635782 0.27231282 2.348204041e-38
-0.05492831394 -0.3343546093 0.1505178958 2.348204041e-38
0.102279231 -0.4899588227 0.2859024405 2.348204041e-38
0.2895249724 -0.2923131287 -0.1724645197 2.348204041e-38
-0.1420069635 -0.4811255336 0.3206343353 2.348204041e-38
0.3825784922 -0.4125005603 -0.1244710535 2.348204041e-38
0.1675277501 -0.3755926788 0.0224920623 2.348204041e-38
0.1300794184 -0.4903132319 0.1857258081 2.348204041e-38
0.1364922225 -0.336702168 -0.07373818755 2.348204041e-38
0.2434785366 -0.319666028 -0.1966593415 2.348204041e-38
-0.1082385778 -0.4026670754 0.216780588 2.348204041e-38
0.3780103028 -0.3970602453 -0.14408575 2.348204041e-38
-0.1511901915 -0.4751660824 0.0400634706 2.348204041e-38
-0.006204055622 -0.3489247262 0.2362011075 2.348204041e-38
0.2772225142 -0.3265573382 -0.1787552387 2.348204041e-38
0.07310434431 -0.3484340608 -0.0776720345 2.348204041e-38
-0.0286109671 -0.3024828732 0.278115809 2.348204041e-38
0.03954259306 -0.3408919871 -0.04160786793 2.348204041e-38
0.2242178917 -0.4133988917 0.07150106877 2.348204041e-38
-0.1465686411 -0.4701776505 0.04668670148 2.348204041e-38
0.3184074759 -0.4583965242 0.05249141157 2.348204041e-38
-0.004983622581 -0.4895973802 0.00368033722 2.348204041e-38
0.1561006308 -0.4875812232 0.09844500571 2.348204041e-38
0.01943018287 -0.4919865131 -0.1728153825 2.348204041e-38
0.1687242985 -0.3723272085 -0.1723520458 2.348204041e-38
0.1706958711 -0.3966057301 -0.1963602453 2.348204041e-38
-0.1186000705 -0.4384816289 0.2856656015 2.348204041e-38
0.1497433186 -0.3105598092 -0.1767491549 2.348204041e-38
-0.04602999985 -0.471888721 0.3257404864 2.348204041e-38
0.008191470988 -0.3600049615 0.2711332738 2.348204041e-38
0.305983007 -0.3495872319 -0.07001656294 2.348204041e-38
0.3651399612 -0.4044770002 -0.04772603139 2.348204041e-38
-0.1438979059 -0.464494884 0.06135526672 2.348204041e-38
-0.07048498094 -0.2773870528 0.01723404601 2.348204041e-38
0.2740381956 -0.2979403734 -0.1770319939 2.348204041e-38
-0.01372618787 -0.4860743284 0.3338928819 2.348204041e-38
0.3164791167 -0.3343858421 -0.09557460248 2.348204041e-38
-0.04140086472 -0.2997789979 -0.01987179741 2.348204041e-38
0.3332027793 -0.4862639904 -0.05144375935 2.348204041e-38
-0.130146727 -0.490853548 0.2341147959 2.348204041e-38
0.04582808167 -0.4898837805 0.2905389071 2.348204041e-38
0.160153687 -0.2721246183 -0.2016201466 2.348204041e-38
0.294087708 -0.2920738757 -0.1714392006 2.348204041e-38
-0.05460054055 -0.3405604064 0.307317704 2.348204041e-38
0.00886949338 -0.3640669882 0.1110707968 2.348204041e-38
0.02679336444 -0.3111228049 -0.07504171133 2.348204041e-38
0.183963269 -0.3369939923 -0.0560525395 2.348204041e-38
0.08233545721 -0.4489664435 0.2736873925 2.348204041e-38
0.1412186772 -0.4867551923 0.03774639219 2.348204041e-38
0.3099170625 -0.3426078558 -0.1782769263 2.348204041e-38
0.0009486069903 -0.4896084666 -0.02846323326 2.348204041e-38
0.1511542201 -0.4918946922 0.2257737964 2.348204041e-38
0.346124053 -0.4361803532 -0.1732862592 2.348204041e-38
-0.0595462732 -0.4892303348 0.1833225638 2.348204041e-38
0.06614487618 -0.4084585309 0.2108048648 2.348204041e-38
-0.1044730395 -0.4648107886 -0.01283070818 2.348204041e-38
0.2420725226 -0.3642304242 -0.1998613924 2.348204041e-38
0.3072069883 -0.2959089279 -0.1675610095 2.348204041e-38
0.176593259 -0.2926229835 -0.1994950324 2.348204041e-38
0.009126914665 -0.4493715167 -0.11731489 2.348204041e-38
0.07303629816 -0.4871659279 0.05217234045 2.348204041e-38
0.3491489887 -0.3146221936 -0.1033208817 2.348204041e-38
0.1044246852 -0.3644455075 -0.1131012589 2.348204041e-38
0.23695454 -0.2766543031 -0.1884839088 2.348204041e-38
-0.046813678 -0.3725684583 0.3070361614 2.348204041e-38
-0.04302044958 -0.4527242482 -0.06161696836 2.348204041e-38
-0.0273072049 -0.3016125858 0.2490039468 2.348204041e-38
-0.06366837025 -0.3736482859 0.2039929777 2.348204041e-38
0.1141198277 -0.3972877562 0.08537872881 2.348204041e-38
0.2619279921 -0.3309498429 -0.1956665665 2.348204041e-38
0.03703571856 -0.363958925 -0.08263662457 2.348204041e-38
0.2576668262 -0.386857152 -0.2008727044 2.348204041e-38
0.2283456475 -0.3106577396 -0.1940164119 2.348204041e-38
0.1462287009 -0.420509398 -0.1867401302 2.348204041e-38
0.2570835054 -0.4921408594 -0.2007935494 2.348204041e-38
0.2140587717 -0.4877645969 0.06572499126 2.348204041e-38
-0.1722749621 -0.4841807485 0.05409733951 2.348204041e-38
-0.1091384143 -0.4210435748 0.1941604912 2.348204041e-38
0.3426188231 -0.3712566495 -0.05955641344 2.348204041e-38
0.2310405374 -0.4868399203 0.006112165749 2.348204041e-38
-0.04476513714 -0.4381604791 0.312746942 2.348204041e-38
0.2996921241 -0.2939326167 -0.1697211862 2.348204041e-38
-0.1148119718 -0.4234662056 0.203065753 2.348204041e-38
0.3795901239 -0.4184501171 -0.1276741177 2.348204041e-38
-0.085256055 -0.4568181336 0.3090670705 2.348204041e-38
0.309800297 -0.2784239948 -0.1479522735 2.348204041e-38
0.3393512964 -0.2971569002 -0.1525962502 2.348204041e-38
-0.1629185677 -0.4708701968 0.1999932528 2.348204041e-38
0.2692845464 -0.2989680469 -0.1888227612 2.348204041e-38
-0.09833401442 -0.3729882538 0.2263996452 2.348204041e-38
0.1863424033 -0.4171005785 -0.1810042411 2.348204041e-38
0.1692643017 -0.3910158575 -0.1931117624 2.348204041e-38
-0.03939957172 -0.4281372428 0.3099173009 2.348204041e-38
0.2924206853 -0.4701417089 0.101418674 2.348204041e-38
0.3517619967 -0.3881622851 -0.04912398383 2.348204041e-38
-0.1587821543 -0.4911029935 0.2284074426 2.348204041e-38
0.2728084922 -0.2898152769 -0.1751707792 2.348204041e-38
-0.02375079691 -0.3294610083 0.2285793126 2.348204041e-38
-0.170268923 -0.4727633595 0.3318185806 2.346801622e-38
-0.1726891696 -0.4887956977 -0.002235662192 2.346801622e-38
-0.09949402511 -0.4712333679 0.3399768174 2.346801622e-38
0.1928408593 -0.4865178466 0.04932974651 2.346801622e-38
0.07425609231 -0.3911749423 0.06679272652 2.346801622e-38
-0.04849591851 -0.4908745289 0.1729779243 2.346801622e-38
0.1001670808 -0.4058871865 0.07977813482 2.346801622e-38
0.1044062227 -0.3399336934 -0.04725348577 2.346801622e-38
-0.06618466973 -0.4253736734 0.2659406364 2.346801622e-38
-0.06050591543 -0.4807120264 0.3627680838 2.346801622e-38
0.2629728019 -0.4424593449 -0.212352708 2.346801622e-38
-0.04694875702 -0.3524273038 0.08780100942 2.346801622e-38
0.1517982632 -0.4105480015 -0.0543182157 2.346801622e-38
0.04606587812 -0.4376213551 -0.01126179472 2.346801622e-38
0.2571099102 -0.4587928951 0.09694375098 2.346801622e-38
0.03276650608 -0.4076605439 0.08412339538 2.346801622e-38
0.1083943844 -0.4881998003 -0.06295104325 2.346801622e-38
-0.05276116356 -0.3609234393 0.3278599679 2.346801622e-38
0.05440045148 -0.4596642852 -0.1253660768 2.346801622e-38
-0.04433828965 -0.3326511383 0.04000424221 2.346801622e-38
0.01428317558 -0.4157811105 0.2726052999 2.346801622e-38
-0.09474235773 -0.2792975307 0.13502343 2.346801622e-38
-0.07882216573 -0.4696392417 0.1444077641 2.346801622e-38
-0.06768344343 -0.3902013898 0.3434143364 2.346801622e-38
0.3526876569 -0.4328542352 0.003955293447 2.346801622e-38
0.3685845733 -0.3236305714 -0.1048454493 2.346801622e-38
-0.07524007559 -0.4263507724 0.256426692 2.346801622e-38
-0.04240221903 -0.4709280431 0.3548766971 2.346801622e-38
0.0519224219 -0.4891914129 -0.008255992085 2.346801622e-38
0.1322459131 -0.4878289104 -0.03831904754 2.346801622e-38
0.09541462362 -0.4899195731 0.2815300822 2.346801622e-38
-0.06677228212 -0.3670544624 0.2884929478 2.346801622e-38
0.09525758028 -0.4894639254 0.2880286872 2.346801622e-38
0.3785479069 -0.3410154283 -0.154855147 2.346801622e-38
-0.124477163 -0.4848952591 0.353784591 2.346801622e-38
0.4155716002 -0.4455062151 -0.0715944916 2.346801622e-38
0.1619475782 -0.3983974457 0.05358479917 2.346801622e-38
0.1218742579 -0.4909319878 0.2243946791 2.346801622e-38
0.180058524 -0.3232807219 -0.02862891927 2.346801622e-38
0.2357743382 -0.4241317213 -0.2108974606 2.346801622e-38
-0.1764413714 -0.4566816092 0.2618060112 2.346801622e-38
0.4149239063 -0.4324617386 -0.08912929893 2.346801622e-38
-0.1867472082 -0.4899134338 0.1419679523 2.346801622e-38
-0.02532103285 -0.3775618672 0.2435916066 2.346801622e-38
0.2845649421 -0.4042470753 -0.1198954433 2.346801622e-38
0.1072985083 -0.3375280797 -0.05828905478 2.346801622e-38
-0.05192866549 -0.3209036291 0.3068836033 2.346801622e-38
0.0336414203 -0.3497819602 -0.02923422679 2.346801622e-38
0.2124515176 -0.4343103766 0.09705474973 2.346801622e-38
-0.1962900758 -0.4893194735 0.1455061585 2.346801622e-38
0.3067751527 -0.4800494015 0.07263652235 2.346801622e-38
0.02082726918 -0.4896591902 0.1354565471 2.346801622e-38
0.1458361596 -0.4898936749 0.1711017787 2.346801622e-38
0.07297948748 -0.4888222218 -0.0386938788 2.346801622e-38
0.1235571355 -0.477778554 -0.2353790253 2.346801622e-38
0.2218657881 -0.488634944 -0.2571583092 2.346801622e-38
-0.1358221918 -0.474289149 0.3358154297 2.346801622e-38
0.1090598702 -0.465629518 -0.2024028748 2.346801622e-38
-0.04653669521 -0.4706653953 0.3560227454 2.346801622e-38
-0.009703138843 -0.3872421384 0.294941932 2.346801622e-38
0.3194396794 -0.3669651747 -0.01918743923 2.346801622e-38
0.3616740406 -0.4307923913 -0.007290009409 2.346801622e-38
-0.2000596076 -0.486856699 0.1569682956 2.346801622e-38
-0.08828188479 -0.2923685014 0.0188606903 2.346801622e-38
0.3767626286 -0.370944649 -0.166012004 2.346801622e-38
-0.01550123468 -0.4854568243 0.357763648 2.346801622e-38
0.3561047912 -0.3443647027 -0.06759905815 2.346801622e-38
-0.05141915753 -0.3138095737 -0.01730453596 2.346801622e-38
0.3030615747 -0.4873206317 0.01250320673 2.346801622e-38
-0.09564639628 -0.4913843274 0.3058198392 2.346801622e-38
0.04632438719 -0.4898624122 0.3179382086 2.346801622e-38
0.1473717242 -0.4384856224 -0.1718961596 2.346801622e-38
0.3756822348 -0.328225255 -0.1499015838 2.346801622e-38
-0.07441073656 -0.3453181088 0.3385024667 2.346801622e-38
0.001417911611 -0.3887799382 0.1202645153 2.346801622e-38
-0.04435800016 -0.4274519384 0.1172984019 2.346801622e-38
0.2097185105 -0.3489653468 -0.007832426578 2.346801622e-38
0.06734851003 -0.465605408 0.2685086429 2.346801622e-38
0.1461164355 -0.4875304699 0.1241405606 2.346801622e-38
0.3943143487 -0.4132584929 -0.1625771224 2.346801622e-38
0.04033921659 -0.4890540242 0.08633396029 2.346801622e-38
0.1392697394 -0.4916621745 0.2403776795 2.346801622e-38
0.4064307213 -0.4752290547 -0.1137579679 2.346801622e-38
-0.036299631 -0.4902360141 0.2613790035 2.346801622e-38
0.0533265993 -0.4360307455 0.2115298361 2.346801622e-38
-0.2031517923 -0.4877640307 0.08506653458 2.346801622e-38
0.3285387456 -0.4711726606 -0.206799224 2.346801622e-38
0.3821508586 -0.3365177512 -0.1489267647 2.346801622e-38
0.2812695801 -0.4048976898 -0.2150382251 2.346801622e-38
-0.1485559642 -0.4864286482 -0.05900304392 2.346801622e-38
0.07337680459 -0.487612009 0.1606821418 2.346801622e-38
0.3790353537 -0.3366814554 -0.09040379524 2.346801622e-38
0.1737998277 -0.3369475901 -0.07025448978 2.346801622e-38
0.3413131833 -0.3650128245 -0.1719046086 2.346801622e-38
-0.06731688976 -0.3857954144 0.3414937556 2.346801622e-38
-0.1679219306 -0.4810085595 0.03527038544 2.346801622e-38
-0.04906926677 -0.3275116682 0.2573932409 2.346801622e-38
-0.1091667563 -0.3943090439 0.2906776071 2.346801622e-38
0.1078457683 -0.4187219739 0.1052826792 2.346801622e-38
0.2524297237 -0.4209985137 -0.2070526928 2.346801622e-38
-0.07229171693 -0.4826394022 0.03102633357 2.346801622e-38
0.3367365301 -0.4822044969 -0.2011130899 2.346801622e-38
0.3255649507 -0.4187023044 -0.1979777366 2.346801622e-38
0.1145737916 -0.4910763502 -0.2595935464 2.346801622e-38
0.2641698718 -0.4884285629 -0.09213957191 2.346801622e-38
0.203101933 -0.4893850684 0.1190892607 2.346801622e-38
-0.1517650932 -0.4895404577 0.1761055738 2.346801622e-38
-0.1795559078 -0.4632971883 0.2470469624 2.346801622e-38
0.3421236873 -0.3946225643 -0.01058324799 2.346801622e-38
0.2287316769 -0.4881383777 0.06422740221 2.346801622e-38
-0.06185903028 -0.4423555434 0.3495834768 2.346801622e-38
0.3862492442 -0.3548792303 -0.1562823504 2.346801622e-38
-0.1916036308 -0.4678621888 0.2541992366 2.346801622e-38
0.4167633951 -0.4547494948 -0.07202339172 2.346801622e-38
-0.0691459924 -0.4543725848 0.3444714844 2.346801622e-38
0.2908991575 -0.3411519229 -0.1269809306 2.346801622e-38
0.3585636616 -0.3202831745 -0.1268199384 2.346801622e-38
-0.1937288046 -0.4901413918 0.2916506827 2.346801622e-38
0.2679044008 -0.4063546658 -0.1385776252 2.346801622e-38
-0.1520396322 -0.4265675545 0.2711020708 2.346801622e-38
0.1661353111 -0.469514668 -0.2329206616 2.346801622e-38
0.2148958147 -0.4857725501 -0.2527112961 2.346801622e-38
-0.0552050136 -0.4352372885 0.3452759087 2.346801622e-38
0.2674473226 -0.4863209724 0.1168770939 2.346801622e-38
0.3471126556 -0.4122093618 -0.002330917865 2.346801622e-38
-0.1170235574 -0.4913899899 0.3056827188 2.346801622e-38
0.3727012873 -0.3436160982 -0.1597572863 2.346801622e-38
-0.04506514966 -0.3603038788 0.229990989 2.346801622e-38
-0.1758771837 -0.4884589911 0.3770295084 2.345219836e-38
-0.05314255878 -0.4904947877 0.07270067185 2.345219836e-38
-0.0633469522 -0.4660117626 0.3674720824 2.345219836e-38
0.2372401655 -0.4901109338 0.07231579721 2.345219836e-38
0.1006660014 -0.3336884677 0.07847712934 2.345219836e-38
0.01945809089 -0.4921190143 0.2178259194 2.345219836e-38
0.1251570284 -0.3508585393 0.0876570493 2.345219836e-38
0.119825691 -0.3203534484 -0.03809706494 2.345219836e-38
-0.10615924 -0.4316985011 0.2894898653 2.345219836e-38
-0.03098805621 -0.46686095 0.3728851676 2.345219836e-38
0.2741924524 -0.4619779289 -0.2167829722 2.345219836e-38
-0.003976479173 -0.2811518908 0.117137894 2.345219836e-38
0.1481120735 -0.4215254784 -0.04567253962 2.345219836e-38
0.04896426946 -0.4429772794 0.001291140914 2.345219836e-38
0.2502743006 -0.4096818566 0.08823285997 2.345219836e-38
0.03741750866 -0.411374867 0.08969197422 2.345219836e-38
0.206792444 -0.4882913828 -0.03737040982 2.345219836e-38
-0.03587564081 -0.3484228551 0.3356559575 2.345219836e-38
0.034426976 -0.4637075067 -0.1334740222 2.345219836e-38
-0.007475892082 -0.2880280614 0.07620404661 2.345219836e-38
0.02756998874 -0.3928509653 0.2821441591 2.345219836e-38
-0.07110162079 -0.2607383132 0.1459702104 2.345219836e-38
-0.1131342053 -0.4801944494 0.1714954823 2.345219836e-38
-0.04973008111 -0.3766679168 0.3540023565 2.345219836e-38
0.3511692882 -0.3930692077 0.006073024124 2.345219836e-38
0.3754429817 -0.3308627009 -0.09521754086 2.345219836e-38
-0.1167099476 -0.4427555799 0.2820775807 2.345219836e-38
-0.0180198811 -0.4608216882 0.3642439544 2.345219836e-38
0.1495543867 -0.4886723757 0.03228802979 2.345219836e-38
0.2134934366 -0.4887224734 -0.01824829355 2.345219836e-38
0.138389051 -0.4882416129 0.284376502 2.345219836e-38
-0.09231409431 -0.3940215409 0.3030873239 2.345219836e-38
0.1277450174 -0.481865108 0.2803163528 2.345219836e-38
0.4032361209 -0.3383198082 -0.1592269987 2.345219836e-38
-0.06156210229 -0.4774664044 0.376065135 2.345219836e-38
0.4328741431 -0.4266714752 -0.06440962851 2.345219836e-38
0.1700260192 -0.3446890414 0.05437383056 2.345219836e-38
0.1789607257 -0.4929909408 0.2389921844 2.345219836e-38
0.1918518245 -0.3159269691 -0.02058892325 2.345219836e-38
0.2449265271 -0.4502310753 -0.211224243 2.345219836e-38
-0.20964849 -0.485753119 0.3055121303 2.345219836e-38
0.4340008199 -0.41594401 -0.08790098131 2.345219836e-38
-0.07752217352 -0.4916476011 0.2231305689 2.345219836e-38
-0.01764869317 -0.347240001 0.2432295382 2.345219836e-38
0.2932398617 -0.4089710414 -0.1080383807 2.345219836e-38
0.1223086268 -0.324934572 -0.04758310691 2.345219836e-38
-0.03909130394 -0.3043139875 0.3131433427 2.345219836e-38
0.06117350236 -0.3154699504 -0.003812555224 2.345219836e-38
0.2105115354 -0.3889292479 0.08972003311 2.345219836e-38
-0.09382115304 -0.4913297296 0.2234957367 2.345219836e-38
0.30960536 -0.432513237 0.06648530811 2.345219836e-38
0.08805277944 -0.490601778 0.1681717038 2.345219836e-38
0.1991923749 -0.4924970865 0.1860808432 2.345219836e-38
0.1728771627 -0.4882096052 -0.008203934878 2.345219836e-38
0.134307012 -0.4781900048 -0.2476704866 2.345219836e-38
0.3226564825 -0.4893475175 -0.2428780049 2.345219836e-38
-0.09825623035 -0.4748641551 0.3637604415 2.345219836e-38
0.06065393239 -0.4696204662 -0.212268427 2.345219836e-38
-0.02202783152 -0.4608101249 0.3653768003 2.345219836e-38
-0.00662024878 -0.3636898696 0.2978552878 2.345219836e-38
0.3206000924 -0.3344305158 -0.01179919764 2.345219836e-38
0.3611911833 -0.3918642402 -0.001971688122 2.345219836e-38
-0.1174609363 -0.4911625385 0.2276129872 2.345219836e-38
-0.05510074273 -0.2776198685 0.05131682381 2.345219836e-38
0.4129562676 -0.3744013608 -0.1775072217 2.345219836e-38
0.0165291708 -0.4733472466 0.3615332842 2.345219836e-38
0.349912256 -0.3343943059 -0.05190236494 2.345219836e-38
-0.01915736869 -0.2876482308 0.02363811061 2.345219836e-38
0.3524274528 -0.4866317511 0.01868461072 2.345219836e-38
-0.02200153843 -0.4927212596 0.3503475487 2.345219836e-38
0.08062593639 -0.4885306656 0.3287804425 2.345219836e-38
0.1344253719 -0.4680570364 -0.1734191775 2.345219836e-38
0.3990187645 -0.3304330111 -0.1540008336 2.345219836e-38
-0.05989237502 -0.3374705613 0.3484399319 2.345219836e-38
0.0324960053 -0.3269699812 0.1420546323 2.345219836e-38
-0.05991975591 -0.4312974811 0.1131555885 2.345219836e-38
0.2210924327 -0.305627048 0.002100575715 2.345219836e-38
0.0767249912 -0.432564646 0.266884625 2.345219836e-38
0.1953586191 -0.4917384982 0.1523005664 2.345219836e-38
0.4288669825 -0.4122931659 -0.1626942903 2.345219836e-38
0.1140482277 -0.489605844 0.1241714731 2.345219836e-38
0.1819394529 -0.4908299446 0.2477760762 2.345219836e-38
0.4383688867 -0.4676317871 -0.104344964 2.345219836e-38
0.02891591564 -0.4909985065 0.3025486469 2.345219836e-38
0.06808836758 -0.3854749799 0.2106574923 2.345219836e-38
-0.1024145484 -0.4914790988 0.1682898402 2.345219836e-38
0.3983049393 -0.4676247835 -0.2033393532 2.345219836e-38
0.4023573399 -0.332124114 -0.1498315632 2.345219836e-38
0.3586198688 -0.410816282 -0.2174325138 2.345219836e-38
-0.0680770874 -0.4890120625 -0.03705143556 2.345219836e-38
0.1354374588 -0.4915190935 0.1868571043 2.345219836e-38
0.3766316175 -0.3362226486 -0.08021016419 2.345219836e-38
0.1879322529 -0.3382080495 -0.05462307855 2.345219836e-38
0.4004041255 -0.3714384437 -0.1898373812 2.345219836e-38
-0.04692932591 -0.3755734563 0.3507114947 2.345219836e-38
-0.1355631351 -0.4896999002 0.09430973232 2.345219836e-38
-0.04207292199 -0.3011533618 0.2578626573 2.345219836e-38
-0.1417675763 -0.4352381825 0.3087106049 2.345219836e-38
0.1293290108 -0.3654037714 0.1128061339 2.345219836e-38
0.2616212368 -0.4461128116 -0.2073690146 2.345219836e-38
-0.08697135746 -0.4825086594 0.05304475874 2.345219836e-38
0.4090524912 -0.4766745269 -0.1926438361 2.345219836e-38
0.4006650746 -0.4243854582 -0.2072309703 2.345219836e-38
0.2213976979 -0.4889266491 -0.2536243498 2.345219836e-38
0.326777786 -0.4878239036 -0.07904396951 2.345219836e-38
0.2530660033 -0.4917341471 0.1330091953 2.345219836e-38
-0.0394241102 -0.4920153618 0.2460420579 2.345219836e-38
-0.2076281011 -0.488050282 0.2886938751 2.345219836e-38
0.3388158977 -0.3577523232 -0.007607918233 2.345219836e-38
0.2796537876 -0.4903838634 0.08333048224 2.345219836e-38
-0.03768301383 -0.4212986827 0.3626643419 2.345219836e-38
0.4079253674 -0.3519683778 -0.1568360925 2.345219836e-38
-0.208352983 -0.489844799 0.3072266579 2.345219836e-38
0.4353748858 -0.4361637235 -0.06387226284 2.345219836e-38
-0.04672509804 -0.4328156114 0.3681050539 2.345219836e-38
0.2831521332 -0.3594407141 -0.1252654642 2.345219836e-38
0.3551785648 -0.3374806643 -0.1280141622 2.345219836e-38
-0.1225962788 -0.4922332764 0.3412074745 2.345219836e-38
0.2741086185 -0.4147225618 -0.1264811158 2.345219836e-38
-0.2025230974 -0.4751460552 0.3058495522 2.345219836e-38
0.2126016766 -0.4743480384 -0.2450669259 2.345219836e-38
0.3184222281 -0.4877352715 -0.2459668964 2.345219836e-38
-0.03032150865 -0.4185370207 0.3585080504 2.345219836e-38
0.2716485262 -0.4366399944 0.1022071689 2.345219836e-38
0.3431750834 -0.3717017174 -0.001028973609 2.345219836e-38
-0.04219604284 -0.4927254319 0.3503810167 2.345219836e-38
0.4033230543 -0.3444763124 -0.1684904844 2.345219836e-38
-0.03810717165 -0.3242779672 0.2317533195 2.345219836e-38
-0.1246558428 -0.4878594577 0.3611635864 2.343458544e-38
-0.1185542941 -0.4850310683 0.1605805159 2.343458544e-38
-0.03268838301 -0.475338906 0.3630717397 2.343458544e-38
0.2266648263 -0.4917945862 0.1123867929 2.343458544e-38
0.1430109143 -0.3350029886 0.1409488767 2.343458544e-38
0.001697325148 -0.491582185 0.2280706167 2.343458544e-38
0.1637917161 -0.3524758816 0.146724999 2.343458544e-38
0.158239603 -0.3262265325 0.03108564392 2.343458544e-38
-0.07858982682 -0.3506534696 0.2278845161 2.343458544e-38
0.01478156075 -0.4725801349 0.3794422746 2.343458544e-38
0.2907820642 -0.4639562368 -0.1802759767 2.343458544e-38
0.04065245017 -0.2875261605 0.1568102241 2.343458544e-38
0.1440954059 -0.3878041804 0.09015285224 2.343458544e-38
0.06712198257 -0.4198746085 0.1266910583 2.343458544e-38
0.2698154449 -0.417126596 0.1373553723 2.343458544e-38
0.06415806711 -0.3741473854 0.1743499637 2.343458544e-38
0.1601387262 -0.4891391098 -0.02594978735 2.343458544e-38
-0.01253242046 -0.3745722175 0.3316474557 2.343458544e-38
0.08096630871 -0.4781615734 -0.04626118019 2.343458544e-38
0.03749202192 -0.295260042 0.122593008 2.343458544e-38
0.0552383922 -0.4032501578 0.291410774 2.343458544e-38
-0.02605916187 -0.2723607719 0.1699826717 2.343458544e-38
-0.08973884583 -0.44770962 0.1478162408 2.343458544e-38
-0.01006743126 -0.3987786174 0.3552649617 2.343458544e-38
0.3682331741 -0.4045320451 0.05488412082 2.343458544e-38
0.4143729508 -0.355514437 -0.03123708442 2.343458544e-38
-0.09367421269 -0.3700865507 0.2170247436 2.343458544e-38
0.03073098511 -0.4644963145 0.3709637821 2.343458544e-38
0.1145659089 -0.4904544353 0.07134138793 2.343458544e-38
0.1752527803 -0.489810437 0.00382931903 2.343458544e-38
0.1546374559 -0.4892193675 0.2973541319 2.343458544e-38
-0.05111040547 -0.3214313686 0.2530612946 2.343458544e-38
0.1436543018 -0.4851662517 0.2977164686 2.343458544e-38
0.4200928807 -0.4121589363 -0.09888511896 2.343458544e-38
-0.0283966139 -0.4845964909 0.3797164261 2.343458544e-38
0.4386836588 -0.4620342851 -0.008322346956 2.343458544e-38
0.2069233209 -0.3541418314 0.1196655184 2.343458544e-38
0.1886466593 -0.4935335517 0.2525041699 2.343458544e-38
0.2297001034 -0.3165262043 0.03358966112 2.343458544e-38
0.2590433657 -0.4460582137 -0.1308751404 2.343458544e-38
-0.1329882741 -0.4465176165 0.3186689317 2.343458544e-38
0.4466794729 -0.4593193531 -0.0220750384 2.343458544e-38
-0.1564592868 -0.4891372919 0.2287887633 2.343458544e-38
0.02581196651 -0.355268538 0.2596412599 2.343458544e-38
0.2875455618 -0.4048995078 0.005106680095 2.343458544e-38
0.1611115932 -0.3297475874 0.01410369948 2.343458544e-38
-0.02114580572 -0.3233037591 0.3081464767 2.343458544e-38
0.09244346619 -0.3267482221 0.05385874584 2.343458544e-38
0.2341186404 -0.3964039683 0.1376759112 2.343458544e-38
-0.1700174659 -0.4883856177 0.2336773276 2.343458544e-38
0.3222663701 -0.4446614385 0.1220732927 2.343458544e-38
0.08455248177 -0.4927610755 0.1979895383 2.343458544e-38
0.1997731179 -0.4934050143 0.2172912955 2.343458544e-38
0.1322919279 -0.489717871 0.01526904851 2.343458544e-38
0.106561318 -0.4832335114 -0.2208377272 2.343458544e-38
0.2418287992 -0.4849125743 -0.2333114594 2.343458544e-38
-0.074230358 -0.483422637 0.3607032895 2.343458544e-38
0.1027313024 -0.480949223 -0.12440148 2.343458544e-38
0.02769921161 -0.4646475613 0.3728583157 2.343458544e-38
0.01940927655 -0.3765233159 0.3007214367 2.343458544e-38
0.3375484645 -0.3505860567 0.03998976946 2.343458544e-38
0.3793281317 -0.4054405093 0.04665578529 2.343458544e-38
-0.1777576357 -0.4849030375 0.243355304 2.343458544e-38
-0.01179558598 -0.2849777937 0.09312438965 2.343458544e-38
0.4310184121 -0.4541277885 -0.1104114503 2.343458544e-38
0.05153260008 -0.4770690203 0.3649668992 2.343458544e-38
0.3772016764 -0.3545224667 0.008677344769 2.343458544e-38
0.02142275125 -0.2952211201 0.07264053077 2.343458544e-38
0.3305572569 -0.4909353554 0.07122467458 2.343458544e-38
-0.007879249752 -0.4919768572 0.341688633 2.343458544e-38
0.1048443615 -0.489312768 0.3346354961 2.343458544e-38
0.1620511562 -0.4600115418 -0.07361744344 2.343458544e-38
0.4128967524 -0.3954448104 -0.0981977433 2.343458544e-38
-0.01838931441 -0.3681952953 0.3460140824 2.343458544e-38
0.08148784935 -0.323051244 0.1865513921 2.343458544e-38
0.006694923621 -0.4061893225 0.192515254 2.343458544e-38
0.2614671886 -0.3243139684 0.05798105523 2.343458544e-38
0.1013145149 -0.4373095632 0.2836522758 2.343458544e-38
0.1917862892 -0.4930538237 0.1877695024 2.343458544e-38
0.4371266067 -0.4835076034 -0.1059213579 2.343458544e-38
0.1005521268 -0.492385596 0.1635536402 2.343458544e-38
0.1962689757 -0.4919762611 0.2677295804 2.343458544e-38
0.4132091999 -0.488170296 -0.06142858788 2.343458544e-38
0.04198259115 -0.491402328 0.3026179671 2.343458544e-38
0.1091435701 -0.3865269423 0.2403164357 2.343458544e-38
-0.156942457 -0.4845997691 0.2109141797 2.343458544e-38
0.3695288897 -0.4907247424 -0.2100713104 2.343458544e-38
0.418574512 -0.4017313123 -0.09139765799 2.343458544e-38
0.3601669967 -0.4860685468 -0.2361571044 2.343458544e-38
-0.07696144283 -0.4776239991 0.07375742495 2.343458544e-38
0.1362682432 -0.492736876 0.2139375657 2.343458544e-38
0.4023169875 -0.3584324419 -0.01133156195 2.343458544e-38
0.2317467332 -0.3410845697 -0.00508857891 2.343458544e-38
0.4082366526 -0.4614181817 -0.1619410366 2.343458544e-38
-0.007136743516 -0.3959476948 0.3523530066 2.343458544e-38
-0.1171295941 -0.4748772979 0.1984619647 2.343458544e-38
-0.01416107453 -0.3182206452 0.2679623663 2.343458544e-38
-0.08847424388 -0.3486278057 0.300335288 2.343458544e-38
0.167601794 -0.3663104773 0.1657939106 2.343458544e-38
0.2794386446 -0.4408319592 -0.1264718175 2.343458544e-38
-0.07113967836 -0.4658602476 0.09014061093 2.343458544e-38
0.3673004508 -0.4904680252 -0.1896388978 2.343458544e-38
0.3993110955 -0.4910916686 -0.2046042234 2.343458544e-38
0.1267223358 -0.4712325931 -0.2308786362 2.343458544e-38
0.2798232436 -0.4894863367 -0.05789934471 2.343458544e-38
0.2422133684 -0.4933214784 0.1794425547 2.343458544e-38
-0.1036409885 -0.4893993735 0.2376244366 2.343458544e-38
-0.1376645863 -0.4588562846 0.3058598936 2.343458544e-38
0.3552713394 -0.3729148805 0.0398517549 2.343458544e-38
0.2629978657 -0.4921615124 0.1277135611 2.343458544e-38
0.009631008841 -0.4385618865 0.3688356578 2.343458544e-38
0.4275036454 -0.4274122417 -0.09319980443 2.343458544e-38
-0.1476761848 -0.4675496519 0.3139130175 2.343458544e-38
0.4381567538 -0.4721802473 -0.008998136967 2.343458544e-38
-0.0148465652 -0.4595886469 0.3641233742 2.343458544e-38
0.301869303 -0.3750856519 -0.05793502554 2.343458544e-38
0.3997934759 -0.3557803035 -0.06807585061 2.343458544e-38
-0.1282283664 -0.4908065796 0.3346063793 2.343458544e-38
0.2712943256 -0.4098647237 -0.0005272366107 2.343458544e-38
-0.1152214855 -0.4052067101 0.3170670867 2.343458544e-38
0.1638630778 -0.4829545319 -0.2573137283 2.343458544e-38
0.2310219109 -0.479813993 -0.232921347 2.343458544e-38
0.01508117002 -0.4299064875 0.3635189533 2.343458544e-38
0.2855879962 -0.4464449286 0.155555442 2.343458544e-38
0.359995693 -0.3854250312 0.04556934536 2.343458544e-38
-0.03029540181 -0.4920533895 0.3421790302 2.343458544e-38
0.4191747606 -0.4218134284 -0.1051523387 2.343458544e-38
0.007684341632 -0.3338095248 0.2481976748 2.343458544e-38
-0.05743030086 -0.4325276613 0.3333421946 2.341805152e-38
-0.05896454677 -0.4719742835 0.1633480191 2.341805152e-38
-0.05231517181 -0.4887507558 0.3782281578 2.341805152e-38
0.2276941687 -0.4930991232 0.1175706685 2.341805152e-38
0.2518886626 -0.4110423028 0.1877644062 2.341805152e-38
-0.09489780664 -0.4894600511 0.2130384892 2.341805152e-38
0.2657751739 -0.4229578078 0.1870160103 2.341805152e-38
0.2758537233 -0.3443780541 0.1012057662 2.341805152e-38
0.009198183194 -0.3470971584 0.2891828716 2.341805152e-38
0.03945794702 -0.4898914099 0.3867061436 2.341805152e-38
0.3143358529 -0.4354848564 -0.06130350009 2.341805152e-38
0.1550302953 -0.3707736135 0.2042297572 2.341805152e-38
0.1953020543 -0.3407074511 0.172447741 2.341805152e-38
0.1407676637 -0.369546324 0.2085326314 2.341805152e-38
0.3381679356 -0.4801045656 0.1689700931 2.341805152e-38
0.1355901659 -0.3325102627 0.2365665138 2.341805152e-38
0.05955725163 -0.4800699949 -0.002618934959 2.341805152e-38
0.03911906108 -0.4450267851 0.3451105654 2.341805152e-38
0.1637678444 -0.4495543242 0.1169901863 2.341805152e-38
0.1403111219 -0.3404299617 0.1681983918 2.341805152e-38
0.1412040144 -0.4740242362 0.3057901561 2.341805152e-38
0.0796392709 -0.3378424644 0.2086349428 2.341805152e-38
0.03240018338 -0.4132545292 0.2386834323 2.341805152e-38
0.03848306835 -0.4649907947 0.3680484891 2.341805152e-38
0.3979198933 -0.4629101157 0.09668202698 2.341805152e-38
0.4221081436 -0.4394635558 0.008799448609 2.341805152e-38
0.009166011587 -0.3574008048 0.2841169238 2.341805152e-38
0.07751528919 -0.4884366989 0.3828441203 2.341805152e-38
0.02793988213 -0.4883192778 0.08502077311 2.341805152e-38
0.1058731824 -0.4878935218 0.0184591189 2.341805152e-38
0.1757199317 -0.4934726954 0.2899913192 2.341805152e-38
0.006267045625 -0.3165935874 0.3008763492 2.341805152e-38
0.1822864413 -0.4937959909 0.2925821543 2.341805152e-38
0.4261901379 -0.4897191823 -0.05169919506 2.341805152e-38
-0.05530624464 -0.4911714196 0.3845158219 2.341805152e-38
0.4122232497 -0.4908156693 0.02724029869 2.341805152e-38
0.3061974943 -0.4196970463 0.1572220474 2.341805152e-38
0.1979611218 -0.4943053126 0.2381954491 2.341805152e-38
0.330236882 -0.3606092334 0.107206881 2.341805152e-38
0.2814834118 -0.4355179667 0.01331141219 2.341805152e-38
-0.08457277715 -0.3842585087 0.3147634268 2.341805152e-38
0.4183200002 -0.4903531671 0.007421813905 2.341805152e-38
-0.1105056852 -0.4604597092 0.2478174269 2.341805152e-38
0.1165833771 -0.4373847842 0.2892486453 2.341805152e-38
0.2793186307 -0.3470248878 0.09395936131 2.341805152e-38
0.277738899 -0.3388957977 0.08472904563 2.341805152e-38
0.03541568667 -0.417186439 0.3216881752 2.341805152e-38
0.2064093351 -0.3398510218 0.1247791648 2.341805152e-38
0.3225705922 -0.4536246061 0.1723831892 2.341805152e-38
