# .PCD v0.7 - Point Cloud Data file format
VERSION 0.7
FIELDS x y z rgb
SIZE 4 4 4 4
TYPE F F F F
COUNT 1 1 1 1
WIDTH 833
HEIGHT 1
VIEWPOINT 0 0 0 1 0 0 0
POINTS 833
DATA ascii
-0.3806135654 0.1012712717 -0.1000631526 3.015101038e-39
0.3204444051 -0.404443562 -0.2752500772 3.015101038e-39
-0.2729900181 -0.4583190084 -0.2499177158 5.962428276e-39
-0.1954126358 0.08986794949 -0.0109988898 5.962428276e-39
-0.1408171058 -0.2321863025 -0.2540389299 5.962428276e-39
0.2632341087 -0.08707337081 -0.2689146698 5.962428276e-39
-0.2966352105 -0.2420656979 -0.2257967293 5.962428276e-39
-0.2463014424 -0.3010955453 -0.1932994127 5.962428276e-39
0.3118065596 -0.3568960428 -0.2557764053 5.962428276e-39
-0.2227908075 -0.3480272293 -0.2477735579 5.962428276e-39
0.301905483 -0.4063899815 -0.1410366595 5.962428276e-39
-0.2669893205 -0.4907559156 -0.07846278697 5.962428276e-39
0.2421635985 -0.3708541691 -0.1320150793 5.962428276e-39
0.1377310157 -0.2084185928 -0.2553843856 5.962428276e-39
-0.2901870012 -0.4290155172 -0.2588308156 5.962428276e-39
0.1743052006 -0.4096522629 -0.2643128037 5.962428276e-39
0.08220991492 -0.308475256 -0.2547736168 5.962428276e-39
0.3159377873 -0.4737131596 -0.2303239703 5.962428276e-39
0.2197446227 -0.2747600675 -0.2686002254 5.962428276e-39
-0.1838104129 -0.4049755335 -0.258351177 5.962428276e-39
0.002472482622 -0.3604341149 -0.2542708516 5.962428276e-39
-0.3254062235 -0.437364459 -0.2533335686 5.962428276e-39
-0.1825480163 -0.1474513263 -0.2543568313 5.962428276e-39
-0.3226369619 -0.3409786224 -0.2047268152 5.962428276e-39
-0.1940487623 -0.02440029383 -0.2590655088 5.962428276e-39
-0.2794125378 -0.2354797572 -0.2276057899 5.962428276e-39
0.01156549901 0.05277952552 -0.2406576574 5.962428276e-39
-0.1006943956 -0.08156107366 -0.2662430406 5.962428276e-39
0.02456278913 -0.2190578878 -0.2480922043 5.962428276e-39
0.05329692364 -0.4831417501 -0.09272327274 5.962428276e-39
0.3109412789 -0.3998892903 -0.2527840137 5.962428276e-39
-0.2564526796 -0.4814830124 -0.2085559368 5.962428276e-39
0.07463246584 -0.2102979124 -0.2513689697 5.962428276e-39
0.307974875 -0.3112942874 -0.1637653112 5.962428276e-39
-0.1562147439 0.06562936306 -0.2536277473 5.962428276e-39
0.2445435524 -0.345810324 -0.2664268613 5.962428276e-39
0.2690456212 -0.1155453026 -0.2667575479 5.962428276e-39
0.006338991225 0.0304209888 -0.2631927133 5.962428276e-39
0.3032276034 -0.2670882046 -0.2493143082 5.962428276e-39
0.2147313654 -0.2494941503 -0.2673847973 5.962428276e-39
-0.01182628609 -0.2878133059 -0.2475379705 5.962428276e-39
0.2729354203 -0.05642072856 -0.2711129189 5.962428276e-39
0.3255281746 -0.451387167 -0.1894309521 5.962428276e-39
-0.31672436 0.09626063704 -0.2045091391 5.962428276e-39
-0.2617442012 -0.1804867089 -0.180093199 5.962428276e-39
0.07800102979 -0.09143748879 -0.2622153461 5.962428276e-39
-0.09441652894 0.07075065374 -0.2393377423 5.962428276e-39
-0.3349023461 -0.3521638513 -0.2159932852 5.962428276e-39
0.07921482623 -0.475782156 -0.2445238829 5.962428276e-39
-0.1889062524 -0.1036895216 -0.2537134886 5.962428276e-39
-0.1159463599 -0.3902911544 -0.2554582655 5.962428276e-39
0.1543618739 -0.1516271979 -0.261185497 5.962428276e-39
-0.103805393 -0.1164453775 -0.2631837428 5.962428276e-39
0.04412175715 -0.4726920724 -0.2505637109 5.962428276e-39
0.2728250027 -0.4723901153 -0.2564378977 5.962428276e-39
0.3044223785 -0.1676551402 -0.253734082 5.962428276e-39
0.3233333528 -0.4148782492 -0.2658491433 5.962428276e-39
-0.2471975982 -0.1207480729 -0.1305824816 5.962428276e-39
0.3003765643 -0.08020958304 -0.2644996047 5.962428276e-39
-0.08093331754 -0.341065377 -0.2429256439 5.962428276e-39
-0.1872871816 0.09085959196 -0.1259030402 5.962428276e-39
0.1602761149 -0.4455212951 -0.2556307018 5.962428276e-39
0.0989312008 -0.4795565605 -0.1494435966 5.962428276e-39
0.3017948866 -0.2977800369 -0.2511633337 5.962428276e-39
-0.3264538348 -0.3318081796 -0.212962836 5.962428276e-39
-0.1118713394 -0.022603333 -0.2664714456 5.962428276e-39
-0.1079600081 0.01812747121 -0.2643177807 5.962428276e-39
-0.01227608323 0.04841133952 -0.2508447468 5.962428276e-39
-0.2348158658 0.08223983645 0.07935016602 5.962428276e-39
-0.225135833 -0.1978226602 -0.1331040561 5.962428276e-39
-0.13689062 -0.06555014849 -0.264202714 5.962428276e-39
0.2060709596 -0.0145623982 -0.1623265445 5.962428276e-39
-0.3194079995 -0.4644095004 -0.2399758101 5.962428276e-39
0.313601166 -0.3664242029 -0.1908275485 5.962428276e-39
-0.3746506274 -0.4698546529 -0.1924025714 5.962428276e-39
-0.1423314512 -0.4790481925 -0.2117645442 5.962428276e-39
-0.2495341003 -0.4353513718 -0.1681136787 5.962428276e-39
-0.2173885107 0.08985924721 -0.05728168786 5.962428276e-39
-0.04496243596 -0.3306719661 -0.2559216917 5.962428276e-39
-0.2113770843 -0.4647684991 -0.2487579286 5.962428276e-39
0.3160605729 -0.2892915308 -0.2065937221 5.962428276e-39
0.1827070117 -0.4436442256 -0.2550397813 5.962428276e-39
-0.03897546977 0.06616580486 -0.2305211723 5.962428276e-39
0.02786682546 -0.4823716879 -0.1167136803 5.962428276e-39
-0.05264218152 -0.318582654 -0.2429814637 5.962428276e-39
0.135174796 -0.1437419802 -0.2595152557 5.962428276e-39
0.207226634 -0.1506379098 -0.2693061233 5.962428276e-39
0.3021917045 -0.4741049707 -0.1943320334 5.962428276e-39
-0.3329303861 0.04591065645 -0.1495771408 5.962428276e-39
0.191839993 -0.053313151 -0.2683088779 5.962428276e-39
0.3240573108 -0.4351707697 -0.1896150708 5.962428276e-39
0.3022239506 -0.4683261514 -0.1218822524 5.962428276e-39
-0.2766186297 -0.4330598116 -0.1691465378 5.962428276e-39
-0.326014936 -0.3317556083 -0.2122829854 5.962428276e-39
0.1490362883 -0.04478304088 -0.2679744065 5.962428276e-39
-0.3202601075 -0.4890387058 -0.1587354541 5.962428276e-39
-0.03502279148 -0.2081990838 -0.2615302801 5.962428276e-39
-0.2125542462 0.09056630731 -0.1171298549 5.962428276e-39
0.3184096813 -0.264139086 -0.2364220917 5.962428276e-39
-0.0781993717 -0.3501157165 -0.2427617311 5.962428276e-39
0.08377800882 -0.1745130867 -0.2542290092 5.962428276e-39
0.1080771759 -0.3272525072 -0.2593805492 5.962428276e-39
-0.1709549725 -0.03790061176 -0.2607085705 5.962428276e-39
-0.2651591003 0.08519375324 -0.21905604 5.962428276e-39
-0.1848493218 -0.4851620793 -0.131575793 5.962428276e-39
-0.194236666 -0.09756009281 -0.2524994314 5.962428276e-39
0.3146771193 -0.2968676984 -0.1967757046 5.962428276e-39
0.2999048829 -0.4754539728 -0.237729758 5.962428276e-39
-0.1196182594 -0.4798063934 -0.2064750791 5.962428276e-39
-0.1595919728 -0.2997243702 -0.2475909889 5.962428276e-39
0.2528706193 -0.2219485492 -0.2626030743 5.962428276e-39
0.2638612092 -0.2559792101 -0.2611134052 5.962428276e-39
-0.08004228771 -0.1970181018 -0.2598065436 5.962428276e-39
-0.1995566487 -0.2856910527 -0.2464924455 5.962428276e-39
-0.2501787841 -0.3514019549 -0.1890999079 5.962428276e-39
-0.27822873 -0.4902082384 -0.1128618047 5.962428276e-39
0.0005023758858 -0.2741931975 -0.2444566786 5.962428276e-39
0.2036435604 -0.02868264914 -0.2036141157 5.962428276e-39
0.0002490878105 -0.4368901253 -0.2608021498 5.962428276e-39
0.1110950932 -0.4176347554 -0.2656823397 5.962428276e-39
-0.2032213509 -0.2018876374 -0.234326303 5.962428276e-39
0.1096107289 -0.3228019774 -0.2590500712 5.962428276e-39
-0.1342336833 -0.1355813593 -0.2604496479 5.962428276e-39
0.3036858439 -0.1523714811 -0.2560218275 5.962428276e-39
0.03210503235 -0.4816102684 -0.2072814703 5.962428276e-39
0.08681620657 -0.4394772649 -0.2592593431 5.962428276e-39
0.1543880999 -0.4330226779 -0.2589614391 5.962428276e-39
-0.2730550766 -0.4907155931 -0.08576899022 5.962428276e-39
-0.3582636416 0.08394938707 -0.1715444028 5.962428276e-39
0.3178845346 -0.3847993016 -0.2712691724 5.962428276e-39
-0.09926924855 -0.4798796177 -0.2110848725 8.906165387e-39
-0.3550010324 0.02316445112 -0.2382641733 8.906165387e-39
-0.05280716717 -0.3407771587 -0.2438849211 8.906165387e-39
0.2695746422 -0.03516018391 -0.266495198 8.906165387e-39
-0.2736010253 -0.4490071833 -0.2439520359 8.906165387e-39
-0.3895620704 -0.4868273735 -0.1122555211 8.906165387e-39
0.3107308149 -0.3093194664 -0.2602274418 8.906165387e-39
0.01622694172 -0.3967182934 -0.256436497 8.906165387e-39
0.2780603468 -0.3100892007 -0.1438290179 8.906165387e-39
-0.1277628243 -0.4849699736 -0.02011464536 8.906165387e-39
0.2472104728 -0.2897904813 -0.1377552152 8.906165387e-39
0.1854843497 -0.1542159617 -0.258643508 8.906165387e-39
-0.09829103202 -0.4710102379 -0.2366029024 8.906165387e-39
0.2834344208 -0.3910750151 -0.2530015409 8.906165387e-39
0.1902033091 -0.2591605186 -0.2597202361 8.906165387e-39
0.308164835 -0.4235682487 -0.1659022868 8.906165387e-39
0.2639276683 -0.2341327965 -0.2524105012 8.906165387e-39
0.03455688804 -0.45529899 -0.2453258932 8.906165387e-39
0.180954814 -0.3276980817 -0.2635645866 8.906165387e-39
-0.1320244372 -0.4747410715 -0.2270818353 8.906165387e-39
-0.1854072213 -0.2879375815 -0.2403436899 8.906165387e-39
-0.3340722919 -0.4871306419 -0.1790341735 8.906165387e-39
-0.1813259721 -0.1860098392 -0.2438935637 8.906165387e-39
-0.2413144112 -0.4281032681 -0.2475859821 8.906165387e-39
-0.06091216207 -0.04300384223 -0.2595894635 8.906165387e-39
-0.1287141144 -0.2139750123 -0.2493934631 8.906165387e-39
0.09578340501 -0.1125157028 -0.2547996938 8.906165387e-39
0.2343187928 -0.4838787913 -0.06139465421 8.906165387e-39
0.3096569479 -0.3468438983 -0.2544450164 8.906165387e-39
-0.1202148721 -0.48158288 -0.1244435385 8.906165387e-39
0.1417266726 -0.138154909 -0.2563114166 8.906165387e-39
0.2991348207 -0.2048544437 -0.1505326033 8.906165387e-39
-0.1795546412 -0.06642878056 -0.2453145683 8.906165387e-39
0.2866961956 -0.3004685044 -0.2500188947 8.906165387e-39
0.2797746956 -0.06546224654 -0.264193356 8.906165387e-39
-0.04854015261 -0.07768966258 -0.2563406229 8.906165387e-39
0.2935239375 -0.1939491183 -0.248983115 8.906165387e-39
0.2572140396 -0.2114843726 -0.2543483973 8.906165387e-39
0.01915705018 -0.1372367889 -0.2565723956 8.906165387e-39
0.2722132802 -0.003210902214 -0.2705713809 8.906165387e-39
0.2935231328 -0.3801162541 -0.1390871108 8.906165387e-39
-0.2979911864 -0.109126702 -0.224250555 8.906165387e-39
-0.4019413292 -0.48056826 -0.1386629939 8.906165387e-39
0.1042041034 -0.0494389087 -0.2576966584 8.906165387e-39
-0.1509107649 -0.02796539664 -0.253693819 8.906165387e-39
-0.3006434739 -0.4817352295 -0.2010956109 8.906165387e-39
0.2236244678 -0.4782204628 -0.2157961428 8.906165387e-39
-0.1942214966 -0.2453155369 -0.2392975688 8.906165387e-39
0.1363894194 -0.4228776991 -0.2564375103 8.906165387e-39
0.1844266653 -0.1072281599 -0.2612287998 8.906165387e-39
-0.1273048818 -0.2396469265 -0.2469318509 8.906165387e-39
0.1918620765 -0.4790022373 -0.2228876948 8.906165387e-39
0.3250317276 -0.4517041743 -0.2383424044 8.906165387e-39
0.2941144705 -0.08846046031 -0.2595948577 8.906165387e-39
0.3136244118 -0.3414696753 -0.2270385623 8.906165387e-39
-0.3866446614 -0.4693406224 -0.1167531833 8.906165387e-39
0.3001308441 -0.009102314711 -0.2626158595 8.906165387e-39
0.04355674982 -0.199093461 -0.2490299046 8.906165387e-39
-0.2693595588 -0.003724426031 -0.2398608029 8.906165387e-39
0.2943761647 -0.4557513595 -0.2464029193 8.906165387e-39
0.2703757584 -0.4811614454 -0.08181100339 8.906165387e-39
0.2974903882 -0.2428063601 -0.2470137477 8.906165387e-39
-0.3234704435 -0.4826490283 -0.2001194656 8.906165387e-39
-0.132422179 -0.1531089097 -0.2495550811 8.906165387e-39
-0.1345378458 -0.1071438789 -0.2500639558 8.906165387e-39
-0.07410262525 -0.05295680463 -0.2584452331 8.906165387e-39
-0.2823964953 -0.2534023523 -0.2242027819 8.906165387e-39
-0.380428046 -0.4738983512 -0.09293166548 8.906165387e-39
-0.1481118202 -0.2063242942 -0.247510314 8.906165387e-39
0.1952944994 -0.1252021939 -0.2599056065 8.906165387e-39
-0.1468522847 -0.4820128083 -0.1875016987 8.906165387e-39
0.3020675778 -0.2659056187 -0.1490161717 8.906165387e-39
-0.246019423 -0.4843289852 -0.09040085226 8.906165387e-39
0.02335358597 -0.4825499952 -0.1420790255 8.906165387e-39
-0.3442973197 -0.488203764 -0.04866158962 8.906165387e-39
-0.3444945514 -0.007233917713 -0.2368283272 8.906165387e-39
0.01156475022 -0.2777630091 -0.2463433444 8.906165387e-39
-0.04855222255 -0.4813233018 -0.2017308176 8.906165387e-39
0.310508728 -0.188941747 -0.1632772982 8.906165387e-39
0.3027486503 -0.4431622624 -0.2485532165 8.906165387e-39
-0.1069681644 -0.03181992471 -0.2586184144 8.906165387e-39
0.222784847 -0.4829324484 -0.06154174358 8.906165387e-39
0.03888044506 -0.1554476917 -0.2538817227 8.906165387e-39
0.1609082818 -0.09442348778 -0.2598006129 8.906165387e-39
0.2385103106 -0.1107900143 -0.2624507546 8.906165387e-39
0.3067004383 -0.4418419003 -0.1416959465 8.906165387e-39
-0.3791662455 -0.4253359437 -0.1892296374 8.906165387e-39
0.2052620649 -0.02000033855 -0.2684389353 8.906165387e-39
0.2947869599 -0.3461580276 -0.1411270499 8.906165387e-39
0.2857854366 -0.4101328254 -0.1237622723 8.906165387e-39
-0.3363010287 -0.4880533814 -0.05467556417 8.906165387e-39
-0.3252495825 -0.483142674 -0.198680073 8.906165387e-39
0.1666910648 -0.01361864805 -0.2671754062 8.906165387e-39
-0.1723103821 -0.4831723273 -0.07659908384 8.906165387e-39
-0.07085218281 -0.3345426917 -0.2455699742 8.906165387e-39
-0.3029439151 -0.01387688518 -0.2364105582 8.906165387e-39
0.3135851622 -0.1636692137 -0.1850192249 8.906165387e-39
0.1060036719 -0.2400372773 -0.2525920868 8.906165387e-39
0.1264598966 -0.1068519354 -0.2564341128 8.906165387e-39
0.2151437998 -0.283526212 -0.2605082095 8.906165387e-39
-0.168574512 -0.1920684576 -0.2456400096 8.906165387e-39
-0.2567749918 -0.05433538556 -0.2337753177 8.906165387e-39
-0.03295462206 -0.4838463068 -0.05911865085 8.906165387e-39
-0.1959673166 -0.2404993474 -0.2383773625 8.906165387e-39
0.3088504374 -0.1945605874 -0.1597107947 8.906165387e-39
0.3142200112 -0.4373523593 -0.1775681674 8.906165387e-39
0.05280676484 -0.4822452068 -0.1347763836 8.906165387e-39
0.02466278151 -0.2895262241 -0.249602437 8.906165387e-39
0.2818107903 -0.1722743362 -0.255520016 8.906165387e-39
0.286921978 -0.2101096511 -0.2513823211 8.906165387e-39
-0.07658385485 -0.3280148506 -0.2440616786 8.906165387e-39
0.007190596312 -0.3470241129 -0.2486307621 8.906165387e-39
-0.3750950694 -0.4903053343 -0.09790939838 8.906165387e-39
-0.1388260126 -0.4839406013 -0.04389072955 8.906165387e-39
0.1064674482 -0.1551472545 -0.253544271 8.906165387e-39
0.1794795394 -0.156282872 -0.2598464489 8.906165387e-39
0.1845281422 -0.469478488 -0.2403712273 8.906165387e-39
0.2558273375 -0.4238830805 -0.2531574667 8.906165387e-39
-0.153842032 -0.3677686751 -0.243976295 8.906165387e-39
0.2134591639 -0.2787169516 -0.2604752481 8.906165387e-39
-0.1456542015 -0.2570892572 -0.2444833815 8.906165387e-39
0.2957346737 -0.07349322736 -0.2604084909 8.906165387e-39
0.2107765079 -0.4772880673 -0.1494843662 8.906165387e-39
0.2401803434 -0.4639617801 -0.241268158 8.906165387e-39
0.2857724428 -0.4368976355 -0.2472493947 8.906165387e-39
-0.1343202293 -0.4849720597 -0.02422848344 8.906165387e-39
-0.3698293567 -0.3343147635 -0.2185408771 8.906165387e-39
0.3137474358 -0.3144968748 -0.2452942133 8.906165387e-39
-0.06376027316 -0.483402729 -0.1135792807 1.184631237e-38
-0.3118963242 -0.01253336668 -0.2300265133 1.184631237e-38
-0.02839231864 -0.3249491751 -0.2354469597 1.184631237e-38
0.3115423024 -0.07723847032 -0.2585747242 1.184631237e-38
-0.2452014387 -0.4786743522 -0.1792387068 1.184631237e-38
-0.2964418232 -0.4918162227 0.02551692352 1.184631237e-38
0.3332540691 -0.397578001 -0.2410756052 1.184631237e-38
0.003298962489 -0.4255037904 -0.2349874973 1.184631237e-38
0.2331129014 -0.4152481556 -0.01332829893 1.184631237e-38
-0.03949044272 -0.4843408465 0.2032106221 1.184631237e-38
0.1818469763 -0.4033251405 -0.008533112705 1.184631237e-38
0.2303788066 -0.191603303 -0.2423545122 1.184631237e-38
-0.0760980621 -0.4836127162 -0.1465947926 1.184631237e-38
0.2692357302 -0.4694508016 -0.2294319868 1.184631237e-38
0.2186635435 -0.3371838927 -0.2495092452 1.184631237e-38
0.3093735278 -0.463375479 -0.06198026985 1.184631237e-38
0.3078832626 -0.3162383139 -0.2441953421 1.184631237e-38
0.01452399604 -0.4807587862 -0.185779959 1.184631237e-38
0.1836319268 -0.3883934617 -0.2505141199 1.184631237e-38
-0.09979568422 -0.4841338396 -0.1303566396 1.184631237e-38
-0.172137171 -0.276168853 -0.2282106578 1.184631237e-38
-0.2434854209 -0.487994045 -0.05939566344 1.184631237e-38
-0.1911843121 -0.1526047587 -0.2280081213 1.184631237e-38
-0.2305692434 -0.4729536176 -0.2053005993 1.184631237e-38
-0.08539394289 -0.006404906511 -0.2506414056 1.184631237e-38
-0.1350986958 -0.1615138352 -0.2376360893 1.184631237e-38
0.1471330822 -0.1495046318 -0.2461338639 1.184631237e-38
0.1542995572 -0.4663466513 0.1656558514 1.184631237e-38
0.3394274116 -0.442035675 -0.2484986782 1.184631237e-38
-0.04404203966 -0.483415097 0.04151349515 1.184631237e-38
0.1978211999 -0.1717015207 -0.2446873188 1.184631237e-38
0.240062952 -0.3411414623 -0.06028836221 1.184631237e-38
-0.2023328245 -0.02801209688 -0.2351231575 1.184631237e-38
0.32440418 -0.4054816663 -0.2379913926 1.184631237e-38
0.3155617714 -0.1106933504 -0.2553618252 1.184631237e-38
-0.07220447063 -0.03013677895 -0.2475459278 1.184631237e-38
0.3408192992 -0.3100673854 -0.2621642649 1.184631237e-38
0.3043553531 -0.2845813632 -0.2440961599 1.184631237e-38
0.06875239313 -0.1604105532 -0.2496069968 1.184631237e-38
0.3111133277 -0.04183253646 -0.2624632716 1.184631237e-38
0.2892892063 -0.436698854 -0.01023165882 1.184631237e-38
-0.3148940802 -0.1684639156 -0.2184899747 1.184631237e-38
-0.3173865676 -0.4929797649 -0.001354917884 1.184631237e-38
0.1720630229 -0.05661374331 -0.2506292462 1.184631237e-38
-0.1744178832 0.01316061616 -0.2462958395 1.184631237e-38
-0.2214157283 -0.486828208 -0.09141420573 1.184631237e-38
0.1656234562 -0.4775592387 -0.09567485005 1.184631237e-38
-0.1823258996 -0.2266281545 -0.2257871032 1.184631237e-38
0.09976323694 -0.4657534659 -0.2247000635 1.184631237e-38
0.2481372356 -0.1375599056 -0.248899132 1.184631237e-38
-0.1299758852 -0.196080178 -0.2364819646 1.184631237e-38
0.1328087151 -0.4787003994 -0.1128010228 1.184631237e-38
0.3031633496 -0.4745230973 -0.147097975 1.184631237e-38
0.3392837048 -0.190517202 -0.2616737783 1.184631237e-38
0.3064729273 -0.4189901352 -0.1525278687 1.184631237e-38
-0.3127461374 -0.4873744845 0.02414262295 1.184631237e-38
0.330601126 -0.09722159803 -0.2519586384 1.184631237e-38
0.08867483586 -0.2437844574 -0.2463366985 1.184631237e-38
-0.3132518828 0.01435366273 -0.2350635231 1.184631237e-38
0.2263351083 -0.4803282917 -0.2064754963 1.184631237e-38
0.2195594013 -0.4842047691 0.1404322684 1.184631237e-38
0.3390134573 -0.3534522057 -0.2644634247 1.184631237e-38
-0.2385403514 -0.4877733588 -0.08945520967 1.184631237e-38
-0.1457053721 -0.09894764423 -0.2383129895 1.184631237e-38
-0.146555841 -0.0572951436 -0.2385662198 1.184631237e-38
-0.09564691037 -0.01171302795 -0.2482391 1.184631237e-38
-0.1643952131 -0.39182657 -0.1918322444 1.184631237e-38
-0.2943803668 -0.4877304435 0.04688558728 1.184631237e-38
-0.1545120478 -0.1589120626 -0.234272182 1.184631237e-38
0.1911566556 -0.03936953843 -0.2533106506 1.184631237e-38
-0.08918622881 -0.4826129377 -0.08659908921 1.184631237e-38
0.2560496032 -0.3676727116 -0.06775378436 1.184631237e-38
-0.1541256607 -0.485622853 0.06553647667 1.184631237e-38
0.02912045084 -0.4820851982 0.03058297932 1.184631237e-38
-0.2318233252 -0.4890152216 0.09749609232 1.184631237e-38
-0.3202190697 -0.04441063106 -0.22621876 1.184631237e-38
0.05616797507 -0.3103188574 -0.2403920591 1.184631237e-38
-0.02630133554 -0.4824045897 -0.1015639529 1.184631237e-38
0.2554159462 -0.3030764759 -0.1018732563 1.184631237e-38
0.246093452 -0.4800403714 -0.2154285312 1.184631237e-38
-0.1289677024 0.007945358753 -0.2485489249 1.184631237e-38
0.1728843451 -0.4804370403 0.1690373421 1.184631237e-38
0.08235190064 -0.1922970712 -0.2469940186 1.184631237e-38
0.2267860174 -0.1212601364 -0.2485176623 1.184631237e-38
0.286921382 -0.1499460787 -0.2540374398 1.184631237e-38
0.2995164394 -0.4657443762 0.03012062609 1.184631237e-38
-0.3375371397 -0.4811273813 -0.09478532523 1.184631237e-38
0.2634503841 -0.03014455736 -0.2614502907 1.184631237e-38
0.2814715803 -0.4197028279 -0.03129887581 1.184631237e-38
0.201628089 -0.4430133402 0.03734964877 1.184631237e-38
-0.2231731117 -0.4883086085 0.09176573157 1.184631237e-38
-0.2397010028 -0.4878342152 -0.08728265017 1.184631237e-38
0.2260002792 -0.02601751685 -0.2632547319 1.184631237e-38
-0.08190958947 -0.4862906933 0.1219021454 1.184631237e-38
-0.0427840203 -0.2749237716 -0.2376452386 1.184631237e-38
-0.3293156922 -0.01444944739 -0.2315049171 1.184631237e-38
0.2709031999 -0.2710051239 -0.1339201033 1.184631237e-38
0.1264735758 -0.2957749665 -0.2506194711 1.184631237e-38
0.1866398156 -0.1361699998 -0.2467924654 1.184631237e-38
0.2399368584 -0.3698807955 -0.2484668195 1.184631237e-38
-0.1734732985 -0.1506636739 -0.2312776744 1.184631237e-38
-0.2976559401 -0.04969169199 -0.2250290513 1.184631237e-38
0.01187994331 -0.4852100313 0.1630372852 1.184631237e-38
-0.1891089976 -0.224333629 -0.2243410051 1.184631237e-38
0.2495986521 -0.31108284 -0.08923006803 1.184631237e-38
0.3115291595 -0.4715429246 -0.06928379089 1.184631237e-38
0.05242699385 -0.4824191034 0.05058643967 1.184631237e-38
0.05906300992 -0.3435451388 -0.2424132824 1.184631237e-38
0.3224068582 -0.2432438582 -0.2476256788 1.184631237e-38
0.3282283843 -0.2971161902 -0.2486787438 1.184631237e-38
-0.05658847839 -0.2737219632 -0.235966742 1.184631237e-38
0.01461579744 -0.380605787 -0.2430715859 1.184631237e-38
-0.2771247625 -0.4913982749 0.03875270113 1.184631237e-38
-0.04710000008 -0.487397939 0.1739107966 1.184631237e-38
0.1523685753 -0.1938319951 -0.24575454 1.184631237e-38
0.1784965992 -0.06270217896 -0.2531246245 1.184631237e-38
0.1193058342 -0.4814682305 -0.1803899705 1.184631237e-38
0.2181314826 -0.4744196534 -0.2238783836 1.184631237e-38
-0.1549173594 -0.3907072246 -0.2279748321 1.184631237e-38
0.2389108241 -0.3637770414 -0.2483179271 1.184631237e-38
-0.1419269145 -0.2252860963 -0.2345826328 1.184631237e-38
0.338755697 -0.1739870906 -0.2601910532 1.184631237e-38
0.1726289988 -0.4791898727 0.04746427387 1.184631237e-38
0.1745250225 -0.4811902046 -0.1954902411 1.184631237e-38
0.2336179912 -0.4795427918 -0.2202029228 1.184631237e-38
-0.04330833629 -0.4870441258 0.1976132393 1.184631237e-38
-0.3314116597 -0.4341708422 -0.1772132218 1.184631237e-38
0.312912941 -0.3961156011 -0.1808640659 1.184631237e-38
-0.09747113287 -0.4822641611 -0.05260170251 1.478322936e-38
-0.2067670226 -0.1525378525 -0.2419671714 1.478322936e-38
-0.05716271698 -0.2814531922 -0.218886137 1.478322936e-38
0.3206559718 -0.1705144048 -0.2383452356 1.478322936e-38
-0.2439797819 -0.486761272 -0.1200044379 1.478322936e-38
-0.2930422425 -0.4878607988 0.07693956047 1.478322936e-38
0.3369064033 -0.4739880264 -0.1691473126 1.478322936e-38
-0.02810907364 -0.4560634792 -0.2149860561 1.478322936e-38
0.2072910666 -0.4432990253 0.02711832896 1.478322936e-38
-0.06096170843 -0.4838042855 0.200768739 1.478322936e-38
0.1151762381 -0.4346140921 0.009229850024 1.478322936e-38
0.2107805014 -0.2942543328 -0.227214098 1.478322936e-38
-0.114729397 -0.4837466478 -0.09630110115 1.478322936e-38
0.1739656329 -0.4810073972 -0.1896840036 1.478322936e-38
0.1782680452 -0.4151912928 -0.2332806587 1.478322936e-38
0.2927647531 -0.4812601805 0.03447430581 1.478322936e-38
0.2900397778 -0.4304342866 -0.2221752107 1.478322936e-38
-0.03765774518 -0.4841609597 -0.1439811289 1.478322936e-38
0.1305081397 -0.4353402555 -0.2292445898 1.478322936e-38
-0.1324647963 -0.4833909273 -0.07763912529 1.478322936e-38
-0.1177389249 -0.2362991869 -0.2035532892 1.478322936e-38
-0.2415027916 -0.485445857 -0.000578276813 1.478322936e-38
-0.1440657377 -0.13634561 -0.2104722261 1.478322936e-38
-0.226810962 -0.4837677479 -0.1490701139 1.478322936e-38
-0.007096674293 0.04375198483 -0.2433060408 1.478322936e-38
-0.07754175365 -0.1032644659 -0.2216268182 1.478322936e-38
0.142068848 -0.2398684621 -0.2385862172 1.478322936e-38
0.1022793502 -0.4846794605 0.1919451654 1.478322936e-38
0.2976919711 -0.4783123732 -0.1702946126 1.478322936e-38
-0.07662919909 -0.4811355472 0.08795516938 1.478322936e-38
0.1767684221 -0.2677921355 -0.2325103879 1.478322936e-38
0.2366148531 -0.4186121523 -0.02950882167 1.478322936e-38
-0.1397237778 0.0003396570683 -0.2287557125 1.478322936e-38
0.2646395862 -0.4740043283 -0.2084075511 1.478322936e-38
0.3218367994 -0.2126454413 -0.2357005775 1.478322936e-38
0.003300023265 0.01492673159 -0.2466129959 1.478322936e-38
0.3486829996 -0.4129961729 -0.2383494377 1.478322936e-38
0.2909173965 -0.3967438638 -0.2216320336 1.478322936e-38
0.08504648507 -0.2944766283 -0.2397154272 1.478322936e-38
0.3279531598 -0.1327067912 -0.2426256537 1.478322936e-38
0.2878583074 -0.4839297533 0.06279055029 1.478322936e-38
-0.267021805 -0.2601490319 -0.1916752458 1.478322936e-38
-0.3191125095 -0.4882265329 0.05372685194 1.478322936e-38
0.1912128031 -0.137762934 -0.2408322394 1.478322936e-38
-0.08336051553 0.04825544357 -0.2386777103 1.478322936e-38
-0.2263107002 -0.4852514565 -0.02779216319 1.478322936e-38
0.07845824957 -0.4778829813 -0.0141094923 1.478322936e-38
-0.1293641329 -0.2026882172 -0.2035888731 1.478322936e-38
0.03991465271 -0.4783951938 -0.1865798831 1.478322936e-38
0.2406122983 -0.2342651337 -0.2289625704 1.478322936e-38
-0.07625278831 -0.1334431618 -0.220526278 1.478322936e-38
0.05036357418 -0.4791430235 -0.036742948 1.478322936e-38
0.2236583829 -0.4767728448 -0.06500569731 1.478322936e-38
0.3510187864 -0.3131926656 -0.2451319396 1.478322936e-38
0.3231062591 -0.4770289063 -0.08789903671 1.478322936e-38
-0.3076016903 -0.4851337671 0.07016177475 1.478322936e-38
0.3441610336 -0.2147162557 -0.2352837622 1.478322936e-38
0.0556964241 -0.3392984867 -0.2290595174 1.478322936e-38
-0.2518993318 0.02677088976 -0.2288451493 1.478322936e-38
0.1301511526 -0.4785856009 -0.1307577491 1.478322936e-38
0.1420643926 -0.4855436385 0.1758190691 1.478322936e-38
0.3465363681 -0.4422184229 -0.2274228036 1.478322936e-38
-0.239734143 -0.4858436584 -0.02377270162 1.478322936e-38
-0.07845383883 -0.05435028672 -0.2224400342 1.478322936e-38
-0.07636145502 -0.01452696323 -0.2308742702 1.478322936e-38
-0.01989685744 0.03452214599 -0.2454909384 1.478322936e-38
-0.1353755295 -0.4423535466 -0.1307350993 1.478322936e-38
-0.2843515873 -0.4834919572 0.09332812577 1.478322936e-38
-0.1013768092 -0.1121079475 -0.2184405625 1.478322936e-38
0.2086685896 -0.01387569308 -0.2349554896 1.478322936e-38
-0.1200376227 -0.4819782972 -0.01854588091 1.478322936e-38
0.2847986221 -0.4407982826 -0.01530156285 1.478322936e-38
-0.1518781483 -0.4823630452 0.1005349904 1.478322936e-38
-0.01377203688 -0.480319798 0.08742306381 1.478322936e-38
-0.2185436487 -0.4833340645 0.1351352632 1.478322936e-38
-0.2282139659 -0.1664776802 -0.2331970334 1.478322936e-38
0.04808944464 -0.3146259487 -0.2263010144 1.478322936e-38
-0.06332875788 -0.4812682271 -0.03491261601 1.478322936e-38
0.2639001012 -0.390593648 -0.05974020064 1.478322936e-38
0.1459501982 -0.4786477983 -0.1400256157 1.478322936e-38
-0.04558874667 0.05026489496 -0.2436661422 1.478322936e-38
0.1078692973 -0.4867397547 0.1976053417 1.478322936e-38
0.08226454258 -0.323548466 -0.2349795103 1.478322936e-38
0.2272286713 -0.2139061391 -0.2317100465 1.478322936e-38
0.2911373973 -0.2466473728 -0.2306821644 1.478322936e-38
0.2716252804 -0.486233294 0.1072859913 1.478322936e-38
-0.3523600399 -0.4861039519 -0.02904929966 1.478322936e-38
0.2950637937 -0.1136042327 -0.2429183722 1.478322936e-38
0.2904061377 -0.4727581143 0.03784925491 1.478322936e-38
0.1609112024 -0.4558320642 0.08569004387 1.478322936e-38
-0.2124985754 -0.483679235 0.1281141937 1.478322936e-38
-0.2405066788 -0.485837996 -0.02214610577 1.478322936e-38
0.2596700191 -0.09429721534 -0.244825542 1.478322936e-38
-0.09594829381 -0.4827806354 0.1370778978 1.478322936e-38
-0.001989841461 -0.2046855986 -0.2277978361 1.478322936e-38
-0.2533446252 -0.05584679544 -0.2318258584 1.478322936e-38
0.2691246867 -0.3722026646 -0.09494712204 1.478322936e-38
0.07583155483 -0.3794472218 -0.2334795892 1.478322936e-38
0.1828232706 -0.2270450294 -0.2343225777 1.478322936e-38
0.1877405643 -0.4387999177 -0.2293314636 1.478322936e-38
-0.1259304881 -0.1187979877 -0.2160573006 1.478322936e-38
-0.2391836345 -0.07236407697 -0.2155926824 1.478322936e-38
-0.02571195364 -0.4822793007 0.1711652875 1.478322936e-38
-0.1370326877 -0.2071158141 -0.2026861906 1.478322936e-38
0.2577605546 -0.3933374882 -0.05351498723 1.478322936e-38
0.2805949748 -0.4791314602 0.0218193084 1.478322936e-38
-0.0001259818673 -0.4807177782 0.1027380526 1.478322936e-38
-0.0002517849207 -0.3431022167 -0.2270452976 1.478322936e-38
0.329832077 -0.3599496484 -0.2282934487 1.478322936e-38
0.3325906098 -0.4064530134 -0.2296627462 1.478322936e-38
-0.02545440942 -0.2028023303 -0.2252625227 1.478322936e-38
-0.04526562989 -0.3813494146 -0.2253969014 1.478322936e-38
-0.2702317834 -0.4875567555 0.08786957711 1.478322936e-38
-0.07262729108 -0.4829923511 0.1764927953 1.478322936e-38
0.1261620671 -0.2924185693 -0.2380550802 1.478322936e-38
0.2065658569 -0.02690473199 -0.250621289 1.478322936e-38
0.03383829445 -0.4815751314 -0.1236231104 1.478322936e-38
0.1321445704 -0.4807010293 -0.1777292192 1.478322936e-38
-0.1659104228 -0.4188764691 -0.2130773664 1.478322936e-38
0.189812392 -0.4365538955 -0.229937911 1.478322936e-38
-0.09202854335 -0.1634732485 -0.2156634033 1.478322936e-38
0.3492032588 -0.2949273586 -0.2412180305 1.478322936e-38
0.07578825951 -0.4800680876 0.1067716926 1.478322936e-38
0.08265893906 -0.480039835 -0.1293738186 1.478322936e-38
0.1399129331 -0.4795513749 -0.15719679 1.478322936e-38
-0.06610859185 -0.4837214351 0.196693629 1.478322936e-38
-0.3582143784 -0.4580521584 -0.1245053932 1.478322936e-38
0.3282848597 -0.474414587 -0.1183952615 1.478322936e-38
-0.0280549787 -0.4806264639 0.007056031376 1.771655483e-38
-0.2115566134 -0.3034465313 -0.1819551885 1.771655483e-38
0.06510737538 -0.3426199555 -0.2257247567 1.771655483e-38
0.3106975257 -0.07334552705 -0.2346463501 1.771655483e-38
-0.160015583 -0.4849340916 -0.07230038196 1.771655483e-38
-0.2275662422 -0.483088553 0.1225121319 1.771655483e-38
0.3186942935 -0.3810499012 -0.1362882257 1.771655483e-38
0.07260835171 -0.4658818245 -0.197285533 1.771655483e-38
0.2177553773 -0.3893916011 -0.01523824781 1.771655483e-38
-0.01672546938 -0.462559402 0.2062688768 1.771655483e-38
0.1616126895 -0.370470047 -0.01359029114 1.771655483e-38
0.2774389088 -0.2071166337 -0.2276913524 1.771655483e-38
-0.03602997214 -0.4821542501 -0.04342380166 1.771655483e-38
0.2956224084 -0.4794842005 -0.1824011803 1.771655483e-38
0.2778722644 -0.3789510131 -0.2244438827 1.771655483e-38
0.2991141975 -0.4575950503 0.01407612115 1.771655483e-38
0.3349714577 -0.3373928964 -0.2263290882 1.771655483e-38
0.02590962872 -0.4818597436 -0.09498495609 1.771655483e-38
0.2493172586 -0.4418397248 -0.2247361541 1.771655483e-38
-0.05261580646 -0.481639564 -0.0229517743 1.771655483e-38
-0.07302477956 -0.3255436122 -0.2139748335 1.771655483e-38
-0.1781314015 -0.4824552536 0.04724984616 1.771655483e-38
-0.1149519309 -0.2003636062 -0.2018031478 1.771655483e-38
-0.144762665 -0.4855832458 -0.09808006138 1.771655483e-38
0.1198274493 0.02657559514 -0.2490226924 1.771655483e-38
-0.01895314828 -0.1561670899 -0.2239612639 1.771655483e-38
0.2176907659 -0.1658506542 -0.2400694191 1.771655483e-38
0.1176755354 -0.4426537156 0.154282555 1.771655483e-38
0.3310842514 -0.4314737916 -0.1473187506 1.771655483e-38
-0.02326280624 -0.4802696407 0.125296846 1.771655483e-38
0.2500593364 -0.1885038614 -0.2319567204 1.771655483e-38
0.2635456622 -0.2874726355 -0.05634737015 1.771655483e-38
-0.09673849493 -0.04822342098 -0.2156918049 1.771655483e-38
0.3431335092 -0.4428258538 -0.2189874649 1.771655483e-38
0.315608561 -0.1059479713 -0.2325690985 1.771655483e-38
0.1305399388 0.0002397596836 -0.2492922843 1.771655483e-38
0.334030807 -0.2879115939 -0.1995657384 1.771655483e-38
0.326182127 -0.292956382 -0.2264767289 1.771655483e-38
0.1404325664 -0.1681882739 -0.2456686497 1.771655483e-38
0.3162852824 -0.03596800566 -0.2297927439 1.771655483e-38
0.2585330009 -0.4231528044 0.008141901344 1.771655483e-38
-0.2896884382 -0.3270944357 -0.1826099455 1.771655483e-38
-0.2606833577 -0.4845091701 0.1038312316 1.771655483e-38
0.2308026552 -0.07159759104 -0.2420454323 1.771655483e-38
-0.03333830088 0.02729159594 -0.2317815423 1.771655483e-38
-0.1571563482 -0.4825658798 0.01853320375 1.771655483e-38
0.182624042 -0.4772732854 0.01020087302 1.771655483e-38
-0.1113826409 -0.2852292061 -0.2006828189 1.771655483e-38
0.1386276484 -0.4811058342 -0.1638515294 1.771655483e-38
0.2814976871 -0.151507929 -0.2325139046 1.771655483e-38
-0.01014965959 -0.1893644929 -0.221773088 1.771655483e-38
0.1438575983 -0.4767969251 -0.00865855813 1.771655483e-38
0.3170449138 -0.4757710695 -0.047081545 1.771655483e-38
0.3309913874 -0.1689294726 -0.2014379501 1.771655483e-38
0.3123492301 -0.4086773992 -0.07397974283 1.771655483e-38
-0.263274461 -0.4817358553 0.1246293038 1.771655483e-38
0.3356070817 -0.07390941679 -0.1976671815 1.771655483e-38
0.1650862396 -0.2695230246 -0.2388964891 1.771655483e-38
-0.1998680234 -0.1177858859 -0.2229008377 1.771655483e-38
0.2555416226 -0.4778401852 -0.1160783991 1.771655483e-38
0.1795338094 -0.4669702649 0.1611242145 1.771655483e-38
0.332232058 -0.334210366 -0.1919166446 1.771655483e-38
-0.173910439 -0.4828279316 0.02268824354 1.771655483e-38
-0.03227172047 -0.09322836995 -0.2237478793 1.771655483e-38
-0.02869945765 -0.05015453696 -0.2220754027 1.771655483e-38
0.09005047381 0.02576422691 -0.2473590672 1.771655483e-38
-0.222546041 -0.40503335 -0.05404393375 1.771655483e-38
-0.2314132154 -0.4802997708 0.145175755 1.771655483e-38
-0.05371398479 -0.1671878994 -0.2182222903 1.771655483e-38
0.3007045984 0.009867012501 -0.259311378 1.771655483e-38
-0.04974296689 -0.4798543453 0.0367969051 1.771655483e-38
0.2618611753 -0.3461087644 -0.04934484512 1.771655483e-38
-0.1004385799 -0.4815294445 0.1350591183 1.771655483e-38
0.0443206504 -0.4802197814 0.1216185987 1.771655483e-38
-0.1578285396 -0.4620292783 0.1643092334 1.771655483e-38
-0.238881886 -0.3038787842 -0.1829047501 1.771655483e-38
0.1534991264 -0.3166186512 -0.2322886288 1.771655483e-38
-0.0002658199519 -0.4795731604 0.02257406339 1.771655483e-38
0.2780945003 -0.2404334843 -0.06511650234 1.771655483e-38
0.2769161165 -0.4778270423 -0.1261463165 1.771655483e-38
0.03288905695 0.05121710896 -0.241117835 1.771655483e-38
0.1354009658 -0.4592987299 0.1666182876 1.771655483e-38
0.1610790193 -0.2162318826 -0.2432821989 1.771655483e-38
0.2700349987 -0.1381103843 -0.233422339 1.771655483e-38
0.3059594035 -0.1514806598 -0.2343822122 1.771655483e-38
0.2639172971 -0.4523870945 0.05968738347 1.771655483e-38
-0.3244148195 -0.4776116014 0.02129011229 1.771655483e-38
0.2912594676 -0.02336090803 -0.2465739846 1.771655483e-38
0.2584227026 -0.410897851 -0.01147088408 1.771655483e-38
0.1729106307 -0.4325003028 0.03877402097 1.771655483e-38
-0.150983274 -0.4694435596 0.1569458544 1.771655483e-38
-0.1749188602 -0.4828082323 0.02460329235 1.771655483e-38
0.2682172954 -0.009471416473 -0.2470842004 1.771655483e-38
-0.05137966573 -0.4812278152 0.1609688699 1.771655483e-38
0.1014397815 -0.2465406358 -0.2314296365 1.771655483e-38
-0.2196287811 -0.2202847302 -0.1985864937 1.771655483e-38
0.3002119362 -0.2123636007 -0.07690168172 1.771655483e-38
0.2012602687 -0.3263484538 -0.2282804251 1.771655483e-38
0.2466664314 -0.1528558284 -0.2350315154 1.771655483e-38
0.2955832183 -0.4156217575 -0.2241045833 1.771655483e-38
-0.0904661715 -0.1727469862 -0.2106818557 1.771655483e-38
-0.2072229683 -0.2066869438 -0.2037459016 1.771655483e-38
0.03353364766 -0.4822528362 0.1861395538 1.771655483e-38
-0.1216717139 -0.2892203331 -0.2001522481 1.771655483e-38
0.2744576931 -0.2519669533 -0.06215409189 1.771655483e-38
0.308167398 -0.4678798914 0.01659483835 1.771655483e-38
0.06414015591 -0.48046574 0.1346111298 1.771655483e-38
0.1396264434 -0.3790625334 -0.2322224975 1.771655483e-38
0.3284187317 -0.244728595 -0.2321214974 1.771655483e-38
0.3371398151 -0.3035554886 -0.2312949598 1.771655483e-38
0.08807244897 -0.2524867952 -0.2263974845 1.771655483e-38
0.1051049605 -0.40526402 -0.2324596047 1.771655483e-38
-0.2048379183 -0.4823151231 0.1282314658 1.771655483e-38
-0.0247721076 -0.4763122797 0.1945866942 1.771655483e-38
0.2170235217 -0.2106211334 -0.235616982 1.771655483e-38
0.2993061244 -0.0088942945 -0.2585057616 1.771655483e-38
0.1397635937 -0.4790505767 -0.08126107603 1.771655483e-38
0.2401723564 -0.4807035327 -0.1684583426 1.771655483e-38
-0.06434269994 -0.4444042444 -0.2161634266 1.771655483e-38
0.2953945398 -0.4096568823 -0.2240332961 1.771655483e-38
-0.01944284141 -0.2253453135 -0.2159289718 1.771655483e-38
0.3318229914 -0.1516820788 -0.1985169649 1.771655483e-38
0.1800422966 -0.4795814455 0.1412067264 1.771655483e-38
0.1919898689 -0.4787377715 -0.1037861779 1.771655483e-38
0.2594099939 -0.4788981676 -0.1429492533 1.771655483e-38
-0.01897336543 -0.466881007 0.2062731683 1.771655483e-38
-0.3686231971 -0.4653090239 -0.07181934267 1.771655483e-38
0.3114493787 -0.3763642907 -0.09399404377 1.771655483e-38
-0.01551137492 -0.4805095196 0.02215350792 2.06466517e-38
-0.1677818298 -0.3478163481 -0.1678136289 2.06466517e-38
0.1109818667 -0.354144454 -0.222776711 2.06466517e-38
0.3159274161 -0.06887425482 -0.212105751 2.06466517e-38
-0.1611198187 -0.4832375348 -0.05001128465 2.06466517e-38
-0.2457120121 -0.4759628773 0.1389468908 2.06466517e-38
0.3233746886 -0.3665553927 -0.1066677198 2.06466517e-38
0.1267573982 -0.4767712951 -0.1767736375 2.06466517e-38
0.2586810887 -0.3803156316 -0.01031670719 2.06466517e-38
-0.02756956592 -0.4503823221 0.1910435855 2.06466517e-38
0.216846019 -0.3648219407 -0.01609370112 2.06466517e-38
0.2828104794 -0.2149174809 -0.2211255431 2.06466517e-38
-0.01524747536 -0.4813944697 -0.02453761548 2.06466517e-38
0.3250675797 -0.4811417162 -0.1503326595 2.06466517e-38
0.3015509248 -0.3852103949 -0.2194811404 2.06466517e-38
0.3263970315 -0.4577447772 0.01799039543 2.06466517e-38
0.335249573 -0.3417658806 -0.2129511833 2.06466517e-38
0.07058078051 -0.4812965095 -0.07378221303 2.06466517e-38
0.2915346324 -0.4552316666 -0.2172185183 2.06466517e-38
-0.03946647793 -0.481489718 -0.0003681331873 2.06466517e-38
-0.03314076364 -0.3467050195 -0.2151173055 2.06466517e-38
-0.1906341016 -0.4814426899 0.07245887816 2.06466517e-38
-0.08461929113 -0.2212620974 -0.1990872622 2.06466517e-38
-0.1345593333 -0.4839525223 -0.07778012007 2.06466517e-38
0.1435777843 0.03750658035 -0.2449311018 2.06466517e-38
0.01422282401 -0.1587422788 -0.2228036523 2.06466517e-38
0.2297857404 -0.1686079651 -0.2354631126 2.06466517e-38
0.1587977409 -0.4482365251 0.1362453997 2.06466517e-38
0.3314007521 -0.4250549078 -0.1158016399 2.06466517e-38
-0.01683601737 -0.4810065627 0.1284514666 2.06466517e-38
0.2585015297 -0.1933481097 -0.2256604731 2.06466517e-38
0.2874198556 -0.2603403032 -0.04811086506 2.06466517e-38
-0.06566446275 -0.04137645662 -0.2129643261 2.06466517e-38
0.3458666205 -0.4419987202 -0.1919546723 2.06466517e-38
0.3165735304 -0.1025979966 -0.2093622088 2.06466517e-38
0.1609363854 0.01421165466 -0.2480574548 2.06466517e-38
0.3326385915 -0.2793314755 -0.1685007215 2.06466517e-38
0.3253563046 -0.2977896929 -0.2160888314 2.06466517e-38
0.1521794498 -0.169292748 -0.2501797378 2.06466517e-38
0.3235938847 -0.02566450834 -0.2085722983 2.06466517e-38
0.287719667 -0.4210631251 0.007623698562 2.06466517e-38
-0.2690662742 -0.3318256736 -0.1543956995 2.06466517e-38
-0.2789298296 -0.47032547 0.121935159 2.06466517e-38
0.2318697572 -0.0784586221 -0.2341106534 2.06466517e-38
-0.00177943334 0.04152700305 -0.2268758714 2.06466517e-38
-0.163788408 -0.4811793566 0.04807598889 2.06466517e-38
0.2455898225 -0.477019757 0.02641919628 2.06466517e-38
-0.07716733962 -0.303395927 -0.2030543089 2.06466517e-38
0.1813424826 -0.4822625518 -0.1445665359 2.06466517e-38
0.2805500329 -0.1562281698 -0.2244262397 2.06466517e-38
0.02515667677 -0.1920943707 -0.22141397 2.06466517e-38
0.2051927149 -0.4766781926 0.006729636341 2.06466517e-38
0.3345752656 -0.4775516391 -0.02366539836 2.06466517e-38
0.3382609487 -0.1589640081 -0.1760765612 2.06466517e-38
0.318934679 -0.3927271068 -0.0560702458 2.06466517e-38
-0.2782094181 -0.457509011 0.1373474598 2.06466517e-38
0.3422823548 -0.06500032544 -0.1723742187 2.06466517e-38
0.1863347292 -0.2634572387 -0.2401545942 2.06466517e-38
-0.1607964933 -0.1498577148 -0.2128102779 2.06466517e-38
0.3010689616 -0.4768739939 -0.08395311981 2.06466517e-38
0.2382595241 -0.4730061293 0.1535251439 2.06466517e-38
0.3317833245 -0.3259716034 -0.156811595 2.06466517e-38
-0.1809614599 -0.4814112782 0.05277069658 2.06466517e-38
0.001144448295 -0.09261506796 -0.2222474813 2.06466517e-38
0.007150596008 -0.04429592192 -0.224765569 2.06466517e-38
0.1260361671 0.03838649392 -0.2439256608 2.06466517e-38
-0.2071019709 -0.4141941071 -0.006611436605 2.06466517e-38
-0.253633827 -0.4441613555 0.1545626372 2.06466517e-38
-0.02520240471 -0.1697857529 -0.2178129554 2.06466517e-38
0.2974715233 0.002787441015 -0.2557650805 2.06466517e-38
-0.04098634049 -0.480109632 0.05234911293 2.06466517e-38
0.2933234572 -0.3170136213 -0.04381433874 2.06466517e-38
-0.1151917204 -0.4808301926 0.144854933 2.06466517e-38
0.07775013149 -0.4808024764 0.1225580722 2.06466517e-38
-0.1804820299 -0.4431718588 0.1711136699 2.06466517e-38
-0.188071996 -0.3444187641 -0.1563673913 2.06466517e-38
0.1721634865 -0.3054943085 -0.2348743677 2.06466517e-38
0.02085588872 -0.480002284 0.03639474139 2.06466517e-38
0.3048393726 -0.2144834399 -0.05651637912 2.06466517e-38
0.3144016862 -0.4781176746 -0.09214561433 2.06466517e-38
0.06910058111 0.06489887834 -0.2378986776 2.06466517e-38
0.1848509908 -0.4639564753 0.1554839909 2.06466517e-38
0.1798350513 -0.2128382176 -0.2467750609 2.06466517e-38
0.2696188688 -0.1440544426 -0.2263538539 2.06466517e-38
0.3032027185 -0.1549729705 -0.2226255238 2.06466517e-38
0.3065397143 -0.457413733 0.05492048338 2.06466517e-38
-0.3494057059 -0.4569026828 0.057737872 2.06466517e-38
0.2917938232 -0.02330377698 -0.2336718738 2.06466517e-38
0.2859068811 -0.4039741158 -0.0112106055 2.06466517e-38
0.2295659184 -0.4379500151 0.03746778145 2.06466517e-38
-0.16993922 -0.4526022077 0.1630999595 2.06466517e-38
-0.1824311912 -0.4813950062 0.05426274613 2.06466517e-38
0.2660020888 -0.01182183623 -0.2367100418 2.06466517e-38
-0.0522961989 -0.4821029305 0.1657833904 2.06466517e-38
0.1331702322 -0.2570796013 -0.2269489467 2.06466517e-38
-0.179897517 -0.2619141638 -0.1795467138 2.06466517e-38
0.3186766207 -0.199109301 -0.06553869694 2.06466517e-38
0.2295082808 -0.3230969012 -0.2243701518 2.06466517e-38
0.2535351515 -0.1582728922 -0.2284853458 2.06466517e-38
0.3219673932 -0.423333168 -0.2183668911 2.06466517e-38
-0.06022898853 -0.1792329699 -0.2087983787 2.06466517e-38
-0.1722378433 -0.2451533079 -0.1857848465 2.06466517e-38
0.0487672314 -0.4818133116 0.1820951402 2.06466517e-38
-0.09279689938 -0.3081688285 -0.2037901878 2.06466517e-38
0.3011191189 -0.2229364812 -0.05355012417 2.06466517e-38
0.3369936347 -0.4691382647 0.02162541077 2.06466517e-38
0.1042919829 -0.4809245467 0.1361501515 2.06466517e-38
0.1814653873 -0.3808424771 -0.2267827392 2.06466517e-38
0.3249943256 -0.2485323399 -0.2076843679 2.06466517e-38
0.3324173093 -0.3078777492 -0.2034250498 2.06466517e-38
0.1201750562 -0.2651682496 -0.2211527824 2.06466517e-38
0.1653310359 -0.4138723612 -0.2298378348 2.06466517e-38
-0.2254397273 -0.4735434651 0.14213337 2.06466517e-38
-0.02449345589 -0.4709596634 0.1910742223 2.06466517e-38
0.2323985398 -0.2133653462 -0.2317329347 2.06466517e-38
0.2972082496 -0.01587799191 -0.2556770146 2.06466517e-38
0.1872365773 -0.4780005217 -0.06141524762 2.06466517e-38
0.2805964947 -0.4793618023 -0.1314545274 2.06466517e-38
-0.02856067568 -0.4554450512 -0.1995032728 2.06466517e-38
0.3204553723 -0.4172368348 -0.2182303965 2.06466517e-38
0.01525128353 -0.2380916923 -0.2162695229 2.06466517e-38
0.3394627273 -0.1424689144 -0.1732794046 2.06466517e-38
0.2483818829 -0.4808458686 0.1435985267 2.06466517e-38
0.2439016104 -0.4773171544 -0.07583955675 2.06466517e-38
0.3011431396 -0.478220135 -0.1076830253 2.06466517e-38
-0.02640615776 -0.4553729296 0.1919400394 2.06466517e-38
-0.3735553026 -0.4435871243 -0.02932608128 2.06466517e-38
0.3179813325 -0.3623868227 -0.07287139446 2.06466517e-38
-0.1434833705 -0.4794516563 0.01589935645 2.348204041e-38
-0.083332479 -0.2465410978 -0.2028564513 2.348204041e-38
0.03539901972 -0.2037705779 -0.2193832099 2.348204041e-38
0.3165209889 -0.181078881 -0.2010090351 2.348204041e-38
-0.3243542016 -0.4665198326 -0.05693105608 2.348204041e-38
-0.3273304999 -0.4398264885 0.1277531236 2.348204041e-38
0.3261847496 -0.4601930678 -0.07814579457 2.348204041e-38
-0.06771472842 -0.4782158732 -0.1772591174 2.348204041e-38
0.2662941217 -0.4403350353 0.03948938847 2.348204041e-38
-0.100296028 -0.4672689438 0.1890999675 2.348204041e-38
0.1908539832 -0.4346153736 0.01505611837 2.348204041e-38
0.2613438964 -0.3267914057 -0.2241527438 2.348204041e-38
-0.1532121003 -0.48063308 -0.01702220738 2.348204041e-38
0.2018325925 -0.4791329503 -0.1159963682 2.348204041e-38
0.2515186667 -0.4467992187 -0.225823909 2.348204041e-38
0.3251260817 -0.4823948741 0.06920981407 2.348204041e-38
0.3312118948 -0.4694026709 -0.1986620724 2.348204041e-38
-0.06477358192 -0.4826004803 -0.06905516237 2.348204041e-38
0.1865512431 -0.4664925933 -0.213816911 2.348204041e-38
-0.173189193 -0.4805951715 0.003880850971 2.348204041e-38
-0.04354880005 -0.2030104548 -0.2027510107 2.348204041e-38
-0.3028872907 -0.4687684774 0.07595323771 2.348204041e-38
-0.0690048039 -0.1096218824 -0.2030157447 2.348204041e-38
-0.3102635443 -0.4678150713 -0.09359122068 2.348204041e-38
0.2217710018 0.06628891826 -0.2449471056 2.348204041e-38
0.04653000459 -0.05429717898 -0.2292197645 2.348204041e-38
0.1924376488 -0.308375895 -0.2418504059 2.348204041e-38
0.1026309431 -0.4785549641 0.1706749797 2.348204041e-38
0.3173189461 -0.4763566256 -0.07603580505 2.348204041e-38
-0.1154044941 -0.4799404144 0.1141903922 2.348204041e-38
0.2261648178 -0.3118221164 -0.2320955396 2.348204041e-38
0.2789870799 -0.3695942163 -0.01910468936 2.348204041e-38
-0.02090429142 0.06942412257 -0.2330411077 2.348204041e-38
0.3048758805 -0.4800009727 -0.1614727378 2.348204041e-38
0.315772593 -0.2259025872 -0.200057894 2.348204041e-38
0.2175527811 0.05215090513 -0.2499967515 2.348204041e-38
0.3265606761 -0.4072533846 -0.1515291929 2.348204041e-38
0.3245502412 -0.4336454272 -0.2073794901 2.348204041e-38
0.1953859031 -0.3282389045 -0.2390657663 2.348204041e-38
0.3230593503 -0.1376813799 -0.1965795755 2.348204041e-38
0.3215733469 -0.4829861224 0.07679317147 2.348204041e-38
-0.1564941704 -0.3445359766 -0.1724559963 2.348204041e-38
-0.3485765755 -0.4272810817 0.1105172485 2.348204041e-38
0.2215963602 -0.1743121743 -0.2419040203 2.348204041e-38
0.08964264393 0.07840210199 -0.2378717959 2.348204041e-38
-0.2796810865 -0.4738558829 0.05286812782 2.348204041e-38
0.09371000528 -0.4779888093 0.03223260492 2.348204041e-38
-0.05758764595 -0.1813600361 -0.2002637386 2.348204041e-38
0.03606518358 -0.4840481877 -0.1310205162 2.348204041e-38
0.2705469728 -0.263581872 -0.2245230079 2.348204041e-38
0.04587359726 -0.08532188833 -0.2276225686 2.348204041e-38
0.05893657357 -0.4780509472 0.01445078105 2.348204041e-38
0.2664286494 -0.4771934152 0.01268087327 2.348204041e-38
0.3316158056 -0.2900048494 -0.1584431827 2.348204041e-38
0.3285825849 -0.4772910476 -0.01608843356 2.348204041e-38
-0.3289215565 -0.4122086167 0.1215444207 2.348204041e-38
0.335427016 -0.1840724051 -0.1521452963 2.348204041e-38
0.1440581679 -0.3185274899 -0.217186898 2.348204041e-38
-0.1124698892 0.003419578075 -0.2392633557 2.348204041e-38
0.160603404 -0.4770252705 -0.05408131331 2.348204041e-38
0.1688265502 -0.4880957007 0.1694822609 2.348204041e-38
0.3253088295 -0.4401212931 -0.1378087103 2.348204041e-38
-0.2996474504 -0.4693891406 0.05541357398 2.348204041e-38
