# .PCD v0.7 - Point Cloud Data file format
VERSION 0.7
FIELDS x y z rgb
SIZE 4 4 4 4
TYPE F F F F
COUNT 1 1 1 1
WIDTH 832
HEIGHT 1
VIEWPOINT 0 0 0 1 0 0 0
POINTS 832
DATA ascii
0.1250517964 -0.3486207724 -0.4232093394 5.820783626e-39
0.1355710179 -0.3688681126 -0.4182995558 5.820783626e-39
-0.1464908123 -0.3589235842 -0.3290860057 5.820783626e-39
-0.1390940249 -0.3081021011 -0.3421623707 5.820783626e-39
0.007808394264 -0.3623751104 -0.417647928 5.820783626e-39
0.2385692447 -0.4843870401 -0.1812766939 5.820783626e-39
0.2880368233 -0.4464760423 -0.4295246899 5.820783626e-39
0.01515812241 -0.4627705812 -0.4079550803 5.820783626e-39
-0.1495984495 -0.3643219471 -0.2937667966 5.820783626e-39
0.2136366814 -0.224108845 -0.4293382466 5.820783626e-39
-0.0545116663 -0.2693327665 -0.413439095 5.820783626e-39
0.1421493888 -0.3060506284 -0.4320248961 5.820783626e-39
0.06434171647 -0.4758653045 -0.1891522259 5.820783626e-39
0.4311417937 -0.4761990607 -0.4039652646 5.820783626e-39
0.2531191707 -0.4557937384 -0.4211034775 5.820783626e-39
-0.09030535817 -0.3478898108 -0.4028114974 5.820783626e-39
-0.1363776922 -0.4532381296 -0.2934888303 5.820783626e-39
-0.118306987 -0.359180212 -0.383312732 5.820783626e-39
0.09291809797 -0.4817436934 -0.3724410832 5.820783626e-39
-0.1365938932 -0.4653683007 -0.2578133047 5.820783626e-39
0.1539182216 -0.4427107871 -0.4243105352 5.820783626e-39
0.1205464229 -0.3395200074 -0.4257570207 5.820783626e-39
-0.04248142987 -0.4535080492 -0.175696969 5.820783626e-39
-0.1502930671 -0.3556285203 -0.2876363695 5.820783626e-39
-0.1061252728 -0.4606592655 -0.3892589509 5.820783626e-39
0.09568044543 -0.4820617139 -0.1696343571 5.820783626e-39
0.02722232975 -0.4732461274 -0.3963242769 5.820783626e-39
-0.03058387898 -0.277510494 -0.4207385182 5.820783626e-39
0.1999503523 -0.4835096002 -0.3119351268 5.820783626e-39
0.2315703481 -0.219520539 -0.4259754419 5.820783626e-39
0.3282046616 -0.2952429354 -0.4122124314 5.820783626e-39
-0.1394640058 -0.4750567973 -0.2266834825 5.820783626e-39
0.158239767 -0.4791991115 -0.4052776992 5.820783626e-39
-0.1350380778 -0.4788331389 -0.1882936656 5.820783626e-39
-0.1126066372 -0.4336753786 -0.3908199072 5.820783626e-39
-0.09488901496 -0.4862989187 -0.3172141612 5.820783626e-39
-0.1362889409 -0.2241617739 -0.3149985075 5.820783626e-39
0.1482184231 -0.45112288 -0.2159269601 5.820783626e-39
0.4412692487 -0.4768945575 -0.3886859417 5.820783626e-39
0.1991527677 -0.2955402136 -0.4346438348 5.820783626e-39
0.1854646057 -0.3390420973 -0.4234048128 5.820783626e-39
0.2100126445 -0.2286228836 -0.4294704795 5.820783626e-39
-0.03821161389 -0.4561032057 -0.1766460687 5.820783626e-39
0.1172287315 -0.3060029149 -0.4303520918 5.820783626e-39
0.0324768126 -0.44774279 -0.4207803011 5.820783626e-39
0.2218120843 -0.3343375623 -0.4224543869 5.820783626e-39
-0.1345397532 -0.4671953917 -0.3200341761 5.820783626e-39
0.3882888854 -0.4804875255 -0.3763760924 5.820783626e-39
-0.1455802321 -0.2600857615 -0.3169500232 5.820783626e-39
-0.1019263119 -0.4426238835 -0.1543823481 5.820783626e-39
-0.1446983069 -0.2956818938 -0.3152137995 5.820783626e-39
-0.1477036774 -0.4243345857 -0.2022995204 5.820783626e-39
0.2152667195 -0.4711931944 -0.4188583791 5.820783626e-39
0.3393197656 -0.4795396328 -0.3937613666 5.820783626e-39
-0.08671812713 -0.3475055397 -0.405082494 5.820783626e-39
0.2838214338 -0.2795598209 -0.4159657955 5.820783626e-39
0.01655065455 -0.4195580781 -0.4228559732 5.820783626e-39
-0.08347018063 -0.2287250906 -0.3890241981 5.820783626e-39
-0.1565231979 -0.2403632998 -0.2484117001 5.820783626e-39
-0.07579355687 -0.3220537603 -0.4116301239 5.820783626e-39
0.03783816844 -0.4763048887 -0.395555228 5.820783626e-39
0.07462044805 -0.3789461553 -0.2255366892 5.820783626e-39
0.2058982104 -0.2199894488 -0.4265170097 5.820783626e-39
0.396569252 -0.4038346112 -0.4310682118 5.820783626e-39
0.3249471784 -0.4593578577 -0.4292913079 5.820783626e-39
0.1469755918 -0.2498014569 -0.4277721941 5.820783626e-39
-0.05396210402 -0.3240001798 -0.4198153019 5.820783626e-39
-0.09584466368 -0.4863680303 -0.3130797148 5.820783626e-39
0.241457656 -0.3330778778 -0.4213189185 5.820783626e-39
0.3814082444 -0.4808247089 -0.3756476343 5.820783626e-39
-0.1259230226 -0.2264026999 -0.3359101117 5.820783626e-39
-0.1034154892 -0.2318624854 -0.3741506338 5.820783626e-39
-0.0302947294 -0.2171306312 -0.396682173 5.820783626e-39
-0.09356010705 -0.4862382114 -0.3342278302 5.820783626e-39
0.4350585341 -0.475402236 -0.3991091251 5.820783626e-39
-0.1029082239 -0.2765794694 -0.3852891028 5.820783626e-39
0.196932137 -0.3351451457 -0.42357409 5.820783626e-39
0.2854828835 -0.484516412 -0.2915834785 5.820783626e-39
-0.143768996 -0.3205879629 -0.3210036159 5.820783626e-39
0.2735710442 -0.2988540232 -0.4313280582 5.820783626e-39
0.07770302147 -0.3660769463 -0.4186777472 5.820783626e-39
-0.08696275949 -0.29687801 -0.4066365063 5.820783626e-39
0.2787247002 -0.320376575 -0.4222266972 5.820783626e-39
-0.1231737658 -0.3602082431 -0.3751605749 5.820783626e-39
0.2830835879 -0.2809826434 -0.4166681468 5.820783626e-39
0.317876488 -0.4108365774 -0.4223353267 5.820783626e-39
0.4300335348 -0.4801356196 -0.3724782169 5.820783626e-39
-0.1250205189 -0.2383445501 -0.3516303599 5.820783626e-39
-0.1536129713 -0.2594826221 -0.2469236702 5.820783626e-39
-0.1348208338 -0.4598090053 -0.279436022 5.820783626e-39
0.1544838995 -0.4606977701 -0.2069772035 5.820783626e-39
-0.1413722038 -0.4388349354 -0.3352281451 5.820783626e-39
0.2019782066 -0.3199502528 -0.4286649823 5.820783626e-39
-0.06787731498 -0.2505335212 -0.4038583934 5.820783626e-39
0.272118479 -0.2731443644 -0.4329482913 5.820783626e-39
0.09383160621 -0.3653549552 -0.4183255434 5.820783626e-39
-0.1568857878 -0.2516202927 -0.2205601782 5.820783626e-39
-0.1056261957 -0.4827787876 -0.2088713795 5.820783626e-39
0.3173359931 -0.3026401401 -0.4065323174 5.820783626e-39
0.03599321097 -0.4840524197 -0.378182143 5.820783626e-39
0.2125924975 -0.464065969 -0.4196027517 5.820783626e-39
0.2226073295 -0.4827492237 -0.171727702 5.820783626e-39
-0.01687761769 -0.2237820476 -0.4107487202 5.820783626e-39
-0.1415145248 -0.2336541563 -0.3333072364 5.820783626e-39
-0.06168280542 -0.4356295764 -0.416454941 5.820783626e-39
0.2297596037 -0.4833261371 -0.3203456402 5.820783626e-39
-0.08022627234 -0.3609016538 -0.4109064341 5.820783626e-39
0.1571601778 -0.3566326201 -0.4180096686 5.820783626e-39
0.1395650059 -0.2412519157 -0.427583158 5.820783626e-39
-0.150478512 -0.3831010759 -0.2795009911 5.820783626e-39
-0.07956311852 -0.2301958203 -0.392067641 5.820783626e-39
-0.05700468272 -0.4840521216 -0.239557907 5.820783626e-39
-0.07136454433 -0.2422424555 -0.4003847837 5.820783626e-39
0.09973189235 -0.3327479362 -0.4264239967 5.820783626e-39
0.2374131978 -0.3081557751 -0.4318702817 5.820783626e-39
0.3947087526 -0.3964024186 -0.4300966561 5.820783626e-39
0.0586457029 -0.2190613449 -0.4192604125 5.820783626e-39
0.1886207014 -0.3174277842 -0.4302720726 5.820783626e-39
-0.09233820438 -0.2580870986 -0.3947182298 5.820783626e-39
0.004398760386 -0.3264041245 -0.4043732882 2.898180898e-39
-0.1533333212 -0.3313664794 -0.2074448317 2.898180898e-39
-0.05176081508 -0.2328074127 -0.381046325 2.898180898e-39
0.322699666 -0.2995436788 -0.420717746 2.898180898e-39
0.1751482487 -0.4501051307 -0.4115692675 2.898180898e-39
0.03724000975 -0.4673837423 -0.1624592692 2.898180898e-39
0.4392067194 -0.4812000394 -0.3478303552 2.898180898e-39
-0.06431771815 -0.4835843444 -0.3749875426 2.898180898e-39
-0.1018138304 -0.4513323605 -0.1205209345 2.898180898e-39
0.188684538 -0.3519309461 -0.4087558091 2.898180898e-39
0.2153760344 -0.3965458274 -0.411242038 2.898180898e-39
-0.1556598693 -0.3804098368 -0.2779030204 2.898180898e-39
-0.151158914 -0.3246474266 -0.2994509041 2.898180898e-39
0.0320283398 -0.3822698295 -0.4068180323 2.898180898e-39
0.2123320401 -0.4570156038 -0.177694723 2.898180898e-39
0.368175447 -0.4628698826 -0.4278207421 2.898180898e-39
0.08236177266 -0.479308933 -0.3943239152 2.898180898e-39
-0.1580171436 -0.3659772277 -0.2187656909 2.898180898e-39
0.2657731771 -0.2241662145 -0.419473201 2.898180898e-39
-0.0458310768 -0.289781034 -0.397709161 2.898180898e-39
0.1906140894 -0.3128092587 -0.418590337 2.898180898e-39
0.07523268461 -0.4466767609 -0.1746087521 2.898180898e-39
0.4229957163 -0.4391434193 -0.3913603127 2.898180898e-39
0.3320383132 -0.4699476659 -0.4179991484 2.898180898e-39
-0.09488861263 -0.3645473421 -0.3832216561 2.898180898e-39
-0.1393071264 -0.4661155939 -0.2337748259 2.898180898e-39
-0.1282717735 -0.386580646 -0.3476542234 2.898180898e-39
0.1457448155 -0.482453078 -0.3293207884 2.898180898e-39
-0.1412911266 -0.4766455591 -0.1918289214 2.898180898e-39
0.2432160228 -0.4646908045 -0.4129656851 2.898180898e-39
0.184458077 -0.3415812254 -0.4114751816 2.898180898e-39
-0.03313288838 -0.4295553863 -0.1489336491 2.898180898e-39
-0.157210052 -0.3554953933 -0.2098028511 2.898180898e-39
-0.096247904 -0.4809856415 -0.3694122434 2.898180898e-39
0.1155011579 -0.4783531129 -0.1584685743 2.898180898e-39
0.08668875694 -0.484280467 -0.3876167834 2.898180898e-39
0.004750794731 -0.3030048609 -0.4056238532 2.898180898e-39
0.2499513477 -0.4841827154 -0.2627770305 2.898180898e-39
0.2826648355 -0.2167964876 -0.4183678627 2.898180898e-39
0.3592675924 -0.22000736 -0.411836952 2.898180898e-39
-0.1359837204 -0.4801568389 -0.1577392071 2.898180898e-39
0.2184285671 -0.48190099 -0.3924919367 2.898180898e-39
-0.1223381683 -0.4783109426 -0.1333389878 2.898180898e-39
-0.1147567257 -0.4628491998 -0.3688376248 2.898180898e-39
-0.06192165613 -0.4850192666 -0.2718452215 2.898180898e-39
-0.1458571851 -0.237286523 -0.2632265985 2.898180898e-39
0.1461576223 -0.4144937694 -0.1960614473 2.898180898e-39
0.4152047038 -0.4456623793 -0.3824210167 2.898180898e-39
0.2613750398 -0.2997196019 -0.4223634899 2.898180898e-39
0.2602892518 -0.3357189 -0.4129560292 2.898180898e-39
0.2604671717 -0.229221344 -0.4186242223 2.898180898e-39
-0.02954725735 -0.432600081 -0.1496448815 2.898180898e-39
0.1545970142 -0.3174771369 -0.4166893661 2.898180898e-39
0.1003492177 -0.468261838 -0.4062006176 2.898180898e-39
0.2921684682 -0.3287159204 -0.4156045616 2.898180898e-39
-0.130276069 -0.47995013 -0.2644585967 2.898180898e-39
0.421250999 -0.4811636209 -0.3490166962 2.898180898e-39
-0.1452306211 -0.2690361142 -0.2509686649 2.898180898e-39
-0.09445943683 -0.4323973954 -0.1207597256 2.898180898e-39
-0.1481526494 -0.3037567139 -0.2492403239 2.898180898e-39
-0.1593042314 -0.4188414216 -0.122638002 2.898180898e-39
0.2809307873 -0.4823053479 -0.4141696095 2.898180898e-39
0.3862139285 -0.4799548984 -0.3638819158 2.898180898e-39
-0.09107469022 -0.366345197 -0.3879253268 2.898180898e-39
0.3157398403 -0.2507973313 -0.4338640571 2.898180898e-39
0.07497055084 -0.4460012615 -0.4108491838 2.898180898e-39
-0.08342392743 -0.2313530445 -0.3518674374 2.898180898e-39
-0.1555282772 -0.237806648 -0.1671315283 2.898180898e-39
-0.07767775655 -0.3511444926 -0.3905703723 2.898180898e-39
0.09496992826 -0.4845689237 -0.3861247301 2.898180898e-39
0.08195520937 -0.3481030762 -0.2040178627 2.898180898e-39
0.2565366328 -0.2184867859 -0.4175654948 2.898180898e-39
0.3713110089 -0.3574665785 -0.4291189015 2.898180898e-39
0.3913810551 -0.4724122882 -0.418615669 2.898180898e-39
0.188773185 -0.252520889 -0.4142669737 2.898180898e-39
-0.04268232733 -0.3501630723 -0.3983485401 2.898180898e-39
-0.06357011944 -0.4849803448 -0.2662255466 2.898180898e-39
0.3037593663 -0.3279510438 -0.4164074659 2.898180898e-39
0.4151652455 -0.4813495278 -0.3461332023 2.898180898e-39
-0.1245278791 -0.2259679884 -0.2911380529 2.898180898e-39
-0.1005315632 -0.2343380749 -0.3355180919 2.898180898e-39
-0.004200852476 -0.2180810571 -0.3746504784 2.898180898e-39
-0.05924274772 -0.4851405323 -0.2928914726 2.898180898e-39
0.4087379277 -0.4337929189 -0.3894247115 2.898180898e-39
-0.1152460948 -0.2964280248 -0.3505171835 2.898180898e-39
0.2712808549 -0.3311902881 -0.4143191576 2.898180898e-39
0.3238272667 -0.4838900864 -0.2478408366 2.898180898e-39
-0.1507429034 -0.3304797411 -0.2620401084 2.898180898e-39
0.3264440298 -0.2940295935 -0.4212475717 2.898180898e-39
0.1236002073 -0.3961701989 -0.4102746844 2.898180898e-39
-0.09003747255 -0.3242215514 -0.3805601299 2.898180898e-39
0.3155024946 -0.3192048669 -0.4243201315 2.898180898e-39
-0.1338595152 -0.3900863528 -0.3389522731 2.898180898e-39
0.3151733279 -0.256480962 -0.4338971674 2.898180898e-39
0.3743896186 -0.3900445402 -0.432087183 2.898180898e-39
0.4422456324 -0.4781982303 -0.3606908917 2.898180898e-39
-0.1352620125 -0.2437600344 -0.306581527 2.898180898e-39
-0.1562192887 -0.2577950954 -0.1614413261 2.898180898e-39
-0.1400333345 -0.472622335 -0.2176583856 2.898180898e-39
0.151953727 -0.4277019501 -0.1939764321 2.898180898e-39
-0.1355432272 -0.4534186721 -0.285356909 2.898180898e-39
0.2779615819 -0.3138025999 -0.4158446789 2.898180898e-39
-0.06724645942 -0.2594380975 -0.3811271787 2.898180898e-39
0.3169255853 -0.27317518 -0.4209965467 2.898180898e-39
0.1515340209 -0.3963974118 -0.4104280472 2.898180898e-39
-0.1556845754 -0.249858886 -0.1373138577 2.898180898e-39
-0.08516899496 -0.479670465 -0.149825424 2.898180898e-39
0.3517714143 -0.2182066441 -0.416162312 2.898180898e-39
0.08605682105 -0.4821284413 -0.346159786 2.898180898e-39
0.284686923 -0.4773380756 -0.4183825254 2.898180898e-39
0.2191580832 -0.4813706279 -0.1589227021 2.898180898e-39
0.01432160288 -0.2252829522 -0.3975307941 2.898180898e-39
-0.1499867588 -0.2341531515 -0.2786127329 2.898180898e-39
-0.025724696 -0.4627267718 -0.4024313986 2.898180898e-39
0.2757799029 -0.4841817021 -0.2766178846 2.898180898e-39
-0.08347236365 -0.3861187696 -0.3981066048 2.898180898e-39
0.2421506047 -0.381611228 -0.4111216664 2.898180898e-39
0.1785130799 -0.2442586124 -0.4129981995 2.898180898e-39
-0.1597641408 -0.380917877 -0.2059107572 2.898180898e-39
-0.08063743263 -0.233356595 -0.357324928 2.898180898e-39
-0.01965292357 -0.4829966128 -0.1771825999 2.898180898e-39
-0.06983725727 -0.2494495511 -0.3740361929 2.898180898e-39
0.1443390399 -0.3422955573 -0.4131583571 2.898180898e-39
0.3083368838 -0.3018382788 -0.4182222188 2.898180898e-39
0.3939454556 -0.3478558362 -0.4319419265 2.898180898e-39
0.09156822413 -0.2219251692 -0.4053480327 2.898180898e-39
0.2663780451 -0.3123724461 -0.4169462323 2.898180898e-39
-0.10122592 -0.2706871331 -0.3611221611 2.898180898e-39
0.01726994477 -0.3341563344 -0.3931179047 6.490113838e-41
-0.1552272588 -0.3241201341 -0.1640218496 6.490113838e-41
-0.02599625848 -0.2345220298 -0.3572718501 6.490113838e-41
0.3482179046 -0.2958892584 -0.4291403294 6.490113838e-41
0.2144944966 -0.4617213607 -0.4085662961 6.490113838e-41
0.07172192633 -0.4596133232 -0.1492003798 6.490113838e-41
0.4373718798 -0.4770749509 -0.3376112878 6.490113838e-41
-0.04158899188 -0.4832386374 -0.3621780574 6.490113838e-41
-0.08587821573 -0.4509451389 -0.107617259 6.490113838e-41
0.2246658504 -0.3572326303 -0.4058540165 6.490113838e-41
0.2519966364 -0.4077858925 -0.4084689021 6.490113838e-41
-0.1540739536 -0.3736854196 -0.2329632193 6.490113838e-41
-0.1492526084 -0.3214333653 -0.2639646828 6.490113838e-41
0.03867898881 -0.4037573934 -0.4035509527 6.490113838e-41
0.2031067312 -0.4360380471 -0.1594765037 6.490113838e-41
0.388622731 -0.4596512914 -0.428750664 6.490113838e-41
0.1131334677 -0.4840068221 -0.3946456611 6.490113838e-41
-0.1588388234 -0.3546466529 -0.1715092808 6.490113838e-41
0.2883739471 -0.2230163664 -0.4175033569 6.490113838e-41
-0.02935132943 -0.2978731692 -0.383482933 6.490113838e-41
0.2304945141 -0.3087359071 -0.4129902124 6.490113838e-41
0.09421481937 -0.4413957298 -0.1625352651 6.490113838e-41
0.3980822861 -0.4106843174 -0.3900671005 6.490113838e-41
0.3616166711 -0.4769091904 -0.4150942564 6.490113838e-41
-0.1033831239 -0.3812986314 -0.3660725057 6.490113838e-41
-0.142004773 -0.4682761133 -0.1993228644 6.490113838e-41
-0.1282708645 -0.3993898332 -0.3256139159 6.490113838e-41
0.1924430579 -0.4822044373 -0.3003253341 6.490113838e-41
-0.1417689472 -0.4798586369 -0.1584278494 6.490113838e-41
0.2796076536 -0.4743302464 -0.4105552435 6.490113838e-41
0.2241816372 -0.3410386741 -0.4068496525 6.490113838e-41
-0.007359701209 -0.4213768244 -0.1387694329 6.490113838e-41
-0.1583122462 -0.344486922 -0.1640373468 6.490113838e-41
-0.0859701857 -0.4828839302 -0.3551393747 6.490113838e-41
0.1435419768 -0.4671699405 -0.1414001286 6.490113838e-41
0.1182437316 -0.4826183021 -0.3788871169 6.490113838e-41
0.02179022133 -0.3112719655 -0.3944708705 6.490113838e-41
0.2869360447 -0.4836216569 -0.2246242315 6.490113838e-41
0.3110547662 -0.2159403563 -0.4137305617 6.490113838e-41
0.3647370934 -0.2048766017 -0.4381618202 6.490113838e-41
-0.1299709082 -0.4803624749 -0.1322526932 6.490113838e-41
0.2547190189 -0.4807636142 -0.3759786189 6.490113838e-41
-0.1057384536 -0.4788002074 -0.114883706 6.490113838e-41
-0.107990168 -0.4757789373 -0.3540326655 6.490113838e-41
-0.02146344073 -0.4825614393 -0.2341832668 6.490113838e-41
-0.1246475503 -0.2535446584 -0.2165197283 6.490113838e-41
0.14340882 -0.3923743665 -0.1805496365 6.490113838e-41
0.3825561404 -0.4200657606 -0.3814195096 6.490113838e-41
0.3012931943 -0.2934590876 -0.4175845087 6.490113838e-41
0.297909379 -0.336527288 -0.4138407111 6.490113838e-41
0.284160465 -0.2280273139 -0.4170247018 6.490113838e-41
-0.003047852777 -0.424277395 -0.1397283375 6.490113838e-41
0.1879203022 -0.3178528845 -0.4122227132 6.490113838e-41
0.134501487 -0.4787781835 -0.4032213688 6.490113838e-41
0.3230157793 -0.328096807 -0.4188289642 6.490113838e-41
-0.1316283643 -0.480773896 -0.2354003042 6.490113838e-41
0.4273151159 -0.4795927405 -0.3332020342 6.490113838e-41
-0.1466469467 -0.2610661089 -0.2106860727 6.490113838e-41
-0.07811108232 -0.4279690385 -0.1100168228 6.490113838e-41
-0.1476713419 -0.2961745262 -0.2058141679 6.490113838e-41
-0.1585648954 -0.4095337391 -0.09067641199 6.490113838e-41
0.3108132482 -0.4811916947 -0.3990074098 6.490113838e-41
0.3982351124 -0.4786396325 -0.3425882757 6.490113838e-41
-0.09936635941 -0.38333565 -0.3705415428 6.490113838e-41
0.3345235288 -0.2290383577 -0.443780154 6.490113838e-41
0.1070655435 -0.4596377611 -0.4035548568 6.490113838e-41
-0.07211990654 -0.231138587 -0.323068589 6.490113838e-41
-0.1513780951 -0.2338220328 -0.1396838874 6.490113838e-41
-0.08454336226 -0.3580791354 -0.3717683852 6.490113838e-41
0.1263068914 -0.4818747342 -0.3727716506 6.490113838e-41
0.085143134 -0.3329656422 -0.1969929934 6.490113838e-41
0.2789581418 -0.2187561989 -0.4127318561 6.490113838e-41
0.3352127671 -0.3149119616 -0.4313092232 6.490113838e-41
0.4045695662 -0.4544107616 -0.4135314822 6.490113838e-41
0.211729154 -0.2535271347 -0.4113297164 6.490113838e-41
-0.03225560486 -0.3589343131 -0.3881624937 6.490113838e-41
-0.02312798426 -0.4827127159 -0.2274162024 6.490113838e-41
0.3277658224 -0.3268408477 -0.4216864109 6.490113838e-41
0.4233005941 -0.4806466103 -0.3262833655 6.490113838e-41
-0.1222041324 -0.2366893291 -0.2572263777 6.490113838e-41
-0.09354272485 -0.2337802649 -0.3027290702 6.490113838e-41
0.0219058767 -0.2285994589 -0.3516239226 6.490113838e-41
-0.02303767763 -0.4827126861 -0.2630159557 6.490113838e-41
0.3741480708 -0.4067386985 -0.3901143968 6.490113838e-41
-0.1219644621 -0.3025741577 -0.3267792761 6.490113838e-41
0.3094508946 -0.332113862 -0.4158885777 6.490113838e-41
0.3529545367 -0.4833576679 -0.2053489536 6.490113838e-41
-0.1500716805 -0.3216173053 -0.2167785019 6.490113838e-41
0.3516460061 -0.2910041809 -0.4298789799 6.490113838e-41
0.1612137109 -0.4124990702 -0.4080984592 6.490113838e-41
-0.09564552456 -0.3291828036 -0.3606408536 6.490113838e-41
0.336612165 -0.3061089218 -0.4321102202 6.490113838e-41
-0.1333250999 -0.4015821218 -0.3157595396 6.490113838e-41
0.3342399895 -0.2343708724 -0.4438222051 6.490113838e-41
0.3794818819 -0.355504632 -0.4394554794 6.490113838e-41
0.4285822213 -0.4638953507 -0.3535178006 6.490113838e-41
-0.1346858889 -0.2430293113 -0.2705094218 6.490113838e-41
-0.155421257 -0.2525105178 -0.1249915212 6.490113838e-41
-0.1428680867 -0.4754477739 -0.1824077517 6.490113838e-41
0.1486203223 -0.4060077965 -0.1762259007 6.490113838e-41
-0.1360282153 -0.4585072994 -0.2540436089 6.490113838e-41
0.3215641379 -0.3092489839 -0.4160054326 6.490113838e-41
-0.06259669363 -0.2636779845 -0.3594554961 6.490113838e-41
0.3422670364 -0.2673484385 -0.4270094931 6.490113838e-41
0.1919349432 -0.4108742476 -0.4079460502 6.490113838e-41
-0.1524573416 -0.2472125292 -0.1153828204 6.490113838e-41
-0.06787188351 -0.4806078076 -0.113567844 6.490113838e-41
0.3597387969 -0.2000147253 -0.4344811141 6.490113838e-41
0.1241795123 -0.4812457263 -0.3241645396 6.490113838e-41
0.316637367 -0.480322957 -0.4080884457 6.490113838e-41
0.2189146876 -0.4643272758 -0.1403278559 6.490113838e-41
0.04373968393 -0.2253215909 -0.3874151409 6.490113838e-41
-0.1461033076 -0.2309632599 -0.2365505844 6.490113838e-41
0.01202189364 -0.4732905328 -0.3949041069 6.490113838e-41
0.3092795312 -0.4834666252 -0.2374482304 6.490113838e-41
-0.08150879294 -0.4065235555 -0.3858207762 6.490113838e-41
0.2826105356 -0.3915684223 -0.4106790721 6.490113838e-41
0.2015347332 -0.2448898554 -0.4094936848 6.490113838e-41
-0.1613732576 -0.3717433512 -0.1581431329 6.490113838e-41
-0.07273515314 -0.2334754467 -0.3293720186 6.490113838e-41
0.01732428372 -0.4829776287 -0.1369587928 6.490113838e-41
-0.06893325597 -0.2519420981 -0.3501992822 6.490113838e-41
0.1731245667 -0.343220681 -0.4074034095 6.490113838e-41
0.3433611989 -0.2970597148 -0.4215343893 6.490113838e-41
0.3653731644 -0.3059202135 -0.4414343536 6.490113838e-41
0.1156864539 -0.2227058411 -0.3983108997 6.490113838e-41
0.3093456328 -0.3075822294 -0.4145573676 6.490113838e-41
-0.1037439629 -0.276363641 -0.3332995474 6.490113838e-41
-0.02869851328 -0.3476250172 -0.3762858808 3.015101038e-39
-0.145510301 -0.3049792051 -0.06043850258 3.015101038e-39
-0.07633733749 -0.234799087 -0.3341283798 3.015101038e-39
0.3898019791 -0.2920525074 -0.4241947532 3.015101038e-39
0.2256797403 -0.4764722586 -0.3942393064 3.015101038e-39
0.01402607281 -0.4790818691 -0.01751044765 3.015101038e-39
0.4378675222 -0.4790515304 -0.2988778651 3.015101038e-39
-0.07794516534 -0.4862856269 -0.3216516674 3.015101038e-39
-0.1237135902 -0.4671682119 0.07336366177 3.015101038e-39
0.2651177347 -0.3698542416 -0.3941889405 3.015101038e-39
0.2983539999 -0.419737637 -0.3934366107 3.015101038e-39
-0.1479640305 -0.3432865441 -0.1157104373 3.015101038e-39
-0.1514412463 -0.3191899657 -0.167620346 3.015101038e-39
0.0303610377 -0.4274574816 -0.3849221468 3.015101038e-39
0.2117945105 -0.4872698486 -0.05810127035 3.015101038e-39
0.4079419971 -0.477953881 -0.4153139591 3.015101038e-39
0.08333747834 -0.483646214 -0.3608670235 3.015101038e-39
-0.1464835703 -0.3290506601 -0.06250023842 3.015101038e-39
0.3160969913 -0.23726511 -0.4028572142 3.015101038e-39
-0.09044846147 -0.3154458702 -0.3519307375 3.015101038e-39
0.2534301579 -0.312967658 -0.4013204575 3.015101038e-39
0.04607844353 -0.4697179198 -0.03674763069 3.015101038e-39
0.4195666611 -0.4330993593 -0.3610053062 3.015101038e-39
0.3743345439 -0.4833962321 -0.3985863328 3.015101038e-39
-0.1561240852 -0.3939972818 -0.334798038 3.015101038e-39
-0.1369907856 -0.4379222989 -0.08710229397 3.015101038e-39
-0.1464439631 -0.4090956748 -0.2716166675 3.015101038e-39
0.1341693699 -0.4831171632 -0.2625614405 3.015101038e-39
-0.1454848796 -0.4490666986 -0.05134594813 3.015101038e-39
0.2863363624 -0.4822407365 -0.4013805091 3.015101038e-39
0.2540900111 -0.3438148797 -0.3945215344 3.015101038e-39
-0.07160742581 -0.4419536293 -0.006039477885 3.015101038e-39
-0.1465052366 -0.3233767748 -0.0570452027 3.015101038e-39
-0.1247616038 -0.4823656082 -0.3137384355 3.015101038e-39
0.09678140283 -0.482247144 -0.02654829249 3.015101038e-39
0.08679437637 -0.4823928475 -0.3385044932 3.015101038e-39
-0.02262234502 -0.3265504837 -0.3737068176 3.015101038e-39
0.2167254984 -0.4839023352 -0.1927123666 3.015101038e-39
0.3436027467 -0.2263449281 -0.4000050426 3.015101038e-39
0.3876764178 -0.2199239731 -0.4318462312 3.015101038e-39
-0.1534846872 -0.4604842663 -0.01152098551 3.015101038e-39
0.2091942579 -0.4823565483 -0.3396053314 3.015101038e-39
-0.1507039368 -0.4708846807 0.0302539859 3.015101038e-39
-0.1486618221 -0.474938482 -0.3195167184 3.015101038e-39
-0.07846623659 -0.4839014411 -0.1842740178 3.015101038e-39
-0.1399297267 -0.2782116234 -0.1131097376 3.015101038e-39
0.1228724793 -0.4539773464 -0.09404237568 3.015101038e-39
0.4004248977 -0.431412816 -0.3385098577 3.015101038e-39
0.3297028542 -0.2909912169 -0.4052015841 3.015101038e-39
0.3380765319 -0.3462949693 -0.4034447074 3.015101038e-39
0.3088932633 -0.2421832681 -0.4031408429 3.015101038e-39
-0.06761940569 -0.4444454312 -0.007352378219 3.015101038e-39
0.2065158486 -0.3223515749 -0.399186641 3.015101038e-39
0.1123691201 -0.4851955175 -0.3924922943 3.015101038e-39
0.3652874231 -0.3298221529 -0.41025123 3.015101038e-39
-0.1441116333 -0.4611198902 -0.148476243 3.015101038e-39
0.4196675718 -0.4824466407 -0.3027648926 3.015101038e-39
-0.1528383195 -0.2726512253 -0.1135605872 3.015101038e-39
-0.1194619015 -0.4373481572 0.06896576285 3.015101038e-39
-0.1488733888 -0.2931979597 -0.103121981 3.015101038e-39
-0.1473955661 -0.3625202179 0.06480892003 3.015101038e-39
0.2845690846 -0.4826416969 -0.3769009709 3.015101038e-39
0.3817786872 -0.4835091829 -0.3284819424 3.015101038e-39
-0.1529883295 -0.3964003921 -0.3405151665 3.015101038e-39
0.3763646185 -0.2525850534 -0.4402238727 3.015101038e-39
0.113286376 -0.4765589237 -0.3886566162 3.015101038e-39
-0.1266793609 -0.2454359233 -0.3017003834 3.015101038e-39
-0.1541488171 -0.2366491258 0.003648586571 3.015101038e-39
-0.1381400526 -0.366271317 -0.3492920697 3.015101038e-39
0.09338951111 -0.4822808504 -0.3305507302 3.015101038e-39
0.01887982711 -0.4026940167 -0.1206843108 3.015101038e-39
0.3131895363 -0.2293779254 -0.399517715 3.015101038e-39
0.3522632718 -0.336037904 -0.405411154 3.015101038e-39
0.4170902073 -0.4789996147 -0.4022787213 3.015101038e-39
0.2350747138 -0.2699449658 -0.400405705 3.015101038e-39
-0.0882280618 -0.3703772724 -0.3673935235 3.015101038e-39
-0.08066503704 -0.4837814569 -0.1763313413 3.015101038e-39
0.3756770492 -0.3280542791 -0.4131938219 3.015101038e-39
0.4138370454 -0.4834113717 -0.2977167368 3.015101038e-39
-0.1563619226 -0.2796012163 -0.1896240711 3.015101038e-39
-0.1529991329 -0.2483467311 -0.2722607255 3.015101038e-39
0.000535285566 -0.269492656 -0.3165202141 3.015101038e-39
-0.07327240705 -0.4843312502 -0.2112502307 3.015101038e-39
0.3945471942 -0.4216815531 -0.3535248041 3.015101038e-39
-0.1626239568 -0.3118851185 -0.2890506089 3.015101038e-39
0.3464156389 -0.3356578052 -0.4058423936 3.015101038e-39
0.2944117486 -0.4833713174 -0.1675207168 3.015101038e-39
-0.1496028453 -0.3113864362 -0.1129193455 3.015101038e-39
0.3944761157 -0.286521703 -0.4240061641 3.015101038e-39
0.1851639897 -0.4282245338 -0.390373677 3.015101038e-39
-0.1443196386 -0.3410693705 -0.3330009878 3.015101038e-39
0.3803118169 -0.3096809387 -0.4312472641 3.015101038e-39
-0.1474879533 -0.4083147645 -0.2530670166 3.015101038e-39
0.3759205639 -0.2560766339 -0.4403229654 3.015101038e-39
0.4081888199 -0.3634665608 -0.4244755805 3.015101038e-39
0.4362924993 -0.4734813571 -0.310816288 3.015101038e-39
-0.1596813947 -0.2501298189 -0.1975127459 3.015101038e-39
-0.1590283662 -0.2501049638 -0.0001275651157 3.015101038e-39
-0.1401125491 -0.4447880983 -0.07856921852 3.015101038e-39
0.1357285082 -0.4639817476 -0.08181495965 3.015101038e-39
-0.1339084357 -0.4316996336 -0.1443071663 3.015101038e-39
0.3478037119 -0.30941993 -0.4088213444 3.015101038e-39
-0.1218586788 -0.2829989791 -0.3287558854 3.015101038e-39
0.3745278418 -0.2639754117 -0.4157881439 3.015101038e-39
0.2281028479 -0.4249050021 -0.3912767768 3.015101038e-39
-0.1519620419 -0.2430879623 0.02626269311 3.015101038e-39
-0.1220641509 -0.4801707864 -0.009189572185 3.015101038e-39
0.3932614028 -0.2217102945 -0.4233450592 3.015101038e-39
0.07905446738 -0.4825956821 -0.2761926651 3.015101038e-39
0.3057076931 -0.4827305675 -0.3902813196 3.015101038e-39
0.2202916741 -0.4856672287 -0.0361568965 3.015101038e-39
0.02013392001 -0.2272549868 -0.3654251099 3.015101038e-39
-0.1623236239 -0.2421088517 -0.1564888954 3.015101038e-39
-0.02035946958 -0.4862799942 -0.3904950619 3.015101038e-39
0.2452402264 -0.4838285148 -0.2038090974 3.015101038e-39
-0.1351799965 -0.4252838492 -0.3589631319 3.015101038e-39
0.3396205604 -0.4032530487 -0.3976795077 3.015101038e-39
0.2190327197 -0.2611884177 -0.4001857042 3.015101038e-39
-0.1469251513 -0.3384795487 -0.04034676775 3.015101038e-39
-0.1263833791 -0.2380048931 -0.3040421307 3.015101038e-39
-0.04885870963 -0.4825201333 -0.06783623993 3.015101038e-39
-0.1252056062 -0.2646901906 -0.3209981024 3.015101038e-39
0.2012032419 -0.3472066224 -0.3945120871 3.015101038e-39
0.3764295578 -0.2934032679 -0.4141902626 3.015101038e-39
0.3854805231 -0.3110348284 -0.415712297 3.015101038e-39
0.1090099663 -0.224436909 -0.3885609508 3.015101038e-39
0.3358775973 -0.30696854 -0.4068206251 3.015101038e-39
-0.1571155936 -0.2905287743 -0.3029485941 3.015101038e-39
-0.1048551053 -0.3784160316 -0.3604133427 5.962428276e-39
-0.1517748088 -0.2833590806 0.05844941735 5.962428276e-39
-0.143479228 -0.2906668782 -0.3008472025 5.962428276e-39
0.393340826 -0.3119825125 -0.4235446155 5.962428276e-39
0.1855076849 -0.482878685 -0.3610129058 5.962428276e-39
-0.06104368716 -0.4326295257 -0.008842602372 5.962428276e-39
0.4325025678 -0.4803805351 -0.1768060327 5.962428276e-39
-0.09932126105 -0.485622853 -0.2008654922 5.962428276e-39
-0.157556653 -0.3870642781 0.1115985364 5.962428276e-39
0.2991674542 -0.4192105234 -0.3931806684 5.962428276e-39
0.3338509798 -0.4641327262 -0.4006877244 5.962428276e-39
-0.14383021 -0.3259537518 -0.003062728792 5.962428276e-39
-0.151421383 -0.3096209466 -0.06643427908 5.962428276e-39
-0.005527636968 -0.4706191421 -0.3903465271 5.962428276e-39
0.1303883195 -0.4683812857 -0.0543432124 5.962428276e-39
0.4013006389 -0.4827411175 -0.3794431686 5.962428276e-39
0.06638864428 -0.4827230573 -0.2587805986 5.962428276e-39
-0.1441088021 -0.3124990463 0.04977265745 5.962428276e-39
0.3134743273 -0.2584397197 -0.3980396092 5.962428276e-39
-0.1494873762 -0.3402451575 -0.3240685761 5.962428276e-39
0.2333941758 -0.3494446278 -0.3923660517 5.962428276e-39
-0.03901605308 -0.4285221398 -0.03346114233 5.962428276e-39
0.4176573753 -0.4642407894 -0.2579483986 5.962428276e-39
0.342025578 -0.4829664826 -0.3374930918 5.962428276e-39
-0.1611552835 -0.4226831794 -0.274461031 5.962428276e-39
-0.1503706425 -0.4294732213 0.02727641165 5.962428276e-39
-0.1502208114 -0.4091142416 -0.1645526886 5.962428276e-39
0.101824142 -0.4833259284 -0.13653332 5.962428276e-39
-0.1556016803 -0.4421486557 0.06743067503 5.962428276e-39
0.2396326065 -0.4827690125 -0.3389660716 5.962428276e-39
0.2649461627 -0.3990320265 -0.3938012421 5.962428276e-39
-0.1253933907 -0.3765033782 0.007679596543 5.962428276e-39
-0.1450624615 -0.3037512898 0.0565129146 5.962428276e-39
-0.1458405852 -0.4827982783 -0.1893769205 5.962428276e-39
0.007657676004 -0.4592363238 -0.0117915757 5.962428276e-39
0.06526688486 -0.4831769466 -0.2351546437 5.962428276e-39
-0.09555458277 -0.3534787893 -0.3499062657 5.962428276e-39
0.1871956736 -0.4841676354 -0.06471185386 5.962428276e-39
0.3453569114 -0.2657283247 -0.3914389014 5.962428276e-39
0.4080242813 -0.2466650456 -0.4319313169 5.962428276e-39
-0.1532026529 -0.4526096582 0.09927968681 5.962428276e-39
0.1726293862 -0.4832251072 -0.2372134477 5.962428276e-39
-0.1439681351 -0.4543005526 0.1228839606 5.962428276e-39
-0.163048774 -0.4722341001 -0.2059422284 5.962428276e-39
-0.09462111443 -0.48118186 -0.05021508411 5.962428276e-39
-0.1235351935 -0.2341434658 0.02822661027 5.962428276e-39
0.04190713912 -0.4256520569 -0.09399010241 5.962428276e-39
0.3878229558 -0.4615350366 -0.2247232944 5.962428276e-39
0.3180938959 -0.312325716 -0.4021040201 5.962428276e-39
0.3645198941 -0.3914318383 -0.4021345079 5.962428276e-39
0.3038995564 -0.2636594176 -0.3981167376 5.962428276e-39
-0.1227380559 -0.3814873695 0.006416454911 5.962428276e-39
0.178698644 -0.3590694666 -0.3899127245 5.962428276e-39
0.09325063229 -0.4829178452 -0.2994739711 5.962428276e-39
0.3767648935 -0.3592049479 -0.4097169042 5.962428276e-39
-0.163376525 -0.4573738277 -0.02408118919 5.962428276e-39
0.4076132476 -0.4820739329 -0.1816574633 5.962428276e-39
-0.1597114354 -0.2589032054 -0.005767919123 5.962428276e-39
-0.1606725156 -0.3512274623 0.09048562497 5.962428276e-39
-0.1552317291 -0.2761725187 0.005938321352 5.962428276e-39
-0.1486062258 -0.3454072177 0.1391069889 5.962428276e-39
0.2459791452 -0.4823893309 -0.2724408805 5.962428276e-39
0.3626475632 -0.4828251004 -0.2115092427 5.962428276e-39
-0.1644726992 -0.4266069233 -0.2876400948 5.962428276e-39
0.4061520994 -0.2437599152 -0.4422136843 5.962428276e-39
0.08375161886 -0.483877182 -0.3543280363 5.962428276e-39
-0.1576481313 -0.2932683229 -0.2269611508 5.962428276e-39
-0.1552200019 -0.2290546149 0.08665493131 5.962428276e-39
-0.1631794423 -0.4006707072 -0.3002235591 5.962428276e-39
0.07124598324 -0.4832982421 -0.2271462232 5.962428276e-39
-0.03780862689 -0.3699485362 -0.1009687185 5.962428276e-39
0.3078406751 -0.2683531046 -0.3938645422 5.962428276e-39
0.3435491025 -0.385912478 -0.3447012007 5.962428276e-39
0.4074364305 -0.4833964109 -0.3489501774 5.962428276e-39
0.2116634399 -0.2937874794 -0.3948306143 5.962428276e-39
-0.1657978296 -0.4157654345 -0.3471685052 5.962428276e-39
-0.09639329463 -0.4810198247 -0.04365530238 5.962428276e-39
0.3798700869 -0.3391861022 -0.4136113226 5.962428276e-39
0.3969040811 -0.4821587205 -0.1774212718 5.962428276e-39
-0.1467065662 -0.2625535727 -0.04741415754 5.962428276e-39
-0.1598915607 -0.2787974179 -0.1636140198 5.962428276e-39
-0.03410673887 -0.3441830575 -0.2505422831 5.962428276e-39
-0.09310136735 -0.4824869037 -0.07574611902 5.962428276e-39
0.377551347 -0.4500820041 -0.2422357351 5.962428276e-39
-0.1615864933 -0.331220299 -0.185506478 5.962428276e-39
0.367680043 -0.3826828301 -0.4047404826 5.962428276e-39
0.2651910782 -0.483733952 -0.0424428992 5.962428276e-39
-0.1468135864 -0.2925511003 -0.001691624522 5.962428276e-39
0.3964498043 -0.2991559803 -0.4255870283 5.962428276e-39
0.1793843806 -0.4752081037 -0.3949543536 5.962428276e-39
-0.1672762334 -0.3586396873 -0.2749603391 5.962428276e-39
0.3905050159 -0.3029431403 -0.4316882789 5.962428276e-39
-0.1491456628 -0.3986366689 -0.1377310306 5.962428276e-39
0.4047082663 -0.2462534308 -0.4423760176 5.962428276e-39
0.4224275351 -0.3924512267 -0.4206425846 5.962428276e-39
0.4466643333 -0.4779443741 -0.1895110309 5.962428276e-39
-0.1613294929 -0.2566692829 -0.0858848542 5.962428276e-39
-0.1591261476 -0.2404852957 0.09524771571 5.962428276e-39
-0.1539642066 -0.4387306273 0.04417793453 5.962428276e-39
0.04829674214 -0.437053591 -0.08592660725 5.962428276e-39
-0.1484374553 -0.4215561748 -0.02016599849 5.962428276e-39
0.3391825557 -0.3506691158 -0.4038333297 5.962428276e-39
-0.1574635804 -0.309951067 -0.2859092653 5.962428276e-39
0.3735567927 -0.2796913683 -0.4145858884 5.962428276e-39
0.2363599986 -0.4729155898 -0.3975954056 5.962428276e-39
-0.1560816467 -0.2375730425 0.1108013541 5.962428276e-39
-0.1263178438 -0.4737223983 0.08481757343 5.962428276e-39
0.4136587381 -0.2399236262 -0.4363337457 5.962428276e-39
0.05217306316 -0.4830069542 -0.1548734754 5.962428276e-39
0.2627543211 -0.4822327495 -0.297221452 5.962428276e-39
0.1321302354 -0.4825374484 -0.0173256062 5.962428276e-39
-0.04803946614 -0.2910021544 -0.3365341723 5.962428276e-39
-0.1633696854 -0.2454140186 -0.04142582044 5.962428276e-39
-0.04147163779 -0.4866348803 -0.3059808612 5.962428276e-39
0.2163265347 -0.4840360582 -0.07480415702 5.962428276e-39
-0.1726369858 -0.4571528435 -0.3283265531 5.962428276e-39
0.3677787483 -0.4425135255 -0.3995200992 5.962428276e-39
0.1984615475 -0.2875573933 -0.3955174685 5.962428276e-39
-0.1448262334 -0.3254031837 0.07256752253 5.962428276e-39
-0.1583721489 -0.2845665514 -0.2449927181 5.962428276e-39
-0.06805064529 -0.4826660752 0.04368815571 5.962428276e-39
-0.1578422189 -0.2920784354 -0.27386114 5.962428276e-39
0.1812381744 -0.4041488469 -0.3940597773 5.962428276e-39
0.3719424903 -0.3175413013 -0.4135793149 5.962428276e-39
0.4008746743 -0.3652521372 -0.3824422657 5.962428276e-39
0.07615569979 -0.2910212874 -0.3733977675 5.962428276e-39
0.3261782229 -0.3463873267 -0.3997967839 5.962428276e-39
-0.162798509 -0.3092659116 -0.2179714888 5.962428276e-39
-0.1722423583 -0.4239093065 -0.319796741 8.906165387e-39
-0.1353603601 -0.3086628318 0.1305241287 8.906165387e-39
-0.1422374696 -0.3288187385 -0.1740500331 8.906165387e-39
0.3654342294 -0.4034705162 -0.4420361221 8.906165387e-39
0.1373762637 -0.4830296636 -0.207445845 8.906165387e-39
-0.1136659086 -0.3737169802 0.03847311065 8.906165387e-39
0.3513180315 -0.48236835 -0.0120777525 8.906165387e-39
-0.0944461599 -0.480897069 -0.04437397793 8.906165387e-39
-0.1658459157 -0.3337871432 0.1648849696 8.906165387e-39
0.2557503283 -0.481764853 -0.4096985161 8.906165387e-39
0.2786396146 -0.4839530587 -0.3614222705 8.906165387e-39
-0.137701124 -0.3459748626 0.08966863155 8.906165387e-39
-0.1343911886 -0.3243006766 0.04257786274 8.906165387e-39
-0.02486593835 -0.4867429137 -0.3207226396 8.906165387e-39
0.02136220783 -0.4280391634 -0.02667343989 8.906165387e-39
0.3487195373 -0.483713448 -0.2267570943 8.906165387e-39
0.02299079858 -0.4815367758 -0.09166245162 8.906165387e-39
-0.1389938891 -0.3399255872 0.134403199 8.906165387e-39
0.2371049225 -0.3435032666 -0.4206310809 8.906165387e-39
-0.1592346877 -0.3693332672 -0.2409767359 8.906165387e-39
0.1105219945 -0.4354857206 -0.4207404554 8.906165387e-39
-0.1110008359 -0.3713571429 0.01689203456 8.906165387e-39
0.4266715944 -0.4807353616 -0.07047498226 8.906165387e-39
0.2762177587 -0.4832885265 -0.1790796369 8.906165387e-39
-0.1614597589 -0.4362926483 -0.1650086641 8.906165387e-39
-0.1438454986 -0.4614204168 0.1393234283 8.906165387e-39
-0.1490975171 -0.4263397753 -0.05050921813 8.906165387e-39
0.06254144758 -0.4820291996 0.0313205272 8.906165387e-39
-0.1359825134 -0.466639787 0.1771146655 8.906165387e-39
0.1774537563 -0.4830611348 -0.183193326 8.906165387e-39
0.2170281261 -0.4720474482 -0.4183304608 8.906165387e-39
-0.1463050693 -0.322001338 0.06914356351 8.906165387e-39
-0.1363183856 -0.330819428 0.1357512176 8.906165387e-39
-0.1302418858 -0.4841551781 -0.04204357788 8.906165387e-39
-0.08166716248 -0.3993965387 0.0223462563 8.906165387e-39
0.02145631425 -0.4816243052 -0.06348641217 8.906165387e-39
-0.1625487953 -0.3852003217 -0.3060244918 8.906165387e-39
0.1298135668 -0.4831302762 0.07675142586 8.906165387e-39
0.2751491964 -0.3474958241 -0.4132423997 8.906165387e-39
0.4603392184 -0.4308342636 -0.4071300626 8.906165387e-39
-0.1328684688 -0.4421717525 0.1982674599 8.906165387e-39
0.1161306426 -0.4829092026 -0.07502251863 8.906165387e-39
-0.1407397687 -0.3992325068 0.1984321773 8.906165387e-39
-0.1535491943 -0.4811137915 -0.05732979998 8.906165387e-39
-0.08620721102 -0.478854239 0.07873671502 8.906165387e-39
-0.1037433892 -0.2350849509 0.07359135896 8.906165387e-39
-0.04832410067 -0.3876673579 -0.04412873462 8.906165387e-39
0.4224461615 -0.4764570892 -0.03640146181 8.906165387e-39
0.204677701 -0.4069809318 -0.4182243645 8.906165387e-39
0.36817801 -0.4684379697 -0.4176540375 8.906165387e-39
0.2232335955 -0.3442144692 -0.4214255214 8.906165387e-39
-0.1447063535 -0.3267234862 0.0668046996 8.906165387e-39
0.03990224749 -0.4401496649 -0.4245161414 8.906165387e-39
0.05061933398 -0.4823534489 -0.1433834881 8.906165387e-39
0.3944369555 -0.4547202587 -0.4282900393 8.906165387e-39
-0.1441896856 -0.4791507125 0.1037068665 8.906165387e-39
0.3252271116 -0.4828012884 -0.02310806885 8.906165387e-39
-0.1454612166 -0.2653287649 0.08663865179 8.906165387e-39
-0.1736138016 -0.3088523746 0.1426305473 8.906165387e-39
-0.1384775937 -0.2925584614 0.08937568218 8.906165387e-39
-0.1423439682 -0.3800825775 0.2092653066 8.906165387e-39
0.1775584072 -0.4831134081 -0.1243167669 8.906165387e-39
0.2883185148 -0.4837357998 -0.05694610253 8.906165387e-39
-0.1619974375 -0.440808177 -0.1828427762 8.906165387e-39
0.4686093628 -0.3667365015 -0.448854655 8.906165387e-39
0.04887091368 -0.4821200371 -0.1999175698 8.906165387e-39
-0.1310835183 -0.321620822 -0.0798894614 8.906165387e-39
-0.1282276511 -0.2448733151 0.1456096619 8.906165387e-39
-0.1574408561 -0.4290996492 -0.2177880555 8.906165387e-39
0.0260606762 -0.4817520082 -0.05611069128 8.906165387e-39
-0.1095996574 -0.3334216475 -0.04735499993 8.906165387e-39
0.2292976081 -0.3521435261 -0.414606005 8.906165387e-39
0.3898834288 -0.4730429053 -0.188036561 8.906165387e-39
0.3540519476 -0.4838849902 -0.1913536787 8.906165387e-39
0.0738651678 -0.3628351092 -0.4124936759 8.906165387e-39
-0.170731619 -0.4469345212 -0.2896414697 8.906165387e-39
-0.08719728887 -0.4788200259 0.08425863832 8.906165387e-39
0.405957222 -0.4497362673 -0.433395803 8.906165387e-39
0.3144854903 -0.4830545187 -0.01896198466 8.906165387e-39
-0.1303130537 -0.2422604263 0.03172579408 8.906165387e-39
-0.1366069466 -0.2833383679 -0.04046246037 8.906165387e-39
-0.04385896027 -0.3325010538 -0.09623546898 8.906165387e-39
-0.08597633243 -0.4788454175 0.05623645335 8.906165387e-39
0.4318892062 -0.4745961428 -0.05254411325 8.906165387e-39
-0.1429511607 -0.3412653506 -0.07893012464 8.906165387e-39
0.3751582801 -0.4612066746 -0.4213922024 8.906165387e-39
0.1919790506 -0.4838699698 0.08634328842 8.906165387e-39
-0.1345259547 -0.3149695098 0.08217476308 8.906165387e-39
0.3505332768 -0.3909649253 -0.441267252 8.906165387e-39
0.1337764561 -0.4837513566 -0.3260574043 8.906165387e-39
-0.1535666436 -0.3922335505 -0.1812082678 8.906165387e-39
0.4041967392 -0.3971769214 -0.4497415721 8.906165387e-39
-0.1436783969 -0.4198238552 -0.02746972814 8.906165387e-39
0.4665866196 -0.3647527993 -0.4491005242 8.906165387e-39
0.4477501214 -0.4842588902 -0.3413228989 8.906165387e-39
0.3746882081 -0.4818841219 -0.01842917874 8.906165387e-39
-0.1465179324 -0.2657297254 -0.007502421737 8.906165387e-39
-0.1375291049 -0.2538981438 0.1612561196 8.906165387e-39
-0.1424597204 -0.4690583348 0.1547963768 8.906165387e-39
-0.04404585063 -0.3961389065 -0.03561766818 8.906165387e-39
-0.1420057118 -0.4467959404 0.08948477358 8.906165387e-39
0.317830056 -0.4390880764 -0.4240613282 8.906165387e-39
-0.1528566182 -0.3415647745 -0.1703333259 8.906165387e-39
0.2938697636 -0.3541523814 -0.4322431386 8.906165387e-39
0.1759684235 -0.4838212132 -0.3403532505 8.906165387e-39
-0.1264081597 -0.2554647923 0.1673976928 8.906165387e-39
-0.1318832487 -0.4241542816 0.1682825089 8.906165387e-39
0.4696553051 -0.4304623306 -0.4247322679 8.906165387e-39
0.01508277562 -0.4810405374 0.01058724895 8.906165387e-39
0.1956123114 -0.4830655158 -0.1476864964 8.906165387e-39
0.005127434619 -0.4391269982 0.01105212048 8.906165387e-39
-0.1416422725 -0.3477938771 -0.257420063 8.906165387e-39
-0.1540277153 -0.2471660376 0.03256982565 8.906165387e-39
-0.06046847254 -0.4823298454 -0.1370147318 8.906165387e-39
0.1478165388 -0.4835262597 0.06945088506 8.906165387e-39
-0.17120713 -0.4688218236 -0.2127742022 8.906165387e-39
0.3457754254 -0.4837854207 -0.3896402121 8.906165387e-39
0.07969860733 -0.3588801622 -0.416662842 8.906165387e-39
-0.1401586384 -0.3403174579 0.1530158818 8.906165387e-39
-0.1360898316 -0.3180613518 -0.09625761211 8.906165387e-39
-0.07166024297 -0.4735448956 0.1415907145 8.906165387e-39
-0.1466837823 -0.3221680224 -0.149181053 8.906165387e-39
0.1076943874 -0.4702582955 -0.4255146384 8.906165387e-39
0.3190021515 -0.4110725224 -0.4307051301 8.906165387e-39
0.4446887076 -0.4733574092 -0.2430973798 8.906165387e-39
-0.05396078527 -0.3739611208 -0.3320491016 8.906165387e-39
0.2829475403 -0.4374932051 -0.419343859 8.906165387e-39
-0.1440130323 -0.3348045051 -0.09582686424 8.906165387e-39
-0.1139578447 -0.4759320617 -0.3586850464 1.184631237e-38
-0.1338314116 -0.3392986953 0.1151033193 1.184631237e-38
-0.1557623148 -0.3428810537 -0.2219931632 1.184631237e-38
0.4308741689 -0.2951586246 -0.4379815161 1.184631237e-38
0.2587749958 -0.4824177921 -0.1722220778 1.184631237e-38
-0.04198948294 -0.4737071693 0.0709848702 1.184631237e-38
0.4266867042 -0.4837293625 -0.01080591604 1.184631237e-38
-0.01695754379 -0.4808506966 -0.01563715562 1.184631237e-38
-0.1245313659 -0.4164404869 0.1523718983 1.184631237e-38
0.4179875255 -0.4449644685 -0.3988183141 1.184631237e-38
0.424747169 -0.478603512 -0.3482803702 1.184631237e-38
-0.1311834455 -0.4117755294 0.07972754538 1.184631237e-38
-0.132467106 -0.3878462315 0.02008697391 1.184631237e-38
0.1224685162 -0.4834024608 -0.2917910516 1.184631237e-38
0.101045467 -0.484831512 0.02201535553 1.184631237e-38
0.4394103885 -0.4827931225 -0.2396750897 1.184631237e-38
0.1396694332 -0.4838238358 -0.06843616068 1.184631237e-38
-0.1348631531 -0.3888114393 0.1253765821 1.184631237e-38
0.3530743122 -0.2749775648 -0.3851196766 1.184631237e-38
-0.1705495566 -0.4413982034 -0.2907001078 1.184631237e-38
0.3379229307 -0.4325518608 -0.4048290551 1.184631237e-38
-0.03798145056 -0.4690575302 0.04329165816 1.184631237e-38
0.4331952631 -0.4765962064 -0.1313835979 1.184631237e-38
0.37471807 -0.4834712148 -0.1740793139 1.184631237e-38
-0.1343925595 -0.4798570871 -0.1510017663 1.184631237e-38
-0.1314966232 -0.4772241116 0.1314860731 1.184631237e-38
-0.148964867 -0.4743347764 -0.06708076596 1.184631237e-38
0.1610484123 -0.4863791466 0.0791189 1.184631237e-38
-0.1171373948 -0.4759103656 0.1541535705 1.184631237e-38
0.300132215 -0.4828309417 -0.1553810537 1.184631237e-38
0.4017994404 -0.4457776546 -0.4080604315 1.184631237e-38
-0.1034583524 -0.4226621091 0.06849884242 1.184631237e-38
-0.1358209997 -0.3732012212 0.1259907931 1.184631237e-38
-0.04851906002 -0.4800078869 -0.01588306949 1.184631237e-38
0.02138083056 -0.4769456387 0.07844293863 1.184631237e-38
0.1355916858 -0.4843624532 -0.03531876579 1.184631237e-38
-0.1433972567 -0.4527752697 -0.3524011075 1.184631237e-38
0.2278842479 -0.4876141548 0.1308014095 1.184631237e-38
0.3741218448 -0.2650755346 -0.3884400427 1.184631237e-38
0.4435675144 -0.2329634875 -0.3968244493 1.184631237e-38
-0.10581965 -0.473459065 0.1707816124 1.184631237e-38
0.2243174016 -0.4846371114 -0.03618280962 1.184631237e-38
-0.1042437926 -0.4691859186 0.1792285442 1.184631237e-38
-0.06883402914 -0.4802102447 -0.0341229625 1.184631237e-38
-0.02858305536 -0.4822067022 0.1147627681 1.184631237e-38
-0.1413419694 -0.2278943062 0.05629553273 1.184631237e-38
0.01407190412 -0.4666662216 -0.01511530951 1.184631237e-38
0.3940623105 -0.477301538 -0.1029294133 1.184631237e-38
0.3800539374 -0.3980262876 -0.4104449451 1.184631237e-38
0.4437218606 -0.3608761132 -0.4181723595 1.184631237e-38
0.3429100215 -0.2827807665 -0.3851578236 1.184631237e-38
-0.1006320193 -0.4265023172 0.06802666187 1.184631237e-38
0.2840206325 -0.4461331367 -0.4028188288 1.184631237e-38
0.1709435135 -0.4831044078 -0.1095517576 1.184631237e-38
0.4512141347 -0.3128840327 -0.4265341759 1.184631237e-38
-0.1024313644 -0.478343457 0.1052744091 1.184631237e-38
0.4068553746 -0.4843279719 -0.008138213307 1.184631237e-38
-0.1368292421 -0.308077544 0.07294103503 1.184631237e-38
-0.1338340789 -0.3943111897 0.1324410141 1.184631237e-38
-0.133503899 -0.3305492699 0.07534244657 1.184631237e-38
-0.1306585819 -0.4349458516 0.1943560541 1.184631237e-38
0.2869291008 -0.4835571647 -0.08984619379 1.184631237e-38
0.3761040866 -0.4845747352 -0.02951223776 1.184631237e-38
-0.1275212467 -0.4813449383 -0.1601981968 1.184631237e-38
0.44388327 -0.1952895522 -0.4508362114 1.184631237e-38
0.1722169518 -0.4825420976 -0.1547537595 1.184631237e-38
-0.1483924091 -0.3156505823 -0.1289098859 1.184631237e-38
-0.1359867901 -0.2354189754 0.1376195699 1.184631237e-38
-0.1547530442 -0.4773077071 -0.2136148363 1.184631237e-38
0.140138939 -0.4845522046 -0.02470225468 1.184631237e-38
-0.06165681779 -0.4229607582 -0.03313572332 1.184631237e-38
0.3444037139 -0.2744725347 -0.3821402192 1.184631237e-38
0.3885664642 -0.3557939231 -0.2368357629 1.184631237e-38
