# .PCD v0.7 - Point Cloud Data file format
VERSION 0.7
FIELDS x y z rgb
SIZE 4 4 4 4
TYPE F F F F
COUNT 1 1 1 1
WIDTH 840
HEIGHT 1
VIEWPOINT 0 0 0 1 0 0 0
POINTS 840
DATA ascii
-0.4270838201 -0.4850196838 0.2263952643 5.962428276e-39
0.4106776416 -0.3211483359 -0.01295110583 5.962428276e-39
0.4295951426 -0.07471525669 0.003661520779 5.962428276e-39
-0.077711761 -0.4877545834 0.3458715081 5.962428276e-39
0.2390284836 -0.4717570543 0.2838740051 5.962428276e-39
-0.1932677031 -0.4835289717 0.1088555902 5.962428276e-39
0.3759012818 -0.4872668982 0.2051109374 5.962428276e-39
0.3983088732 -0.2827045619 0.2301367819 5.962428276e-39
0.4083001912 -0.3910726309 0.1090083569 5.962428276e-39
0.4137606025 -0.469122082 0.05997812003 5.962428276e-39
-0.2075627893 -0.4858909249 0.2102246583 5.962428276e-39
0.3757380545 -0.3081938624 0.2714850605 5.962428276e-39
0.3317564428 -0.4853596687 0.3613678515 5.962428276e-39
0.4042721689 -0.3186041117 0.03450489417 5.962428276e-39
0.4041872621 -0.460796535 0.2587440312 5.962428276e-39
0.4193196595 -0.2415460646 -0.08161570132 5.962428276e-39
0.1013905779 -0.4877724051 0.390666008 5.962428276e-39
-0.3422383368 -0.4862332642 0.3520033658 5.962428276e-39
0.3381647468 -0.412224412 0.2576393485 5.962428276e-39
0.4196608365 -0.3741838634 0.006592929363 5.962428276e-39
0.3333442211 -0.4870055914 0.3808456063 5.962428276e-39
0.402335763 -0.27690956 0.1136697233 5.962428276e-39
0.4079605639 -0.4528801441 0.1747388393 5.962428276e-39
0.4058656991 -0.148413226 0.1539769173 5.962428276e-39
0.2447948903 -0.4878310859 0.1199076623 5.962428276e-39
0.407132268 -0.3931816518 0.06682056189 8.906165387e-39
0.4418642819 -0.4044075012 -0.1071692854 8.906165387e-39
0.3906371593 -0.336322695 0.2140631676 8.906165387e-39
0.3843335807 -0.4843527973 0.2198527008 8.906165387e-39
0.4118157923 -0.4751452804 0.009432632476 8.906165387e-39
-0.1432076544 -0.4900636673 0.2009800375 8.906165387e-39
0.332264781 -0.4896528125 0.3733920753 8.906165387e-39
0.4082767665 -0.4653528333 0.330752641 8.906165387e-39
0.3954779506 -0.1746839434 0.1769974232 8.906165387e-39
0.3247778118 -0.4891838431 0.3324663639 8.906165387e-39
-0.3859241009 -0.4906660318 0.1780214906 8.906165387e-39
0.411195755 -0.4389242828 0.2695248723 8.906165387e-39
-0.2558860481 -0.4968543351 -0.08389949799 8.906165387e-39
0.4389604628 -0.4394655824 -0.05540027097 8.906165387e-39
0.4264995456 -0.07707771659 0.1807451844 8.906165387e-39
-0.2793466449 -0.4724225402 0.3435214162 8.906165387e-39
0.3942821026 -0.3353994489 0.152086705 8.906165387e-39
-0.04494645447 -0.4890311956 0.3405500352 8.906165387e-39
0.3935179114 -0.4143835902 0.2939576507 8.906165387e-39
0.377504319 -0.1876311153 0.06831996888 8.906165387e-39
0.3516536951 -0.4876362383 0.2807230055 8.906165387e-39
0.1105762124 -0.491170764 0.344984591 8.906165387e-39
-0.4079899788 -0.466335237 0.208503589 8.906165387e-39
0.09468273073 -0.4892755747 0.3764561117 8.906165387e-39
-0.3455488086 -0.4874020517 0.390735954 8.906165387e-39
-0.01387993991 -0.4905778766 -0.09029272199 8.906165387e-39
0.02050516382 -0.4900283217 0.352781117 8.906165387e-39
-0.05228342488 -0.4874741137 0.4178881049 8.906165387e-39
0.2585033178 -0.4908822179 0.4150874019 8.906165387e-39
0.128480643 -0.4560820162 -0.03105698153 8.906165387e-39
0.3217090368 -0.4466833472 0.2300715297 8.906165387e-39
0.3179902136 -0.4353212118 0.2276095003 8.906165387e-39
-0.02982188389 -0.4892128706 -0.04183134064 8.906165387e-39
0.4077156484 -0.4135686755 0.2302359194 8.906165387e-39
-0.1935925186 -0.4624872208 0.157060653 8.906165387e-39
0.3851411641 -0.4808706641 0.08121551573 8.906165387e-39
-0.35643664 -0.4926247001 0.05021622032 8.906165387e-39
0.3799807429 -0.3081537187 -0.04875729606 8.906165387e-39
0.26934129 -0.4867651463 0.1355985701 8.906165387e-39
0.3289506435 -0.4897899032 0.4017910063 8.906165387e-39
0.3943107128 -0.2272531688 0.1329612881 8.906165387e-39
0.1654493213 -0.4453980923 0.005799684674 8.906165387e-39
0.426091522 -0.2614417672 0.004196185619 8.906165387e-39
0.3912007213 -0.2969141304 0.2411682308 8.906165387e-39
0.3992256224 -0.3917010427 0.1478414983 8.906165387e-39
0.0712172538 -0.4767161608 0.2535667121 8.906165387e-39
0.3322557211 -0.4859900475 -0.07929980755 8.906165387e-39
0.3862586319 -0.2722839713 0.05567806959 8.906165387e-39
0.3964152634 -0.3206706643 0.2209070474 8.906165387e-39
0.2992735207 -0.4888246059 0.2847934365 8.906165387e-39
0.424947232 -0.4670562148 -0.1434571594 8.906165387e-39
0.328173995 -0.4244337082 0.2115046829 8.906165387e-39
0.1685635597 -0.4524477124 0.1721706688 8.906165387e-39
0.2676303387 -0.4913080931 0.3824730515 8.906165387e-39
0.4380999506 -0.1479494572 -0.05800681934 8.906165387e-39
0.4071180224 -0.4137153625 0.2158104628 8.906165387e-39
-0.1753418595 -0.4890391827 0.3028631508 8.906165387e-39
0.1536933929 -0.4893820584 0.2192342579 8.906165387e-39
0.3856513798 -0.3652639091 0.2743136883 8.906165387e-39
0.4076789916 -0.4353976548 0.2191579193 8.906165387e-39
0.04334963113 -0.4776133299 0.2542028427 8.906165387e-39
-0.06168010831 -0.4887650013 0.3162422776 8.906165387e-39
0.2978289723 -0.4737619162 -0.1424761862 8.906165387e-39
0.01664911583 -0.4901434779 0.3795610964 8.906165387e-39
0.4103907049 -0.3721339405 0.02732013352 8.906165387e-39
0.40447855 -0.4676655531 0.06149369106 8.906165387e-39
0.1340922564 -0.4893828034 0.1815346628 8.906165387e-39
0.3835832477 -0.1026108563 0.06034134328 8.906165387e-39
0.3963070214 -0.371052295 0.1937916875 8.906165387e-39
0.05916824192 -0.4829193056 -0.1263049096 8.906165387e-39
-0.174402222 -0.4611807466 0.1631506234 8.906165387e-39
0.3048223555 -0.4864321947 -0.05097899213 8.906165387e-39
0.387822628 -0.4654363394 0.321410656 8.906165387e-39
0.3843186498 -0.2782942653 0.02581994049 8.906165387e-39
0.3861519694 -0.3084852695 -0.01530275121 8.906165387e-39
0.11897894 -0.4914347231 0.3758284748 8.906165387e-39
-0.1903876662 -0.4639018178 0.1492026895 8.906165387e-39
-0.01800428331 -0.4901815057 0.09890722483 8.906165387e-39
0.3986716568 -0.3319697082 -0.04672409222 8.906165387e-39
0.3753131926 -0.3335524499 0.263635993 8.906165387e-39
0.3989285529 -0.2238110602 0.219798997 8.906165387e-39
0.0157868173 -0.4895524383 -0.04119269177 8.906165387e-39
0.4017473459 -0.4454487562 0.3115213513 8.906165387e-39
0.3930464983 -0.2491894364 0.1225581169 8.906165387e-39
0.4197095931 -0.1446302682 -0.006904680282 8.906165387e-39
-0.06707445532 -0.5013459921 0.2750044465 8.906165387e-39
0.13663055 -0.4902352691 0.4138244689 8.906165387e-39
0.3893169463 -0.2340629101 0.08921813965 8.906165387e-39
-0.07638821006 -0.486638546 0.4146770835 8.906165387e-39
-0.331772536 -0.4870507121 0.3941342235 8.906165387e-39
0.3884750903 -0.3742568195 0.264290005 8.906165387e-39
0.3926305473 -0.4842787385 0.2733793557 8.906165387e-39
0.3030811548 -0.4852627516 0.04208867624 8.906165387e-39
0.4168697894 -0.4427140653 0.05574688315 8.906165387e-39
-0.1475531459 -0.4858631492 0.4179272056 8.906165387e-39
0.1481300741 -0.4887439013 0.07017533481 8.906165387e-39
0.3762680292 -0.4831879139 -0.04649801925 8.906165387e-39
0.2652286887 -0.4862906933 0.05561990291 8.906165387e-39
0.3548968732 -0.3493174016 0.2155653387 8.906165387e-39
0.1164104939 -0.4742122591 0.2540107071 8.906165387e-39
0.4289088845 -0.4056055546 -0.08329573274 8.906165387e-39
0.3855849802 -0.3042709827 -0.007081534714 8.906165387e-39
0.247802943 -0.4267570376 0.003723181784 8.906165387e-39
-0.382406503 -0.470392406 0.1660695076 8.906165387e-39
0.418171823 -0.3865920305 -0.03140292689 8.906165387e-39
0.4183537364 -0.1005543917 0.0004620999098 8.906165387e-39
-0.2186593264 -0.4889076352 0.3384507 8.906165387e-39
0.2342214882 -0.4907924235 0.3813558519 8.906165387e-39
0.3791549504 -0.4141737223 0.1797177494 8.906165387e-39
0.2710334659 -0.4869080782 0.151787132 8.906165387e-39
0.389754504 -0.3547511399 0.2166728228 8.906165387e-39
0.4109552503 -0.4504603446 0.08590011299 8.906165387e-39
0.3418273926 -0.4843080044 0.003291860223 8.906165387e-39
-0.339152962 -0.4892348647 0.1575707048 8.906165387e-39
0.3736823797 -0.3624016941 0.2687495053 8.906165387e-39
0.2782147229 -0.4906148911 0.4048991799 8.906165387e-39
0.4081326127 -0.365090698 0.02003567852 8.906165387e-39
0.3515925705 -0.4865258336 0.2337562889 8.906165387e-39
0.4201593697 -0.3434712291 -0.1240207851 8.906165387e-39
-0.05110140517 -0.4887560606 0.398103863 8.906165387e-39
-0.4082967043 -0.4885208309 0.3742973804 8.906165387e-39
0.351885289 -0.4766182303 0.3043033779 8.906165387e-39
0.4312140346 -0.45685184 -0.02066322044 8.906165387e-39
0.2452893555 -0.4910020232 0.4002568126 8.906165387e-39
0.3937801719 -0.3358736336 0.09214960784 8.906165387e-39
0.3739547431 -0.4838024378 0.1447781175 8.906165387e-39
0.3945706785 -0.210850209 0.1380277872 8.906165387e-39
0.08344454318 -0.4899362624 0.009251002222 8.906165387e-39
0.4047109485 -0.4158287048 0.03104754351 1.184631237e-38
0.4308670163 -0.4045322537 -0.150250107 1.184631237e-38
0.3896878064 -0.3563833237 0.1922529489 1.184631237e-38
0.3713716865 -0.4866552949 0.1573725939 1.184631237e-38
0.4057270885 -0.481605351 -0.0397788547 1.184631237e-38
-0.06974229962 -0.4903090894 0.1120048463 1.184631237e-38
0.3354114592 -0.4910194576 0.3607212901 1.184631237e-38
0.4233795404 -0.4777717292 0.3380450308 1.184631237e-38
0.389272213 -0.1974134296 0.1660291702 1.184631237e-38
0.3060010076 -0.4905661941 0.2633260489 1.184631237e-38
-0.2791286707 -0.487759918 0.06494562328 1.184631237e-38
0.4009478986 -0.4518837631 0.2277511805 1.184631237e-38
-0.1778482795 -0.4932620227 -0.194671303 1.184631237e-38
0.4292933047 -0.455604136 -0.1111721247 1.184631237e-38
0.4242683649 -0.05923941731 0.106954053 1.184631237e-38
-0.1085015461 -0.4988512397 0.2642255127 1.184631237e-38
0.3882595301 -0.3550168276 0.1177561581 1.184631237e-38
0.009939093143 -0.4908838272 0.2285620719 1.184631237e-38
0.3969992101 -0.4336550236 0.2944363356 1.184631237e-38
0.3754440248 -0.2275740206 0.03014458157 1.184631237e-38
0.3380174637 -0.4889929295 0.2128031105 1.184631237e-38
0.1154546961 -0.4910613 0.2439691722 1.184631237e-38
-0.338760376 -0.4843404591 0.06363853067 1.184631237e-38
0.2067795247 -0.4924286604 0.3633388281 1.184631237e-38
-0.2124225944 -0.4894807339 0.3376991749 1.184631237e-38
0.02288147248 -0.4906968474 -0.1569955051 1.184631237e-38
0.06262905151 -0.4910812378 0.2490251958 1.184631237e-38
0.08219625056 -0.4916879535 0.3835951388 1.184631237e-38
0.2884973586 -0.4920244813 0.3929164112 1.184631237e-38
0.1852274239 -0.4615306258 -0.1052480191 1.184631237e-38
0.4285428524 -0.2746629715 0.2323990613 1.184631237e-38
0.3094553649 -0.4370910525 0.2001466304 1.184631237e-38
0.0004654056393 -0.4898739755 -0.126551792 1.184631237e-38
0.393424958 -0.4247061014 0.196486488 1.184631237e-38
-0.01362922601 -0.4809648991 0.06072894484 1.184631237e-38
0.3766820431 -0.4827616811 0.03582505882 1.184631237e-38
-0.2864874005 -0.4892379344 -0.07972314954 1.184631237e-38
0.3798047304 -0.3301931322 -0.1021467149 1.184631237e-38
0.2586165369 -0.4862415195 0.06543004513 1.184631237e-38
0.3214558959 -0.4922721386 0.3787767589 1.184631237e-38
0.3902770877 -0.2648792565 0.1017239615 1.184631237e-38
0.2150019258 -0.4468498528 -0.06524375081 1.184631237e-38
0.4346584678 -0.2073115408 -0.07833784819 1.184631237e-38
0.3951456547 -0.3228653073 0.2460677475 1.184631237e-38
0.393360883 -0.412522912 0.1044406667 1.184631237e-38
0.3186260164 -0.4465099573 0.2375475764 1.184631237e-38
0.3158381283 -0.4864727855 -0.1380236596 1.184631237e-38
0.3856006861 -0.3055927753 0.01319725439 1.184631237e-38
0.4162063301 -0.1718375683 0.1621849388 1.184631237e-38
0.2806866169 -0.4892616272 0.2058064491 1.184631237e-38
0.4139154851 -0.4660570323 -0.1897933632 1.184631237e-38
0.3272871673 -0.4194938242 0.1981349736 1.184631237e-38
0.3525169194 -0.4605960846 0.1105568409 1.184631237e-38
0.2578750551 -0.492551893 0.32496804 1.184631237e-38
0.4343590736 -0.1797038913 -0.1087339967 1.184631237e-38
0.3913845718 -0.4244487286 0.1803988367 1.184631237e-38
-0.08197043836 -0.4910213947 0.1953465939 1.184631237e-38
0.1439100802 -0.4891388416 0.1404397041 1.184631237e-38
0.3889331222 -0.3877902627 0.2754504979 1.184631237e-38
0.3909992874 -0.4423557222 0.1780168265 1.184631237e-38
0.2937920392 -0.4879188538 0.2252782583 1.184631237e-38
-0.003075238783 -0.4906886816 0.2046974301 1.184631237e-38
0.3017300665 -0.4764081538 -0.1971440613 1.184631237e-38
0.08926459402 -0.4920902848 0.326856643 1.184631237e-38
0.4032948613 -0.391844064 -0.01381023973 1.184631237e-38
0.3987354636 -0.4797374308 0.01455616951 1.184631237e-38
0.1236872748 -0.4890531301 0.1087486297 1.184631237e-38
0.380307138 -0.1299696714 0.02595706098 1.184631237e-38
0.3886279166 -0.389462918 0.1634733379 1.184631237e-38
0.103044562 -0.4897077382 -0.1933300197 1.184631237e-38
0.009115825407 -0.4827862978 0.06684201956 1.184631237e-38
0.2846017182 -0.4873486757 -0.1123924702 1.184631237e-38
0.4046417773 -0.4733393192 0.3249772191 1.184631237e-38
0.3820867836 -0.3058386445 -0.008838996291 1.184631237e-38
0.3853397667 -0.3290016055 -0.06999577582 1.184631237e-38
0.1452294439 -0.4921063483 0.3116832972 1.184631237e-38
-0.01879259013 -0.4801264405 0.05363763124 1.184631237e-38
0.0277786348 -0.4889484644 -0.0162849687 1.184631237e-38
0.39649418 -0.3548054397 -0.1113719195 1.184631237e-38
0.3804461956 -0.3541559875 0.2558213174 1.184631237e-38
0.3958386183 -0.2513556778 0.2187495232 1.184631237e-38
0.05231864378 -0.4897947311 -0.1188350469 1.184631237e-38
0.4115867615 -0.4572613537 0.3189268708 1.184631237e-38
0.3898236752 -0.2904557586 0.08932113647 1.184631237e-38
0.4193234146 -0.1685564071 -0.02958413586 1.184631237e-38
0.1517333537 -0.5314539075 0.2082926631 1.184631237e-38
0.2074581087 -0.4927396178 0.3871023953 1.184631237e-38
0.3880811334 -0.2721945047 0.05481359735 1.184631237e-38
0.06922776252 -0.4915305376 0.3871246874 1.184631237e-38
-0.1865989566 -0.4896814227 0.3517853916 1.184631237e-38
0.3945786357 -0.397459507 0.2416820824 1.184631237e-38
0.386038661 -0.4870069325 0.2160897404 1.184631237e-38
0.2890049517 -0.4852772355 -0.02082352713 1.184631237e-38
0.4095662534 -0.4555436373 0.01676655933 1.184631237e-38
0.003807757515 -0.4904626012 0.3841849566 1.184631237e-38
0.1517146528 -0.4878354073 -0.004595708102 1.184631237e-38
0.3654818535 -0.4839428663 -0.1011596322 1.184631237e-38
0.2579459548 -0.4859133959 -0.01001079008 1.184631237e-38
0.3586736619 -0.3744396269 0.2055011988 1.184631237e-38
0.3505960405 -0.374973774 0.2504304349 1.184631237e-38
0.4203126729 -0.4161415398 -0.13715294 1.184631237e-38
0.3839753568 -0.324210763 -0.06034202501 1.184631237e-38
0.2781460285 -0.4322584569 -0.0735039413 1.184631237e-38
-0.2644683719 -0.4826678634 0.03367857262 1.184631237e-38
0.4085148275 -0.4102093875 -0.08814427257 1.184631237e-38
0.415843904 -0.12471807 -0.01317784563 1.184631237e-38
-0.1078006402 -0.491011709 0.2323551625 1.184631237e-38
0.2811237872 -0.4920755029 0.3704060316 1.184631237e-38
0.4352143705 -0.2835056782 0.1219593436 1.184631237e-38
0.2616656125 -0.4864208698 0.07690897584 1.184631237e-38
0.3895091116 -0.368778795 0.1924253702 1.184631237e-38
0.4009299576 -0.4603587985 0.04480341449 1.184631237e-38
0.3261290193 -0.4848948121 -0.05375049636 1.184631237e-38
-0.2253507078 -0.4877792299 0.05776352808 1.184631237e-38
0.376873821 -0.3780374527 0.2629122138 1.184631237e-38
0.2882775068 -0.4922605753 0.3809123039 1.184631237e-38
0.399076283 -0.3853916824 -0.02972185239 1.184631237e-38
0.3411947191 -0.4876350164 0.1645055413 1.184631237e-38
0.4120128453 -0.3474479914 -0.1599604338 1.184631237e-38
0.0639173165 -0.4920689464 0.363604486 1.184631237e-38
-0.3283432126 -0.489773035 0.2765422761 1.184631237e-38
0.3469462097 -0.4729327559 0.2790726721 1.184631237e-38
0.4266937673 -0.4717915058 -0.07221315801 1.184631237e-38
0.2620132565 -0.4926277995 0.3747286797 1.184631237e-38
0.3914275169 -0.3544410765 0.05530522019 1.184631237e-38
0.3612691164 -0.4850516915 0.0861248821 1.184631237e-38
0.3901549876 -0.2458933592 0.1076418087 1.184631237e-38
0.09519408643 -0.4893220663 -0.0736374408 1.184631237e-38
0.3760208488 -0.4658387303 0.001809634268 1.478322936e-38
0.4277210534 -0.4309583306 -0.1922286302 1.478322936e-38
0.3881365657 -0.4573438466 0.1890715957 1.478322936e-38
0.2021986395 -0.4883450866 0.09452176094 1.478322936e-38
0.3016104102 -0.4859123528 -0.1032480896 1.478322936e-38
-0.1895188838 -0.4890807271 0.083385095 1.478322936e-38
0.1152776629 -0.4923321605 0.3639966846 1.478322936e-38
0.3364428878 -0.4927470386 0.3455056846 1.478322936e-38
0.3902204931 -0.2964720428 0.1356596947 1.478322936e-38
0.1101476699 -0.4902169704 0.1803127676 1.478322936e-38
-0.3550466001 -0.4903076291 0.07731506228 1.478322936e-38
0.3182955086 -0.4899555147 0.2195192873 1.478322936e-38
-0.2742394209 -0.4903929234 -0.1632543504 1.478322936e-38
0.3855083883 -0.4840139747 -0.1482399553 1.478322936e-38
0.4026875496 -0.1958159953 0.06098397449 1.478322936e-38
-0.2802525759 -0.4455683231 0.2714106143 1.478322936e-38
0.3824400306 -0.4231404066 0.09303051233 1.478322936e-38
-0.1863612831 -0.4892470837 0.1919771582 1.478322936e-38
0.3884468079 -0.4911689162 0.3616344929 1.478322936e-38
0.3747664094 -0.3084341288 -0.001547820866 1.478322936e-38
0.14942725 -0.4894781411 0.1417928487 1.478322936e-38
-0.09378284216 -0.4902136326 0.1865977496 1.478322936e-38
-0.3353118598 -0.445795536 0.1333405524 1.478322936e-38
-0.1198206022 -0.4881854355 0.3649947643 1.478322936e-38
-0.3677721918 -0.4880396724 0.3207460642 1.478322936e-38
-0.1733805388 -0.4899010062 -0.1968777031 1.478322936e-38
-0.1644220203 -0.4892893434 0.200254634 1.478322936e-38
-0.192139864 -0.4882667065 0.3788900077 1.478322936e-38
0.009091335349 -0.4911082983 0.3713948131 1.478322936e-38
0.001253815368 -0.4206902981 -0.07485668361 1.478322936e-38
0.2011249065 -0.4377393126 0.1282807291 1.478322936e-38
0.1748267412 -0.4839346409 0.1903875172 1.478322936e-38
-0.1623326391 -0.4890613556 -0.1606618613 1.478322936e-38
0.361302793 -0.4876665771 0.1835778803 1.478322936e-38
-0.1714832932 -0.4526314735 0.08030258864 1.478322936e-38
0.2455660254 -0.4858576655 -0.02847689763 1.478322936e-38
-0.3437929749 -0.4796000719 -0.05946194008 1.478322936e-38
0.3849954605 -0.3648943901 -0.1320930868 1.478322936e-38
0.1180888116 -0.4877688289 0.00909679383 1.478322936e-38
0.1039580926 -0.4925339222 0.3492527902 1.478322936e-38
0.3771688938 -0.3507893682 0.07933207601 1.478322936e-38
0.01538112015 -0.4150187373 -0.04598192498 1.478322936e-38
0.3851702213 -0.3442967534 -0.07200059295 1.478322936e-38
0.3865874112 -0.4455073476 0.2480112612 1.478322936e-38
0.3725692034 -0.4788784087 0.0772543475 1.478322936e-38
0.005029389169 -0.467636168 0.150707826 1.478322936e-38
0.125629589 -0.4916686416 -0.2062254548 1.478322936e-38
0.3813410103 -0.3508966565 -0.01089316979 1.478322936e-38
0.331450969 -0.4134249687 0.0992192328 1.478322936e-38
0.1045652106 -0.4893075824 0.1369781345 1.478322936e-38
0.3572352231 -0.4728733301 -0.2023460269 1.478322936e-38
0.2189776599 -0.4822093248 0.1693391502 1.478322936e-38
0.03691068292 -0.4245475531 0.05478509143 1.478322936e-38
0.04619251564 -0.4914313257 0.2591288388 1.478322936e-38
0.4192010462 -0.2093151063 -0.1570724845 1.478322936e-38
0.3580832183 -0.4868672788 0.1641408056 1.478322936e-38
-0.2352536321 -0.4891893566 0.1737733632 1.478322936e-38
0.007575080264 -0.4899068773 0.1051862016 1.478322936e-38
0.3870258331 -0.4859994352 0.3195189536 1.478322936e-38
0.3154914677 -0.4870834649 0.1480493695 1.478322936e-38
-0.01911910623 -0.4629262686 0.1524178982 1.478322936e-38
-0.1859385967 -0.4892964959 0.1766390949 1.478322936e-38
0.06840998679 -0.4881167412 -0.2161452174 1.478322936e-38
-0.1653708816 -0.4896754622 0.2711767852 1.478322936e-38
0.3903423548 -0.4510382414 -0.03909910098 1.478322936e-38
0.2903239429 -0.4849777222 -0.04316029325 1.478322936e-38
-0.007422326598 -0.4900589585 0.0679866299 1.478322936e-38
0.3540268838 -0.2169337124 -0.01651493832 1.478322936e-38
0.3778754473 -0.4701849818 0.1463981122 1.478322936e-38
-0.09510312229 -0.4617393911 -0.160060212 1.478322936e-38
-0.1638061404 -0.4541552067 0.08291722834 1.478322936e-38
0.07705575228 -0.4913516641 -0.1856696159 1.478322936e-38
0.3363398314 -0.4919800758 0.3660095334 1.478322936e-38
0.3813958168 -0.3476799726 -0.04564050958 1.478322936e-38
0.3921155334 -0.3718657196 -0.1038117856 1.478322936e-38
-0.09693679959 -0.4907403588 0.247933194 1.478322936e-38
-0.1702781171 -0.4502808452 0.0728706792 1.478322936e-38
-0.1283326447 -0.4894935489 -0.06293542683 1.478322936e-38
0.3976143003 -0.4000106156 -0.140359208 1.478322936e-38
0.3340479136 -0.4630689919 0.2310610265 1.478322936e-38
0.3826068342 -0.3572613895 0.2026575506 1.478322936e-38
-0.1342573762 -0.4893958569 -0.1656024307 1.478322936e-38
0.3645415902 -0.492195636 0.3526421487 1.478322936e-38
0.3745801151 -0.3617512584 0.06678972393 1.478322936e-38
0.4027063847 -0.2293437421 -0.07512584329 1.478322936e-38
-0.1138615608 -0.4498282373 0.1762703359 1.478322936e-38
-0.08690885454 -0.4901653528 0.3773087263 1.478322936e-38
0.3772898018 -0.3429556787 0.02197488956 1.478322936e-38
-0.2010292709 -0.4878715277 0.383090049 1.478322936e-38
-0.3609491885 -0.4877287149 0.3346875012 1.478322936e-38
0.3977715969 -0.4872249663 0.2612121105 1.478322936e-38
0.2032456845 -0.489530921 0.1538657993 1.478322936e-38
0.1357166469 -0.4884851873 -0.08961294591 1.478322936e-38
0.337466538 -0.4843255877 -0.03232043609 1.478322936e-38
-0.2465463132 -0.4874995351 0.3766075075 1.478322936e-38
-0.02106784098 -0.489403367 -0.08004741371 1.478322936e-38
0.2178944498 -0.4895071387 -0.1604125649 1.478322936e-38
0.1023926139 -0.4885928035 -0.07497629523 1.478322936e-38
0.287304461 -0.4272876084 0.1351042837 1.478322936e-38
0.04589299485 -0.4713694751 0.1467077434 1.478322936e-38
0.422533989 -0.4621318281 -0.1633889228 1.478322936e-38
0.3902250528 -0.3690941632 -0.09453046322 1.478322936e-38
0.09615447372 -0.4122284055 -0.04751585051 1.478322936e-38
-0.2925421894 -0.4429807365 0.1009559631 1.478322936e-38
0.4036676884 -0.4737392068 -0.1199292988 1.478322936e-38
0.4069983363 -0.1807555258 -0.04811667278 1.478322936e-38
-0.2705806196 -0.4889008999 0.2060630023 1.478322936e-38
-0.02449359745 -0.4905751348 0.3652363718 1.478322936e-38
0.2591712475 -0.4153721631 0.05185668543 1.478322936e-38
0.1196060926 -0.4879490137 0.02198082209 1.478322936e-38
0.3881792128 -0.4682162404 0.1862135828 1.478322936e-38
0.3191949427 -0.4847624302 -0.002692013979 1.478322936e-38
0.1629508734 -0.4892133474 -0.1240175515 1.478322936e-38
-0.3166301847 -0.4906113744 0.04966787621 1.478322936e-38
0.3354535997 -0.4827039838 0.2475398183 1.478322936e-38
0.04900418594 -0.4920703769 0.3581641316 1.478322936e-38
0.3957749605 -0.446036756 -0.05064628646 1.478322936e-38
0.1672475338 -0.4888878167 0.1066693813 1.478322936e-38
0.4031713903 -0.35414204 -0.1969584376 1.478322936e-38
-0.1983145922 -0.4889427423 0.3514000773 1.478322936e-38
-0.3934226036 -0.4891703427 0.277885586 1.478322936e-38
0.2371180952 -0.4895458221 0.2921497226 1.478322936e-38
0.35111624 -0.4850906134 -0.1205634773 1.478322936e-38
0.01176414639 -0.4916249514 0.3506247401 1.478322936e-38
0.3889317811 -0.4177314341 0.02834109589 1.478322936e-38
0.2158085555 -0.4867602885 0.02627513744 1.478322936e-38
0.3805676103 -0.335129559 0.08342638612 1.478322936e-38
-0.09160431474 -0.4891606569 -0.1413267553 1.478322936e-38
0.3340139091 -0.4858385623 -0.003594130278 1.771655483e-38
0.3419825137 -0.4673924148 -0.2343090475 1.771655483e-38
0.3794670105 -0.4863161445 0.1617743671 1.771655483e-38
0.1509266794 -0.4876503646 0.03557075188 1.771655483e-38
0.1932223737 -0.4879505634 -0.12473315 1.771655483e-38
-0.2423922718 -0.4878546 -0.01999830082 1.771655483e-38
0.05221867189 -0.4932698309 0.3150621653 1.771655483e-38
0.2593154609 -0.4920976758 0.2324375063 1.771655483e-38
0.357475996 -0.3567851782 0.1423919499 1.771655483e-38
0.04186610878 -0.4896986485 0.1004368141 1.771655483e-38
-0.3101557195 -0.4808311462 -0.02803413942 1.771655483e-38
0.2195865363 -0.4888412356 0.113723442 1.771655483e-38
-0.2616330087 -0.4747992158 -0.1724049896 1.771655483e-38
0.3224946856 -0.4855148196 -0.177371189 1.771655483e-38
0.3192888796 -0.4239967167 0.0416668579 1.771655483e-38
-0.1549720317 -0.4426313043 0.1461477876 1.771655483e-38
0.3682685196 -0.4762024879 0.09664860368 1.771655483e-38
-0.1895486116 -0.4892490506 0.09223164618 1.771655483e-38
0.3233372867 -0.491750598 0.2630818784 1.771655483e-38
0.3289762735 -0.3562264442 0.02323863842 1.771655483e-38
0.09284605086 -0.4886901975 0.07032952458 1.771655483e-38
-0.1206852049 -0.4893310964 0.09633876383 1.771655483e-38
-0.2125839293 -0.3946442008 0.02963724732 1.771655483e-38
-0.1241110116 -0.4924375117 0.34371382 1.771655483e-38
-0.3461753726 -0.4893161654 0.1794291735 1.771655483e-38
-0.1972454637 -0.4862166643 -0.1941124946 1.771655483e-38
-0.1616230756 -0.4894975424 0.1046266332 1.771655483e-38
-0.2091574669 -0.4918618798 0.3012540638 1.771655483e-38
-0.06223276258 -0.4930662513 0.3113906384 1.771655483e-38
-0.1342108846 -0.4235302508 -0.15421924 1.771655483e-38
0.03870420158 -0.3963006437 0.0363987796 1.771655483e-38
0.1760154068 -0.4906384349 0.217962116 1.771655483e-38
-0.1892143786 -0.4866174161 -0.16915299 1.771655483e-38
0.2636042833 -0.4877951741 0.1059817374 1.771655483e-38
-0.1529395282 -0.3785685003 0.003545753658 1.771655483e-38
0.1573465616 -0.4874070585 -0.08084864914 1.771655483e-38
-0.2422523946 -0.4548809528 -0.1065783054 1.771655483e-38
0.3361219764 -0.4165219665 -0.1470756531 1.771655483e-38
0.05431194603 -0.4888265729 -0.05623121932 1.771655483e-38
-0.001019430347 -0.4928523898 0.2413146198 1.771655483e-38
0.3443935513 -0.39772138 0.08937679231 1.771655483e-38
-0.1142708212 -0.4048116207 -0.1215721667 1.771655483e-38
0.2539535761 -0.4180442691 -0.1323197931 1.771655483e-38
0.3983602822 -0.4840817153 0.2129858285 1.771655483e-38
0.3202255964 -0.4868159294 0.05277574062 1.771655483e-38
-0.0126661025 -0.4175413251 0.1000818387 1.771655483e-38
0.007542069536 -0.4893485308 -0.2239094973 1.771655483e-38
0.3296614587 -0.3993133903 0.00547202304 1.771655483e-38
0.1178255826 -0.4032899141 0.02323127165 1.771655483e-38
0.04638275132 -0.4893770516 0.06921078265 1.771655483e-38
0.2122161388 -0.4863105416 -0.2752425671 1.771655483e-38
0.2170837373 -0.4883810878 0.1801772714 1.771655483e-38
-0.08816543967 -0.3805432022 -0.03355787322 1.771655483e-38
-0.05591701344 -0.4905410111 0.1410028338 1.771655483e-38
0.3452622592 -0.3441322148 -0.13005808 1.771655483e-38
0.2650127709 -0.4873813093 0.09502248466 1.771655483e-38
-0.2614326775 -0.4882721901 0.06502708048 1.771655483e-38
-0.07679966837 -0.4887226522 0.02705764584 1.771655483e-38
0.3770547807 -0.4899095595 0.263694346 1.771655483e-38
0.2325538546 -0.48770082 0.08184097707 1.771655483e-38
-0.02412872016 -0.4148818254 0.09668778628 1.771655483e-38
-0.1938667297 -0.4889577031 0.0757510066 1.771655483e-38
-0.1101890355 -0.4915120602 -0.2928085029 1.771655483e-38
-0.1819993854 -0.4905451536 0.1600548625 1.771655483e-38
0.3504969478 -0.4841095209 -0.05166124925 1.771655483e-38
0.1875684112 -0.4873083234 -0.0860298425 1.771655483e-38
-0.08847617358 -0.4883144498 -0.01725842431 1.771655483e-38
0.3501701355 -0.278455019 0.05491296947 1.771655483e-38
0.3407561183 -0.4870846272 0.108975336 1.771655483e-38
-0.2098320276 -0.466170609 -0.2170609832 1.771655483e-38
-0.1477852762 -0.3799242675 0.00530186668 1.771655483e-38
-0.02268796973 -0.4890470803 -0.2032746971 1.771655483e-38
0.2772874236 -0.4926325977 0.2720489502 1.771655483e-38
0.3231978416 -0.3920863867 -0.02807874605 1.771655483e-38
0.3266867101 -0.4168164134 -0.1088708341 1.771655483e-38
-0.1278584898 -0.4900783598 0.1368477345 1.771655483e-38
-0.1548481882 -0.3762081265 -0.003785278648 1.771655483e-38
-0.166826874 -0.4872127175 -0.1223584712 1.771655483e-38
0.3307985663 -0.4475365579 -0.1454495341 1.771655483e-38
0.3458558321 -0.485242188 0.2282818258 1.771655483e-38
0.3807240725 -0.4296740294 0.1804441065 1.771655483e-38
-0.1662678421 -0.486989975 -0.1726166308 1.771655483e-38
0.2865162194 -0.491856873 0.242671892 1.771655483e-38
0.3447952867 -0.4097469151 0.07626516372 1.771655483e-38
0.358789593 -0.3281471729 -0.06860977411 1.771655483e-38
-0.05433085561 -0.4021625221 0.09613128006 1.771655483e-38
-0.1203592271 -0.492534101 0.3073544502 1.771655483e-38
0.3391259909 -0.3834159672 0.03539684042 1.771655483e-38
-0.2127640843 -0.4918428063 0.3181810975 1.771655483e-38
-0.3460799158 -0.4897724688 0.1995095462 1.771655483e-38
0.3534262478 -0.488974005 0.1909651309 1.771655483e-38
0.1449793428 -0.4886157811 0.07698133588 1.771655483e-38
0.04430578277 -0.4888696671 -0.1290498674 1.771655483e-38
0.2369509935 -0.4866700172 -0.06439831853 1.771655483e-38
-0.2560557723 -0.4912902415 0.2934186757 1.771655483e-38
-0.09274338931 -0.4884214401 -0.12591286 1.771655483e-38
0.09480793029 -0.490044117 -0.1897824556 1.771655483e-38
0.01523742452 -0.4890488982 -0.1240207553 1.771655483e-38
0.291182369 -0.4778546095 0.109216854 1.771655483e-38
-0.001934264787 -0.4179499745 0.1050153449 1.771655483e-38
0.3466659784 -0.4813497663 -0.2043581307 1.771655483e-38
0.3261480927 -0.4114998281 -0.09706862271 1.771655483e-38
-0.0784843117 -0.4155478477 -0.1280709803 1.771655483e-38
-0.2094901353 -0.3851509988 0.005766965449 1.771655483e-38
0.3365995884 -0.4834943414 -0.1362105161 1.771655483e-38
0.3603933752 -0.2927216291 -0.01432105526 1.771655483e-38
-0.2933697701 -0.4888572097 0.0995843336 1.771655483e-38
-0.06883221865 -0.4929779768 0.3285049498 1.771655483e-38
0.02902544104 -0.398278743 -0.02472543344 1.771655483e-38
0.05599310994 -0.4887504578 -0.04368339851 1.771655483e-38
0.3728326559 -0.4871290326 0.1538140029 1.771655483e-38
0.227459535 -0.4867934883 -0.03830924258 1.771655483e-38
0.05889229476 -0.4890930057 -0.1497651041 1.771655483e-38
-0.317613095 -0.4875429273 -0.05244286731 1.771655483e-38
0.3527916968 -0.4900529385 0.2598578036 1.771655483e-38
-0.05200552568 -0.4927400947 0.2596440911 1.771655483e-38
0.3560421765 -0.4835549593 -0.06423000991 1.771655483e-38
0.1156066507 -0.4878667891 0.0359043926 1.771655483e-38
0.32963413 -0.4053395987 -0.2303439975 1.771655483e-38
-0.2207986712 -0.4912606776 0.2194100767 1.771655483e-38
-0.3292614818 -0.4815295339 0.1191122979 1.771655483e-38
0.2195824534 -0.4933434725 0.3053300083 1.771655483e-38
0.2544865012 -0.4883888662 -0.1474127769 1.771655483e-38
-0.08004418015 -0.4920475483 0.2405605018 1.771655483e-38
0.364179343 -0.468662858 0.04686554894 1.771655483e-38
0.150203377 -0.4871792793 -0.03290234879 1.771655483e-38
0.3441031575 -0.3870734572 0.09620884806 1.771655483e-38
-0.1350273341 -0.4877049923 -0.1576689333 1.771655483e-38
0.1895883232 -0.4874993265 -0.1102091819 2.06466517e-38
0.249830991 -0.4249252677 -0.2665720582 2.06466517e-38
0.2608038187 -0.4875169396 0.08131699264 2.06466517e-38
0.02493720502 -0.4882060587 -0.05767484382 2.06466517e-38
0.02860398591 -0.4902079701 -0.2191784382 2.06466517e-38
-0.2608532012 -0.4499772489 -0.1231119037 2.06466517e-38
-0.054576803 -0.4913785458 0.2655079961 2.06466517e-38
0.1005334705 -0.490475297 0.1521981508 2.06466517e-38
0.3725909591 -0.4399132729 0.1431324184 2.06466517e-38
-0.05833763629 -0.4876714051 0.02856109478 2.06466517e-38
-0.1929359883 -0.3610214591 -0.0869461745 2.06466517e-38
0.09860438108 -0.4880020618 0.04506330565 2.06466517e-38
-0.1727580279 -0.3497447968 -0.1990668029 2.06466517e-38
0.1521138996 -0.4865047932 -0.2628020346 2.06466517e-38
0.304077059 -0.4178601801 -0.02623635903 2.06466517e-38
-0.01660776511 -0.4649631381 0.1106039137 2.06466517e-38
0.2857121527 -0.4869658053 0.0183859393 2.06466517e-38
-0.210935384 -0.4848197401 -0.01063889265 2.06466517e-38
0.1762901247 -0.491990298 0.2119331658 2.06466517e-38
0.3340812325 -0.4072896242 -0.01959735528 2.06466517e-38
-0.02047511004 -0.4880670309 -0.009143590927 2.06466517e-38
-0.135019362 -0.4872536659 0.01196805388 2.06466517e-38
-0.1284997165 -0.3798512518 0.01213899255 2.06466517e-38
-0.1565842181 -0.4904424548 0.2607171237 2.06466517e-38
-0.2480524033 -0.4521550834 0.05227365717 2.06466517e-38
-0.2242918015 -0.387519598 -0.2713739872 2.06466517e-38
-0.177673474 -0.4870906472 0.01124336943 2.06466517e-38
-0.2240890265 -0.489998132 0.1861663163 2.06466517e-38
-0.1122872904 -0.4904149771 0.2226147205 2.06466517e-38
-0.09853019565 -0.3717241287 -0.2008299083 2.06466517e-38
0.08300171793 -0.4554229081 0.05432550609 2.06466517e-38
0.08678431809 -0.4919498563 0.2597967386 2.06466517e-38
-0.2304985672 -0.3977240026 -0.2602573037 2.06466517e-38
0.1406888068 -0.487808913 0.03068129905 2.06466517e-38
-0.07781264186 -0.3815638423 -0.02362339571 2.06466517e-38
0.03183631971 -0.4889146388 -0.1660395563 2.06466517e-38
-0.1625699103 -0.351598233 -0.1252839416 2.06466517e-38
0.3237134218 -0.4516038299 -0.2073815763 2.06466517e-38
-0.07443834841 -0.4871818721 -0.1568431109 2.06466517e-38
-0.08850860596 -0.4890718758 0.1517280638 2.06466517e-38
0.3701497316 -0.4707025886 0.06732836366 2.06466517e-38
-0.08556093276 -0.371420145 -0.1812263131 2.06466517e-38
0.2606217861 -0.3945275545 -0.1019214392 2.06466517e-38
0.3285179138 -0.4892911911 0.1824315339 2.06466517e-38
0.1759147048 -0.4873380363 -0.04823893681 2.06466517e-38
0.0379159078 -0.4426468611 0.1374087036 2.06466517e-38
-0.1936412901 -0.4487619996 -0.3137134314 2.06466517e-38
0.3457131684 -0.4572067261 -0.06175404415 2.06466517e-38
0.1551701576 -0.4438036382 0.02497203089 2.06466517e-38
-0.06032681465 -0.4875549078 -0.01336893812 2.06466517e-38
0.01837279648 -0.3962772489 -0.2342474163 2.06466517e-38
0.1401312649 -0.490814209 0.2342813015 2.06466517e-38
-0.01682303846 -0.4143768847 -0.02028803155 2.06466517e-38
-0.09100782126 -0.4879036844 0.07491520792 2.06466517e-38
0.2891742587 -0.3506023884 -0.174223721 2.06466517e-38
0.1407492012 -0.487506032 0.01033679023 2.06466517e-38
-0.2766938806 -0.4783244431 -0.04934009537 2.06466517e-38
-0.1143900901 -0.4867869616 -0.08105863631 2.06466517e-38
0.2594106793 -0.4919727445 0.2334495485 2.06466517e-38
0.1092939973 -0.4873933196 -0.006969604641 2.06466517e-38
0.03571830317 -0.4412522316 0.1374952793 2.06466517e-38
-0.2172673941 -0.4834999442 -0.03246783838 2.06466517e-38
-0.1496333182 -0.3813377619 -0.2579294145 2.06466517e-38
-0.1896872073 -0.4879025221 0.06924141943 2.06466517e-38
0.2551016212 -0.4883628488 -0.1398356557 2.06466517e-38
0.06279980391 -0.4889163375 -0.1672401875 2.06466517e-38
-0.1401061118 -0.485117197 -0.120136112 2.06466517e-38
0.3252095878 -0.3279045522 -0.02428753302 2.06466517e-38
0.2038983852 -0.4873464406 0.02134969831 2.06466517e-38
-0.1487005055 -0.3590331972 -0.2391262352 2.06466517e-38
-0.07447470725 -0.3858758807 -0.01945441589 2.06466517e-38
-0.2087934315 -0.4588927627 -0.3089152575 2.06466517e-38
0.1215573996 -0.4922035933 0.2206910849 2.06466517e-38
0.3460053802 -0.4452004433 -0.1049553156 2.06466517e-38
0.3412771225 -0.4643285573 -0.1781832576 2.06466517e-38
-0.1408329457 -0.4877115488 0.06110509485 2.06466517e-38
-0.07932115346 -0.376832068 -0.03162390366 2.06466517e-38
-0.2491578013 -0.4329628646 -0.2087292075 2.06466517e-38
0.3380997777 -0.4791317284 -0.2241377234 2.06466517e-38
0.3141903579 -0.4921351075 0.2893702984 2.06466517e-38
0.3934871852 -0.4863919616 0.2124786675 2.06466517e-38
-0.2308166623 -0.4106771946 -0.2720069885 2.06466517e-38
0.1338872164 -0.4911909699 0.1774086505 2.06466517e-38
0.3693965077 -0.4806171954 0.04476330429 2.06466517e-38
0.3348222971 -0.342214793 -0.1163140535 2.06466517e-38
0.02353451215 -0.4276073575 0.1209065616 2.06466517e-38
-0.160335049 -0.4899596274 0.1972257793 2.06466517e-38
0.3524894714 -0.4516169429 -0.0006613023579 2.06466517e-38
-0.2281425744 -0.4901539087 0.2029314935 2.06466517e-38
-0.2609754205 -0.4658042192 0.06536219269 2.06466517e-38
0.1991156489 -0.4892561436 0.1094679907 2.06466517e-38
0.02548117004 -0.4881324768 0.0009301863611 2.06466517e-38
-0.1028614417 -0.4858863354 -0.2308812439 2.06466517e-38
0.1187506393 -0.4885696173 -0.1488014311 2.06466517e-38
-0.265404135 -0.4896911979 0.1821063161 2.06466517e-38
-0.2141179591 -0.4722201228 -0.2291365564 2.06466517e-38
-0.1078592315 -0.4862563014 -0.3046923578 2.06466517e-38
-0.1195965782 -0.4842373133 -0.2234199047 2.06466517e-38
0.2598021626 -0.4866887927 0.1494407356 2.06466517e-38
0.03933372721 -0.4454794228 0.1304859519 2.06466517e-38
0.2621865273 -0.4771798849 -0.2661337256 2.06466517e-38
0.3411561251 -0.460416019 -0.1677259207 2.06466517e-38
-0.07419544458 -0.3828249276 -0.1886127889 2.06466517e-38
-0.1228019446 -0.3776919842 -0.02237861231 2.06466517e-38
0.2517534196 -0.4850564599 -0.2211387753 2.06466517e-38
0.3055330515 -0.3117935658 -0.09227578342 2.06466517e-38
-0.2927946746 -0.4778112769 -0.0109545663 2.06466517e-38
-0.1107575893 -0.4907975793 0.2620787919 2.06466517e-38
0.08192062378 -0.4353176355 -0.03076041862 2.06466517e-38
-0.06956535578 -0.4872504473 -0.1458087415 2.06466517e-38
0.2355990708 -0.4877176881 0.06931176782 2.06466517e-38
0.1066428646 -0.4881593287 -0.1289845854 2.06466517e-38
-0.1027388945 -0.4883183837 -0.2610919476 2.06466517e-38
-0.1997848153 -0.3640546501 -0.1095911413 2.06466517e-38
0.2784007192 -0.4926148653 0.2989093661 2.06466517e-38
-0.1080646589 -0.4894344807 0.1684240401 2.06466517e-38
0.271273613 -0.48865816 -0.1485138237 2.06466517e-38
-0.007552303839 -0.4883122444 -0.05162196234 2.06466517e-38
0.2520571947 -0.3569867313 -0.2590532005 2.06466517e-38
-0.2299731523 -0.4888353944 0.1193028837 2.06466517e-38
-0.2027620226 -0.3941658437 0.03533587605 2.06466517e-38
0.09286290407 -0.4926916361 0.3038317561 2.06466517e-38
0.07998519391 -0.4878138304 -0.2408199608 2.06466517e-38
-0.117374748 -0.48931247 0.1554433256 2.06466517e-38
0.3130708337 -0.487588048 -0.03835861012 2.06466517e-38
0.02099850401 -0.4882822931 -0.1327926368 2.06466517e-38
0.3689020276 -0.4589861631 0.07828130573 2.06466517e-38
-0.2367431819 -0.4342448413 -0.2704118192 2.06466517e-38
0.06023245677 -0.4884312153 -0.1376642138 2.348204041e-38
-0.01008838229 -0.3800864816 -0.2766863704 2.348204041e-38
0.2066415697 -0.4884333014 0.07486792654 2.348204041e-38
-0.02135101706 -0.4872850776 -0.08249534667 2.348204041e-38
-0.1051821783 -0.4867972732 -0.2745004296 2.348204041e-38
-0.2756138742 -0.443389535 -0.1781395823 2.348204041e-38
-0.05023800954 -0.4909836948 0.2383154929 2.348204041e-38
0.08182352781 -0.489854902 0.1327109933 2.348204041e-38
0.3887936473 -0.4707459211 0.1917066276 2.348204041e-38
-0.06955182552 -0.4874116778 0.001359816641 2.348204041e-38
-0.1943589747 -0.3500451446 -0.1314446628 2.348204041e-38
0.07059226185 -0.4877163768 0.02987411991 2.348204041e-38
-0.1412237883 -0.3402851224 -0.2498141229 2.348204041e-38
-0.03706184775 -0.474026829 -0.2910765111 2.348204041e-38
0.2189883143 -0.4642264843 -0.09990556538 2.348204041e-38
0.01176970266 -0.441940546 0.1075066552 2.348204041e-38
0.1907872111 -0.4871736765 0.005755942315 2.348204041e-38
-0.2355734557 -0.4851254225 -0.05881140009 2.348204041e-38
0.1652628928 -0.4913401604 0.2103202641 2.348204041e-38
0.3435020149 -0.4767484665 0.01322475076 2.348204041e-38
-0.05385211483 -0.4867952466 -0.03451320902 2.348204041e-38
-0.1570020765 -0.4872119427 -0.02999853715 2.348204041e-38
-0.09496952593 -0.3890283704 -0.04500563815 2.348204041e-38
-0.1497779638 -0.490391314 0.2409049571 2.348204041e-38
-0.2528677881 -0.4596354961 -0.00934548676 2.348204041e-38
-0.1746050864 -0.3578149378 -0.2894292176 2.348204041e-38
-0.2001050115 -0.4872156382 -0.03564752266 2.348204041e-38
-0.2364333123 -0.4893610775 0.1509286612 2.348204041e-38
-0.1087627262 -0.4900010824 0.1905958951 2.348204041e-38
-0.0816558823 -0.3197145462 -0.2536078095 2.348204041e-38
0.04466731846 -0.4312348366 -0.05052142218 2.348204041e-38
0.1006008014 -0.4924712181 0.3075523376 2.348204041e-38
-0.1860649884 -0.3606719375 -0.2808180451 2.348204041e-38
0.1007704064 -0.4875905514 0.01101130992 2.348204041e-38
-0.05107825994 -0.3823043108 -0.06527040899 2.348204041e-38
-0.06932798028 -0.4872135818 -0.2082811892 2.348204041e-38
-0.1403842568 -0.3454917371 -0.1767582595 2.348204041e-38
0.2547521293 -0.4564742446 -0.2364085615 2.348204041e-38
-0.1231302023 -0.4859416485 -0.2054021955 2.348204041e-38
-0.08208159357 -0.4890308976 0.1233509034 2.348204041e-38
0.3432473242 -0.4882868528 0.08265961707 2.348204041e-38
-0.08453848958 -0.3184678853 -0.2438265979 2.348204041e-38
0.1240623221 -0.3743856549 -0.1964655668 2.348204041e-38
0.3035341203 -0.4890301824 0.1898187846 2.348204041e-38
0.09701616317 -0.4873045981 -0.05416206643 2.348204041e-38
0.02227103896 -0.455376476 0.1098567918 2.348204041e-38
-0.1727304459 -0.3735976219 -0.2976781726 2.348204041e-38
0.3029593527 -0.487495482 -0.0614096038 2.348204041e-38
0.1028987989 -0.4277329445 -0.107132107 2.348204041e-38
-0.07548245788 -0.4869359732 -0.04432553425 2.348204041e-38
-0.01420533657 -0.3729640543 -0.2576657534 2.348204041e-38
0.1558784097 -0.4920784831 0.2864151895 2.348204041e-38
-0.01899227872 -0.3863254786 -0.1086954325 2.348204041e-38
-0.09294211864 -0.4878923893 0.04866456613 2.348204041e-38
0.120320864 -0.3742050231 -0.2041011453 2.348204041e-38
0.09726798534 -0.4874182343 -0.004730693996 2.348204041e-38
-0.2973948717 -0.4759895205 -0.1066552848 2.348204041e-38
-0.1482278258 -0.4865833521 -0.1292194724 2.348204041e-38
0.2412810177 -0.4912187457 0.2373549342 2.348204041e-38
0.06731439382 -0.4871760011 -0.01942408457 2.348204041e-38
0.02118720673 -0.4549748898 0.1115534902 2.348204041e-38
-0.246184513 -0.4833923578 -0.08152996004 2.348204041e-38
-0.09109891206 -0.3549070954 -0.2569828033 2.348204041e-38
-0.2026274651 -0.4875910878 0.02947134897 2.348204041e-38
0.06815554947 -0.4881798029 -0.1860459 2.348204041e-38
-0.06579789519 -0.4877439439 -0.215079844 2.348204041e-38
-0.1828048229 -0.4823867083 -0.1770492494 2.348204041e-38
0.2004844844 -0.3898916841 0.026749935 2.348204041e-38
0.1420393735 -0.4875788093 0.004722017795 2.348204041e-38
-0.101456739 -0.3375838399 -0.2725001872 2.348204041e-38
-0.04716949537 -0.3833161891 -0.06140331551 2.348204041e-38
-0.1850873232 -0.3920022845 -0.3062219322 2.348204041e-38
0.1013862565 -0.4919221401 0.2129200101 2.348204041e-38
0.3071365654 -0.4869278967 -0.1050965339 2.348204041e-38
0.235477373 -0.4844713211 -0.2111802995 2.348204041e-38
-0.1506013423 -0.4874072671 0.02391486987 2.348204041e-38
-0.05410708115 -0.3803359866 -0.07605084777 2.348204041e-38
-0.2282673717 -0.3914314508 -0.2635515034 2.348204041e-38
0.1895459741 -0.4676972628 -0.258479774 2.348204041e-38
0.3219461441 -0.4921078086 0.3242120147 2.348204041e-38
0.3979826868 -0.4888768792 0.254127413 2.348204041e-38
-0.1867054552 -0.3657550216 -0.2882516682 2.348204041e-38
0.1198066399 -0.4906673431 0.1654203385 2.348204041e-38
0.3163183928 -0.4879614115 0.04742469639 2.348204041e-38
0.1810823232 -0.4003100693 -0.1057467163 2.348204041e-38
0.02396821976 -0.4498074055 0.1140905768 2.348204041e-38
-0.1540622562 -0.4898526669 0.1667344421 2.348204041e-38
0.3401301503 -0.4868102074 0.0178239271 2.348204041e-38
-0.2425300032 -0.4892993569 0.1693430096 2.348204041e-38
-0.2798613608 -0.4698633254 0.008615627885 2.348204041e-38
0.1646194905 -0.4889175296 0.09034980088 2.348204041e-38
-0.009635180235 -0.4874621928 -0.02057407424 2.348204041e-38
-0.1821242273 -0.4815101624 -0.2821723521 2.348204041e-38
-0.02969691157 -0.488527745 -0.1983490437 2.348204041e-38
-0.2783137858 -0.4889398217 0.145179227 2.348204041e-38
-0.2274009138 -0.442153275 -0.285757184 2.348204041e-38
-0.1722280234 -0.4374105036 -0.3082343638 2.348204041e-38
-0.1866961122 -0.480482161 -0.2773804367 2.348204041e-38
0.2806243002 -0.4871707559 0.1754615307 2.348204041e-38
0.02378262207 -0.4539889991 0.08464975655 2.348204041e-38
0.01664113253 -0.4345088303 -0.2875839472 2.348204041e-38
0.2452800125 -0.4840671122 -0.1972758174 2.348204041e-38
-0.06768527627 -0.3183622956 -0.2414581776 2.348204041e-38
-0.09782509506 -0.3790789843 -0.07382616401 2.348204041e-38
0.02612245083 -0.4786405861 -0.2723212838 2.348204041e-38
0.1395512521 -0.3672043979 -0.04038821533 2.348204041e-38
-0.3136610687 -0.4769327044 -0.06611779332 2.348204041e-38
-0.1046699509 -0.4905536771 0.2379432917 2.348204041e-38
0.03360163048 -0.3787867725 -0.1516654193 2.348204041e-38
-0.1121915132 -0.4860612154 -0.1921197921 2.348204041e-38
0.1793977469 -0.4885184765 0.06014099717 2.348204041e-38
-0.01496466808 -0.4881406128 -0.1681394577 2.348204041e-38
-0.1844737381 -0.4705771804 -0.3002880812 2.348204041e-38
-0.1971867681 -0.3512776792 -0.1512636393 2.348204041e-38
0.2792526782 -0.4925990105 0.3244394064 2.348204041e-38
-0.1035289988 -0.4893291295 0.136226356 2.348204041e-38
0.07325406373 -0.4883962274 -0.1970652342 2.348204041e-38
-0.04913236573 -0.4867730141 -0.08134151995 2.348204041e-38
0.04775299132 -0.329390049 -0.2605403662 2.348204041e-38
-0.2411729991 -0.4882610142 0.07548029721 2.348204041e-38
-0.1648070812 -0.3976709247 -0.0208328031 2.348204041e-38
0.07368922979 -0.4927862585 0.2961180508 2.348204041e-38
-0.08180084825 -0.4854930639 -0.2914967835 2.348204041e-38
-0.1127628461 -0.4891391993 0.1217639148 2.348204041e-38
0.1789993197 -0.4873487949 -0.05069015548 2.348204041e-38
-0.04726132378 -0.486887604 -0.1636117548 2.348204041e-38
0.3633277714 -0.4883454442 0.1126459986 2.348204041e-38
-0.2043147087 -0.3899732828 -0.289050281 2.348204041e-38
0.1511100084 -0.4879412651 -0.2182759643 2.346801622e-38
0.107843034 -0.3714928627 -0.277628839 2.346801622e-38
0.3248381615 -0.4870714545 0.01696754433 2.346801622e-38
0.01463977993 -0.4876197577 -0.1865818799 2.346801622e-38
-0.03437801823 -0.45786497 -0.308685869 2.346801622e-38
-0.1775193214 -0.3689811528 -0.2453405559 2.346801622e-38
-0.04008933157 -0.490668118 0.1458509266 2.346801622e-38
0.1471749544 -0.4885150194 0.04834414274 2.346801622e-38
0.3927049041 -0.4001912475 0.09253036976 2.346801622e-38
-0.04377029836 -0.4865692258 -0.1260069907 2.346801622e-38
-0.1277646124 -0.3491460383 -0.2007848322 2.346801622e-38
0.1365410984 -0.4866635203 -0.05909272656 2.346801622e-38
-0.09201300144 -0.3215786517 -0.2887226939 2.346801622e-38
0.06280714273 -0.4314907193 -0.2896517515 2.346801622e-38
0.2523775399 -0.4450666606 -0.143765077 2.346801622e-38
0.03790211305 -0.4341490269 0.07487858832 2.346801622e-38
0.3238669038 -0.4872065187 -0.05482368544 2.346801622e-38
-0.2739627659 -0.4737901688 -0.1925188601 2.346801622e-38
0.2239294499 -0.4863470495 0.1336354315 2.346801622e-38
0.3466406465 -0.386538893 -0.1008971334 2.346801622e-38
-0.0149947349 -0.4873295426 -0.1623012424 2.346801622e-38
-0.1924752444 -0.4840864539 -0.1689083725 2.346801622e-38
-0.02396240272 -0.3818942904 -0.08839891851 2.346801622e-38
-0.1527887881 -0.4892773628 0.1587862372 2.346801622e-38
-0.09918829054 -0.434782505 -0.05948096141 2.346801622e-38
-0.09891556203 -0.3448706865 -0.2997347713 2.346801622e-38
-0.2539886832 -0.479960382 -0.1685979217 2.346801622e-38
-0.2558813691 -0.4824686348 0.07653416693 2.346801622e-38
-0.1126303896 -0.4901123643 0.1136678159 2.346801622e-38
-0.01425124332 -0.2951247096 -0.2570182085 2.346801622e-38
0.121807225 -0.4291918278 -0.117785126 2.346801622e-38
0.1376251429 -0.4780837297 0.1268041283 2.346801622e-38
-0.1102692038 -0.3463136256 -0.2999753952 2.346801622e-38
0.1777226925 -0.4867112637 -0.06163580343 2.346801622e-38
-0.009906493127 -0.3666749597 -0.1373256594 2.346801622e-38
-0.04417301342 -0.4883178473 -0.2902816832 2.346801622e-38
-0.1115946248 -0.3194877505 -0.247690022 2.346801622e-38
0.2684486806 -0.4120228291 -0.2574724257 2.346801622e-38
-0.1186298504 -0.4809077978 -0.3055994213 2.346801622e-38
-0.08312585205 -0.4888461232 0.0229471866 2.346801622e-38
0.3843843937 -0.4372345209 -0.002979464829 2.346801622e-38
-0.01941239461 -0.2894017994 -0.2525807023 2.346801622e-38
0.2013434619 -0.3720092773 -0.2129744887 2.346801622e-38
0.3665261865 -0.4875012338 0.108513549 2.346801622e-38
0.1839694083 -0.4871384501 -0.1344716102 2.346801622e-38
0.07518856972 -0.4283342659 0.03771541268 2.346801622e-38
-0.07007005066 -0.3520801961 -0.285438776 2.346801622e-38
