# .PCD v0.7 - Point Cloud Data file format
VERSION 0.7
FIELDS x y z rgb
SIZE 4 4 4 4
TYPE F F F F
COUNT 1 1 1 1
WIDTH 831
HEIGHT 1
VIEWPOINT 0 0 0 1 0 0 0
POINTS 831
DATA ascii
-0.215271458 -0.4817322493 -0.0908068791 8.742304551e-39
0.1245050579 -0.4803858995 -0.06502376497 8.742304551e-39
0.1517110914 -0.3779585361 0.2934741974 8.742304551e-39
-0.02442368492 -0.4754934609 -0.3124145269 8.742304551e-39
-0.2536036074 -0.4848031998 0.007845093496 8.742304551e-39
-0.4162422121 -0.4236614108 -0.1386719197 8.742304551e-39
-0.3425025642 -0.4146732092 -0.2588015795 8.742304551e-39
0.114040181 -0.3740369678 0.09156428277 8.742304551e-39
-0.2651806176 -0.4737926126 -0.2568048537 8.742304551e-39
0.0322383903 -0.3846825063 -0.1185352802 8.742304551e-39
-0.1938617229 -0.473816812 -0.2578588724 8.742304551e-39
-0.3205521703 -0.3142513931 -0.1966350675 8.742304551e-39
-0.4116216004 -0.422567606 -0.1612322479 8.742304551e-39
0.07174219191 -0.3741268814 0.1361626536 8.742304551e-39
0.07450354099 -0.484218359 0.1484336555 8.742304551e-39
0.1510524154 -0.2079593986 0.2507134974 8.742304551e-39
-0.003914382309 -0.477057457 -0.2511318028 8.742304551e-39
-0.381675154 -0.4443970323 -0.0244557783 8.742304551e-39
-0.2938219309 -0.4806903005 -0.1477216333 8.742304551e-39
0.1644215584 -0.267537117 0.2859353721 8.742304551e-39
0.1530544162 -0.3547860086 0.266628474 8.742304551e-39
-0.3716575205 -0.3615439236 -0.1096679717 8.742304551e-39
-0.267901212 -0.4671419859 0.1026617587 8.742304551e-39
-0.08724805713 -0.4869318306 0.2434231043 8.742304551e-39
-0.2438955903 -0.3390687704 -0.2020237446 8.742304551e-39
0.1184178591 -0.485963881 0.2875226438 8.742304551e-39
0.07620957494 -0.2074597925 0.2962068915 5.820783626e-39
0.1252647489 -0.4253142774 0.2597934008 5.820783626e-39
-0.1881308109 -0.4800804555 -0.2532983124 5.820783626e-39
-0.07745392621 -0.4760601521 -0.3172298074 5.820783626e-39
-0.06564877182 -0.4820188284 -0.2060949653 5.820783626e-39
-0.06492229551 -0.4787543416 -0.2739709616 5.820783626e-39
-0.01684748195 -0.4855745435 0.267855823 5.820783626e-39
0.0795789808 -0.3527856469 -0.3347142637 5.820783626e-39
-0.4209292233 -0.3916875124 -0.1451393068 5.820783626e-39
-0.05970457196 -0.4793122113 -0.2646791339 5.820783626e-39
-0.1844121367 -0.4862619638 -0.05149756372 5.820783626e-39
-0.2953177094 -0.4750675261 -0.2298386544 5.820783626e-39
-0.3514425755 -0.3266403079 -0.2302326411 5.820783626e-39
-0.3530113399 -0.4547918439 -0.2026519328 5.820783626e-39
0.09764891863 -0.2195035815 0.3016160429 5.820783626e-39
0.1097894311 -0.4007812142 -0.33069399 5.820783626e-39
-0.2580972612 -0.3922069669 -0.1369012147 5.820783626e-39
-0.3001380563 -0.3050282598 -0.1973955929 5.820783626e-39
-0.2254990935 -0.477743417 -0.2881593108 5.820783626e-39
0.122707516 -0.38963902 -0.12874192 5.820783626e-39
0.0302648358 -0.398036778 0.3072517514 5.820783626e-39
-0.2247497737 -0.4138168097 -0.2919454873 5.820783626e-39
0.1243958771 -0.438737601 -0.09908698499 5.820783626e-39
-0.3096258044 -0.3574095964 -0.2768174708 5.820783626e-39
0.09607838094 -0.1657717526 0.30516994 5.820783626e-39
-0.169422403 -0.2917102277 -0.3122769594 5.820783626e-39
-0.09160856903 -0.3657313585 -0.3167119026 5.820783626e-39
-0.2574256361 -0.429154098 0.06469087303 5.820783626e-39
0.1138188541 -0.3689765334 -0.3255214989 5.820783626e-39
-0.1028499007 -0.4876414537 0.2405951619 5.820783626e-39
-0.2237603813 -0.2639239728 -0.289981246 5.820783626e-39
0.1244155616 -0.3956962526 0.1827481389 5.820783626e-39
-0.06328193098 -0.2372107655 -0.3308273256 5.820783626e-39
0.1269051731 -0.3490644693 -0.2038098872 5.820783626e-39
0.1356923878 -0.2450760454 0.2289898992 5.820783626e-39
-0.1377230138 -0.4813521206 -0.2147248238 5.820783626e-39
-0.009131314233 -0.4847010374 0.2956458628 5.820783626e-39
-0.1026831418 -0.4873197675 0.02871722914 5.820783626e-39
0.07962419093 -0.2520699799 0.3069371581 5.820783626e-39
0.1045530587 -0.483545661 -0.1570355743 5.820783626e-39
0.09440134466 -0.2235711515 0.3040812016 5.820783626e-39
0.1337821782 -0.4119419754 -0.285423398 5.820783626e-39
-0.02326282486 -0.4190043807 -0.3343684673 5.820783626e-39
0.07769748569 -0.3598873913 -0.002409623936 5.820783626e-39
0.141760543 -0.3617918193 0.2863247991 5.820783626e-39
0.1312552392 -0.4151849747 0.3034626544 5.820783626e-39
-0.3978507817 -0.349047482 -0.1909886897 5.820783626e-39
-0.1061815917 -0.4047994018 -0.3127299249 5.820783626e-39
0.1309399158 -0.4026784301 0.2552407384 5.820783626e-39
-0.2904080749 -0.4814156294 -0.1542670578 5.820783626e-39
-0.3821325898 -0.330332458 -0.2047427595 5.820783626e-39
-0.007829092443 -0.3901685774 0.1704268008 5.820783626e-39
0.07305790484 -0.3622357845 -0.3354407847 5.820783626e-39
-0.3449902833 -0.410348177 -0.2725158632 5.820783626e-39
0.08721753955 -0.2225634158 0.3054486811 5.820783626e-39
-0.1775587499 -0.3653247356 -0.2134126723 5.820783626e-39
-0.0817809701 -0.4829764366 -0.1782684773 5.820783626e-39
-0.07220600545 -0.2165741771 -0.334168762 5.820783626e-39
-0.3061983883 -0.3255269825 -0.2740981579 5.820783626e-39
0.1190912873 -0.3903931379 0.2982151806 5.820783626e-39
-0.005354907364 -0.2978295684 -0.3319562376 5.820783626e-39
-0.03778508306 -0.4743718505 -0.3349372745 5.820783626e-39
-0.1048156768 -0.4337865114 0.08055473119 5.820783626e-39
0.08709667623 -0.2230328619 0.3067403734 5.820783626e-39
-0.1405933648 -0.3882508874 -0.3030404747 5.820783626e-39
0.07085682452 -0.2749146223 0.2641503811 5.820783626e-39
-0.2683181167 -0.2632671297 -0.2738619447 5.820783626e-39
0.03242631629 -0.4064614475 -0.3368189037 5.820783626e-39
0.1283305585 -0.232031703 0.2482597828 5.820783626e-39
-0.01664671116 -0.4838736653 -0.1623205394 5.820783626e-39
-0.2614733875 -0.3580135107 -0.2794122994 5.820783626e-39
-0.3437748551 -0.454944104 -0.2280472964 5.820783626e-39
-0.3378704786 -0.4677322507 -0.1459602714 5.820783626e-39
-0.1061871797 -0.4791426063 -0.2657904029 5.820783626e-39
-0.2216318101 -0.4818288386 -0.2183992416 5.820783626e-39
-0.3107180595 -0.3340002 -0.274297744 5.820783626e-39
-0.3272598386 -0.4667628407 -0.05464480072 5.820783626e-39
-0.3706101775 -0.3971801996 -0.2669481039 5.820783626e-39
-0.1465290636 -0.2252200842 -0.3220944405 5.820783626e-39
-0.0753621608 -0.4885547161 0.1546820998 5.820783626e-39
0.08492688835 -0.4830097258 -0.1950094998 5.820783626e-39
-0.270565331 -0.2824003994 -0.2730449438 5.820783626e-39
-0.4119771421 -0.3817094862 -0.2297135293 5.820783626e-39
-0.0734391138 -0.4259085655 0.1415939927 5.820783626e-39
-0.2317545116 -0.4061514139 -0.2889110446 5.820783626e-39
-0.2706464827 -0.4648239613 -0.2967952192 5.820783626e-39
-0.284412384 -0.4126806259 -0.2858307064 5.820783626e-39
-0.3175371289 -0.3411861062 -0.2722077966 5.820783626e-39
-0.3659905195 -0.3919753432 -0.06342232972 5.820783626e-39
0.08217953146 -0.482424289 -0.2241990268 5.820783626e-39
0.1464914829 -0.4799268246 -0.2364767045 5.820783626e-39
-0.1560908705 -0.3063922822 -0.3134141564 5.820783626e-39
0.02563579381 -0.4766692817 -0.3267196715 5.820783626e-39
0.1356667578 -0.372921735 0.2985185087 5.820783626e-39
-0.4105480909 -0.3686511517 -0.1951218694 5.820783626e-39
0.03373926505 -0.377962172 0.293458581 5.820783626e-39
-0.3489964008 -0.337372601 -0.2588573694 5.820783626e-39
0.07633599639 -0.430716157 -0.3408302367 5.820783626e-39
0.1118242145 -0.1269390285 0.2520020604 5.820783626e-39
0.04348747805 -0.4856977463 0.1036572978 5.820783626e-39
-0.07965679467 -0.4811421931 -0.2172991633 5.820783626e-39
-0.2981087565 -0.469874233 -0.2661105692 5.820783626e-39
-0.1082746536 -0.4788943529 -0.270205766 5.820783626e-39
0.1376475543 -0.4233196378 -0.2892561257 5.820783626e-39
0.1410018206 -0.3382140696 0.2926523685 5.820783626e-39
0.003493931144 -0.3439686298 -0.3320823312 5.820783626e-39
-0.1681465805 -0.4821026325 -0.1969558746 5.820783626e-39
-0.3148313761 -0.4627504945 -0.2667376399 5.820783626e-39
-0.262935251 -0.3203215599 -0.2742168605 5.820783626e-39
0.1274898499 -0.3510859907 -0.1666792631 5.820783626e-39
-0.158538729 -0.3987798393 -0.2994802892 5.820783626e-39
-0.1344383359 -0.4107576609 -0.157305032 5.820783626e-39
-0.09492690116 -0.4017820358 -0.3161787689 5.820783626e-39
-0.3318460286 -0.3134041131 -0.2153020948 5.820783626e-39
-0.2990574837 -0.45876652 -0.2869791687 5.820783626e-39
-0.113659516 -0.4359716773 0.03607605398 5.820783626e-39
0.1144379079 -0.4826719165 -0.1843218803 5.820783626e-39
0.1299752891 -0.2314040363 0.1768093705 5.820783626e-39
0.06231515482 -0.4176332355 -0.3397409022 5.820783626e-39
-0.2826327085 -0.4825345278 -0.1834016144 5.820783626e-39
-0.1705829352 -0.4767476916 -0.3044964075 5.820783626e-39
0.1389721334 -0.2666284442 0.2438966036 5.820783626e-39
0.1249268204 -0.3796307147 0.1648970842 5.820783626e-39
-0.426916033 -0.3987587094 -0.1623340696 5.820783626e-39
-0.2229679823 -0.4838861823 -0.1230953261 5.820783626e-39
-0.09512419999 -0.4855603576 -0.05852619559 5.820783626e-39
-0.3506353498 -0.3311318755 -0.1764704436 5.820783626e-39
0.1020764709 -0.4837777615 0.04552627355 5.820783626e-39
0.04475139454 -0.2187226266 0.3017592728 2.898180898e-39
0.1134386361 -0.4431661963 0.2283080816 2.898180898e-39
-0.1042329073 -0.4782561958 -0.2986747622 2.898180898e-39
-0.02312111109 -0.4731784463 -0.3406552076 2.898180898e-39
0.01183211431 -0.481094718 -0.2499127388 2.898180898e-39
-0.0007774606347 -0.4778692126 -0.3131252229 2.898180898e-39
-0.01320239715 -0.4868576527 0.2373300046 2.898180898e-39
0.07612743974 -0.317586869 -0.3338622749 2.898180898e-39
-0.3874052763 -0.4311415553 -0.178722769 2.898180898e-39
0.01434472948 -0.4787378311 -0.3014438152 2.898180898e-39
-0.1414729208 -0.4847480655 -0.06490577012 2.898180898e-39
-0.2182785422 -0.4797795713 -0.2739290595 2.898180898e-39
-0.3332329094 -0.3478418589 -0.2690852284 2.898180898e-39
-0.281199038 -0.4745557308 -0.243779853 2.898180898e-39
0.07874891162 -0.2440967113 0.3068849146 2.898180898e-39
0.1027639061 -0.3648133874 -0.3300364912 2.898180898e-39
-0.3046287894 -0.3901095986 -0.09284158051 2.898180898e-39
-0.3231069446 -0.3092920184 -0.1770990193 2.898180898e-39
-0.1421575546 -0.476806581 -0.3161747456 2.898180898e-39
0.1220089346 -0.3513340652 -0.140322566 2.898180898e-39
-0.01095753722 -0.4434484541 0.3298724592 2.898180898e-39
-0.15805161 -0.381967485 -0.3029492199 2.898180898e-39
0.1152761877 -0.4120445848 -0.1316856593 2.898180898e-39
-0.2585045397 -0.3238838315 -0.276756227 2.898180898e-39
0.06968069077 -0.18033351 0.3125349581 2.898180898e-39
-0.1347956359 -0.2503002286 -0.3205685616 2.898180898e-39
-0.06111406535 -0.3352780938 -0.3212515116 2.898180898e-39
-0.2479467243 -0.4697976708 0.08437815309 2.898180898e-39
0.109495163 -0.3281221986 -0.3275283277 2.898180898e-39
-0.08689079434 -0.4887154698 0.2133437246 2.898180898e-39
-0.2068140656 -0.2362951636 -0.3029465973 2.898180898e-39
0.1064580381 -0.39894104 0.1355578005 2.898180898e-39
-0.06023498625 -0.1958802342 -0.3352844119 2.898180898e-39
0.1192575395 -0.3156775534 -0.199086979 2.898180898e-39
0.1171975434 -0.2488651127 0.1931923926 2.898180898e-39
-0.0721488148 -0.4799901545 -0.2481291443 2.898180898e-39
-0.004094496369 -0.4849643111 0.2706693113 2.898180898e-39
-0.07008118182 -0.48645854 -0.01388544217 2.898180898e-39
0.02668179944 -0.3217538297 0.316685468 2.898180898e-39
0.1234423518 -0.4822567105 -0.1987797469 2.898180898e-39
0.06599891186 -0.2546745837 0.310582906 2.898180898e-39
0.1209220141 -0.3755641282 -0.2794288099 2.898180898e-39
0.0007943622768 -0.3854093552 -0.3255524933 2.898180898e-39
0.02900543436 -0.3481001854 0.09778322279 2.898180898e-39
0.1186369061 -0.3953592181 0.2674962282 2.898180898e-39
0.1102501303 -0.4363428354 0.3069261909 2.898180898e-39
-0.3864212334 -0.3717249334 -0.2322332114 2.898180898e-39
-0.07364238799 -0.37523821 -0.3175715506 2.898180898e-39
0.1151622683 -0.425858438 0.2248059362 2.898180898e-39
-0.2266451716 -0.4826772213 -0.1807202548 2.898180898e-39
-0.3673556149 -0.3495443463 -0.2411103696 2.898180898e-39
-0.06192284077 -0.4111008644 0.2272197604 2.898180898e-39
0.07038590312 -0.3278129101 -0.3351300955 2.898180898e-39
-0.2711524069 -0.4157830179 -0.2863231301 2.898180898e-39
0.03909013048 -0.2583014965 0.308701992 2.898180898e-39
-0.2230095714 -0.3553344309 -0.179583177 2.898180898e-39
-0.0155206155 -0.4824479222 -0.2138314992 2.898180898e-39
-0.0695078969 -0.1734986007 -0.338341862 2.898180898e-39
-0.2600314915 -0.2947041392 -0.2739569247 2.898180898e-39
0.1053958982 -0.3960518837 0.3053607047 2.898180898e-39
-0.005994865671 -0.2634880543 -0.3328292668 2.898180898e-39
0.002151433378 -0.4492217302 -0.3405679762 2.898180898e-39
-0.1672040373 -0.421694994 0.1631579846 2.898180898e-39
0.04250436649 -0.2618771493 0.3101753891 2.898180898e-39
-0.108310774 -0.3619297445 -0.3126108944 2.898180898e-39
0.03552476689 -0.2737122476 0.2848027647 2.898180898e-39
-0.2337383628 -0.2368534207 -0.2893867791 2.898180898e-39
0.04021737352 -0.3731586933 -0.3327166736 2.898180898e-39
0.1091592163 -0.2362110317 0.2162164301 2.898180898e-39
0.04527880624 -0.4832147956 -0.2019789964 2.898180898e-39
-0.2189414799 -0.3207915127 -0.2896560133 2.898180898e-39
-0.2673110962 -0.4737952352 -0.2764693499 2.898180898e-39
-0.2591197193 -0.482419908 -0.1903676838 2.898180898e-39
-0.04202589765 -0.4777719975 -0.3086966276 2.898180898e-39
-0.1468632072 -0.4802399576 -0.2551233172 2.898180898e-39
-0.2619182467 -0.3017863333 -0.2744802535 2.898180898e-39
-0.2457215488 -0.4868699312 -0.09047117084 2.898180898e-39
-0.2886420488 -0.4251589775 -0.2839672267 2.898180898e-39
-0.1068273783 -0.1734392941 -0.3282725215 2.898180898e-39
-0.0605940409 -0.4876030684 0.1170337275 2.898180898e-39
0.1147228479 -0.4821843207 -0.2353560776 2.898180898e-39
-0.2370365113 -0.2539176643 -0.2861393094 2.898180898e-39
-0.3771288991 -0.4132581651 -0.272495836 2.898180898e-39
-0.1275931299 -0.4202505946 0.2152237445 2.898180898e-39
-0.1654076874 -0.3710005879 -0.3014276326 2.898180898e-39
-0.2003675401 -0.4316883683 -0.3030450642 2.898180898e-39
-0.2262374461 -0.3858011961 -0.2884847522 2.898180898e-39
-0.265658319 -0.3064904809 -0.275328964 2.898180898e-39
-0.3337085843 -0.4358713627 -0.06074018776 2.898180898e-39
0.1135349721 -0.4813813567 -0.2668567896 2.898180898e-39
0.1510109454 -0.4683634639 -0.2593100369 2.898180898e-39
-0.1198998094 -0.2711730003 -0.3214126527 2.898180898e-39
0.07827152312 -0.4704751372 -0.3438504338 2.898180898e-39
0.1170725673 -0.408739388 0.2934212387 2.898180898e-39
-0.3914377689 -0.3955597281 -0.2503381371 2.898180898e-39
-0.02972431481 -0.4413725138 0.3210037947 2.898180898e-39
-0.3216350377 -0.3623337746 -0.2792711258 2.898180898e-39
0.08024913073 -0.3959104419 -0.3387607038 2.898180898e-39
0.1002173722 -0.1186669469 0.2954204679 2.898180898e-39
0.05046859756 -0.4853618741 0.04869012535 2.898180898e-39
-0.007279446349 -0.4803688824 -0.2604153454 2.898180898e-39
-0.2090094388 -0.4773731828 -0.3040083647 2.898180898e-39
-0.04452477023 -0.4775671065 -0.312294662 2.898180898e-39
0.1216690391 -0.3893354833 -0.2827425897 2.898180898e-39
0.1214177758 -0.3746311963 0.2880088091 2.898180898e-39
0.005298953503 -0.3094648719 -0.331348151 2.898180898e-39
-0.1073649824 -0.4811781645 -0.2198568881 2.898180898e-39
-0.2244813442 -0.4772216976 -0.304635793 2.898180898e-39
-0.2268884629 -0.2869150043 -0.2874622941 2.898180898e-39
0.1219437718 -0.315264076 -0.1659014225 2.898180898e-39
-0.1211504787 -0.3720409274 -0.3092726767 2.898180898e-39
-0.1847550273 -0.3976008296 -0.1005689204 2.898180898e-39
-0.06404378265 -0.3730006516 -0.3193556368 2.898180898e-39
-0.3176404238 -0.3255047202 -0.235844478 2.898180898e-39
-0.2278784662 -0.4512581229 -0.3004724681 2.898180898e-39
-0.1804991812 -0.4235180616 0.123668611 2.898180898e-39
0.1333041936 -0.4813495874 -0.2261951566 2.898180898e-39
0.1181251705 -0.2352024764 0.1311104447 2.898180898e-39
0.06609091163 -0.382263869 -0.3354213238 2.898180898e-39
-0.2197677344 -0.482121408 -0.2086114585 2.898180898e-39
-0.09766132385 -0.470446229 -0.3222609758 2.898180898e-39
0.118659839 -0.2988023162 0.2110244483 2.898180898e-39
0.1076591909 -0.3825276494 0.1190999001 2.898180898e-39
-0.3763375282 -0.4363907576 -0.1978657097 2.898180898e-39
-0.1698021144 -0.4834579229 -0.1415445954 2.898180898e-39
-0.05194421113 -0.4851633906 -0.08749823272 2.898180898e-39
-0.3593139052 -0.3450770378 -0.1781263649 2.898180898e-39
0.1048493236 -0.4837161005 -0.02281076461 2.898180898e-39
0.03839944676 -0.2544047236 0.2932894528 6.490113838e-41
0.1178508252 -0.4313369691 0.1925915331 6.490113838e-41
-0.08472585678 -0.4783521295 -0.2428288609 6.490113838e-41
0.006861783564 -0.4757198095 -0.3208588362 6.490113838e-41
0.0256377086 -0.4812046885 -0.2067152709 6.490113838e-41
0.02188863233 -0.4784348607 -0.2745170593 6.490113838e-41
-0.02584445104 -0.4861415327 0.1993205696 6.490113838e-41
0.09384916723 -0.3289205134 -0.3280237615 6.490113838e-41
-0.3526174128 -0.4656656384 -0.1038252115 6.490113838e-41
0.02894791588 -0.4790472984 -0.2613921762 6.490113838e-41
-0.1117094755 -0.4844636321 -0.02918613143 6.490113838e-41
-0.1921886206 -0.4799995422 -0.224974826 6.490113838e-41
-0.3164481521 -0.3943472505 -0.2618706524 6.490113838e-41
-0.2483986914 -0.4810553789 -0.1959609687 6.490113838e-41
0.05315976962 -0.2903627157 0.3114846647 6.490113838e-41
0.1160271317 -0.3869419396 -0.3158504963 6.490113838e-41
-0.3094175756 -0.3862607181 -0.04613049328 6.490113838e-41
-0.3051256835 -0.372877121 -0.1531753987 6.490113838e-41
-0.115572378 -0.4775491953 -0.2858323753 6.490113838e-41
0.1263818294 -0.335024327 -0.07830058038 6.490113838e-41
-0.02529186755 -0.4706876874 0.3353462517 6.490113838e-41
-0.1274632812 -0.3998624086 -0.2969607115 6.490113838e-41
0.1285696626 -0.4122276902 -0.07241724432 6.490113838e-41
-0.2259607464 -0.3357658386 -0.2734200954 6.490113838e-41
0.05715886131 -0.2100396901 0.3021324575 6.490113838e-41
-0.0907433033 -0.2616651058 -0.316619277 6.490113838e-41
-0.02543641627 -0.3641150594 -0.3187798262 6.490113838e-41
-0.2424450815 -0.4871803224 0.1041660905 6.490113838e-41
0.1162143648 -0.3386880457 -0.306448102 6.490113838e-41
-0.1009531021 -0.4876099825 0.2029391676 6.490113838e-41
-0.1709126979 -0.2443147898 -0.2985866666 6.490113838e-41
0.1180831939 -0.3844551146 0.1214411706 6.490113838e-41
-0.02932448871 -0.2102877498 -0.3271292448 6.490113838e-41
0.12175183 -0.3007777035 -0.1385914087 6.490113838e-41
0.1305859536 -0.2383774817 0.1690496206 6.490113838e-41
-0.04778201506 -0.4787630439 -0.2053869367 6.490113838e-41
-0.01574582979 -0.486787498 0.2288879007 6.490113838e-41
-0.05565826595 -0.4854033887 0.01095864549 6.490113838e-41
0.01316238195 -0.3781631589 0.3207989037 6.490113838e-41
0.1201350093 -0.482509613 -0.1296989918 6.490113838e-41
0.03601216897 -0.3097243905 0.3158098757 6.490113838e-41
0.1297748983 -0.3721757233 -0.2258867174 6.490113838e-41
0.0414946042 -0.4126036167 -0.3323148191 6.490113838e-41
0.03628847376 -0.3781834245 0.05208791047 6.490113838e-41
0.1179829985 -0.4043383896 0.2407803535 6.490113838e-41
0.1047081947 -0.4517946541 0.2834886909 6.490113838e-41
-0.3832466006 -0.4205070138 -0.1942156404 6.490113838e-41
-0.03131997585 -0.4009162784 -0.32122612 6.490113838e-41
0.1180932522 -0.414791435 0.1933395863 6.490113838e-41
-0.1968625337 -0.4818148613 -0.1270900965 6.490113838e-41
-0.3556752801 -0.4015003443 -0.2437539101 6.490113838e-41
-0.1081396788 -0.4225569367 0.2404787391 6.490113838e-41
0.08855491877 -0.3400744796 -0.3287349939 6.490113838e-41
-0.2330015451 -0.4390932918 -0.279343307 6.490113838e-41
0.0242145285 -0.3145729899 0.3115249872 6.490113838e-41
-0.2100838721 -0.3867536187 -0.1514654458 6.490113838e-41
0.006361864507 -0.4816476107 -0.1776420474 6.490113838e-41
-0.03962064534 -0.1856208444 -0.3305749595 6.490113838e-41
-0.2309830487 -0.3081251681 -0.2704044282 6.490113838e-41
0.1030443609 -0.4077689648 0.3105415404 6.490113838e-41
0.02889056876 -0.2749144137 -0.3276630044 6.490113838e-41
0.04900510237 -0.4743952751 -0.3325754106 6.490113838e-41
-0.2110956311 -0.4371112585 0.1919036657 6.490113838e-41
0.02430733666 -0.3212679327 0.314109087 6.490113838e-41
-0.07439079881 -0.3813068569 -0.3099198341 6.490113838e-41
0.03361633793 -0.3151669502 0.2751919329 6.490113838e-41
-0.2059132904 -0.2450529188 -0.2843022048 6.490113838e-41
0.06957226992 -0.3974576592 -0.335278362 6.490113838e-41
0.1233610511 -0.2182115018 0.1916122288 6.490113838e-41
0.04381432012 -0.4827172458 -0.1579588056 6.490113838e-41
-0.1806853563 -0.3322225213 -0.281909585 6.490113838e-41
-0.2349802405 -0.4799544215 -0.2304404825 6.490113838e-41
-0.2363645434 -0.4818373024 -0.1352874935 6.490113838e-41
-0.02006628923 -0.4776753783 -0.2663865089 6.490113838e-41
-0.1221974045 -0.4795180559 -0.2016315758 6.490113838e-41
-0.2332566977 -0.3166449964 -0.2703641951 6.490113838e-41
-0.2136815041 -0.4845594764 -0.03895505518 6.490113838e-41
-0.2480836511 -0.4552372992 -0.277656436 6.490113838e-41
-0.07496414334 -0.1800750792 -0.3235400915 6.490113838e-41
-0.06630150974 -0.4855298102 0.1137143299 6.490113838e-41
0.1023612171 -0.482083559 -0.1770339906 6.490113838e-41
-0.2061975598 -0.2627431154 -0.280200094 6.490113838e-41
-0.3344224393 -0.4584823549 -0.2180059254 6.490113838e-41
-0.1876888126 -0.4565429688 0.2421717048 6.490113838e-41
-0.1376248151 -0.3878679276 -0.2926251888 6.490113838e-41
-0.1579955071 -0.4508538842 -0.2999622524 6.490113838e-41
-0.1911714971 -0.3897357583 -0.2805886269 6.490113838e-41
-0.237593919 -0.3266379237 -0.2691009939 6.490113838e-41
-0.3362076283 -0.4723055363 -0.00979641825 6.490113838e-41
0.1049687564 -0.4818529189 -0.2116331756 6.490113838e-41
0.1578811407 -0.4722487032 -0.1866083294 6.490113838e-41
-0.07786975801 -0.2850698233 -0.3168384433 6.490113838e-41
0.08658827841 -0.477725625 -0.3307123184 6.490113838e-41
0.1111638248 -0.4261341095 0.267646879 6.490113838e-41
-0.3722906411 -0.4412963986 -0.1943146139 6.490113838e-41
-0.05769941956 -0.4731817245 0.3297263384 6.490113838e-41
-0.2798612416 -0.4074625075 -0.2673673928 6.490113838e-41
0.1032294035 -0.4215810895 -0.3349147141 6.490113838e-41
0.1057727039 -0.1252903342 0.2657521069 6.490113838e-41
0.04498462752 -0.4847307801 0.07267905027 6.490113838e-41
0.01155005023 -0.4803584814 -0.2145310193 6.490113838e-41
-0.1821493953 -0.4780291915 -0.2696731687 6.490113838e-41
-0.02225384489 -0.4775698185 -0.2704143524 6.490113838e-41
0.1336365938 -0.3886997104 -0.2293994129 6.490113838e-41
0.1176245809 -0.3939785063 0.2649914622 6.490113838e-41
0.03771534935 -0.3265829086 -0.3282349706 6.490113838e-41
-0.079079777 -0.4797364473 -0.1741753817 6.490113838e-41
-0.1950633675 -0.4778998494 -0.2761195302 6.490113838e-41
-0.1921580583 -0.2963376641 -0.2804749012 6.490113838e-41
0.1255948246 -0.2971746027 -0.1043717936 6.490113838e-41
-0.08939417452 -0.3908572793 -0.3070756495 6.490113838e-41
-0.1701006293 -0.4282410145 -0.06158090383 6.490113838e-41
-0.02058472857 -0.3988397419 -0.3225931823 6.490113838e-41
-0.3186198175 -0.3605492711 -0.232808426 6.490113838e-41
-0.1844153702 -0.4645590782 -0.2961200178 6.490113838e-41
-0.2075182498 -0.4214785099 0.1536026448 6.490113838e-41
0.1286136359 -0.4819591641 -0.153418839 6.490113838e-41
0.1340417713 -0.210569039 0.1134594306 6.490113838e-41
0.09201845527 -0.4093914926 -0.3365388215 6.490113838e-41
-0.190656662 -0.4810497463 -0.1556807309 6.490113838e-41
-0.07320226729 -0.476495862 -0.3023639619 6.490113838e-41
0.1310473382 -0.2910699248 0.1945103705 6.490113838e-41
0.1200665087 -0.3683212399 0.1074262559 6.490113838e-41
-0.3388271928 -0.4673938751 -0.1241449416 6.490113838e-41
-0.1324782968 -0.4829868078 -0.09200742841 6.490113838e-41
-0.0295483321 -0.4845486283 -0.0627060011 6.490113838e-41
-0.3509128392 -0.3765007854 -0.1477459371 6.490113838e-41
0.1102242619 -0.4834062457 0.02103136852 6.490113838e-41
0.02628928423 -0.356577456 0.2506411374 3.015101038e-39
0.1209654063 -0.4133764803 0.1117869318 3.015101038e-39
-0.05097582936 -0.4782009721 -0.2920663059 3.015101038e-39
0.04296139255 -0.4608144462 -0.3320541978 3.015101038e-39
0.06507973373 -0.4801837206 -0.2668235898 3.015101038e-39
0.06427381933 -0.4782495499 -0.3256853521 3.015101038e-39
-0.0244934056 -0.4860808849 0.1206182241 3.015101038e-39
0.08801500499 -0.279340297 -0.3191227913 3.015101038e-39
-0.3023853004 -0.4583588839 -0.133170411 3.015101038e-39
0.0688315928 -0.4788377881 -0.3175380826 3.015101038e-39
-0.08064237982 -0.484022975 -0.0997921899 3.015101038e-39
-0.1391051412 -0.4794787765 -0.2736074924 3.015101038e-39
-0.2797544599 -0.3822888732 -0.2524771392 3.015101038e-39
-0.1958943009 -0.4803648293 -0.2432877421 3.015101038e-39
0.04598517343 -0.3382598758 0.2956452668 3.015101038e-39
0.1098046601 -0.3374195397 -0.3098260462 3.015101038e-39
-0.381654501 -0.3711521029 -0.009318202734 3.015101038e-39
-0.3585693836 -0.3590414822 -0.1226644218 3.015101038e-39
-0.08488194644 -0.4623428583 -0.3057057858 3.015101038e-39
0.1325570941 -0.2978608608 -0.09534417093 3.015101038e-39
-0.02831686474 -0.4820732474 0.3089754581 3.015101038e-39
-0.1114074439 -0.3659327924 -0.2981001139 3.015101038e-39
0.1304325908 -0.3706544042 -0.1000501961 3.015101038e-39
-0.2109741867 -0.3006311357 -0.2692373097 3.015101038e-39
0.0586531125 -0.2640783191 0.2694120407 3.015101038e-39
-0.08213697374 -0.2047825456 -0.3134433329 3.015101038e-39
-0.0124386549 -0.3195058703 -0.3135060668 3.015101038e-39
-0.2335094362 -0.4859417677 0.06701252609 3.015101038e-39
0.1109774262 -0.2911967337 -0.3015883565 3.015101038e-39
-0.09661928564 -0.4865910411 0.1237463951 3.015101038e-39
-0.1647054553 -0.2001750171 -0.2962995172 3.015101038e-39
0.1255557239 -0.3667144179 0.06313443929 3.015101038e-39
-0.03102345392 -0.1494291276 -0.3216314316 3.015101038e-39
0.1240876019 -0.2554063499 -0.1440010667 3.015101038e-39
0.1325100809 -0.2255122662 0.1303878874 3.015101038e-39
-0.006208132952 -0.4790667892 -0.260855943 3.015101038e-39
-0.01569932885 -0.4868610203 0.1516578048 3.015101038e-39
-0.02112446167 -0.4852545261 -0.07738687843 3.015101038e-39
-0.008069144562 -0.4330915213 0.3032143116 3.015101038e-39
0.14994362 -0.4786792397 -0.2073045224 3.015101038e-39
0.02590959892 -0.3694993556 0.298661232 3.015101038e-39
0.1221812814 -0.3146170974 -0.2281198055 3.015101038e-39
0.03526350483 -0.3721883595 -0.3187283278 3.015101038e-39
0.01638571173 -0.4385248721 0.007131116465 3.015101038e-39
0.1216528863 -0.3911760747 0.1719474792 3.015101038e-39
0.1138514131 -0.4473600686 0.2151547819 3.015101038e-39
-0.3601785898 -0.4146916568 -0.2005636841 3.015101038e-39
-0.02318713441 -0.3662901521 -0.3097827733 3.015101038e-39
0.1216152608 -0.3990111351 0.1122214794 3.015101038e-39
-0.1625328511 -0.4811643362 -0.1709367335 3.015101038e-39
-0.3404228091 -0.3935959339 -0.2366752774 3.015101038e-39
-0.1984159499 -0.4273324609 0.2207895964 3.015101038e-39
0.08148059249 -0.2915091813 -0.320250839 3.015101038e-39
-0.2079683095 -0.4063292444 -0.2736831009 3.015101038e-39
0.005372151732 -0.3923085034 0.2863363326 3.015101038e-39
-0.2892230153 -0.3764833808 -0.1042388678 3.015101038e-39
0.04660459235 -0.4806180596 -0.2353915125 3.015101038e-39
-0.04087228328 -0.1277398765 -0.3253449202 3.015101038e-39
-0.2222772837 -0.2714421153 -0.2652228177 3.015101038e-39
0.1145375818 -0.4054180384 0.2680299282 3.015101038e-39
0.02343207598 -0.2097991109 -0.324296087 3.015101038e-39
0.05772789195 -0.4400553107 -0.3306284547 3.015101038e-39
-0.2858590782 -0.4381650686 0.1807968467 3.015101038e-39
0.007379289716 -0.3942732215 0.2931215763 3.015101038e-39
-0.06222748011 -0.3478572667 -0.3062241673 3.015101038e-39
0.003853775561 -0.4132426977 0.2191739231 3.015101038e-39
-0.196120128 -0.2094258368 -0.2830465734 3.015101038e-39
0.05678322539 -0.3520536423 -0.3227044642 3.015101038e-39
0.1261668354 -0.2115029395 0.1601685137 3.015101038e-39
0.08992134035 -0.4817070961 -0.2258170247 3.015101038e-39
-0.1648469865 -0.3051944375 -0.2837274373 3.015101038e-39
-0.1793589443 -0.4793271422 -0.2804492116 3.015101038e-39
-0.2013259679 -0.4815737605 -0.1713802814 3.015101038e-39
0.02169018611 -0.4776796699 -0.3146134019 3.015101038e-39
-0.07629327476 -0.4794803262 -0.2493703216 3.015101038e-39
-0.2234482616 -0.2805122733 -0.2650126517 3.015101038e-39
-0.1855626404 -0.4825826883 -0.08205218613 3.015101038e-39
-0.2193705589 -0.4187745154 -0.2737718821 3.015101038e-39
-0.07470949739 -0.1321931779 -0.3181971312 3.015101038e-39
-0.04512391239 -0.4863408208 0.02918908559 3.015101038e-39
0.1358960569 -0.4802332222 -0.2552854717 3.015101038e-39
-0.1947177798 -0.2312686145 -0.2803999186 3.015101038e-39
-0.290232569 -0.4489608407 -0.2399733663 3.015101038e-39
-0.2604248822 -0.4603840113 0.2149261981 3.015101038e-39
-0.1177318394 -0.3555850387 -0.2962193489 3.015101038e-39
-0.1309450716 -0.4193215966 -0.2977169752 3.015101038e-39
-0.1614271849 -0.3656312525 -0.2832845747 3.015101038e-39
-0.2263411433 -0.2882484198 -0.2640619576 3.015101038e-39
-0.3200010359 -0.4684059024 -0.02496993728 3.015101038e-39
0.1366475224 -0.4796987772 -0.2814064324 3.015101038e-39
0.1484557092 -0.420317173 -0.2066404074 3.015101038e-39
-0.06935675442 -0.2257723212 -0.3139970303 3.015101038e-39
0.09856919944 -0.4516196251 -0.333594501 3.015101038e-39
0.1166049242 -0.4146932662 0.2083160579 3.015101038e-39
-0.3344274163 -0.4346066415 -0.2053602785 3.015101038e-39
-0.08785877377 -0.4827413559 0.3076164126 3.015101038e-39
-0.2449688911 -0.3721546531 -0.2601445615 3.015101038e-39
0.08664603531 -0.3766026199 -0.3215778768 3.015101038e-39
0.1255947649 -0.17481336 0.2164144963 3.015101038e-39
0.0801448822 -0.4848946929 -0.04636461288 3.015101038e-39
0.05514604226 -0.4797949791 -0.275110513 3.015101038e-39
-0.1350204796 -0.4682910442 -0.2957352698 3.015101038e-39
0.01842081547 -0.4773491025 -0.3177286685 3.015101038e-39
0.1233996004 -0.3281907439 -0.2297803015 3.015101038e-39
0.1227410287 -0.3820584416 0.2103774548 3.015101038e-39
0.03080225363 -0.2651408017 -0.3224820495 3.015101038e-39
-0.03900942206 -0.4794268012 -0.2316194475 3.015101038e-39
-0.1511851251 -0.4612394571 -0.2953664958 3.015101038e-39
-0.1794836074 -0.267709285 -0.2819909751 3.015101038e-39
0.1286047846 -0.2556504011 -0.1128392071 3.015101038e-39
-0.07929979265 -0.3559679389 -0.3031720519 3.015101038e-39
-0.2559409142 -0.4071128964 -0.03344834596 3.015101038e-39
-0.01556327939 -0.3634578586 -0.3111062646 3.015101038e-39
-0.3101442456 -0.3590372503 -0.2293802351 3.015101038e-39
-0.1563200653 -0.4316709042 -0.2932171524 3.015101038e-39
-0.2878313661 -0.4147323668 0.1502366662 3.015101038e-39
0.1540607661 -0.472399205 -0.2188897878 3.015101038e-39
0.1356213391 -0.1928852201 0.08888681978 3.015101038e-39
0.07576014102 -0.3639263809 -0.322775811 3.015101038e-39
-0.1526396871 -0.4806365967 -0.2011667937 3.015101038e-39
-0.04924462363 -0.4569479823 -0.3146705627 3.015101038e-39
0.1345098615 -0.271928072 0.1479797512 3.015101038e-39
0.1262729466 -0.3493930399 0.06053071469 3.015101038e-39
-0.2876526117 -0.4604515731 -0.160355553 3.015101038e-39
-0.1053336412 -0.4818419218 -0.1487219185 3.015101038e-39
0.009680911899 -0.4835049212 -0.1423720121 3.015101038e-39
-0.3938485384 -0.3682099581 -0.1188073233 3.015101038e-39
0.1358797103 -0.482757926 -0.08631103486 3.015101038e-39
0.005845576525 -0.402915895 0.2671184838 5.962428276e-39
0.1173693389 -0.4082293212 0.08581760526 5.962428276e-39
-0.02332812548 -0.4777709246 -0.2984306216 5.962428276e-39
0.06633810699 -0.4426833689 -0.3313837051 5.962428276e-39
0.09579867125 -0.4799442887 -0.2883680761 5.962428276e-39
0.08958719671 -0.4747612476 -0.3304354548 5.962428276e-39
-0.00361584872 -0.4863281846 0.1005044505 5.962428276e-39
0.1036460102 -0.2247399986 -0.3262146115 5.962428276e-39
-0.2808517218 -0.4762223363 -0.125879243 5.962428276e-39
0.09833835065 -0.4770372212 -0.3284038007 5.962428276e-39
-0.066773206 -0.4834539592 -0.1069737002 5.962428276e-39
-0.1172752529 -0.4792507589 -0.2667146325 5.962428276e-39
-0.2887397408 -0.4114746451 -0.2429879904 5.962428276e-39
-0.1793777943 -0.4804733396 -0.2325335443 5.962428276e-39
0.02088144049 -0.3923297226 0.3157919943 5.962428276e-39
0.1197059602 -0.2843292058 -0.3128062189 5.962428276e-39
-0.401542604 -0.3844556212 0.004951084964 5.962428276e-39
-0.3813710213 -0.3641785085 -0.09521059692 5.962428276e-39
-0.05601789802 -0.463219285 -0.3131445348 5.962428276e-39
0.1385701001 -0.2658950686 -0.1173539683 5.962428276e-39
-0.01528487913 -0.485265851 0.3019859493 5.962428276e-39
-0.08047519624 -0.383022666 -0.3091048598 5.962428276e-39
0.1383550316 -0.3461873233 -0.1226499379 5.962428276e-39
-0.1800365001 -0.3298968077 -0.2774001956 5.962428276e-39
0.03617864475 -0.3364024162 0.2797067761 5.962428276e-39
-0.04645191133 -0.206337586 -0.3236559629 5.962428276e-39
0.01299780607 -0.2998379767 -0.3264974058 5.962428276e-39
-0.2138885707 -0.4855734706 0.0522358343 5.962428276e-39
0.1220207959 -0.2341450751 -0.3024984598 5.962428276e-39
-0.07934175432 -0.4861033559 0.1109764576 5.962428276e-39
-0.1229801327 -0.2207396924 -0.3047779202 5.962428276e-39
0.1241699457 -0.3629939556 0.04621460289 5.962428276e-39
0.003688834608 -0.121064052 -0.3362026215 5.962428276e-39
0.1312372983 -0.2198589146 -0.1573227942 5.962428276e-39
0.1281513721 -0.2338158339 0.1124893948 5.962428276e-39
0.02263590693 -0.4794099629 -0.2727763653 5.962428276e-39
-0.0007025562227 -0.4863838553 0.1291382015 5.962428276e-39
-0.0009467415512 -0.4851800799 -0.0935710445 5.962428276e-39
-0.0214211978 -0.4405484796 0.3230665028 5.962428276e-39
0.1558960974 -0.4429957271 -0.2114091665 5.962428276e-39
0.003317974508 -0.4089983702 0.316755712 5.962428276e-39
0.131614238 -0.2697562575 -0.2268676311 5.962428276e-39
0.05355773494 -0.3425234556 -0.3281610012 5.962428276e-39
-0.04503837228 -0.4322468936 -0.006560988259 5.962428276e-39
0.1201451272 -0.3971107602 0.143061921 5.962428276e-39
0.1158740371 -0.4482733607 0.1922565699 5.962428276e-39
-0.3609249294 -0.4410411119 -0.165465489 5.962428276e-39
0.007216446102 -0.3515960276 -0.3212071359 5.962428276e-39
0.1203927249 -0.3970577121 0.08836508542 5.962428276e-39
-0.150598228 -0.4808370173 -0.1633817703 5.962428276e-39
-0.3427220583 -0.4251141548 -0.2165982276 5.962428276e-39
-0.2555551529 -0.4491326213 0.2206778973 5.962428276e-39
0.0976909548 -0.2378848791 -0.3268225789 5.962428276e-39
-0.1754952371 -0.4346442521 -0.2908557355 5.962428276e-39
-0.02835494652 -0.4304449558 0.3122543395 5.962428276e-39
-0.3350817561 -0.3664261699 -0.07644946128 5.962428276e-39
0.0739954561 -0.4805191159 -0.2568746805 5.962428276e-39
-0.004498612136 -0.1057838053 -0.3358148336 5.962428276e-39
-0.1955966204 -0.2958451509 -0.2729699016 5.962428276e-39
0.1099734008 -0.4197753966 0.2634817958 5.962428276e-39
0.05319825187 -0.1690817773 -0.337367177 5.962428276e-39
0.06890176237 -0.4110828042 -0.333068192 5.962428276e-39
-0.3033015132 -0.4645552337 0.1539061964 5.962428276e-39
-0.02310799435 -0.4255806506 0.3142461181 5.962428276e-39
-0.03024344519 -0.3499761224 -0.3158623874 5.962428276e-39
-0.05774089321 -0.4351769686 0.2255978435 5.962428276e-39
-0.1555182636 -0.2397141457 -0.2893033028 5.962428276e-39
0.06960327923 -0.3107959032 -0.3305272162 5.962428276e-39
0.1231742203 -0.2287597656 0.1425041854 5.962428276e-39
0.1106690913 -0.4806839228 -0.2444183081 5.962428276e-39
-0.1297850609 -0.3313173056 -0.2931029797 5.962428276e-39
-0.1639651805 -0.4796721935 -0.2670360804 5.962428276e-39
-0.1861015707 -0.4811044335 -0.1596569121 5.962428276e-39
0.05953892693 -0.4775106907 -0.3266498446 5.962428276e-39
-0.0547060892 -0.4791330099 -0.2540673018 5.962428276e-39
-0.1978645623 -0.304929018 -0.2728026807 5.962428276e-39
-0.1758319885 -0.481795758 -0.07063880563 5.962428276e-39
-0.194554016 -0.4511744976 -0.2883795202 5.962428276e-39
-0.04261855781 -0.124913916 -0.3293552399 5.962428276e-39
-0.02234868705 -0.4864902496 0.01417319477 5.962428276e-39
0.14553985 -0.4560632706 -0.2553363144 5.962428276e-39
-0.1563383341 -0.2599035501 -0.286970377 5.962428276e-39
-0.2756437063 -0.4691262245 -0.2230013758 5.962428276e-39
-0.2690992653 -0.4770383835 0.1800950021 5.962428276e-39
-0.08781983703 -0.3748753071 -0.3055166304 5.962428276e-39
-0.09889245033 -0.4376383424 -0.3092370629 5.962428276e-39
-0.1287968904 -0.3963786662 -0.2946248949 5.962428276e-39
-0.2058410347 -0.3135012984 -0.2711178064 5.962428276e-39
-0.2991895676 -0.481148243 -0.02509814873 5.962428276e-39
0.1451711357 -0.453841418 -0.2787914276 5.962428276e-39
0.1447101384 -0.3718237877 -0.2058202326 5.962428276e-39
-0.03310861066 -0.2262010276 -0.3241214454 5.962428276e-39
0.10317716 -0.415727824 -0.3288044631 5.962428276e-39
0.1153776646 -0.4201421738 0.1844122857 5.962428276e-39
-0.3236307502 -0.4575422704 -0.1796659678 5.962428276e-39
-0.08092141151 -0.4859915972 0.2969130576 5.962428276e-39
-0.245376572 -0.4161464572 -0.2601927221 5.962428276e-39
0.09637889266 -0.3311588764 -0.3259514272 5.962428276e-39
0.1097003073 -0.2526370585 0.1953428239 5.962428276e-39
0.1026662588 -0.4848218858 -0.0812638402 5.962428276e-39
0.0836571306 -0.4797481596 -0.2923267782 5.962428276e-39
-0.1072431952 -0.477062583 -0.3031593263 5.962428276e-39
0.05671683326 -0.4772195816 -0.3275574446 5.962428276e-39
0.1324763298 -0.2833639979 -0.228154555 5.962428276e-39
0.1192441881 -0.3959410191 0.1888493448 5.962428276e-39
0.05340236053 -0.2188549191 -0.3327958584 5.962428276e-39
-0.01361060515 -0.4795920849 -0.2395814657 5.962428276e-39
-0.123818934 -0.4728078246 -0.3019304276 5.962428276e-39
-0.1436958015 -0.2938430011 -0.290243268 5.962428276e-39
0.1347814202 -0.2226023972 -0.1292771995 5.962428276e-39
-0.04588134587 -0.3628433347 -0.3128747344 5.962428276e-39
-0.307476908 -0.3754140437 -0.02428916283 5.962428276e-39
0.01642743126 -0.3474072814 -0.3225991726 5.962428276e-39
-0.3291171789 -0.3823468983 -0.2130504698 5.962428276e-39
-0.1259283423 -0.4512176514 -0.3048837185 5.962428276e-39
-0.3173632026 -0.4411436915 0.139039591 5.962428276e-39
0.156210348 -0.4281274974 -0.2199390829 5.962428276e-39
0.1382022947 -0.1872515678 0.07702101767 5.962428276e-39
0.08914241195 -0.3182677031 -0.328319937 5.962428276e-39
-0.1340630949 -0.4802352786 -0.198651284 5.962428276e-39
-0.01480692811 -0.452932179 -0.3240853846 5.962428276e-39
0.1302439123 -0.285836935 0.1288293153 5.962428276e-39
0.1250319928 -0.346139729 0.04313064367 5.962428276e-39
-0.2643386424 -0.4785560071 -0.1518827528 5.962428276e-39
-0.09228725731 -0.4813912511 -0.1504560411 5.962428276e-39
0.03082255647 -0.483551085 -0.1565392464 5.962428276e-39
-0.4097670615 -0.3837738633 -0.08613701165 5.962428276e-39
0.1389137655 -0.4611552954 -0.1185926199 5.962428276e-39
-0.07242423296 -0.4396457672 0.3400706649 8.906165387e-39
0.138282001 -0.3814849257 0.008787102997 8.906165387e-39
0.07244463265 -0.4409905076 -0.3340157568 8.906165387e-39
0.08114972711 -0.3579736054 -0.3363256454 8.906165387e-39
0.13316001 -0.4217348695 -0.3212572634 8.906165387e-39
0.1094971001 -0.3873758316 -0.3310723007 8.906165387e-39
0.05870724097 -0.4856550694 0.03340955824 8.906165387e-39
0.1304288507 -0.1299772561 -0.3370176554 8.906165387e-39
-0.1990360469 -0.4812602401 -0.1918460727 8.906165387e-39
0.1167371869 -0.3903229535 -0.3277259767 8.906165387e-39
0.03470433876 -0.48260656 -0.1764012128 8.906165387e-39
-0.01611310057 -0.4750055671 -0.3242429793 8.906165387e-39
-0.2010454834 -0.4185795784 -0.2751114666 8.906165387e-39
-0.07767637819 -0.4785192013 -0.2916645706 8.906165387e-39
-0.008160617203 -0.4141479433 0.3453566432 8.906165387e-39
0.1374917328 -0.1738062203 -0.3213451505 8.906165387e-39
-0.3834653199 -0.4670961797 0.03529280424 8.906165387e-39
-0.4041709602 -0.4146846533 -0.07403866947 8.906165387e-39
0.01698294282 -0.414600879 -0.3339367211 8.906165387e-39
0.1468914151 -0.1733616143 -0.1596164405 8.906165387e-39
0.02266031504 -0.4855303466 0.2741477191 8.906165387e-39
-0.03098074161 -0.3387368619 -0.3197114766 8.906165387e-39
0.1491767615 -0.2540834844 -0.1703195721 8.906165387e-39
-0.1274263412 -0.2989229858 -0.2923882604 8.906165387e-39
-0.01932408288 -0.3812198639 0.3335419595 8.906165387e-39
-0.006838982925 -0.1370033026 -0.3378586769 8.906165387e-39
0.04391081259 -0.1982182115 -0.3395046294 8.906165387e-39
-0.143449977 -0.4842433631 0.02816190384 8.906165387e-39
0.1403198987 -0.1330915689 -0.3142174482 8.906165387e-39
-0.007223017514 -0.4862406254 0.07341683656 8.906165387e-39
-0.07851778716 -0.1552219838 -0.3218118846 8.906165387e-39
0.1372761279 -0.3213356733 -0.03771450371 8.906165387e-39
0.03967216238 -0.06392411888 -0.353553623 8.906165387e-39
0.1454870403 -0.1314284056 -0.1970996708 8.906165387e-39
0.1274797916 -0.2228205651 0.07221791893 8.906165387e-39
0.1111892015 -0.4590750635 -0.3279349506 8.906165387e-39
0.05396547541 -0.4858254492 0.07491227239 8.906165387e-39
0.08853827417 -0.4825772047 -0.1720121205 8.906165387e-39
-0.001372706145 -0.4539903998 0.3466875851 8.906165387e-39
0.1580122113 -0.3505615592 -0.2387584597 8.906165387e-39
-0.006225567311 -0.426725477 0.3428810537 8.906165387e-39
0.1466812342 -0.1736483425 -0.2616418004 8.906165387e-39
0.0793736726 -0.2425434589 -0.338503927 8.906165387e-39
-0.1005859077 -0.4176176488 0.1464678347 8.906165387e-39
0.131221965 -0.3746330142 0.09043157846 8.906165387e-39
0.1213430315 -0.4132061601 0.1470839977 8.906165387e-39
-0.2494752109 -0.4796865284 -0.2416275889 8.906165387e-39
0.04051907733 -0.2739106417 -0.3353027999 8.906165387e-39
0.1373344809 -0.3683872819 0.0211106576 8.906165387e-39
-0.04936438054 -0.4797286689 -0.2257652432 8.906165387e-39
-0.2364822626 -0.4746012092 -0.2739081681 8.906165387e-39
-0.2204878479 -0.4865279496 0.2488000393 8.906165387e-39
0.1262072325 -0.1417926252 -0.3369155228 8.906165387e-39
-0.1026264578 -0.4050260186 -0.3055666685 8.906165387e-39
-0.04229359329 -0.4475523233 0.3483549654 8.906165387e-39
-0.389636457 -0.3759148121 -0.03525342792 8.906165387e-39
0.1337997913 -0.45104298 -0.3186861873 8.906165387e-39
0.03223603591 -0.05047464371 -0.3534578085 8.906165387e-39
-0.1441696435 -0.2658627927 -0.2869800031 8.906165387e-39
0.1049862057 -0.4013014138 0.2373327464 8.906165387e-39
0.0799433589 -0.09040187299 -0.3520537615 8.906165387e-39
0.08868646622 -0.3235717416 -0.3399056792 8.906165387e-39
-0.2407070249 -0.4884057045 0.1525341272 8.906165387e-39
-0.03063755482 -0.4462941289 0.3474125266 8.906165387e-39
0.01685053855 -0.2805799544 -0.3334628642 8.906165387e-39
-0.1463455558 -0.447987169 0.3161471486 8.906165387e-39
-0.1171454638 -0.1947797388 -0.3043811321 8.906165387e-39
0.09713086486 -0.2000393569 -0.3382512927 8.906165387e-39
0.1261044443 -0.2218712866 0.1010026187 8.906165387e-39
0.1486317664 -0.4217328131 -0.2912160158 8.906165387e-39
-0.08467351645 -0.2999299169 -0.3044081032 8.906165387e-39
-0.06712655723 -0.4765368402 -0.3158463836 8.906165387e-39
-0.08979913592 -0.4796699286 -0.2282266617 8.906165387e-39
0.09967344999 -0.4090313613 -0.3321729898 8.906165387e-39
0.0457248129 -0.4770059586 -0.3217067122 8.906165387e-39
-0.1435835212 -0.2734033167 -0.2868296206 8.906165387e-39
-0.1024880558 -0.4813979864 -0.1265327185 8.906165387e-39
-0.1164362133 -0.4197044671 -0.3053392172 8.906165387e-39
0.002894368023 -0.06675843894 -0.3445387185 8.906165387e-39
0.05394058302 -0.4852099419 -0.06297967583 8.906165387e-39
0.1575261652 -0.3599650264 -0.2665448487 8.906165387e-39
-0.1191386431 -0.220524624 -0.300881356 8.906165387e-39
-0.1726209223 -0.4791164398 -0.2931880951 8.906165387e-39
-0.2023613304 -0.4893695414 0.1818336695 8.906165387e-39
-0.03817640245 -0.3350000381 -0.317666471 8.906165387e-39
-0.04162286222 -0.394810468 -0.3185627162 8.906165387e-39
-0.07541634887 -0.3602816761 -0.3077600002 8.906165387e-39
-0.1475518793 -0.2786880434 -0.2851296961 8.906165387e-39
-0.2146298736 -0.4819077253 -0.06519717723 8.906165387e-39
0.1561405957 -0.3553313017 -0.2777402401 8.906165387e-39
0.1465744376 -0.2882568836 -0.231342569 8.906165387e-39
0.005405131727 -0.1504223645 -0.3383579254 8.906165387e-39
0.1185177267 -0.3163048327 -0.3300228715 8.906165387e-39
0.1263207793 -0.389575541 0.132526055 8.906165387e-39
-0.2095900476 -0.4799612761 -0.2568201721 8.906165387e-39
-0.02669822983 -0.4856042862 0.2826785147 8.906165387e-39
-0.1762681901 -0.3638060391 -0.2761684358 8.906165387e-39
0.1201516539 -0.2241880298 -0.3320893943 8.906165387e-39
0.0417429693 -0.2347732335 0.2983852625 8.906165387e-39
0.1479424089 -0.4569413662 -0.1914424598 8.906165387e-39
0.1265685111 -0.4253508449 -0.3263175488 8.906165387e-39
-0.0292065572 -0.4434989691 -0.324706316 8.906165387e-39
0.09637534618 -0.4068055153 -0.332724601 8.906165387e-39
0.1466106176 -0.1871138364 -0.2619740367 8.906165387e-39
0.126883775 -0.3733685017 0.1398055702 8.906165387e-39
0.08057254553 -0.1312429905 -0.3462828398 8.906165387e-39
0.09590017796 -0.4787186682 -0.31296736 8.906165387e-39
-0.04558376968 -0.4420537353 -0.3216255307 8.906165387e-39
-0.1010267735 -0.2616742551 -0.3022759259 8.906165387e-39
0.1440446526 -0.1353012621 -0.1732983291 8.906165387e-39
0.009327691048 -0.3045464158 -0.3295818567 8.906165387e-39
-0.3600511849 -0.4003122449 0.07181208581 8.906165387e-39
0.04627640918 -0.2623015046 -0.3360814154 8.906165387e-39
-0.253724277 -0.4430965185 -0.2559312284 8.906165387e-39
-0.0568247512 -0.41583094 -0.3166409433 8.906165387e-39
-0.2724569738 -0.4873163998 0.1482815742 8.906165387e-39
0.1555370241 -0.3364572227 -0.2408033162 8.906165387e-39
0.1413222104 -0.1564665288 0.02143751644 8.906165387e-39
0.1142764837 -0.2101299614 -0.3359639943 8.906165387e-39
-0.02919489332 -0.4789891839 -0.2626891136 8.906165387e-39
0.05233078822 -0.3917312026 -0.3359883726 8.906165387e-39
0.1304397136 -0.2676725686 0.08824619651 8.906165387e-39
0.1385410875 -0.2929406166 -0.03695609421 8.906165387e-39
-0.186324805 -0.4807627201 -0.2155078053 8.906165387e-39
0.01321688667 -0.4806080163 -0.2143687457 8.906165387e-39
0.1154022217 -0.4803783894 -0.237282306 8.906165387e-39
-0.3969834745 -0.4567210972 -0.09740322083 8.906165387e-39
0.1575570554 -0.3860232234 -0.1853296161 8.906165387e-39
-0.01548875868 -0.3842318058 0.274957478 1.184631237e-38
0.1441637576 -0.4105377197 -0.01170000341 1.184631237e-38
0.09561574459 -0.4700688124 -0.3181738257 1.184631237e-38
0.1043044925 -0.3897434473 -0.3328526914 1.184631237e-38
0.1284741908 -0.4462534189 -0.2948741615 1.184631237e-38
0.1215596199 -0.4208599329 -0.3250480294 1.184631237e-38
0.05144240335 -0.4867525697 0.04198402911 1.184631237e-38
0.1214668304 -0.1642604917 -0.3272168338 1.184631237e-38
-0.216348961 -0.4833219945 -0.1018428504 1.184631237e-38
0.1250281185 -0.4246787131 -0.321326226 1.184631237e-38
0.02547997236 -0.4826520681 -0.1195923761 1.184631237e-38
0.002943966538 -0.4792632461 -0.2970989347 1.184631237e-38
-0.1932121366 -0.4621080458 -0.2687627077 1.184631237e-38
-0.0609755218 -0.4801491201 -0.2493831366 1.184631237e-38
0.02016662434 -0.4035665691 0.3280602098 1.184631237e-38
0.130106926 -0.2169812471 -0.3088897467 1.184631237e-38
-0.3712709546 -0.4132329226 0.1134687364 1.184631237e-38
-0.3545363843 -0.3734213412 -0.03740989789 1.184631237e-38
0.05722782388 -0.4525241554 -0.3312772214 1.184631237e-38
0.1455285847 -0.2262879014 -0.141065985 1.184631237e-38
-0.04278581217 -0.4848832488 0.2600316405 1.184631237e-38
-0.001597840339 -0.3674093187 -0.3260220885 1.184631237e-38
0.1456531882 -0.3048991561 -0.1520189196 1.184631237e-38
-0.07595339417 -0.3399769068 -0.300263375 1.184631237e-38
0.05130272731 -0.3055664003 0.296105206 1.184631237e-38
0.01858071238 -0.1778937578 -0.3366322517 1.184631237e-38
0.06457197666 -0.234657824 -0.3365079165 1.184631237e-38
-0.191720441 -0.48620978 0.09119755775 1.184631237e-38
0.1335313618 -0.1759031266 -0.3010287881 1.184631237e-38
-0.03939089924 -0.4853210151 0.0843456313 1.184631237e-38
-0.0452045165 -0.1956364512 -0.3248300552 1.184631237e-38
0.1460997313 -0.3508692086 -0.04651858658 1.184631237e-38
0.05767304823 -0.09570963681 -0.3488989472 1.184631237e-38
0.1395794153 -0.1764713377 -0.1731917858 1.184631237e-38
0.1388560534 -0.256000638 0.05737362057 1.184631237e-38
0.1199529469 -0.4755669832 -0.30211097 1.184631237e-38
0.04230887815 -0.4867816567 0.07038362324 1.184631237e-38
