# .PCD v0.7 - Point Cloud Data file format
VERSION 0.7
FIELDS x y z rgb
SIZE 4 4 4 4
TYPE F F F F
COUNT 1 1 1 1
WIDTH 835
HEIGHT 1
VIEWPOINT 0 0 0 1 0 0 0
POINTS 835
DATA ascii
0.2343515456 -0.4619957209 -0.146756351 1.184631237e-38
0.2132939398 -0.3931924105 0.1379575431 1.184631237e-38
0.1598738432 -0.2682928145 -0.2432558239 1.184631237e-38
0.1848718226 -0.4665758014 0.04714643955 1.184631237e-38
0.05748932064 -0.4505636096 0.3054565787 1.184631237e-38
-0.2013767362 -0.397880733 0.189215064 1.184631237e-38
0.2283959985 -0.3504143059 -0.05758405849 1.184631237e-38
-0.1933961213 -0.3438720703 0.197323963 1.184631237e-38
-0.1947319508 -0.309420228 -0.060515441 1.184631237e-38
0.1740302145 -0.3084741533 -0.2479522228 1.184631237e-38
0.07423525304 -0.2672122717 -0.2355169654 1.184631237e-38
0.1852912903 -0.4156131744 0.2086993754 1.184631237e-38
0.03739451617 -0.4760280848 -0.006742976606 1.184631237e-38
0.1166905388 -0.293186605 -0.2403901219 1.184631237e-38
-0.174611941 -0.4415231347 0.4323740602 1.184631237e-38
-0.1798793823 -0.4634498358 0.2981841266 1.184631237e-38
0.1131742522 -0.4727402925 -0.2302030325 1.184631237e-38
0.04345481843 -0.4727751017 -0.1428711414 1.184631237e-38
-0.1951901615 -0.3040978909 0.4269884825 1.184631237e-38
0.1571420729 -0.2887025774 -0.2421755791 1.184631237e-38
-0.02568891272 -0.4772690535 0.1189349145 1.184631237e-38
0.2327915728 -0.3054047823 -0.1292596459 1.184631237e-38
0.2342680395 -0.4042451382 -0.2473940998 1.184631237e-38
0.2201285064 -0.3460859358 0.0814306289 1.184631237e-38
0.03480613977 -0.4746514559 -0.198543936 1.184631237e-38
-0.02620253339 -0.4747270346 -0.1742782295 1.184631237e-38
-0.1942993104 -0.3366600275 0.3748189807 1.184631237e-38
-0.208455205 -0.3889663815 0.08683121204 1.184631237e-38
-0.0712640509 -0.4668309689 0.3290396631 1.184631237e-38
0.1005408242 -0.3974046111 -0.2489620596 1.184631237e-38
-0.1861932874 -0.3259800076 0.2127712965 1.184631237e-38
0.07091268152 -0.3565766811 -0.2467093915 1.184631237e-38
0.2482316494 -0.3826836348 -0.1971910894 1.184631237e-38
0.1166774705 -0.4332137108 0.282838136 1.184631237e-38
-0.1423927546 -0.418330431 -0.2583847344 1.184631237e-38
0.03567512333 -0.4723210931 0.1929921359 1.184631237e-38
0.2340563238 -0.3261879683 -0.2316450328 1.184631237e-38
0.2072724998 -0.4115961194 -0.2177734971 1.478322936e-38
0.203420788 -0.3252048194 -0.08990044147 1.478322936e-38
0.1102493331 -0.2588455677 -0.239487201 1.478322936e-38
-0.2102062702 -0.3654069901 0.3828009367 1.478322936e-38
0.2000302374 -0.3483582139 -0.07162114233 1.478322936e-38
-0.01684711128 -0.468100071 0.2564358711 1.478322936e-38
0.122343637 -0.4701348543 -0.2227784395 1.478322936e-38
-0.2070569992 -0.3139694631 0.3926035464 1.478322936e-38
-0.1741195321 -0.4657001495 -0.2077130079 1.478322936e-38
-0.1190724224 -0.4370994568 0.4201282561 1.478322936e-38
0.02062224597 -0.4132907987 -0.2608223557 1.478322936e-38
0.2062492967 -0.249206692 -0.1544644535 1.478322936e-38
-0.2023420334 -0.3911598921 0.4470569491 1.478322936e-38
0.1162203178 -0.4577521086 0.1953554153 1.478322936e-38
0.0004799515009 -0.4754757285 0.08962127566 1.478322936e-38
0.1416501403 -0.3943238854 -0.2618747652 1.478322936e-38
0.2057723403 -0.3473609686 -0.1195044443 1.478322936e-38
-0.06078111753 -0.474471271 -0.2535044849 1.478322936e-38
0.09244663268 -0.4749748707 0.05060002953 1.478322936e-38
-0.02007206529 -0.3243186176 -0.2488276511 1.478322936e-38
-0.2067876756 -0.3426843584 0.368616432 1.478322936e-38
0.1931666732 -0.3439049125 0.009652730078 1.478322936e-38
-0.02068772167 -0.4584476948 0.2950795889 1.478322936e-38
-0.03204724938 -0.4786913991 0.05997746438 1.478322936e-38
0.1764357984 -0.4200022817 0.1313435584 1.478322936e-38
-0.1166525632 -0.4757102728 -0.05337648094 1.478322936e-38
-0.118702054 -0.4757726192 0.2737069726 1.478322936e-38
0.03489664197 -0.4425016046 0.3365070224 1.478322936e-38
-0.09898097813 -0.4108225703 0.4237776697 1.478322936e-38
0.2061630785 -0.2838381231 -0.1417904496 1.478322936e-38
-0.2237696648 -0.4531045556 -0.09512641281 1.478322936e-38
-0.2265377939 -0.4367439151 -0.1354203671 1.478322936e-38
0.195309937 -0.3357793093 0.2008479536 1.478322936e-38
0.1734557152 -0.3410463333 -0.2579370141 1.478322936e-38
0.1768960059 -0.2981427908 -0.2491511256 1.478322936e-38
-0.09000018984 -0.4435661435 0.4054557681 1.478322936e-38
0.07645597309 -0.4745473266 -0.227052629 1.478322936e-38
0.205635041 -0.2643986344 -0.1697030365 1.478322936e-38
0.03653149307 -0.4413102269 0.3365902901 1.478322936e-38
0.2131539285 -0.3578773737 -0.197406441 1.478322936e-38
-0.1957478523 -0.3336671591 0.2360141873 1.478322936e-38
-0.03728881478 -0.4796208143 0.07436160743 1.478322936e-38
-0.2236151397 -0.461719811 -0.031828437 1.478322936e-38
0.1991003752 -0.3227083981 -0.05554504693 1.478322936e-38
0.1058050022 -0.4739385247 0.04130650312 1.478322936e-38
-0.006786346436 -0.2694447339 -0.2462557107 1.478322936e-38
0.2001526058 -0.3262998462 -0.2398546785 1.478322936e-38
0.2008013129 -0.2725423872 -0.2198017985 1.478322936e-38
-0.2000884712 -0.4680812955 0.3175939023 1.478322936e-38
-0.0002632662654 -0.3574205339 -0.2524439394 1.478322936e-38
-0.1988616884 -0.3350859582 0.08442938328 1.478322936e-38
0.1962810457 -0.4515551925 -0.03516558558 1.478322936e-38
-0.1219220757 -0.3702546358 -0.2611617148 1.478322936e-38
-0.1062635034 -0.4771538377 -0.2060353309 1.478322936e-38
0.1934176683 -0.3421332836 0.2205805779 1.478322936e-38
-0.1204366386 -0.3462924361 -0.2549077868 1.478322936e-38
-0.01552384347 -0.2588459253 -0.2452271134 1.478322936e-38
0.01236373931 -0.3049698472 -0.2472475469 1.478322936e-38
-0.03013072535 -0.4756640792 -0.1409749389 1.478322936e-38
-0.07306107879 -0.4657453299 0.3253499866 1.478322936e-38
-0.05856856704 -0.2835296392 -0.2455441505 1.478322936e-38
-0.216951251 -0.4708889127 -0.0401420258 1.478322936e-38
0.1494834721 -0.4688805938 -0.2277370393 1.478322936e-38
0.2039420903 -0.2450050265 -0.1896738559 1.478322936e-38
-0.2097586691 -0.4207074642 0.4021832943 1.478322936e-38
-0.2032089829 -0.3373312354 0.3414026201 1.478322936e-38
-0.0500568077 -0.264605999 -0.2450472713 1.478322936e-38
-0.2270819545 -0.4063414335 -0.09884427488 1.478322936e-38
0.2143298388 -0.3751431108 -0.1913768649 1.478322936e-38
-0.2058341205 -0.4690710902 0.00830354169 1.478322936e-38
-0.08771984279 -0.469479382 0.3309800327 1.478322936e-38
-0.02598420903 -0.4750067592 -0.2552298903 1.478322936e-38
-0.1388092935 -0.3188272119 0.4314130545 1.478322936e-38
-0.1983357072 -0.3277245164 0.04778960347 1.478322936e-38
0.03140800446 -0.2552620769 -0.2410668582 1.478322936e-38
-0.1936122179 -0.3252554536 0.2407620847 1.478322936e-38
-0.1832620502 -0.3013997078 0.4371026158 1.478322936e-38
0.1749284863 -0.3826144934 0.2245135009 1.478322936e-38
-0.1121241897 -0.4732936025 -0.2518186569 1.478322936e-38
0.05368515104 -0.3782311678 0.3675538003 1.478322936e-38
-0.123493433 -0.3386029005 -0.2535917461 1.478322936e-38
-0.1808357239 -0.4766516089 0.1313614249 1.478322936e-38
-0.195946902 -0.3173086047 0.002897884697 1.478322936e-38
0.06095018238 -0.4793489575 -0.2472247034 1.478322936e-38
0.1292592287 -0.2627099752 -0.2433258742 1.478322936e-38
0.1932202578 -0.3240757585 0.04798348993 1.478322936e-38
-0.01489281654 -0.4755849242 -0.02727551572 1.478322936e-38
-0.1043070629 -0.4792806506 0.07140447199 1.478322936e-38
-0.2094142139 -0.4677346349 -0.09693542123 1.478322936e-38
0.2036605179 -0.3153623044 -0.09939562529 1.478322936e-38
-0.03722380847 -0.304292798 -0.2469458878 1.478322936e-38
0.1977162063 -0.4559109211 -0.1680631489 1.478322936e-38
0.1915214658 -0.3864163458 0.1359931976 1.478322936e-38
0.1261966228 -0.254355967 -0.2407862395 1.478322936e-38
0.1537997425 -0.4682516456 0.03607578576 1.478322936e-38
0.03653413802 -0.4475389123 0.3070065975 1.478322936e-38
-0.2170260847 -0.4128883481 0.157394141 1.478322936e-38
0.1992688775 -0.3463347256 -0.06829324365 1.478322936e-38
-0.2043456733 -0.3518348336 0.1660337746 1.478322936e-38
-0.2068239152 -0.3167459369 -0.08856448531 1.478322936e-38
0.1357795894 -0.2992155552 -0.250130415 1.478322936e-38
0.03874209523 -0.2532026768 -0.2398460805 1.478322936e-38
0.1616607308 -0.4071196318 0.2127661109 1.478322936e-38
0.01925390214 -0.4751639962 -0.04418477416 1.478322936e-38
0.07946013659 -0.2809989452 -0.2425241321 1.478322936e-38
-0.1938565969 -0.4436052442 0.4261340201 1.478322936e-38
-0.1975254118 -0.4722252488 0.2715605199 1.478322936e-38
0.0891244784 -0.4764413834 -0.2471414208 1.478322936e-38
0.02981454879 -0.4741692543 -0.1785568744 1.478322936e-38
-0.2087669671 -0.3154431581 0.4136224091 1.478322936e-38
0.1190059707 -0.2776882648 -0.2444461435 1.478322936e-38
-0.04337426275 -0.4801172614 0.09939160943 1.478322936e-38
0.2064074874 -0.3038381934 -0.1479407549 1.478322936e-38
0.1854038537 -0.3896293044 -0.2597364485 1.478322936e-38
0.1920177341 -0.3405358791 0.07998670638 1.478322936e-38
0.0198944509 -0.4773410559 -0.2225870192 1.478322936e-38
-0.04416199774 -0.4769518375 -0.2066790164 1.478322936e-38
-0.2076327503 -0.3481348157 0.3588384688 1.478322936e-38
-0.2243809402 -0.4039292932 0.05551092327 1.478322936e-38
-0.09021341056 -0.4704332352 0.330868274 1.478322936e-38
0.06379824132 -0.377171278 -0.2547284365 1.478322936e-38
-0.1952291131 -0.3347644508 0.1854841411 1.478322936e-38
0.04033757001 -0.339540571 -0.2504208386 1.478322936e-38
0.210947901 -0.3760790825 -0.2151621431 1.478322936e-38
0.09507847577 -0.426408112 0.2847080231 1.478322936e-38
-0.1536784321 -0.3925890326 -0.2711294591 1.478322936e-38
0.005585379899 -0.4724277258 0.1941110492 1.478322936e-38
0.1961283684 -0.3106299639 -0.2411849499 1.478322936e-38
0.1431304216 -0.4257709384 -0.1874463707 1.771655483e-38
0.1537504494 -0.3289055824 -0.07166065276 1.771655483e-38
0.06058081985 -0.2701886296 -0.2366290987 1.771655483e-38
-0.1968044937 -0.351428777 0.3315844238 1.771655483e-38
0.1491298079 -0.3556621671 -0.05122194439 1.771655483e-38
-0.07938916981 -0.458699584 0.3113875091 1.771655483e-38
0.04071449488 -0.4768235087 -0.1676905453 1.771655483e-38
-0.1990185082 -0.3164156377 0.3230729699 1.771655483e-38
-0.2119720578 -0.4650711417 -0.1503541172 1.771655483e-38
-0.1505709738 -0.4026013017 0.4281797111 1.771655483e-38
-0.04014483094 -0.4273637533 -0.2477796674 1.771655483e-38
0.1729052067 -0.259418875 -0.1458697915 1.771655483e-38
-0.2039012313 -0.3495231867 0.415900588 1.771655483e-38
0.010359779 -0.4417880774 0.2608523369 1.771655483e-38
-0.07280148566 -0.4742013812 0.1638197303 1.771655483e-38
0.07661295682 -0.4122416377 -0.2504536211 1.771655483e-38
0.1559024751 -0.3554730415 -0.100040026 1.771655483e-38
-0.1179251596 -0.4764797688 -0.2245382667 1.771655483e-38
-0.01524676383 -0.4727737308 0.1375659406 1.771655483e-38
-0.07861123979 -0.3338063955 -0.2404243499 1.771655483e-38
-0.1912871003 -0.342546165 0.3037007749 1.771655483e-38
0.1426019669 -0.3505139947 0.05660864711 1.771655483e-38
-0.08804531395 -0.4541438818 0.3474343121 1.771655483e-38
-0.09715296328 -0.4758300781 0.1273678392 1.771655483e-38
0.08783110231 -0.4240493774 0.189763844 1.771655483e-38
-0.1623277366 -0.473592639 0.01757518202 1.771655483e-38
-0.167288661 -0.4754300714 0.3252889812 1.771655483e-38
-0.05824007466 -0.4224139452 0.3790182471 1.771655483e-38
-0.1224665344 -0.3576352 0.4136068821 1.771655483e-38
0.1694207191 -0.2885389626 -0.1256487072 1.771655483e-38
-0.232218951 -0.4337233305 -0.06809471548 1.771655483e-38
-0.2330300808 -0.4191787839 -0.1087478772 1.771655483e-38
0.1240061745 -0.3400747776 0.2479504645 1.771655483e-38
0.1240440831 -0.3643698692 -0.2452050894 1.771655483e-38
0.128256917 -0.3164849579 -0.2371677458 1.771655483e-38
-0.1304131597 -0.4133602381 0.4253888428 1.771655483e-38
0.009476013482 -0.4792140126 -0.1785210967 1.771655483e-38
0.1716075242 -0.2747924924 -0.1596875638 1.771655483e-38
-0.05725067109 -0.4209546447 0.3790559769 1.771655483e-38
0.1632554531 -0.3661239147 -0.1782019585 1.771655483e-38
-0.1830665916 -0.3414001763 0.15463534 1.771655483e-38
-0.101581797 -0.475520134 0.1425123364 1.771655483e-38
-0.2350767255 -0.4405205846 -0.0001294389367 1.771655483e-38
0.1481562257 -0.3260211945 -0.03469509259 1.771655483e-38
-0.0051808469 -0.4731257558 0.126331687 1.771655483e-38
-0.0606168583 -0.2721147537 -0.2378941029 1.771655483e-38
0.1475448906 -0.3473411202 -0.2338126451 1.771655483e-38
0.166955471 -0.2812700272 -0.2107848823 1.771655483e-38
-0.2145373225 -0.4390053153 0.3332758844 1.771655483e-38
-0.05984915793 -0.3701795638 -0.2410861999 1.771655483e-38
-0.1914692819 -0.3467969298 0.02411455661 1.771655483e-38
0.09458748251 -0.4619369507 0.02627141774 1.771655483e-38
-0.1589404941 -0.3828273416 -0.248429805 1.771655483e-38
-0.158960551 -0.4734813571 -0.1530514061 1.771655483e-38
0.1147343144 -0.3432871103 0.2680201828 1.771655483e-38
-0.1588333249 -0.352504909 -0.2458706498 1.771655483e-38
-0.07029599696 -0.2605947256 -0.237387076 1.771655483e-38
-0.04092267901 -0.307541728 -0.2409362942 1.771655483e-38
-0.0843725875 -0.4771929383 -0.07309700549 1.771655483e-38
-0.1265745461 -0.4588677883 0.3808679581 1.771655483e-38
-0.1185189486 -0.2827373147 -0.2369058281 1.771655483e-38
-0.2321179509 -0.4619063139 0.002416338772 1.771655483e-38
0.05997120589 -0.4739680886 -0.1761434525 1.771655483e-38
0.1697436869 -0.2568992078 -0.1806661338 1.771655483e-38
-0.2076101303 -0.3824504316 0.3730049729 1.771655483e-38
-0.1852591038 -0.3411483169 0.2711094618 1.771655483e-38
-0.1069964021 -0.2645052373 -0.2367556393 1.771655483e-38
-0.2252373695 -0.3967949748 -0.09545707703 1.771655483e-38
0.1614895165 -0.3855710626 -0.1686009467 1.771655483e-38
-0.2238014638 -0.4671083689 0.05599562079 1.771655483e-38
-0.1396922022 -0.4614322782 0.3871139884 1.771655483e-38
-0.08694780618 -0.4777016044 -0.2266587615 1.771655483e-38
-0.1434094757 -0.3088044226 0.3924931884 1.771655483e-38
-0.1896162927 -0.3392747045 -0.01661585271 1.771655483e-38
-0.02314122394 -0.2561286092 -0.2398739159 1.771655483e-38
-0.1824872792 -0.3349234164 0.1605063677 1.771655483e-38
-0.184294045 -0.2984113693 0.3884029984 1.771655483e-38
0.08646000177 -0.3793475628 0.2783997953 1.771655483e-38
-0.1640299857 -0.4714298844 -0.2212807834 1.771655483e-38
-0.02126196399 -0.3388428986 0.37773332 1.771655483e-38
-0.1607914865 -0.3440669775 -0.2456688136 1.771655483e-38
-0.207406193 -0.4680224657 0.1797028631 1.771655483e-38
-0.1870910525 -0.3298563957 -0.06377236545 1.771655483e-38
-0.008592549711 -0.4796589613 -0.21757029 1.771655483e-38
0.07841195911 -0.2765861154 -0.2382673323 1.771655483e-38
0.145208776 -0.3300438523 0.08852808177 1.771655483e-38
-0.08091962337 -0.4778690338 0.04139149934 1.771655483e-38
-0.1432138383 -0.477383554 0.1506471038 1.771655483e-38
-0.2291514277 -0.4681194425 -0.04621661827 1.771655483e-38
0.1570909917 -0.3152488172 -0.08033809811 1.771655483e-38
-0.09769704938 -0.3061780632 -0.2390576452 1.771655483e-38
0.1092776731 -0.4624819756 -0.1226446331 1.771655483e-38
0.1142522022 -0.3934679627 0.1874447465 1.771655483e-38
0.07542062551 -0.2686920166 -0.237058714 1.771655483e-38
0.02799213678 -0.4710486531 0.1195711344 1.771655483e-38
-0.05692566559 -0.4432995915 0.3642220199 1.771655483e-38
-0.2090617716 -0.3898768425 0.1314867586 1.771655483e-38
0.1484907568 -0.353551805 -0.04769365862 1.771655483e-38
-0.1923381388 -0.3574078977 0.101407066 1.771655483e-38
-0.196852982 -0.3289004564 -0.130707413 1.771655483e-38
0.07622977346 -0.312502116 -0.2429429889 1.771655483e-38
-0.01471197605 -0.2539148927 -0.2392042875 1.771655483e-38
0.06867267936 -0.4007838368 0.2724548876 1.771655483e-38
-0.05821326375 -0.4764765501 0.02558284253 1.771655483e-38
0.03026984632 -0.2845621705 -0.2376982272 1.771655483e-38
-0.2101620436 -0.4123516083 0.4343724847 1.771655483e-38
-0.2116768658 -0.4476819038 0.2909733653 1.771655483e-38
0.02324315906 -0.48001647 -0.2120528966 1.771655483e-38
-0.03727594763 -0.477383852 -0.1144716591 1.771655483e-38
-0.2042019069 -0.3141154349 0.3586474061 1.771655483e-38
0.06596901268 -0.2879923582 -0.2387264967 1.771655483e-38
-0.106609039 -0.4749938846 0.1665156335 1.771655483e-38
0.1635661721 -0.3060952425 -0.1294555366 1.771655483e-38
0.1289773583 -0.4096505642 -0.2474250346 1.771655483e-38
0.1444090009 -0.3495388627 0.1164882481 1.771655483e-38
-0.04642181844 -0.4783579111 -0.1765429378 1.771655483e-38
-0.09718427807 -0.4780326486 -0.1508246213 1.771655483e-38
-0.1890988946 -0.3469082713 0.2962607741 1.771655483e-38
-0.2154371738 -0.3923481107 0.03274355829 1.771655483e-38
-0.1420716941 -0.4624349475 0.3869309425 1.771655483e-38
0.009657435119 -0.3935171962 -0.2485604733 1.771655483e-38
-0.1854098737 -0.3445773721 0.1123857647 1.771655483e-38
-0.01404179633 -0.3495002389 -0.2433137 1.771655483e-38
0.1592802405 -0.3881084919 -0.1973783821 1.771655483e-38
-0.008844196796 -0.4217820764 0.343924731 1.771655483e-38
-0.1856282353 -0.4057512879 -0.2550623119 1.771655483e-38
-0.06174723059 -0.4721865058 0.2615008056 1.771655483e-38
0.1444538832 -0.3294506371 -0.2370797247 1.771655483e-38
0.1387647986 -0.4085937738 -0.2310012132 2.06466517e-38
0.1435051262 -0.3112606406 -0.1066558659 2.06466517e-38
0.05824976414 -0.252785176 -0.2390721142 2.06466517e-38
-0.2127066255 -0.3139308691 0.3190006614 2.06466517e-38
0.137203753 -0.3352316022 -0.08003841341 2.06466517e-38
-0.1289224774 -0.4488961101 0.3461397886 2.06466517e-38
0.05257136375 -0.470025301 -0.220741719 2.06466517e-38
-0.208815068 -0.2798296213 0.3095959723 2.06466517e-38
-0.2269479334 -0.4599003792 -0.1701376438 2.06466517e-38
-0.1620625705 -0.3650282621 0.4048290551 2.06466517e-38
-0.03163510934 -0.411565721 -0.2651694417 2.06466517e-38
0.1627406478 -0.2444633991 -0.1696051955 2.06466517e-38
-0.2139111161 -0.322640121 0.3886553347 2.06466517e-38
0.004814118147 -0.4217278957 0.2790134847 2.06466517e-38
-0.1017765999 -0.472363472 0.1611037254 2.06466517e-38
0.07312288135 -0.3844353557 -0.2622838616 2.06466517e-38
0.1451205313 -0.339168191 -0.1378643364 2.06466517e-38
-0.1235688701 -0.4737794399 -0.2530355752 2.06466517e-38
-0.01291497797 -0.4659529328 0.1179791987 2.06466517e-38
-0.06639498472 -0.315066129 -0.2529739141 2.06466517e-38
-0.2065803707 -0.3025363684 0.2918878496 2.06466517e-38
0.131587714 -0.3254558146 0.03668145835 2.06466517e-38
-0.1271276921 -0.4389665127 0.3725834191 2.06466517e-38
-0.125638783 -0.4736760259 0.1257680655 2.06466517e-38
0.08876091987 -0.3896028399 0.1922014952 2.06466517e-38
-0.1956143081 -0.4712721109 0.00928196311 2.06466517e-38
-0.2145733833 -0.4609956741 0.3371371329 2.06466517e-38
-0.06156587973 -0.3886181116 0.3849014044 2.06466517e-38
-0.1303413212 -0.3328012824 0.3940748572 2.06466517e-38
0.1576969922 -0.2771609426 -0.1587083936 2.06466517e-38
-0.2356392145 -0.4046763182 -0.08756337315 2.06466517e-38
-0.2363616228 -0.3947649002 -0.1285590678 2.06466517e-38
0.1170700863 -0.3086161017 0.2556090951 2.06466517e-38
0.1159756705 -0.3377089798 -0.2495008707 2.06466517e-38
0.1268819571 -0.2996122241 -0.2408216596 2.06466517e-38
-0.1442663968 -0.3688821197 0.4011214077 2.06466517e-38
0.01215630025 -0.4731438756 -0.2204984128 2.06466517e-38
0.1601822972 -0.2587658167 -0.183928743 2.06466517e-38
-0.05988990888 -0.3871641159 0.3848648965 2.06466517e-38
0.1469119191 -0.3472645283 -0.2167878896 2.06466517e-38
-0.2004391253 -0.302405417 0.1698798984 2.06466517e-38
-0.1307885945 -0.4727166295 0.1398696154 2.06466517e-38
-0.2373060882 -0.4127254486 -0.02261172235 2.06466517e-38
0.1361468732 -0.3060895801 -0.06186138839 2.06466517e-38
0.0009525194764 -0.4648256302 0.106584385 2.06466517e-38
-0.05573590472 -0.2534973025 -0.2445796132 2.06466517e-38
0.1356013715 -0.3189186454 -0.2433227599 2.06466517e-38
0.1529131234 -0.2633423209 -0.2246758789 2.06466517e-38
-0.2326006293 -0.3903715014 0.3136050105 2.06466517e-38
-0.0476965718 -0.3557065129 -0.2574783564 2.06466517e-38
-0.1995713413 -0.3129298091 0.03002880514 2.06466517e-38
0.09841059893 -0.4433574677 0.0002952851355 2.06466517e-38
-0.1577944458 -0.3712331355 -0.2592301369 2.06466517e-38
-0.1740209162 -0.4686277509 -0.183065325 2.06466517e-38
0.1073514894 -0.3193668127 0.2789717019 2.06466517e-38
-0.1562210172 -0.3431195319 -0.2564946413 2.06466517e-38
-0.06551767141 -0.2423225045 -0.2432144731 2.06466517e-38
-0.03594052047 -0.2895258367 -0.2497161627 2.06466517e-38
-0.1102625579 -0.4767737389 -0.09567284584 2.06466517e-38
-0.1675116718 -0.4358848333 0.3922871053 2.06466517e-38
-0.1001776606 -0.269321084 -0.2470045537 2.06466517e-38
-0.2385120988 -0.4327152967 -0.02094270475 2.06466517e-38
0.07544148713 -0.4656494856 -0.2336376309 2.06466517e-38
0.1574790776 -0.2396185845 -0.1990045011 2.06466517e-38
-0.2289874554 -0.3377096057 0.3579629064 2.06466517e-38
-0.2015997171 -0.3005055189 0.2646901608 2.06466517e-38
-0.09478139877 -0.2482286394 -0.2447328568 2.06466517e-38
-0.2299195826 -0.3746750355 -0.1101576239 2.06466517e-38
0.1451584101 -0.3656599522 -0.2111737132 2.06466517e-38
-0.2363597453 -0.4398551583 0.03337258101 2.06466517e-38
-0.1814865917 -0.4375501275 0.3945385516 2.06466517e-38
-0.09282234311 -0.4765849113 -0.2576957941 2.06466517e-38
-0.1418750286 -0.2877328396 0.3815803826 2.06466517e-38
-0.1967535019 -0.3045243025 -0.007898800075 2.06466517e-38
-0.01975823939 -0.235358119 -0.2401866466 2.06466517e-38
-0.1992336512 -0.2950478196 0.1763514429 2.06466517e-38
-0.1869317293 -0.2747920454 0.3743578494 2.06466517e-38
0.07750917226 -0.3566052616 0.2907710969 2.06466517e-38
-0.1665839255 -0.4676981568 -0.2475515455 2.06466517e-38
-0.018279396 -0.3012346029 0.354128629 2.06466517e-38
-0.158474341 -0.3345388174 -0.2554215193 2.06466517e-38
-0.2317853868 -0.4487543106 0.1501739472 2.06466517e-38
-0.1946931779 -0.2897851467 -0.05256149918 2.06466517e-38
-0.003267928958 -0.4758123159 -0.2509690225 2.06466517e-38
0.07985607535 -0.2592781782 -0.2428606451 2.06466517e-38
0.1313919723 -0.3008687794 0.07819728553 2.06466517e-38
-0.1030949503 -0.4767025709 0.03477726132 2.06466517e-38
-0.1808770001 -0.4783377051 0.1466950476 2.06466517e-38
-0.2385995686 -0.4475066662 -0.06634014845 2.06466517e-38
0.1472800076 -0.3015694916 -0.1173776984 2.06466517e-38
-0.08469843864 -0.2923599184 -0.2500591576 2.06466517e-38
0.1149501577 -0.4447335005 -0.1665902883 2.06466517e-38
0.1097517684 -0.3565079868 0.1909264326 2.06466517e-38
0.07823496312 -0.2508935928 -0.2402435392 2.06466517e-38
0.04557656497 -0.4565016627 0.09764054418 2.06466517e-38
-0.0696034953 -0.4161920547 0.3694147766 2.06466517e-38
-0.2173514366 -0.3605285883 0.117194742 2.06466517e-38
0.1366266608 -0.3327927589 -0.07566949725 2.06466517e-38
-0.2013788521 -0.324917078 0.1011297256 2.06466517e-38
-0.2013679147 -0.2974885106 -0.126483798 2.06466517e-38
0.07451804727 -0.2949503958 -0.2524416149 2.06466517e-38
-0.0127950348 -0.2341136634 -0.2394618243 2.06466517e-38
0.06208501011 -0.3720333576 0.2855651677 2.06466517e-38
-0.07694917172 -0.4770001173 0.01223022491 2.06466517e-38
0.02602371573 -0.2667241096 -0.2449255437 2.06466517e-38
-0.2234706879 -0.3715687096 0.4002057314 2.06466517e-38
-0.2298673987 -0.4069159627 0.2700435221 2.06466517e-38
0.03162526339 -0.4750010967 -0.2495115846 2.06466517e-38
-0.04811340198 -0.4757301211 -0.1464853883 2.06466517e-38
-0.2117678821 -0.2823908329 0.3408177197 2.06466517e-38
0.06257424504 -0.271759212 -0.2452412546 2.06466517e-38
-0.137814641 -0.4730496407 0.164029941 2.06466517e-38
0.1540259421 -0.2956247926 -0.1658405364 2.06466517e-38
0.1188314632 -0.3823234141 -0.2590425014 2.06466517e-38
0.1317118108 -0.3146560192 0.112311542 2.06466517e-38
-0.05554524064 -0.4765689373 -0.2089011967 2.06466517e-38
-0.114342615 -0.4778622985 -0.184164986 2.06466517e-38
-0.2052762508 -0.3071175516 0.2856675386 2.06466517e-38
-0.2228561044 -0.3653997779 0.02344792336 2.06466517e-38
-0.1843702793 -0.4385176897 0.3940134645 2.06466517e-38
0.01241357625 -0.3711397946 -0.2609086633 2.06466517e-38
-0.199106127 -0.3067699373 0.1240080297 2.06466517e-38
-0.01253770664 -0.3287732005 -0.2568740249 2.06466517e-38
0.1439639926 -0.3741953075 -0.2361156195 2.06466517e-38
-0.01717005298 -0.3939882517 0.3515478373 2.06466517e-38
-0.1894114614 -0.3918161392 -0.2653686702 2.06466517e-38
-0.101439029 -0.4550536871 0.2848031819 2.06466517e-38
0.1357487738 -0.3044515252 -0.2423667312 2.06466517e-38
0.1023912951 -0.409717083 -0.2370087951 2.348204041e-38
0.1343013644 -0.3129530847 -0.1096591726 2.348204041e-38
0.04233639687 -0.2544251382 -0.2433074713 2.348204041e-38
-0.2088147402 -0.2765748799 0.247613281 2.348204041e-38
0.1361959577 -0.3327636719 -0.07477839291 2.348204041e-38
-0.207986474 -0.4041618109 0.3940040469 2.348204041e-38
-0.05185700208 -0.459145844 -0.1321091503 2.348204041e-38
-0.2113566399 -0.2476425916 0.2461991906 2.348204041e-38
-0.2121530473 -0.378567189 -0.07948033512 2.348204041e-38
-0.1955240965 -0.3228543401 0.3862806857 2.348204041e-38
-0.0741147548 -0.4145658016 -0.2513976395 2.348204041e-38
0.1483181417 -0.2397142351 -0.1648011506 2.348204041e-38
-0.2274197936 -0.2867221832 0.34780249 2.348204041e-38
-0.1013475806 -0.4191589355 0.3494396806 2.348204041e-38
-0.2190563977 -0.4560492635 0.2702399492 2.348204041e-38
0.04872754961 -0.3875351548 -0.2725669742 2.348204041e-38
0.1320141852 -0.3408669233 -0.1414819211 2.348204041e-38
-0.166685164 -0.4535909891 -0.1817483008 2.348204041e-38
-0.1425653696 -0.4577250481 0.2333647907 2.348204041e-38
-0.07722010463 -0.3088980913 -0.2508203387 2.348204041e-38
-0.2062742412 -0.2688779235 0.2272827327 2.348204041e-38
0.1336733997 -0.3216103911 0.06220568717 2.348204041e-38
-0.1970447302 -0.3848153353 0.4035093784 2.348204041e-38
-0.2253356278 -0.4500706196 0.2316642702 2.348204041e-38
0.005699291825 -0.4032793045 0.2634848058 2.348204041e-38
-0.2082968056 -0.4036746621 0.09991760552 2.348204041e-38
-0.240557313 -0.3607472181 0.3377459049 2.348204041e-38
-0.1339199543 -0.3358380795 0.3806494772 2.348204041e-38
-0.1651429236 -0.3117818832 0.3722851574 2.348204041e-38
0.1463830173 -0.2725091875 -0.1563434005 2.348204041e-38
-0.2160291672 -0.3343087435 -0.05787767097 2.348204041e-38
-0.2162999809 -0.3343052268 -0.09115742147 2.348204041e-38
0.06003463268 -0.3420166075 0.307913065 2.348204041e-38
0.1120422557 -0.3450807333 -0.2620671988 2.348204041e-38
0.1186338589 -0.2986645699 -0.249584645 2.348204041e-38
-0.1831434667 -0.3283597827 0.3863884509 2.348204041e-38
-0.09481665492 -0.4593487382 -0.1237154901 2.348204041e-38
0.1464862227 -0.2537250221 -0.1810776591 2.348204041e-38
-0.1318398267 -0.3347809911 0.3799574077 2.348204041e-38
0.1288786232 -0.3523459136 -0.2250584215 2.348204041e-38
-0.1953946948 -0.2642372847 0.118579179 2.348204041e-38
-0.2281863093 -0.4448572397 0.2425905466 2.348204041e-38
-0.2128758132 -0.3340089023 -0.004734095186 2.348204041e-38
0.13710621 -0.30435431 -0.06538305432 2.348204041e-38
-0.1263538003 -0.4569072723 0.2186681926 2.348204041e-38
-0.06319227815 -0.243666172 -0.246347785 2.348204041e-38
0.1249070093 -0.3203191757 -0.2483242005 2.348204041e-38
0.1388027668 -0.2660383582 -0.2208545357 2.348204041e-38
-0.2047801614 -0.3189538121 0.2593677044 2.348204041e-38
-0.07327371836 -0.3511143327 -0.2500559688 2.348204041e-38
-0.1903946996 -0.2729435265 -0.002399865538 2.348204041e-38
0.01842787862 -0.4337522984 0.0763989836 2.348204041e-38
-0.1668515801 -0.3873422742 -0.2446632683 2.348204041e-38
-0.1996417046 -0.4251326323 -0.07216069847 2.348204041e-38
0.04505221546 -0.3359006643 0.3267248571 2.348204041e-38
-0.1586755514 -0.3510507345 -0.2509592175 2.348204041e-38
-0.06857288629 -0.2302633077 -0.2442163974 2.348204041e-38
-0.05072402582 -0.2850219309 -0.2529295087 2.348204041e-38
-0.1911645234 -0.4588093162 0.03616011143 2.348204041e-38
-0.2218334675 -0.3636204004 0.4027686119 2.348204041e-38
-0.09692306817 -0.2513255775 -0.246234417 2.348204041e-38
-0.2131478786 -0.3444303572 0.01508218795 2.348204041e-38
-0.01506929845 -0.4570803642 -0.1710455865 2.348204041e-38
0.1441358924 -0.2403693348 -0.1982556283 2.348204041e-38
-0.2154632211 -0.2906575203 0.2906496823 2.348204041e-38
-0.2028668523 -0.2658509612 0.2036841214 2.348204041e-38
-0.09059051424 -0.2297977209 -0.2442068309 2.348204041e-38
-0.212780565 -0.3253369927 -0.07938458025 2.348204041e-38
0.1248612478 -0.370265305 -0.2170058191 2.348204041e-38
-0.2108566761 -0.3500576615 0.06560463458 2.348204041e-38
-0.2328926325 -0.3596710563 0.4000711143 2.348204041e-38
-0.1427850425 -0.4577049613 -0.19730708 2.348204041e-38
-0.1611588597 -0.2716032267 0.3544349074 2.348204041e-38
-0.1892125309 -0.2678774595 -0.03626919538 2.348204041e-38
-0.04105023295 -0.2310228497 -0.2440142483 2.348204041e-38
-0.1952033937 -0.2546209693 0.1197213382 2.348204041e-38
-0.1944300234 -0.2576653063 0.3405939937 2.348204041e-38
-0.008046042174 -0.3578279316 0.3413474858 2.348204041e-38
-0.1929824948 -0.4302177429 -0.1548548043 2.348204041e-38
-0.06067528948 -0.2970468998 0.3346511424 2.348204041e-38
-0.1586902142 -0.3413137794 -0.2524537742 2.348204041e-38
-0.2022131979 -0.3516895771 0.166191414 2.348204041e-38
-0.1865375936 -0.2621533275 -0.07437828928 2.348204041e-38
-0.09407700598 -0.4632180929 -0.1888730675 2.348204041e-38
0.06898901612 -0.2630636692 -0.2465210706 2.348204041e-38
0.1346692443 -0.3004753292 0.1023946106 2.348204041e-38
-0.2079471648 -0.461342454 0.151071623 2.348204041e-38
-0.2259081006 -0.4054794908 0.2047181726 2.348204041e-38
-0.2138295472 -0.3510121107 -0.01044110209 2.348204041e-38
0.1360379755 -0.3027083576 -0.119107917 2.348204041e-38
-0.08473617584 -0.2778003216 -0.2500618994 2.348204041e-38
0.03029362857 -0.4423636198 -0.1226561591 2.348204041e-38
0.04869030416 -0.3786822259 0.2504605055 2.348204041e-38
0.06577219814 -0.2549988329 -0.2444850355 2.348204041e-38
-0.05958389863 -0.4506126642 0.1999725401 2.348204041e-38
-0.150559783 -0.364343673 0.3895049095 2.348204041e-38
-0.1935284138 -0.3096292019 0.09237398207 2.348204041e-38
0.136328876 -0.330204159 -0.06960289925 2.348204041e-38
-0.1916000545 -0.2832467854 0.07095122337 2.348204041e-38
-0.1874629259 -0.2683749199 -0.1303939223 2.348204041e-38
0.06419958919 -0.2954648733 -0.2553884685 2.348204041e-38
-0.03508621454 -0.2298052609 -0.2437025011 2.348204041e-38
-0.0312993899 -0.3794712424 0.3382412791 2.348204041e-38
-0.1975085437 -0.4678958058 0.1378420293 2.348204041e-38
0.0009047910571 -0.2635004222 -0.2483372539 2.348204041e-38
-0.2351819873 -0.3082562685 0.3608884513 2.348204041e-38
-0.2008948922 -0.326508522 0.2273712158 2.348204041e-38
-0.0666462481 -0.4628321528 -0.1882125437 2.348204041e-38
-0.1552690864 -0.4646525383 -0.0181376338 2.348204041e-38
-0.212171495 -0.2550744116 0.2770006657 2.348204041e-38
0.04982379824 -0.27286461 -0.2480562478 2.348204041e-38
-0.2313969731 -0.4384315014 0.2606784105 2.348204041e-38
0.1438044012 -0.2926715314 -0.1643782109 2.348204041e-38
0.1065891013 -0.3854629993 -0.2700369954 2.348204041e-38
0.1177523956 -0.3237266839 0.1507358998 2.348204041e-38
-0.1406974494 -0.462798059 -0.1060767695 2.348204041e-38
-0.1796374023 -0.4580734372 -0.05967732519 2.348204041e-38
-0.2045681775 -0.2725098133 0.2223508358 2.348204041e-38
-0.2022358775 -0.3164169192 0.01454715431 2.348204041e-38
-0.2347529233 -0.3592780232 0.3995470703 2.348204041e-38
-0.01422026753 -0.3749040961 -0.2601011395 2.348204041e-38
-0.1935522556 -0.2685271502 0.07923902571 2.348204041e-38
-0.03366043419 -0.332752943 -0.2555930018 2.348204041e-38
0.123446323 -0.3764011264 -0.2423257083 2.348204041e-38
-0.09586077929 -0.3517841697 0.3769590557 2.348204041e-38
-0.1986143887 -0.4025135636 -0.2200486362 2.348204041e-38
-0.2053945661 -0.4285496473 0.3624979258 2.348204041e-38
0.12604931 -0.3057823181 -0.2462816089 2.348204041e-38
0.05006833375 -0.4201746583 -0.2551817596 2.346801622e-38
0.1142170951 -0.3511927128 -0.1709558666 2.346801622e-38
-0.003394495696 -0.2447719276 -0.2378510684 2.346801622e-38
-0.1960936189 -0.2863436639 0.1849148721 2.346801622e-38
0.1075552031 -0.3717621565 -0.1385839731 2.346801622e-38
-0.2595475316 -0.381259799 0.3783317506 2.346801622e-38
-0.1094405055 -0.4565499425 -0.1201860011 2.346801622e-38
-0.2007448375 -0.2544085979 0.1816628277 2.346801622e-38
-0.2077004313 -0.3551543057 -0.08383360505 2.346801622e-38
-0.2412691414 -0.3140397668 0.3537438214 2.346801622e-38
-0.1045996696 -0.4134780169 -0.2317369133 2.346801622e-38
0.1377426982 -0.2540143132 -0.1898613125 2.346801622e-38
-0.2189565599 -0.2866685987 0.2828342021 2.346801622e-38
-0.2005056143 -0.4205850363 0.3725350201 2.346801622e-38
-0.2345772982 -0.4318686128 0.2314042747 2.346801622e-38
-0.0003594085574 -0.3822602332 -0.2610294819 2.346801622e-38
0.105913721 -0.3733751178 -0.2011232078 2.346801622e-38
-0.174355343 -0.4310492873 -0.1515734792 2.346801622e-38
-0.2082183063 -0.4615365267 0.224744767 2.346801622e-38
-0.101618588 -0.3004997969 -0.2386226356 2.346801622e-38
-0.193778038 -0.2795464098 0.1598253101 2.346801622e-38
0.09918979555 -0.3761701882 0.02040219307 2.346801622e-38
-0.258456707 -0.3616657853 0.3900731206 2.346801622e-38
-0.2238867283 -0.4168093801 0.1858221591 2.346801622e-38
-0.09649852663 -0.4412520528 0.2844600976 2.346801622e-38
-0.1960095167 -0.3768047988 0.07671220601 2.346801622e-38
-0.2151098549 -0.3503863215 0.2703811228 2.346801622e-38
-0.2035114467 -0.3457434773 0.3742033541 2.346801622e-38
-0.2183282077 -0.3124362826 0.3473215699 2.346801622e-38
0.1352618933 -0.2917400002 -0.1962443888 2.346801622e-38
-0.2063127756 -0.3281483054 -0.07803875208 2.346801622e-38
-0.2071268857 -0.3293340206 -0.1109523475 2.346801622e-38
-0.02207807824 -0.3906914592 0.3067013025 2.346801622e-38
0.07563475519 -0.3373754323 -0.2524058819 2.346801622e-38
0.09141623229 -0.2990583181 -0.2424493134 2.346801622e-38
-0.2395777106 -0.322101295 0.3612695038 2.346801622e-38
-0.1354602873 -0.4580131769 -0.1115782112 2.346801622e-38
0.1348789632 -0.2644706368 -0.196903497 2.346801622e-38
-0.2024624646 -0.3450714946 0.3738834262 2.346801622e-38
0.101426743 -0.3690589666 -0.2486355305 2.346801622e-38
-0.1818385273 -0.2764573395 0.03355412185 2.346801622e-38
-0.224573791 -0.4133069515 0.194973439 2.346801622e-38
-0.2029832602 -0.3263879418 -0.03382706642 2.346801622e-38
0.1171011552 -0.3480994701 -0.1213425994 2.346801622e-38
-0.1998068094 -0.4629853964 0.2130782902 2.346801622e-38
-0.07588609308 -0.2363872975 -0.2373180985 2.346801622e-38
0.09763789922 -0.3205422461 -0.2449622005 2.346801622e-38
0.1191819236 -0.2623385489 -0.2221691906 2.346801622e-38
-0.1880939007 -0.3205830455 0.1924769282 2.346801622e-38
-0.09875312448 -0.3442806304 -0.2393551767 2.346801622e-38
-0.1786386669 -0.2847834229 -0.06277045608 2.346801622e-38
-0.07714752853 -0.445338428 0.05490788817 2.346801622e-38
-0.179886505 -0.3866334558 -0.2219676524 2.346801622e-38
-0.1915790141 -0.4000617862 -0.06413853914 2.346801622e-38
-0.03883139789 -0.3822979629 0.326092869 2.346801622e-38
-0.1688408852 -0.3625548482 -0.2392331958 2.346801622e-38
-0.08045294881 -0.2229715288 -0.2352279872 2.346801622e-38
-0.07267711312 -0.2763856649 -0.2416766584 2.346801622e-38
-0.1937355995 -0.4282246232 0.03436289728 2.346801622e-38
-0.256667465 -0.3458773494 0.3746245503 2.346801622e-38
-0.1188648492 -0.2418269217 -0.2368234843 2.346801622e-38
-0.2044749558 -0.3325083554 -0.01958892494 2.346801622e-38
-0.07916821539 -0.458691895 -0.1544297338 2.346801622e-38
0.1322941482 -0.2428877652 -0.2020206749 2.346801622e-38
-0.2004679441 -0.2988131046 0.2271726429 2.346801622e-38
-0.1905609071 -0.2780411839 0.1315475851 2.346801622e-38
-0.1064662039 -0.2200947851 -0.2318312228 2.346801622e-38
-0.2043601274 -0.3198978007 -0.107761398 2.346801622e-38
0.09733932465 -0.3904314041 -0.250143975 2.346801622e-38
-0.2005662322 -0.337003082 0.02123724669 2.346801622e-38
-0.2545940578 -0.3426353335 0.3646083772 2.346801622e-38
-0.1589366198 -0.4473321438 -0.1650918126 2.346801622e-38
-0.1973784566 -0.2798276544 0.3140664697 2.346801622e-38
-0.1775758862 -0.2800636292 -0.09175005555 2.346801622e-38
-0.05749529228 -0.2273122072 -0.2370636612 2.346801622e-38
-0.1823154688 -0.2702023387 0.0357022956 2.346801622e-38
-0.2135483921 -0.2531113029 0.2753452361 2.346801622e-38
-0.09994144738 -0.3955650926 0.3498077691 2.346801622e-38
-0.1957320273 -0.3961530328 -0.1309401095 2.346801622e-38
-0.1486350298 -0.3180373907 0.3347631395 2.346801622e-38
-0.1685784757 -0.3522800207 -0.2406992614 2.346801622e-38
-0.1936507821 -0.3403318524 0.1210721582 2.346801622e-38
-0.1755228043 -0.2733592987 -0.1273406595 2.346801622e-38
-0.1281116009 -0.4578244686 -0.1619984806 2.346801622e-38
0.0193683207 -0.2548467815 -0.2391393185 2.346801622e-38
0.1075557694 -0.3579232395 0.06090577692 2.346801622e-38
-0.2147274315 -0.4287590384 0.1256655008 2.346801622e-38
-0.2007972896 -0.3787671626 0.163643539 2.346801622e-38
-0.2079446018 -0.3386366367 -0.04175510257 2.346801622e-38
0.1181965843 -0.3365736604 -0.1817350537 2.346801622e-38
-0.1098235995 -0.2701077163 -0.2387135476 2.346801622e-38
-0.04020478204 -0.4518796206 -0.133161962 2.346801622e-38
-0.04356354102 -0.4272864461 0.2596717179 2.346801622e-38
0.01683951169 -0.2463443875 -0.2367253602 2.346801622e-38
-0.1617904902 -0.4591200352 0.1983411312 2.346801622e-38
-0.2204708457 -0.3617500067 0.3849260509 2.346801622e-38
-0.1859779656 -0.3083730042 0.02897490561 2.346801622e-38
0.1086298749 -0.3698727787 -0.1336474121 2.346801622e-38
-0.1810621023 -0.2856434584 -0.003293916583 2.346801622e-38
-0.1818598062 -0.2791370153 -0.1750902832 2.346801622e-38
0.01496967673 -0.2858805954 -0.2486602068 2.346801622e-38
-0.05478651822 -0.2265923321 -0.2369834632 2.346801622e-38
-0.1297647357 -0.4110185504 0.3542097211 2.346801622e-38
-0.2124868333 -0.4456378222 0.1129932106 2.346801622e-38
-0.03159646317 -0.2558183968 -0.2440853566 2.346801622e-38
-0.2227828503 -0.3057408333 0.2975913286 2.346801622e-38
-0.1858962625 -0.3231052756 0.1661377251 2.346801622e-38
-0.1128883734 -0.4602011442 -0.1647695452 2.346801622e-38
-0.1803142726 -0.4594172835 -0.01581851766 2.346801622e-38
-0.2077905238 -0.2557947636 0.2177396417 2.346801622e-38
0.003197774291 -0.2632938325 -0.243533656 2.346801622e-38
-0.2260347903 -0.4084509611 0.2108659446 2.346801622e-38
0.1249259487 -0.3134747148 -0.2087774873 2.346801622e-38
0.06085210294 -0.3829038143 -0.2623868585 2.346801622e-38
0.07023905963 -0.3823476732 0.1271909475 2.346801622e-38
-0.1641776711 -0.457228601 -0.08305036277 2.346801622e-38
-0.1826271713 -0.4328397512 -0.05050290748 2.346801622e-38
-0.1924878955 -0.2824269533 0.1542066187 2.346801622e-38
-0.1943833828 -0.3122420311 -0.02794805914 2.346801622e-38
-0.2536228895 -0.3425508738 0.3621177375 2.346801622e-38
-0.05481617153 -0.3704281747 -0.2423274219 2.346801622e-38
-0.1797748804 -0.2806340456 -0.001205187291 2.346801622e-38
-0.06284989417 -0.3223767281 -0.2424001843 2.346801622e-38
0.09177970141 -0.3846087456 -0.2568432689 2.346801622e-38
-0.1847569644 -0.3724174201 0.3805858791 2.346801622e-38
-0.2006816566 -0.3877121806 -0.188158378 2.346801622e-38
-0.2527173162 -0.4132534266 0.3434820771 2.346801622e-38
0.09867269546 -0.3032083511 -0.2403176874 2.346801622e-38
-0.03815788776 -0.4322763681 -0.2188541591 2.345219836e-38
0.08524606377 -0.3529743254 -0.1461367309 2.345219836e-38
-0.04569028318 -0.24026227 -0.2556566596 2.345219836e-38
-0.2040962875 -0.2551535666 0.1577006429 2.345219836e-38
0.04869297147 -0.3819970489 -0.0700096041 2.345219836e-38
-0.2588617802 -0.3425397277 0.3514188528 2.345219836e-38
-0.1942139566 -0.4653602839 -0.0190833956 2.345219836e-38
-0.206938386 -0.2319594026 0.161575228 2.345219836e-38
-0.215418458 -0.3379704952 -0.09974912554 2.345219836e-38
-0.236964047 -0.2975623608 0.3284491599 2.345219836e-38
-0.1484384239 -0.4277077913 -0.2431875318 2.345219836e-38
0.1158612445 -0.2618031502 -0.1921028346 2.345219836e-38
-0.2221648693 -0.2609341741 0.2616281509 2.345219836e-38
-0.2218220532 -0.3669752479 0.3736182153 2.345219836e-38
-0.24243325 -0.3805831075 0.2586604655 2.345219836e-38
-0.06604854017 -0.4038974643 -0.2602133155 2.345219836e-38
0.05705291033 -0.3821899891 -0.1771036088 2.345219836e-38
-0.2001358271 -0.4055549502 -0.1318208277 2.345219836e-38
-0.2547234893 -0.4249989986 0.2978408337 2.345219836e-38
-0.1415285766 -0.2982434034 -0.256959945 2.345219836e-38
-0.2029051185 -0.248089239 0.1315626651 2.345219836e-38
0.01581495255 -0.4072702527 0.1342352629 2.345219836e-38
-0.2526949346 -0.3388772607 0.3485387862 2.345219836e-38
-0.2212721407 -0.3717927933 0.2030282915 2.345219836e-38
-0.149792403 -0.4189689755 0.345736146 2.345219836e-38
-0.2028568983 -0.3508503437 0.07484637201 2.345219836e-38
-0.215844214 -0.3288109004 0.2461026311 2.345219836e-38
-0.2058938146 -0.3273882866 0.3482552171 2.345219836e-38
-0.209273845 -0.2982369065 0.3313580155 2.345219836e-38
0.1069400534 -0.3001722097 -0.1999052316 2.345219836e-38
-0.2085647583 -0.3086703122 -0.1100412458 2.345219836e-38
-0.2102500498 -0.3094554543 -0.1460539997 2.345219836e-38
-0.05594837293 -0.3588521481 0.3301155567 2.345219836e-38
0.01041842252 -0.3442175984 -0.2701794207 2.345219836e-38
0.04457531869 -0.3016400635 -0.2618152499 2.345219836e-38
-0.2351488471 -0.3044323921 0.3354326487 2.345219836e-38
-0.1974968612 -0.4629750252 -0.03325421363 2.345219836e-38
0.1094154194 -0.2727656066 -0.2050333917 2.345219836e-38
-0.2043074667 -0.3272268176 0.3478652239 2.345219836e-38
0.05104992539 -0.3803043365 -0.2548775971 2.345219836e-38
-0.1897410154 -0.2613508403 0.004600293934 2.345219836e-38
-0.2206427455 -0.3661625981 0.2080973685 2.345219836e-38
-0.2063265443 -0.3069736063 -0.06353771687 2.345219836e-38
0.0901883617 -0.3573210537 -0.06938872486 2.345219836e-38
-0.2491849959 -0.4329816103 0.2939805686 2.345219836e-38
-0.1174555868 -0.2164744139 -0.2473127991 2.345219836e-38
0.05372876674 -0.3347721696 -0.2656689882 2.345219836e-38
0.0826620236 -0.2724178135 -0.2370547056 2.345219836e-38
-0.1993088722 -0.2979171276 0.1772089005 2.345219836e-38
-0.1383618116 -0.3514083624 -0.2577326894 2.345219836e-38
-0.1838001013 -0.2690111399 -0.09341347218 2.345219836e-38
-0.1803170443 -0.4660601616 0.1948115677 2.345219836e-38
-0.2023847401 -0.3844766617 -0.2228898853 2.345219836e-38
-0.2064830065 -0.3635141253 -0.06281971186 2.345219836e-38
-0.06782183796 -0.3451294303 0.3298167586 2.345219836e-38
-0.1975684166 -0.3731945157 -0.2412724197 2.345219836e-38
-0.1187357455 -0.2012937814 -0.2448369563 2.345219836e-38
-0.1148775965 -0.2664424479 -0.2527850568 2.345219836e-38
-0.2065449357 -0.3980951309 0.06488399953 2.345219836e-38
-0.2535282373 -0.3270569444 0.340806812 2.345219836e-38
-0.1487490237 -0.2297524512 -0.2544409633 2.345219836e-38
-0.2079904675 -0.3114326 -0.0445095636 2.345219836e-38
-0.1750379801 -0.4603385329 -0.04986701906 2.345219836e-38
0.1034278944 -0.251724571 -0.2103586346 2.345219836e-38
-0.2096045315 -0.2757528126 0.203700453 2.345219836e-38
-0.2003200948 -0.2491952479 0.1021317393 2.345219836e-38
-0.1404104531 -0.1991997659 -0.2478388846 2.345219836e-38
-0.2075001299 -0.304187119 -0.1483978331 2.345219836e-38
0.03336795419 -0.397710979 -0.2452552468 2.345219836e-38
-0.20463112 -0.3149060011 0.002484381199 2.345219836e-38
-0.2501488626 -0.3255984783 0.3338030279 2.345219836e-38
-0.1901533306 -0.4322084188 -0.1387179047 2.345219836e-38
-0.1844459176 -0.2574667335 0.2987070382 2.345219836e-38
-0.1822698563 -0.263404727 -0.1240847334 2.345219836e-38
-0.0909852311 -0.2105947435 -0.2477011383 2.345219836e-38
-0.1912225783 -0.2568274736 0.005514286458 2.345219836e-38
-0.2096927762 -0.2354096919 0.2542406023 2.345219836e-38
-0.1247559935 -0.3495280147 0.3452112079 2.345219836e-38
-0.208461374 -0.3707678318 -0.1293456405 2.345219836e-38
-0.1500919014 -0.3040400743 0.3269653916 2.345219836e-38
-0.1973511279 -0.3687244356 -0.2447059304 2.345219836e-38
-0.1931820512 -0.3176571131 0.1030651182 2.345219836e-38
-0.1810094714 -0.2559649944 -0.1586622 2.345219836e-38
-0.1828292757 -0.4628064632 -0.1076896936 2.345219836e-38
-0.02824122459 -0.2505405247 -0.2568811774 2.345219836e-38
0.03128720075 -0.393945694 0.1698639542 2.345219836e-38
-0.2205423415 -0.395470202 0.1586809754 2.345219836e-38
-0.2019114494 -0.3516575098 0.1534943283 2.345219836e-38
-0.2106255591 -0.3177704811 -0.06358990818 2.345219836e-38
0.09429799765 -0.3388214111 -0.168459475 2.345219836e-38
-0.1457851231 -0.2628605962 -0.2556487918 2.345219836e-38
-0.1418173015 -0.4563429356 -0.002530038357 2.345219836e-38
-0.1073105633 -0.4171048999 0.3243506551 2.345219836e-38
-0.0298232846 -0.2422777861 -0.2564341426 2.345219836e-38
-0.23005867 -0.442546308 0.2969205976 2.345219836e-38
-0.222861439 -0.336766392 0.353972435 2.345219836e-38
-0.1932781637 -0.2850116193 0.005231823772 2.345219836e-38
0.05138456076 -0.380669117 -0.06377049536 2.345219836e-38
-0.1872340441 -0.2735525668 -0.0303483177 2.345219836e-38
-0.1880161911 -0.2632494569 -0.2050457299 2.345219836e-38
-0.03332408518 -0.288444519 -0.2616654634 2.345219836e-38
-0.08637589961 -0.2110046148 -0.2478575557 2.345219836e-38
-0.1547034681 -0.3647756577 0.3535075188 2.345219836e-38
-0.2300615609 -0.4105271101 0.1656043082 2.345219836e-38
-0.06495200843 -0.2550064921 -0.2543011904 2.345219836e-38
-0.2255162597 -0.2859797478 0.2695103586 2.345219836e-38
-0.1933810711 -0.3009998202 0.151033923 2.345219836e-38
-0.1826925576 -0.4669147134 -0.09532669187 2.345219836e-38
-0.2112506926 -0.4299142957 0.04589292407 2.345219836e-38
-0.2110012472 -0.2320008427 0.1960413754 2.345219836e-38
-0.04285106808 -0.2600462437 -0.256981343 2.345219836e-38
-0.220743686 -0.3608266711 0.2185166776 2.345219836e-38
0.0972565487 -0.3215146065 -0.2133276314 2.345219836e-38
-0.01089886203 -0.3959087729 -0.2666618526 2.345219836e-38
-0.01652771235 -0.4193922281 0.2326693535 2.345219836e-38
-0.1976225078 -0.4382902384 -0.03579105437 2.345219836e-38
-0.1982063055 -0.4037724137 -0.02532339841 2.345219836e-38
-0.2016126812 -0.251413703 0.1243938953 2.345219836e-38
-0.1996542215 -0.2918030322 -0.05919794738 2.345219836e-38
-0.2490442395 -0.3257642984 0.3315677643 2.345219836e-38
-0.1101254821 -0.3832352161 -0.2542316318 2.345219836e-38
-0.1858178675 -0.2636935711 -0.03113770857 2.345219836e-38
-0.1089176983 -0.324442178 -0.2568503022 2.345219836e-38
0.02413325757 -0.3925640583 -0.2618528903 2.345219836e-38
-0.1922232211 -0.3371227384 0.3512643278 2.345219836e-38
-0.2122252584 -0.3787919283 -0.2044553161 2.345219836e-38
-0.262917608 -0.3581808805 0.3479416668 2.345219836e-38
0.05873724073 -0.3182328939 -0.2622512281 2.345219836e-38
-0.1134802401 -0.4488524795 -0.1638960689 2.343458544e-38
0.006620526314 -0.3786419034 -0.1272653937 2.343458544e-38
-0.0793517828 -0.2309532911 -0.251291126 2.343458544e-38
-0.2059189379 -0.245850116 0.1259066015 2.343458544e-38
-0.05527853966 -0.4100043774 -0.02628585696 2.343458544e-38
-0.2516898215 -0.3216326535 0.3217000961 2.343458544e-38
-0.2169633806 -0.4562394023 0.01789262146 2.343458544e-38
-0.2097800374 -0.2293677628 0.1308182776 2.343458544e-38
-0.217297852 -0.3299311996 -0.1147987247 2.343458544e-38
-0.2432340682 -0.2701003551 0.313131243 2.343458544e-38
-0.1785553545 -0.4249398112 -0.2344835401 2.343458544e-38
0.08059058338 -0.2656077743 -0.1912118196 2.343458544e-38
-0.2265571952 -0.2374974489 0.2380479276 2.343458544e-38
-0.2562527359 -0.3447990119 0.3512896299 2.343458544e-38
-0.2196033597 -0.3444786668 0.2251604795 2.343458544e-38
-0.1213188842 -0.4163357615 -0.2479676753 2.343458544e-38
-0.02899633348 -0.3974156976 -0.1458268464 2.343458544e-38
-0.2104080915 -0.3779743314 -0.1237304211 2.343458544e-38
-0.2588727772 -0.3783024848 0.2920149565 2.343458544e-38
-0.1670842171 -0.2943066657 -0.2606590986 2.343458544e-38
-0.2037016153 -0.2426759005 0.1005274504 2.343458544e-38
-0.08827289194 -0.4453522563 0.1828136146 2.343458544e-38
-0.252299726 -0.3109705448 0.3320872486 2.343458544e-38
-0.2092030048 -0.3406147957 0.17799972 2.343458544e-38
-0.2201715112 -0.3967937231 0.3563701808 2.343458544e-38
-0.20908916 -0.3224719763 0.05486293882 2.343458544e-38
-0.2166648209 -0.3034032285 0.2234575748 2.343458544e-38
-0.2473641336 -0.303833127 0.33992818 2.343458544e-38
-0.2392956614 -0.2652294934 0.3192910254 2.343458544e-38
0.0665364787 -0.3005663753 -0.2060310543 2.343458544e-38
