# .PCD v0.7 - Point Cloud Data file format
VERSION 0.7
FIELDS x y z rgb
SIZE 4 4 4 4
TYPE F F F F
COUNT 1 1 1 1
WIDTH 828
HEIGHT 1
VIEWPOINT 0 0 0 1 0 0 0
POINTS 828
DATA ascii
-0.4586772323 -0.4337076545 -0.1380677372 8.742304551e-39
-0.3578025103 -0.426817745 -0.02572477981 8.742304551e-39
-0.1389889121 -0.4854868352 -0.07970677316 8.742304551e-39
-0.1933556795 -0.4895347655 -0.01466844976 8.742304551e-39
0.00155255571 -0.4871090353 -0.0722631216 8.742304551e-39
-0.4184202552 -0.3809778094 -0.1420120746 8.742304551e-39
-0.1112184674 -0.2874933481 -0.1348842531 8.742304551e-39
-0.3477043808 -0.3904100657 -0.1159722656 8.742304551e-39
-0.2658798993 -0.3264326751 -0.1457552165 8.742304551e-39
-0.1915269345 -0.3630854487 -0.152998507 8.742304551e-39
-0.05722808838 -0.3275490999 -0.1393238306 8.742304551e-39
-0.3195541501 -0.198967725 -0.1444914937 8.742304551e-39
0.002112731338 -0.1748319864 0.02663499862 8.742304551e-39
-0.3459828198 -0.431882441 -0.1632984728 8.742304551e-39
-0.03531918675 -0.1508089453 -0.1168811321 8.742304551e-39
-0.1545545012 -0.338924706 -0.1372862607 8.742304551e-39
0.02043672279 -0.1741500795 0.04053775594 8.742304551e-39
-0.361645788 -0.4863781035 -0.06810973585 8.742304551e-39
-0.1161385179 -0.2222606838 -0.02531877905 8.742304551e-39
-0.04928547144 -0.1511619687 -0.1225072891 8.742304551e-39
-0.07562463731 -0.1577346027 -0.1491682231 8.742304551e-39
-0.1706958413 -0.1716338694 -0.110338971 8.742304551e-39
0.0682388097 -0.4667269886 -0.1623381823 8.742304551e-39
-0.3393149972 -0.2927306592 -0.1438495666 8.742304551e-39
-0.01787868515 -0.1527573913 -0.1348436922 8.742304551e-39
-0.3622587919 -0.2431235313 -0.1432804316 8.742304551e-39
-0.274864614 -0.2921769619 -0.131583795 8.742304551e-39
0.03032882139 -0.1900453866 -0.1504024863 8.742304551e-39
-0.1408737898 -0.2496884763 -0.1348299384 8.742304551e-39
-0.449549973 -0.3639900982 -0.1596731097 8.742304551e-39
-0.470353812 -0.3916880786 -0.1667302102 8.742304551e-39
-0.08141675591 -0.158414185 -0.09145088494 8.742304551e-39
-0.3482827842 -0.4807755947 -0.04096664861 8.742304551e-39
-0.353974849 -0.2367517203 -0.1493742168 8.742304551e-39
-0.2839401364 -0.4884239733 -0.05387621745 8.742304551e-39
-0.3753302097 -0.4791590869 -0.1605474353 8.742304551e-39
0.01666551456 -0.3747775257 -0.1402961612 8.742304551e-39
-0.1396459341 -0.3832933605 -0.1448776871 8.742304551e-39
-0.2525422275 -0.3105377853 -0.1441690922 8.742304551e-39
-0.03178991005 -0.1672806889 -0.03651731834 8.742304551e-39
-0.1344572753 -0.4886812866 -0.02141614258 8.742304551e-39
-0.03543033451 -0.1971094012 -0.1508883238 8.742304551e-39
0.06021818146 -0.2757928371 -0.1496439278 8.742304551e-39
-0.2043439597 -0.4843460321 -0.0900156498 8.742304551e-39
0.01518280432 -0.1929257661 0.09409713 8.742304551e-39
-0.3057084382 -0.2061271071 -0.1424606293 8.742304551e-39
-0.1451442689 -0.309127748 -0.1355828196 8.742304551e-39
0.1908046901 -0.1669248939 -0.1292477399 8.742304551e-39
-0.261649549 -0.4795038104 -0.1255787313 8.742304551e-39
-0.02422662079 -0.224742949 -0.1458487958 8.742304551e-39
-0.3047258854 -0.2335596383 -0.1380381882 8.742304551e-39
0.007936730981 -0.1940858662 0.09079643339 8.742304551e-39
-0.4387610257 -0.4433609545 -0.1074032187 8.742304551e-39
-0.1534980386 -0.2076222897 -0.08029575646 8.742304551e-39
-0.2808709741 -0.3217288554 -0.1344870478 8.742304551e-39
-0.3584362268 -0.4867092371 -0.06902332604 8.742304551e-39
0.02405829355 -0.3228860795 -0.1452688426 8.742304551e-39
-0.02697411366 -0.2049088776 0.08421081305 8.742304551e-39
-0.125002563 -0.1949537992 -0.05428238586 8.742304551e-39
-0.4940326214 -0.4339157343 -0.1770833582 8.742304551e-39
-0.1989480555 -0.4854424 -0.07954013348 8.742304551e-39
-0.1691116393 -0.1515343785 -0.1383043677 8.742304551e-39
-0.1063339561 -0.2097816467 0.002236373723 8.742304551e-39
-0.003111608326 -0.2082521617 0.1051743329 8.742304551e-39
-0.2743765712 -0.1700993329 -0.1418288946 8.742304551e-39
-0.355226934 -0.4094828367 -0.08263397217 8.742304551e-39
-0.06025941297 -0.2269266844 -0.1437382698 8.742304551e-39
-0.06857345998 -0.335028857 -0.1396163851 8.742304551e-39
-0.3905177414 -0.4400672913 -0.1670321822 8.742304551e-39
-0.2179273963 -0.4895153046 -0.01193318889 8.742304551e-39
0.02052054182 -0.2452782094 -0.1490096301 8.742304551e-39
-0.4777422547 -0.4089519382 -0.1780980527 8.742304551e-39
-0.3142074347 -0.3686455786 -0.1506748796 8.742304551e-39
-0.318033129 -0.2253683507 -0.1399311572 8.742304551e-39
0.1011860371 -0.4905065596 -0.06627595425 8.742304551e-39
-0.03858734667 -0.3456190526 -0.1389046758 8.742304551e-39
-0.1369758993 -0.2112093866 -0.1366543919 8.742304551e-39
-0.1554762572 -0.2747775316 -0.1379885375 8.742304551e-39
-0.01003142446 -0.3337949216 -0.1394618899 8.742304551e-39
0.0750567615 -0.2071500421 -0.1505891383 8.742304551e-39
-0.1376907527 -0.191605866 -0.07162368298 8.742304551e-39
-0.1268521547 -0.4348669052 -0.1622132361 8.742304551e-39
-0.2422403395 -0.2272819877 -0.1370700896 8.742304551e-39
-0.03542245552 -0.1752412021 -0.006535362452 8.742304551e-39
0.001798458397 -0.2449596375 -0.146872431 8.742304551e-39
0.1203394532 -0.1926335543 -0.1464945376 8.742304551e-39
-0.0205033794 -0.1566120684 -0.1386353523 8.742304551e-39
-0.174479872 -0.4897638261 0.03046782315 8.742304551e-39
-0.1400130093 -0.4859747887 -0.06425081193 8.742304551e-39
-0.3437275887 -0.481513232 -0.03737178072 8.742304551e-39
-0.2058611661 -0.153741315 -0.1403341442 8.742304551e-39
-0.3128839135 -0.3135767877 -0.1416410208 8.742304551e-39
-0.482671231 -0.4077583253 -0.1737070829 8.742304551e-39
-0.1804581434 -0.21644786 -0.09747631848 8.742304551e-39
-0.3461598754 -0.4868633151 -0.07678319514 8.742304551e-39
-0.2410462797 -0.381591022 -0.1560745537 8.742304551e-39
0.05435058102 -0.1782517731 -0.1485257745 8.742304551e-39
-0.181497708 -0.195043698 -0.1368113458 8.742304551e-39
-0.3060466647 -0.4331319928 -0.1605122238 8.742304551e-39
-0.2243616283 -0.4911337495 0.01685283706 8.742304551e-39
0.1462527066 -0.4814631939 -0.1436452568 8.742304551e-39
-0.4470853806 -0.4607953429 -0.1200259775 8.742304551e-39
0.2084112316 -0.172085911 -0.1327421665 8.742304551e-39
-0.2252057791 -0.1993173063 -0.1287962943 8.742304551e-39
-0.3977047503 -0.3740350604 -0.1589520425 8.742304551e-39
-0.2293252647 -0.4380803704 -0.161178261 8.742304551e-39
-0.09500077367 -0.3188791275 -0.1364441365 8.742304551e-39
0.01734657958 -0.1649061292 -0.1473194212 8.742304551e-39
0.01669409499 -0.2411110103 -0.1489651352 8.742304551e-39
-0.1722508371 -0.473464191 -0.1415971369 8.742304551e-39
0.001660048962 -0.3027589917 -0.1435234696 8.742304551e-39
-0.09042930603 -0.2055899799 0.04879682511 8.742304551e-39
-0.4204441607 -0.3781644702 -0.1641445458 8.742304551e-39
-0.1636153013 -0.2357903421 -0.08008176088 8.742304551e-39
-0.4016566277 -0.4761627018 -0.08301250637 8.742304551e-39
-0.199008733 -0.4675307274 -0.1511929333 8.742304551e-39
-0.01027252525 -0.4522434175 -0.1672459841 8.742304551e-39
0.03045978025 -0.473709166 -0.1640506238 5.820783626e-39
-0.2116880864 -0.2002897412 -0.1539016813 5.820783626e-39
-0.4732280672 -0.4828131497 -0.06640228629 5.820783626e-39
-0.2339238375 -0.2948975265 -0.1516927034 5.820783626e-39
-0.1465242356 -0.1584667861 -0.1500198841 5.820783626e-39
-0.2966151834 -0.350838542 -0.1522536278 5.820783626e-39
-0.02804753929 -0.2194178104 -0.1527070105 5.820783626e-39
-0.3878750801 -0.4903687239 0.2285460085 5.820783626e-39
-0.121084094 -0.2972807884 -0.1069322079 5.820783626e-39
-0.3884313107 -0.3667263091 -0.1551973373 5.820783626e-39
-0.2268088162 -0.3215468824 -0.1470986158 5.820783626e-39
-0.5058698654 -0.4814974666 0.04908403754 5.820783626e-39
-0.4553444386 -0.4841244221 0.1965564936 5.820783626e-39
-0.0859785527 -0.4875192344 -0.03643606231 5.820783626e-39
-0.1850557476 -0.4885118604 0.09683925658 5.820783626e-39
-0.002807088196 -0.4887034297 -0.05515603349 5.820783626e-39
-0.5262721181 -0.4791981876 -0.06339806318 5.820783626e-39
-0.1754267216 -0.3340164125 -0.1460398883 5.820783626e-39
-0.4810167551 -0.4657889903 -0.02997122332 5.820783626e-39
-0.3881837428 -0.4163498282 -0.1591740996 5.820783626e-39
-0.2980754673 -0.4328084588 -0.1566357315 5.820783626e-39
-0.1189741641 -0.3412220776 -0.1451752782 5.820783626e-39
-0.4131305814 -0.2984332144 -0.1560029685 5.820783626e-39
-0.03994037583 -0.1650130153 -0.0748359859 5.820783626e-39
-0.3907760978 -0.4801119566 -0.1240547001 5.820783626e-39
-0.1439522505 -0.1545073539 -0.1440898329 5.820783626e-39
-0.2601332963 -0.3912783861 -0.1517558843 5.820783626e-39
-0.01649970561 -0.1696007103 -0.05778201297 5.820783626e-39
-0.3589847982 -0.4889456034 0.1696714014 5.820783626e-39
-0.2011979222 -0.3425602317 -0.1358765364 5.820783626e-39
-0.1730039716 -0.1557253599 -0.145930022 5.820783626e-39
-0.1995332688 -0.1712370962 -0.1569267213 5.820783626e-39
-0.3112516105 -0.2163443714 -0.166445002 5.820783626e-39
0.09795328975 -0.4676036835 -0.1680582762 5.820783626e-39
-0.4691607654 -0.3969881535 -0.1206369251 5.820783626e-39
-0.143711403 -0.1571942419 -0.1438500583 5.820783626e-39
-0.4589525759 -0.3738418221 -0.1618668139 5.820783626e-39
-0.40758425 -0.352294445 -0.1237398237 5.820783626e-39
-0.0962472409 -0.1928128451 -0.1577505171 5.820783626e-39
-0.2190338224 -0.3094990551 -0.1494477391 5.820783626e-39
-0.5054574013 -0.4804908633 -0.1297986954 5.820783626e-39
-0.4937472343 -0.4813789129 -0.1075526327 5.820783626e-39
-0.2198829651 -0.1737873256 -0.153741315 5.820783626e-39
-0.38484478 -0.4888954163 0.2499383837 5.820783626e-39
-0.4603452682 -0.3425316215 -0.1636440009 5.820783626e-39
-0.2646526694 -0.4882355928 0.08489447832 5.820783626e-39
-0.363042891 -0.4853850603 -0.03557286039 5.820783626e-39
-0.02234512381 -0.3881964684 -0.1595583111 5.820783626e-39
-0.2007999122 -0.4308723509 -0.1568793356 5.820783626e-39
-0.3726113737 -0.4030271471 -0.1534768194 5.820783626e-39
-0.08967173845 -0.1744918078 -0.1256127059 5.820783626e-39
-0.1025788262 -0.4896518588 0.06510617584 5.820783626e-39
-0.1046689153 -0.2172989547 -0.1492642909 5.820783626e-39
0.00358004123 -0.2761088014 -0.1486733556 5.820783626e-39
-0.1735854894 -0.4862119555 -0.04013388231 5.820783626e-39
-0.01633161679 -0.1971553266 0.01397816464 5.820783626e-39
-0.4284116626 -0.2798119187 -0.164537847 5.820783626e-39
-0.2442853749 -0.3670499623 -0.1530938745 5.820783626e-39
0.1318948567 -0.1621169001 -0.1436326057 5.820783626e-39
-0.2379266471 -0.4838032126 -0.06447948515 5.820783626e-39
-0.07850500196 -0.2401276678 -0.1475031674 5.820783626e-39
-0.4104562104 -0.3520573676 -0.1570952833 5.820783626e-39
-0.02988874912 -0.1960214525 0.007923733443 5.820783626e-39
-0.4832860529 -0.4818356633 0.1547449082 5.820783626e-39
-0.274017483 -0.2810525298 -0.1543146074 5.820783626e-39
-0.4317294955 -0.3866184354 -0.09010444582 5.820783626e-39
-0.3528327346 -0.488960892 0.1607887894 5.820783626e-39
-0.004981800914 -0.326141119 -0.1466816664 5.820783626e-39
-0.07068137825 -0.2521736026 -0.01066891104 5.820783626e-39
-0.2522356808 -0.2805476785 -0.1538888961 5.820783626e-39
-0.4728093445 -0.4836739004 -0.04051510617 5.820783626e-39
-0.1669649482 -0.486661315 -0.02642645687 5.820783626e-39
-0.3274583519 -0.1762797982 -0.1550139189 5.820783626e-39
-0.1521912813 -0.3500360548 -0.1221419424 5.820783626e-39
-0.04504383355 -0.2411068231 0.03766448796 5.820783626e-39
-0.3959731758 -0.2342603207 -0.1601529717 5.820783626e-39
-0.4804090559 -0.4903957248 0.05874015391 5.820783626e-39
-0.11417 -0.2439859509 -0.1445429027 5.820783626e-39
-0.1376335323 -0.3477766216 -0.1454845667 5.820783626e-39
-0.4093997777 -0.4815831184 -0.1062570214 5.820783626e-39
-0.2097380459 -0.4889900982 0.1093648672 5.820783626e-39
-0.02823801339 -0.2528834939 -0.1501624882 5.820783626e-39
-0.4792692661 -0.4815477133 -0.1036919355 5.820783626e-39
-0.419154495 -0.4598128796 -0.1525560468 5.820783626e-39
-0.4167826176 -0.3433249593 -0.1571233422 5.820783626e-39
0.00939687714 -0.488455832 -0.09950226545 5.820783626e-39
-0.09481555969 -0.3505086899 -0.1469968408 5.820783626e-39
-0.1986916065 -0.2527771294 -0.1495866477 5.820783626e-39
-0.2593871951 -0.3532203138 -0.1545811594 5.820783626e-39
-0.0490440838 -0.3390270472 -0.1469661891 5.820783626e-39
0.01274943352 -0.2153365016 -0.1531663239 5.820783626e-39
-0.2761253417 -0.2630521357 -0.1626740545 5.820783626e-39
-0.1410643756 -0.4685338736 -0.1560020447 5.820783626e-39
-0.3532404304 -0.3251471519 -0.1528197527 5.820783626e-39
-0.08238130063 -0.1953587532 -0.1089178473 5.820783626e-39
-0.04704917222 -0.253488481 -0.1503757834 5.820783626e-39
0.03916324303 -0.1914900839 -0.1539315283 5.820783626e-39
-0.1587533206 -0.15871571 -0.1524584442 5.820783626e-39
-0.1797265112 -0.4902469516 0.172406733 5.820783626e-39
-0.08879289776 -0.4880467057 -0.014169164 5.820783626e-39
-0.3759055734 -0.4888386726 0.2510744631 5.820783626e-39
-0.3237365782 -0.2013704479 -0.1549784988 5.820783626e-39
-0.4560488164 -0.3999153972 -0.09712095559 5.820783626e-39
-0.487444371 -0.4820148945 -0.08636562526 5.820783626e-39
-0.2924548686 -0.2769088149 -0.1601216346 5.820783626e-39
-0.3283450007 -0.4885679483 0.1131295562 5.820783626e-39
-0.3432102799 -0.456472367 -0.1472689807 5.820783626e-39
-0.0842128247 -0.1725830734 -0.1590038687 5.820783626e-39
-0.2787018716 -0.2533304095 -0.1558313966 5.820783626e-39
-0.3624933958 -0.4790093899 -0.1261677444 5.820783626e-39
-0.2394926399 -0.4913164973 0.2207639217 5.820783626e-39
0.116188854 -0.479190886 -0.1638099998 5.820783626e-39
-0.4697565138 -0.4845328629 0.1746108234 5.820783626e-39
0.1693156511 -0.160068363 -0.1474860609 5.820783626e-39
-0.3362510502 -0.2430032641 -0.1697261482 5.820783626e-39
-0.471114397 -0.4766031504 -0.1553274393 5.820783626e-39
-0.2755186558 -0.4765213132 -0.1333964169 5.820783626e-39
-0.1605335623 -0.3463762105 -0.1450200975 5.820783626e-39
-0.139343679 -0.1636509001 -0.1586471945 5.820783626e-39
-0.03235721961 -0.2492119819 -0.1505789757 5.820783626e-39
-0.1420097053 -0.4827916026 -0.1340604573 5.820783626e-39
-0.04301910475 -0.3069421053 -0.1475401074 5.820783626e-39
-0.1029414311 -0.3506813645 -0.04460053518 5.820783626e-39
-0.4811787903 -0.4798357487 -0.1504034996 5.820783626e-39
-0.2639725208 -0.3092361093 -0.1430987418 5.820783626e-39
-0.4225365818 -0.4874426126 0.237479195 5.820783626e-39
-0.1942436546 -0.4806587696 -0.1377757639 5.820783626e-39
0.01578998193 -0.4608379006 -0.1673333496 5.820783626e-39
0.3089186251 -0.4812250733 -0.1420327276 2.898180898e-39
-0.2115540653 -0.2618021965 -0.153522864 2.898180898e-39
-0.4146048427 -0.4844067693 -0.01544293761 2.898180898e-39
-0.2382886559 -0.3688441813 -0.1563046128 2.898180898e-39
-0.2224352509 -0.1710879505 -0.1549985558 2.898180898e-39
-0.3100361824 -0.4044370353 -0.1574205756 2.898180898e-39
-0.05676346645 -0.266969651 -0.1705552191 2.898180898e-39
-0.2650948763 -0.4926476181 0.2757918537 2.898180898e-39
-0.1423251182 -0.2850597799 -0.09591165185 2.898180898e-39
-0.4196656048 -0.4184474349 -0.1642397046 2.898180898e-39
-0.2459092587 -0.3131344616 -0.1218698472 2.898180898e-39
-0.4345830977 -0.4831078053 0.1106574237 2.898180898e-39
-0.4176481068 -0.4796937108 0.2047956884 2.898180898e-39
0.07498036325 -0.4847730398 0.05290289596 2.898180898e-39
-0.04137340561 -0.4881196022 0.1518408358 2.898180898e-39
0.2893414497 -0.4845175445 0.02736216038 2.898180898e-39
-0.4947385192 -0.4768958092 -0.006504587829 2.898180898e-39
-0.1656966954 -0.3903955817 -0.1596793383 2.898180898e-39
-0.4973216355 -0.4703626037 -0.006010442972 2.898180898e-39
-0.3883781433 -0.4556574821 -0.1476407051 2.898180898e-39
-0.2154267281 -0.4708756804 -0.1490126997 2.898180898e-39
-0.05202708021 -0.3938906789 -0.1718301028 2.898180898e-39
-0.4398728907 -0.3490677178 -0.15560624 2.898180898e-39
-0.08481130749 -0.2262253016 -0.1110927016 2.898180898e-39
-0.289925307 -0.4810683727 -0.1032113284 2.898180898e-39
-0.2096519321 -0.1713559926 -0.1532863081 2.898180898e-39
-0.2305991948 -0.4414846897 -0.1675903946 2.898180898e-39
-0.05873549357 -0.2193655819 -0.09291267395 2.898180898e-39
-0.2458146811 -0.4886630177 0.2075488716 2.898180898e-39
-0.2217625231 -0.328402549 -0.113614127 2.898180898e-39
-0.228674829 -0.1727174073 -0.1538149863 2.898180898e-39
-0.2120117694 -0.2138994187 -0.1603661776 2.898180898e-39
-0.3315043151 -0.2619465888 -0.1448775679 2.898180898e-39
0.3689464331 -0.4789735675 -0.1393028051 2.898180898e-39
-0.5230626464 -0.414978683 -0.1183036566 2.898180898e-39
-0.2245628685 -0.1685156375 -0.1560798734 2.898180898e-39
-0.4999380708 -0.42667979 -0.1607443094 2.898180898e-39
-0.4672402143 -0.3565585315 -0.107826829 2.898180898e-39
-0.1177039593 -0.2243935466 -0.1644687802 2.898180898e-39
-0.2273627371 -0.3754800856 -0.1582136601 2.898180898e-39
-0.4618999064 -0.4811074734 -0.07958048582 2.898180898e-39
-0.4439801574 -0.4832930863 -0.05898084119 2.898180898e-39
-0.2443469614 -0.1948955059 -0.1464186609 2.898180898e-39
-0.2697842121 -0.4901018739 0.3027816713 2.898180898e-39
-0.4889075458 -0.3867477775 -0.1458309442 2.898180898e-39
-0.1438967586 -0.4875290394 0.1240524203 2.898180898e-39
-0.2667364478 -0.4846595824 0.009965855628 2.898180898e-39
0.2131627947 -0.4413376153 -0.1814876497 2.898180898e-39
-0.01639590412 -0.4770952165 -0.1739923209 2.898180898e-39
-0.3811537921 -0.4462733269 -0.1541991383 2.898180898e-39
-0.141772747 -0.208884269 -0.1358721405 2.898180898e-39
0.03494725004 -0.4864738584 0.1419271678 2.898180898e-39
-0.117793411 -0.277351737 -0.1615657359 2.898180898e-39
0.0428522639 -0.3455816507 -0.1678874642 2.898180898e-39
-0.04929986969 -0.4861231446 0.03517698497 2.898180898e-39
-0.04993655533 -0.2272181213 0.007630465552 2.898180898e-39
-0.4546765983 -0.3348278403 -0.1488679647 2.898180898e-39
-0.2441714853 -0.428796947 -0.1712047011 2.898180898e-39
0.06757807732 -0.1995759457 -0.1721702367 2.898180898e-39
-0.1340407282 -0.4860630631 -0.008045013994 2.898180898e-39
-0.09373523295 -0.3150333166 -0.1657629311 2.898180898e-39
-0.4459418356 -0.3974416256 -0.1624016464 2.898180898e-39
-0.06173144281 -0.2324257493 0.001591481268 2.898180898e-39
-0.411996305 -0.4824627042 0.1834940165 2.898180898e-39
-0.3023787141 -0.2901870608 -0.1347253472 2.898180898e-39
-0.491091907 -0.395884186 -0.09172622859 2.898180898e-39
-0.2415721118 -0.4884472191 0.1978814155 2.898180898e-39
0.09710745513 -0.3708592355 -0.167055577 2.898180898e-39
-0.0941105634 -0.2588452399 -0.006831418723 2.898180898e-39
-0.2592565715 -0.2821727097 -0.1306988299 2.898180898e-39
-0.4112994373 -0.4846731424 0.01473919116 2.898180898e-39
-0.04037983343 -0.4861856103 0.04952935502 2.898180898e-39
-0.3265533745 -0.230302155 -0.1541859359 2.898180898e-39
-0.1877285242 -0.3165657818 -0.09928573668 2.898180898e-39
-0.07544849068 -0.2486804426 0.03237241134 2.898180898e-39
-0.4235356748 -0.306052506 -0.1566343904 2.898180898e-39
-0.4613889754 -0.4765498936 0.09131077677 2.898180898e-39
-0.1230139285 -0.3233759105 -0.1624832302 2.898180898e-39
-0.05886127427 -0.4047544301 -0.1780405641 2.898180898e-39
-0.3198888898 -0.4823100567 -0.08395984769 2.898180898e-39
-0.07282718271 -0.4883237779 0.1563311219 2.898180898e-39
-0.03697869182 -0.323566556 -0.1697764248 2.898180898e-39
-0.4259906411 -0.4837291837 -0.05980500206 2.898180898e-39
-0.3770270944 -0.478572011 -0.1203860641 2.898180898e-39
-0.4487538338 -0.3870101571 -0.1610316038 2.898180898e-39
0.2842478454 -0.4909353256 -0.042992156 2.898180898e-39
0.02176491544 -0.4066025019 -0.180164367 2.898180898e-39
-0.2094645202 -0.3374255598 -0.1502889991 2.898180898e-39
-0.2608754635 -0.4103248417 -0.1604298651 2.898180898e-39
0.05793152377 -0.3814180195 -0.1701769829 2.898180898e-39
-0.01712012105 -0.258217454 -0.1749813855 2.898180898e-39
-0.2825938761 -0.2702864408 -0.1395959854 2.898180898e-39
0.06998632848 -0.4826455414 -0.1682848185 2.898180898e-39
-0.3663380146 -0.3747066855 -0.1515383869 2.898180898e-39
-0.1204103678 -0.2339490652 -0.1281818002 2.898180898e-39
-0.05649200454 -0.3290899396 -0.1693846583 2.898180898e-39
0.005172085017 -0.2353422344 -0.1767575741 2.898180898e-39
-0.2249447554 -0.1737829447 -0.1546901166 2.898180898e-39
-0.04432891309 -0.4893595576 0.2136625648 2.898180898e-39
0.06536270678 -0.4851083159 0.07946851104 2.898180898e-39
-0.2604136169 -0.4897454381 0.3108548522 2.898180898e-39
-0.3065605164 -0.2689581215 -0.1501086801 2.898180898e-39
-0.515838027 -0.4100947082 -0.1038631797 2.898180898e-39
-0.4321495891 -0.4840374589 -0.03739082441 2.898180898e-39
-0.3455428183 -0.2943858504 -0.1372098923 2.898180898e-39
-0.2245288938 -0.4869749546 0.1474063247 2.898180898e-39
-0.2512252927 -0.4782647192 -0.1392229646 2.898180898e-39
-0.1321914345 -0.1946383715 -0.1604462117 2.898180898e-39
-0.2640260458 -0.3365193009 -0.1485583931 2.898180898e-39
-0.2492722273 -0.4816297889 -0.1065705717 2.898180898e-39
-0.1169785708 -0.489708215 0.2670104802 2.898180898e-39
0.390718013 -0.4814427197 -0.1117150187 2.898180898e-39
-0.375539273 -0.4840949178 0.2058667541 2.898180898e-39
0.1139434427 -0.2109254301 -0.1717858464 2.898180898e-39
-0.3997195959 -0.2879181802 -0.1442756206 2.898180898e-39
-0.428612262 -0.480678767 -0.1074381173 2.898180898e-39
-0.1415346712 -0.4833362699 -0.1301970631 2.898180898e-39
-0.1199870855 -0.4040144384 -0.1748580486 2.898180898e-39
-0.1852676421 -0.1858732104 -0.1596682966 2.898180898e-39
-0.04510575905 -0.3206792772 -0.1701156348 2.898180898e-39
0.02501611039 -0.4842802882 -0.07993358374 2.898180898e-39
0.01162661985 -0.3677462637 -0.1639692485 2.898180898e-39
-0.1252612472 -0.3336408138 -0.04560107365 2.898180898e-39
-0.4315475523 -0.4812907279 -0.1040387899 2.898180898e-39
-0.3251084983 -0.3128154576 -0.1193449795 2.898180898e-39
-0.3147315383 -0.4866322875 0.2710901797 2.898180898e-39
-0.0448278822 -0.4847800732 -0.1043613404 2.898180898e-39
0.2978009582 -0.4789548516 -0.1540505737 2.898180898e-39
0.2674307823 -0.4859348238 -0.1158611625 6.490113838e-41
-0.2344499677 -0.2710703611 -0.1464862674 6.490113838e-41
-0.404867053 -0.4844627976 0.005600074306 6.490113838e-41
-0.2528494298 -0.3863756359 -0.1458537132 6.490113838e-41
-0.2606241405 -0.1688298434 -0.1456344724 6.490113838e-41
-0.3112187088 -0.4112247229 -0.1482345015 6.490113838e-41
-0.07214748114 -0.2616114318 -0.1536545902 6.490113838e-41
-0.3353816569 -0.4238506258 0.2222300023 6.490113838e-41
-0.2350022793 -0.2593434453 -0.1105889827 6.490113838e-41
-0.4132445753 -0.4308478832 -0.1545671076 6.490113838e-41
-0.3550156057 -0.2774766982 -0.07421787083 6.490113838e-41
-0.4619036615 -0.4832522273 0.1726918966 6.490113838e-41
-0.4430445135 -0.4612658024 0.276766777 6.490113838e-41
0.2576591372 -0.4856539965 0.1261468083 6.490113838e-41
0.1431570798 -0.4855769873 0.2313520461 6.490113838e-41
0.3817481101 -0.4657751322 0.1872485876 6.490113838e-41
-0.4974999428 -0.4775844514 0.0997236371 6.490113838e-41
-0.1408737749 -0.3976896703 -0.1556941271 6.490113838e-41
-0.4923245013 -0.4559010267 0.1247556955 6.490113838e-41
-0.3487410545 -0.4579444826 -0.1442279518 6.490113838e-41
-0.1358537674 -0.4718920588 -0.1677498519 6.490113838e-41
0.006974987686 -0.3957898021 -0.1691918373 6.490113838e-41
-0.4726094306 -0.3606613278 -0.152240023 6.490113838e-41
-0.1206633151 -0.2130978853 -0.1151224077 6.490113838e-41
-0.2198745906 -0.4839918911 -0.08437009156 6.490113838e-41
-0.2790248096 -0.1652655452 -0.1390570253 6.490113838e-41
-0.1620117873 -0.4417951107 -0.1601382047 6.490113838e-41
-0.09426247329 -0.2152238786 -0.1088781208 6.490113838e-41
-0.2339563966 -0.4875936806 0.2160745114 6.490113838e-41
-0.3296883702 -0.2853340805 -0.0664602071 6.490113838e-41
-0.3025052845 -0.1674547493 -0.14171803 6.490113838e-41
-0.2302223891 -0.2261858582 -0.1517974287 6.490113838e-41
-0.4360910058 -0.24677369 -0.1320619285 6.490113838e-41
0.2942488194 -0.4875915647 -0.1285510063 6.490113838e-41
-0.51741153 -0.417915225 -0.08233135939 6.490113838e-41
-0.2758099437 -0.1626395136 -0.143727079 6.490113838e-41
-0.4964047968 -0.4415361583 -0.1532752514 6.490113838e-41
-0.4911382198 -0.3552901745 -0.06418034434 6.490113838e-41
-0.1448737085 -0.2156630456 -0.1503827721 6.490113838e-41
-0.2300847918 -0.3907762766 -0.1444874257 6.490113838e-41
-0.4607746303 -0.4827851355 -0.05476255342 6.490113838e-41
-0.4411069453 -0.4839174747 -0.03220186755 6.490113838e-41
-0.3367200196 -0.1818428934 -0.1372489482 6.490113838e-41
-0.3271516263 -0.4769804478 0.2493000478 6.490113838e-41
-0.4943701625 -0.4000224471 -0.133710593 6.490113838e-41
-0.009484458715 -0.4858143926 0.1726403981 6.490113838e-41
-0.173849389 -0.4845733047 0.02749370039 6.490113838e-41
0.2000131607 -0.4357435107 -0.1804166287 6.490113838e-41
0.02760026231 -0.4738900065 -0.1743459105 6.490113838e-41
-0.3502491713 -0.4507110715 -0.1463466436 6.490113838e-41
-0.2277246714 -0.1883252859 -0.134732753 6.490113838e-41
0.2545038164 -0.485756278 0.2530310154 6.490113838e-41
-0.1388661265 -0.2724808156 -0.1465879381 6.490113838e-41
0.05370646343 -0.3555803299 -0.1531198621 6.490113838e-41
0.1262521446 -0.4851284623 0.08566336334 6.490113838e-41
-0.08813801408 -0.2409405261 -0.04368565604 6.490113838e-41
-0.4801955521 -0.3462456167 -0.1329428703 6.490113838e-41
-0.2013614774 -0.4294916391 -0.1568321586 6.490113838e-41
0.0519526042 -0.1835032701 -0.15888834 6.490113838e-41
0.01932134852 -0.4853280187 0.01611296274 6.490113838e-41
-0.1031584889 -0.3129252493 -0.1513766944 6.490113838e-41
-0.4548157454 -0.4114687741 -0.156225875 6.490113838e-41
-0.09688251466 -0.2445864677 -0.04781543836 6.490113838e-41
-0.4393134117 -0.4830359221 0.2316990793 6.490113838e-41
-0.4175227284 -0.264554739 -0.09797002375 6.490113838e-41
-0.5023521781 -0.3819365501 -0.05174833909 6.490113838e-41
-0.2176688462 -0.4874916375 0.2100824118 6.490113838e-41
0.1122592837 -0.3674733639 -0.1624580026 6.490113838e-41
-0.1253635734 -0.2612248361 -0.04627447203 6.490113838e-41
-0.3579081595 -0.2450488955 -0.1052576452 6.490113838e-41
-0.4007006884 -0.4843643904 0.04009736329 6.490113838e-41
0.1411558092 -0.4852080643 0.110949263 6.490113838e-41
-0.3733239174 -0.2390163988 -0.1381547153 6.490113838e-41
-0.2644095719 -0.2854954004 -0.07793918252 6.490113838e-41
-0.1087292284 -0.2531625926 -0.006740219891 6.490113838e-41
-0.4729016423 -0.3163751066 -0.1449185014 6.490113838e-41
-0.4748042822 -0.4648886323 0.2006926686 6.490113838e-41
-0.1329676956 -0.3287409544 -0.148051098 6.490113838e-41
0.004200141877 -0.4033591449 -0.169569239 6.490113838e-41
-0.2490237355 -0.4835914969 -0.06777767837 6.490113838e-41
0.1026825011 -0.4858847857 0.2266105711 6.490113838e-41
-0.03509864956 -0.330571264 -0.1536273211 6.490113838e-41
-0.4162978232 -0.4834741652 -0.03664971516 6.490113838e-41
-0.3183128238 -0.4774461985 -0.1304952204 6.490113838e-41
-0.461827457 -0.399279803 -0.1542422324 6.490113838e-41
0.3447823524 -0.4283736646 0.188206777 6.490113838e-41
0.07230219245 -0.4018986225 -0.1704375744 6.490113838e-41
-0.2406738549 -0.3470376134 -0.1435572803 6.490113838e-41
-0.2517899275 -0.4163028002 -0.1551031768 6.490113838e-41
0.08569665253 -0.3832165003 -0.1678863019 6.490113838e-41
-0.03256295621 -0.2580477893 -0.1591590494 6.490113838e-41
-0.3911161423 -0.2421485931 -0.115958482 6.490113838e-41
0.09919445217 -0.4832504392 -0.1619330794 6.490113838e-41
-0.3868112862 -0.3890927732 -0.1551120579 6.490113838e-41
-0.2038097084 -0.2069154978 -0.1260998398 6.490113838e-41
-0.05466811359 -0.3304434121 -0.1528875977 6.490113838e-41
-0.02045638114 -0.2203639895 -0.1605722308 6.490113838e-41
-0.2555413842 -0.1764678508 -0.1470385194 6.490113838e-41
0.1445899308 -0.4878795147 0.3004000783 6.490113838e-41
0.2616350949 -0.4858017564 0.1685763747 6.490113838e-41
-0.3148395419 -0.4888380766 0.259315908 6.490113838e-41
-0.3468478322 -0.2837734222 -0.1403910816 6.490113838e-41
-0.5117499828 -0.4078173041 -0.05608300492 6.490113838e-41
-0.4312596023 -0.4838248491 -0.009010769427 6.490113838e-41
-0.4479686916 -0.2761190236 -0.1036833227 6.490113838e-41
-0.1495393962 -0.4868102074 0.1794997305 6.490113838e-41
-0.185006395 -0.478834331 -0.1529882252 6.490113838e-41
-0.1647457182 -0.1851445436 -0.1511337906 6.490113838e-41
-0.3020769656 -0.3534867764 -0.147241503 6.490113838e-41
-0.171560511 -0.4844793975 -0.08979125321 6.490113838e-41
-0.0217623394 -0.4906287193 0.2973107696 6.490113838e-41
0.3382464051 -0.4718150795 -0.04855979607 6.490113838e-41
-0.4143007696 -0.4853138924 0.2319948375 6.490113838e-41
0.1087009907 -0.2044829279 -0.1557370871 6.490113838e-41
-0.4601584971 -0.286415875 -0.1269036531 6.490113838e-41
-0.3908047676 -0.480478406 -0.102262333 6.490113838e-41
-0.04492880031 -0.4852708578 -0.1110635698 6.490113838e-41
-0.06168605015 -0.405449748 -0.1648172587 6.490113838e-41
-0.2093231231 -0.187648654 -0.1535140276 6.490113838e-41
-0.04688485712 -0.3262712359 -0.1542294472 6.490113838e-41
0.140119046 -0.4843764007 -0.0383775048 6.490113838e-41
0.04362559691 -0.3687433004 -0.159296155 6.490113838e-41
-0.210519895 -0.3080478311 -0.06080231443 6.490113838e-41
-0.4020851851 -0.4813671708 -0.09134475887 6.490113838e-41
-0.4330994785 -0.292000711 -0.08421614766 6.490113838e-41
-0.3665663898 -0.4888608456 0.2593078017 6.490113838e-41
0.06331712008 -0.4847449064 -0.0704075247 6.490113838e-41
0.2532084286 -0.4832540154 -0.1644159555 6.490113838e-41
0.2778075337 -0.4885495901 -0.07139833272 3.015101038e-39
-0.2247722745 -0.2644197345 -0.1587950885 3.015101038e-39
-0.2647010386 -0.4838817418 0.06182149798 3.015101038e-39
-0.2265484929 -0.3771615028 -0.1482793093 3.015101038e-39
-0.237288326 -0.1571664512 -0.1685769707 3.015101038e-39
-0.272762835 -0.4186378717 -0.1612922549 3.015101038e-39
-0.02214119397 -0.2045673877 -0.1501689851 3.015101038e-39
-0.2763651013 -0.3716844618 0.1777248532 3.015101038e-39
-0.2963279188 -0.24900648 -0.1512139738 3.015101038e-39
-0.3738129139 -0.4440584779 -0.1643779278 3.015101038e-39
-0.4096610844 -0.2772456408 -0.09902448952 3.015101038e-39
-0.3844575882 -0.4853743017 0.2093299925 3.015101038e-39
-0.3968142569 -0.4102495611 0.2409303039 3.015101038e-39
0.3086534739 -0.4846583009 0.1876969337 3.015101038e-39
0.2520876229 -0.4822692275 0.2931882441 3.015101038e-39
0.3832595944 -0.4283711612 0.2647226155 3.015101038e-39
-0.4511296153 -0.4829798937 0.1637264788 3.015101038e-39
-0.1028082967 -0.3841597438 -0.1562460065 3.015101038e-39
-0.4810304046 -0.4763616323 0.1908968389 3.015101038e-39
-0.279219985 -0.469750911 -0.1545609981 3.015101038e-39
-0.07608160377 -0.4764853418 -0.166733101 3.015101038e-39
0.01959574595 -0.3769390583 -0.1640345603 3.015101038e-39
-0.470834583 -0.4002005756 -0.1605066359 3.015101038e-39
-0.1546078473 -0.1930473149 -0.1463815719 3.015101038e-39
-0.08183476329 -0.4852248728 -0.05536140874 3.015101038e-39
-0.2834071219 -0.1502774507 -0.1503837705 3.015101038e-39
-0.1085306704 -0.4429450333 -0.1696062535 3.015101038e-39
-0.102379106 -0.1870717406 -0.1379062682 3.015101038e-39
-0.07473064959 -0.4894375503 0.2667275667 3.015101038e-39
-0.38873595 -0.2833936512 -0.08534699678 3.015101038e-39
-0.3106920123 -0.155192107 -0.1568060219 3.015101038e-39
-0.2085650265 -0.2165116668 -0.165618673 3.015101038e-39
-0.4585664868 -0.2608245611 -0.1508159339 3.015101038e-39
0.2801574469 -0.4709236026 -0.08441546559 3.015101038e-39
-0.5083627701 -0.4614134431 -0.04209315404 3.015101038e-39
-0.2595997155 -0.1508824974 -0.1635846794 3.015101038e-39
-0.4717434049 -0.4735592902 -0.1622441262 3.015101038e-39
-0.5023959279 -0.3954417109 -0.08526910841 3.015101038e-39
-0.1078788191 -0.17877388 -0.1482879072 3.015101038e-39
-0.1993823349 -0.3821331561 -0.1484368145 3.015101038e-39
-0.3790625334 -0.4833580256 -0.0135121122 3.015101038e-39
-0.3295087218 -0.4841630459 0.009507952258 3.015101038e-39
-0.366935879 -0.1783994138 -0.1531908363 3.015101038e-39
-0.2355620712 -0.4251766801 0.2220067382 3.015101038e-39
-0.5052928925 -0.4573360085 -0.163116917 3.015101038e-39
0.1347908527 -0.4869236946 0.2408824563 3.015101038e-39
-0.01006934419 -0.4862308204 0.09926205873 3.015101038e-39
0.1979232728 -0.422326833 -0.1751524508 3.015101038e-39
0.04853494838 -0.4767199755 -0.1751752347 3.015101038e-39
-0.2891810238 -0.4599260986 -0.1548803598 3.015101038e-39
-0.2602947354 -0.1665110141 -0.1468150765 3.015101038e-39
0.3153379261 -0.4565584064 0.3105409443 3.015101038e-39
-0.09581154585 -0.2241134346 -0.1430788785 3.015101038e-39
0.08932316303 -0.2944543362 -0.1540070474 3.015101038e-39
0.2200743705 -0.4844482839 0.1564519256 3.015101038e-39
-0.08234267682 -0.2477239072 -0.1084553301 3.015101038e-39
-0.4883271456 -0.3800131381 -0.1469059289 3.015101038e-39
-0.1526823938 -0.4244380891 -0.1593453288 3.015101038e-39
0.1124402732 -0.1362409592 -0.1492140442 3.015101038e-39
0.1276781261 -0.485329628 0.09520924091 3.015101038e-39
-0.06289374083 -0.2577808201 -0.1450686008 3.015101038e-39
-0.4326855242 -0.4378007948 -0.1665611267 3.015101038e-39
-0.09627535939 -0.2512900531 -0.1186468452 3.015101038e-39
-0.3672162592 -0.4763187468 0.2522152364 3.015101038e-39
-0.4582787752 -0.2720587552 -0.1282306463 3.015101038e-39
-0.505897522 -0.4338060319 0.001038718969 3.015101038e-39
-0.05563525483 -0.4893673658 0.2632044554 3.015101038e-39
0.1311192811 -0.3456842601 -0.1585034579 3.015101038e-39
-0.1551374346 -0.2787445188 -0.1359915584 3.015101038e-39
-0.4121638238 -0.2399660349 -0.1286661476 3.015101038e-39
-0.2633967996 -0.4839960337 0.09881913662 3.015101038e-39
0.2330400199 -0.4844018817 0.1785849631 3.015101038e-39
-0.3661276996 -0.2467093915 -0.1604833007 3.015101038e-39
-0.3305513263 -0.2757514715 -0.1041335315 3.015101038e-39
-0.1131196767 -0.2799470425 -0.09318174422 3.015101038e-39
-0.4744258225 -0.3447894454 -0.165044114 3.015101038e-39
-0.4446772337 -0.4720769525 0.2427693307 3.015101038e-39
-0.1002178043 -0.2811436057 -0.1457277089 3.015101038e-39
0.01683987305 -0.3863925934 -0.1637677252 3.015101038e-39
-0.1088518202 -0.4850252867 -0.03096343949 3.015101038e-39
0.2220784873 -0.4865526259 0.2923484743 3.015101038e-39
0.01116733998 -0.2602354586 -0.1500560194 3.015101038e-39
-0.2869277596 -0.4840592742 0.006415739655 3.015101038e-39
-0.2331563383 -0.4826937616 -0.1104348153 3.015101038e-39
-0.4534492195 -0.4332849383 -0.1646162122 3.015101038e-39
0.2972559333 -0.3979074955 0.2269126326 3.015101038e-39
0.07848365605 -0.3848511577 -0.1625869572 3.015101038e-39
-0.2221990526 -0.3281430006 -0.1512018293 3.015101038e-39
-0.2110835165 -0.4183207154 -0.1590523124 3.015101038e-39
0.09347511828 -0.3644444942 -0.1626258641 3.015101038e-39
0.0201738514 -0.1974356472 -0.1556237191 3.015101038e-39
-0.4374715388 -0.2419053018 -0.13841483 3.015101038e-39
0.147942096 -0.4837978482 -0.1288832426 3.015101038e-39
-0.3700141609 -0.4024842381 -0.1577577442 3.015101038e-39
-0.2468640506 -0.1881016791 -0.150199905 3.015101038e-39
-0.01077757031 -0.2733067572 -0.1488956213 3.015101038e-39
0.0380497463 -0.1736190468 -0.1560379565 3.015101038e-39
-0.2316766828 -0.1672434062 -0.1703926325 3.015101038e-39
0.2663737535 -0.4612708688 0.3480643034 3.015101038e-39
0.3135531247 -0.4769690931 0.2206263244 3.015101038e-39
-0.1963607818 -0.4469953775 0.2437324375 3.015101038e-39
-0.3517021239 -0.2866722941 -0.1633174121 3.015101038e-39
-0.5063532591 -0.4528690577 0.004243135452 3.015101038e-39
-0.3068596721 -0.4840641618 0.04044702277 3.015101038e-39
-0.4705210328 -0.2939997315 -0.1294286996 3.015101038e-39
0.01256863028 -0.4886574745 0.2389160097 3.015101038e-39
-0.09946155548 -0.4833729267 -0.1293856651 3.015101038e-39
-0.1335975677 -0.1602468789 -0.1569032222 3.015101038e-39
-0.2950071692 -0.3474280834 -0.1549168527 3.015101038e-39
-0.04575356096 -0.4851180315 -0.05880657211 3.015101038e-39
0.1449051946 -0.4766783118 0.3338647783 3.015101038e-39
0.2829549611 -0.4327158928 0.0146882385 3.015101038e-39
-0.3355321884 -0.4836450219 0.2530215383 3.015101038e-39
0.1824978292 -0.1508014947 -0.144810155 3.015101038e-39
-0.4804739952 -0.3122957647 -0.1423495412 3.015101038e-39
-0.2990497649 -0.4822631478 -0.07812005281 3.015101038e-39
0.03865241632 -0.4852850437 -0.08162148297 3.015101038e-39
-0.03387941048 -0.3897144794 -0.1623767018 3.015101038e-39
-0.181680724 -0.173297137 -0.1660562754 3.015101038e-39
0.00200028345 -0.2546517849 -0.149670288 3.015101038e-39
0.2078695446 -0.4839153886 0.01382179558 3.015101038e-39
0.05585211888 -0.3384242952 -0.1603657007 3.015101038e-39
-0.2728181183 -0.3062342107 -0.1065807939 3.015101038e-39
-0.3078508973 -0.4826309979 -0.05777135864 3.015101038e-39
-0.4611546695 -0.3036158085 -0.1012056917 3.015101038e-39
-0.2690027654 -0.4599128962 0.2470091283 3.015101038e-39
0.1442249417 -0.4844267368 -0.03435681388 3.015101038e-39
0.249526307 -0.4865114093 -0.1357951015 3.015101038e-39
0.3514131308 -0.4637899995 0.02253224701 5.962428276e-39
-0.2349369675 -0.2965539098 -0.1411659271 5.962428276e-39
-0.1328783184 -0.4859167933 0.1378388703 5.962428276e-39
-0.1724207997 -0.4117550254 -0.1447724551 5.962428276e-39
-0.2372398823 -0.1909142286 -0.1479918212 5.962428276e-39
-0.1815799326 -0.4504216909 -0.1393032521 5.962428276e-39
-0.001632019877 -0.2603833973 -0.1491895169 5.962428276e-39
-0.2055006623 -0.3738501072 0.1900552064 5.962428276e-39
-0.2791346312 -0.217633754 -0.1057611108 5.962428276e-39
-0.2900346816 -0.4685466886 -0.1349698752 5.962428276e-39
-0.4033035636 -0.2897844017 -0.07337678969 5.962428276e-39
-0.2908789515 -0.4874819219 0.2461670637 5.962428276e-39
-0.3564711809 -0.4317764342 0.2485356182 5.962428276e-39
0.3678709567 -0.4458497763 0.2529597878 5.962428276e-39
0.3208699524 -0.445876956 0.3386547267 5.962428276e-39
0.3653990626 -0.3998531103 0.2467547208 5.962428276e-39
-0.3753751218 -0.4853483438 0.1908322275 5.962428276e-39
0.02205726877 -0.4190707803 -0.15181081 5.962428276e-39
-0.4433389604 -0.4797264338 0.2172341198 5.962428276e-39
-0.1462500095 -0.4829721451 -0.1098169982 5.962428276e-39
0.05147057399 -0.4842159748 -0.116951257 5.962428276e-39
0.1498151869 -0.4130799174 -0.1638086289 5.962428276e-39
-0.4726744294 -0.4437024593 -0.156897366 5.962428276e-39
-0.1616607308 -0.1674226969 -0.1060866117 5.962428276e-39
0.04080129042 -0.4836404324 0.006759967655 5.962428276e-39
-0.2936319709 -0.1700441539 -0.1319838464 5.962428276e-39
0.01956262067 -0.474050194 -0.1586335599 5.962428276e-39
-0.1139383018 -0.170987919 -0.09663961828 5.962428276e-39
0.03327677771 -0.4914240539 0.3145689666 5.962428276e-39
-0.3832528889 -0.2945143282 -0.06223444268 5.962428276e-39
-0.3005413413 -0.1800505519 -0.1322107613 5.962428276e-39
-0.2147438526 -0.254490912 -0.1474809349 5.962428276e-39
-0.4415756166 -0.2730365694 -0.1322142184 5.962428276e-39
0.3177763522 -0.428442955 0.0001766756177 5.962428276e-39
-0.4825064838 -0.483528018 0.01222894713 5.962428276e-39
-0.2568880022 -0.1802960336 -0.1401339769 5.962428276e-39
-0.4171859324 -0.4887093604 -0.1257529557 5.962428276e-39
-0.502689302 -0.4217760861 -0.06467139721 5.962428276e-39
-0.1101990044 -0.2318058908 -0.142624855 5.962428276e-39
-0.1273209751 -0.4187274575 -0.1468929648 5.962428276e-39
-0.2542454302 -0.4831843376 0.04465068877 5.962428276e-39
-0.2053634673 -0.4835497737 0.08251783252 5.962428276e-39
-0.3531098664 -0.1964590251 -0.1305470169 5.962428276e-39
-0.1412263662 -0.4309515655 0.238062039 5.962428276e-39
-0.482580483 -0.479646951 -0.1406180263 5.962428276e-39
0.2227070183 -0.4868832231 0.2960781753 5.962428276e-39
0.1095160246 -0.4853238165 0.1771433502 5.962428276e-39
0.2757483423 -0.4577746987 -0.1717000306 5.962428276e-39
0.1769307256 -0.4866168499 -0.1236510128 5.962428276e-39
-0.1575039178 -0.4798847139 -0.1255671233 5.962428276e-39
-0.2644120753 -0.1698093265 -0.1239790469 5.962428276e-39
0.3650922179 -0.4182983637 0.341599077 5.962428276e-39
-0.08829885721 -0.276227057 -0.1449140012 5.962428276e-39
0.1612502784 -0.3236683905 -0.1526565701 5.962428276e-39
0.3109501302 -0.4755448997 0.2201278806 5.962428276e-39
-0.1077120081 -0.2035617977 -0.04648315534 5.962428276e-39
-0.4912145734 -0.4191783667 -0.1467826813 5.962428276e-39
-0.02377566881 -0.4550074935 -0.153120175 5.962428276e-39
0.06735563278 -0.1779100895 -0.1507654488 5.962428276e-39
0.2347296029 -0.4837771058 0.1584346145 5.962428276e-39
-0.02577484399 -0.3113936782 -0.1487347782 5.962428276e-39
-0.3815549612 -0.4699285626 -0.1432358772 5.962428276e-39
-0.115146786 -0.2062896043 -0.04893722013 5.962428276e-39
-0.3043667674 -0.4837764204 0.2734273374 5.962428276e-39
-0.4485964179 -0.2836863101 -0.1062263846 5.962428276e-39
-0.4986166656 -0.457367003 0.05698702484 5.962428276e-39
0.05159388855 -0.4910329878 0.3134118021 5.962428276e-39
0.2099216729 -0.3757945299 -0.1610863358 5.962428276e-39
-0.1513151973 -0.2250881642 -0.06453326344 5.962428276e-39
-0.3984580636 -0.2571170926 -0.1035438627 5.962428276e-39
-0.134292528 -0.4867042899 0.1662948132 5.962428276e-39
0.3187450171 -0.4694024324 0.239568904 5.962428276e-39
-0.3495172262 -0.2704309225 -0.1418793499 5.962428276e-39
-0.3250066638 -0.2684348226 -0.07442547381 5.962428276e-39
-0.1248137653 -0.2192839682 -0.01607070863 5.962428276e-39
-0.4615835249 -0.3611344397 -0.1463244408 5.962428276e-39
-0.3992301524 -0.4748702347 0.26114887 5.962428276e-39
-0.05434676632 -0.3258948922 -0.1514686197 5.962428276e-39
0.1496142894 -0.4218874276 -0.1611606032 5.962428276e-39
0.02520241961 -0.4843176603 0.04138600826 5.962428276e-39
0.2995660305 -0.457510829 0.3417690396 5.962428276e-39
0.06328061223 -0.3083620667 -0.1489663869 5.962428276e-39
-0.1594091058 -0.4841890633 0.08566155285 5.962428276e-39
-0.08844074607 -0.4841516316 -0.05070171878 5.962428276e-39
-0.4105484188 -0.4698494673 -0.1477464885 5.962428276e-39
0.2661837339 -0.389111042 0.1891094595 5.962428276e-39
0.1924049109 -0.4174209833 -0.1685389727 5.962428276e-39
-0.195876196 -0.3655584455 -0.1400830448 5.962428276e-39
-0.08895865083 -0.4494574666 -0.1431782842 5.962428276e-39
0.1987258047 -0.3978855014 -0.169736743 5.962428276e-39
0.04806898162 -0.2456509769 -0.1507119834 5.962428276e-39
-0.4261842966 -0.257671833 -0.1130270362 5.962428276e-39
0.2594509423 -0.4859566689 -0.05008697137 5.962428276e-39
-0.3181837499 -0.4368412197 -0.1445404738 5.962428276e-39
-0.2483652979 -0.1687801927 -0.1203414649 5.962428276e-39
0.04553785548 -0.3164651096 -0.1498295516 5.962428276e-39
0.04889120534 -0.2192618698 -0.1550675184 5.962428276e-39
-0.2318385541 -0.2018805742 -0.1484901458 5.962428276e-39
0.319860369 -0.4262802303 0.3481534123 5.962428276e-39
0.3697976172 -0.4363465905 0.2809581459 5.962428276e-39
-0.09413775802 -0.4470518231 0.2607264221 5.962428276e-39
-0.3343744278 -0.3157874644 -0.1468106508 5.962428276e-39
-0.4864771068 -0.4751049876 0.06410010904 5.962428276e-39
-0.1804154068 -0.4845322967 0.1130994409 5.962428276e-39
-0.4591634274 -0.3020876944 -0.1107260436 5.962428276e-39
0.1148072034 -0.48946172 0.2980878353 5.962428276e-39
0.03154693916 -0.4836454988 -0.060186591 5.962428276e-39
-0.1454941183 -0.2048977762 -0.1452411711 5.962428276e-39
-0.2669680715 -0.3752411902 -0.1480156332 5.962428276e-39
0.0844874531 -0.4835466146 0.009154200554 5.962428276e-39
0.2209278494 -0.4523789585 0.3483671546 5.962428276e-39
0.2822239697 -0.4033030272 0.05578042567 5.962428276e-39
-0.2470785379 -0.4863911867 0.2808200419 5.962428276e-39
0.1519797146 -0.1949718148 -0.1468216181 5.962428276e-39
-0.468372643 -0.3228217363 -0.1299591362 5.962428276e-39
-0.1633431613 -0.4834815264 -0.02086484432 5.962428276e-39
0.1673036218 -0.4838480055 0.001841381192 5.962428276e-39
0.1020509601 -0.4246259332 -0.1551561654 5.962428276e-39
-0.1904296577 -0.2113241553 -0.1493258774 5.962428276e-39
0.05052569136 -0.3068327308 -0.1481841505 5.962428276e-39
0.3022438586 -0.4847137332 0.08723518252 5.962428276e-39
0.1572208107 -0.3614034653 -0.159243241 5.962428276e-39
-0.2615973949 -0.2699921131 -0.05989422277 5.962428276e-39
-0.1764200777 -0.4835556746 -0.002559598535 5.962428276e-39
-0.4510769248 -0.315261811 -0.07614290714 5.962428276e-39
-0.1762298793 -0.4688246846 0.2702870667 5.962428276e-39
0.2551189065 -0.4838499427 0.04554650933 5.962428276e-39
0.3224883676 -0.4710240662 -0.04678397253 5.962428276e-39
0.3433737159 -0.4683332741 0.030656524 8.906165387e-39
-0.2020229697 -0.2780534625 -0.1454427093 8.906165387e-39
-0.07379937917 -0.4876958728 0.197748661 8.906165387e-39
-0.1273389757 -0.4041599929 -0.1404417902 8.906165387e-39
-0.2220979333 -0.1695571393 -0.1527464539 8.906165387e-39
-0.1340962797 -0.446885705 -0.1326392889 8.906165387e-39
0.04893852398 -0.2239075005 -0.1557524651 8.906165387e-39
-0.1668147594 -0.352142334 0.1999212205 8.906165387e-39
-0.3337571919 -0.1992780566 -0.1255873442 8.906165387e-39
-0.2249793559 -0.461882323 -0.1303535998 8.906165387e-39
-0.4402553141 -0.2445175052 -0.08337835968 8.906165387e-39
-0.2049299181 -0.4907923341 0.3235260844 8.906165387e-39
-0.28426826 -0.4070886075 0.2612410784 8.906165387e-39
0.3726193309 -0.4547586441 0.2565680444 8.906165387e-39
0.3086809814 -0.4520620108 0.3114837408 8.906165387e-39
0.3355923295 -0.4038880169 0.2116372138 8.906165387e-39
-0.2929109633 -0.488050282 0.2692538798 8.906165387e-39
0.05129573867 -0.4097828567 -0.1505773216 8.906165387e-39
-0.3512111902 -0.4859457612 0.282101959 8.906165387e-39
-0.08769600093 -0.4818367958 -0.1018522382 8.906165387e-39
0.09398902953 -0.4833741486 -0.1053809971 8.906165387e-39
0.1601213217 -0.4065485597 -0.1719776839 8.906165387e-39
-0.4459145665 -0.4424234629 -0.146617189 8.906165387e-39
-0.1852781922 -0.166830942 -0.1126109958 8.906165387e-39
0.07488356531 -0.4834527969 0.04007130861 8.906165387e-39
-0.2808789909 -0.1564230174 -0.1346298456 8.906165387e-39
0.05249203369 -0.4721047282 -0.1468121409 8.906165387e-39
-0.129791677 -0.1658034027 -0.101632461 8.906165387e-39
0.07342244685 -0.4920750856 0.3486441076 8.906165387e-39
-0.4130848646 -0.2492287159 -0.07246743143 8.906165387e-39
-0.3017877042 -0.1651937217 -0.1404261291 8.906165387e-39
-0.1907063276 -0.231209144 -0.1511753947 8.906165387e-39
-0.4658966362 -0.2527080774 -0.1457494348 8.906165387e-39
0.2947318256 -0.4303461313 -0.004841487855 8.906165387e-39
-0.4322390258 -0.4857007861 0.04431232437 8.906165387e-39
-0.2431325018 -0.1607711464 -0.1490167379 8.906165387e-39
-0.3565601707 -0.4814230204 -0.1007547081 8.906165387e-39
-0.4936712682 -0.4446280599 -0.06441664696 8.906165387e-39
-0.06570247561 -0.1955016106 -0.1461905688 8.906165387e-39
-0.07016416639 -0.4091005921 -0.1430817842 8.906165387e-39
-0.1861933917 -0.4841218889 0.09797349572 8.906165387e-39
-0.1428776383 -0.4860038161 0.1388129741 8.906165387e-39
-0.3866646886 -0.1756363362 -0.1366561055 8.906165387e-39
-0.1055505499 -0.4066186547 0.2411800176 8.906165387e-39
-0.4362024665 -0.4824188948 -0.1101800203 8.906165387e-39
0.2412959486 -0.4884774685 0.3241581619 8.906165387e-39
0.1406314224 -0.4866165221 0.2149447054 8.906165387e-39
0.2614371777 -0.4442935586 -0.1745715886 8.906165387e-39
0.2127992958 -0.4863798916 -0.1190614998 8.906165387e-39
-0.09528885782 -0.4793573618 -0.1168060005 8.906165387e-39
-0.2874956131 -0.1517821103 -0.1284557432 8.906165387e-39
0.3413589597 -0.4237028956 0.2980244458 8.906165387e-39
-0.03881555796 -0.2399500906 -0.1506169885 8.906165387e-39
0.1840189546 -0.2921665609 -0.1666258872 8.906165387e-39
0.3188934624 -0.4842509031 0.2329322696 8.906165387e-39
-0.1131250262 -0.2164739966 -0.0542052649 8.906165387e-39
-0.4783791304 -0.4228613973 -0.14315404 8.906165387e-39
0.01261039078 -0.4504799843 -0.1459273547 8.906165387e-39
0.1450172961 -0.1502550095 -0.1515678912 8.906165387e-39
0.2574545443 -0.4849550426 0.184042722 8.906165387e-39
0.01825864986 -0.2714906335 -0.1566862017 8.906165387e-39
-0.3296023011 -0.4638222754 -0.1322479099 8.906165387e-39
-0.1268848479 -0.2179245055 -0.06051482633 8.906165387e-39
-0.2110973895 -0.4753773808 0.3114664853 8.906165387e-39
-0.4612894356 -0.2599189878 -0.1207281947 8.906165387e-39
-0.4632538855 -0.4764307737 0.0941414237 8.906165387e-39
0.08889502287 -0.492197603 0.3505965173 8.906165387e-39
0.2210487872 -0.3585641384 -0.1655594707 8.906165387e-39
-0.1908064485 -0.2275396436 -0.07215604186 8.906165387e-39
-0.4430365562 -0.2190263122 -0.1218830496 8.906165387e-39
-0.07567131519 -0.4883990586 0.2327336669 8.906165387e-39
