# .PCD v0.7 - Point Cloud Data file format
VERSION 0.7
FIELDS x y z rgb
SIZE 4 4 4 4
TYPE F F F F
COUNT 1 1 1 1
WIDTH 835
HEIGHT 1
VIEWPOINT 0 0 0 1 0 0 0
POINTS 835
DATA ascii
-0.1686475873 -0.3585341275 0.3230606914 8.906165387e-39
0.1617725492 -0.4042595327 -0.0881151855 8.906165387e-39
0.04961116612 -0.2810867429 0.3119617105 8.906165387e-39
-0.1931676269 -0.422536701 -0.2965567112 8.906165387e-39
-0.09786711633 -0.3787135184 0.2570143938 8.906165387e-39
0.01777037233 -0.4325422049 0.3101764023 8.906165387e-39
-0.3443431258 -0.3743113279 -0.1097907871 8.906165387e-39
-0.1407239139 -0.4866503775 -0.009759899229 8.906165387e-39
0.1112466902 -0.4820568562 0.0561407879 8.906165387e-39
-0.1906533986 -0.3861889243 0.08052560687 8.906165387e-39
-0.1153239831 -0.1291988194 0.3096403182 8.906165387e-39
-0.3778743148 -0.3720333576 -0.1003843099 8.906165387e-39
0.06231546402 -0.2447880805 0.3067618906 8.906165387e-39
-0.1367091238 -0.2250367701 0.3146153688 8.906165387e-39
-0.1274184883 -0.4857577682 0.2573795021 8.906165387e-39
-0.3512324691 -0.4659737051 -0.207308948 8.906165387e-39
0.03673101962 -0.4814504981 0.2552815974 8.906165387e-39
0.04828692228 -0.4871325493 0.1566937268 8.906165387e-39
-0.2222560495 -0.4699676037 0.2699788809 8.906165387e-39
0.1248557568 -0.4818377495 -0.116162017 8.906165387e-39
0.1643912196 -0.3614918292 -0.0682759881 8.906165387e-39
-0.1360426843 -0.4865951538 -0.08409141004 8.906165387e-39
-0.04936962947 -0.3539255261 0.3392622173 8.906165387e-39
0.1322874129 -0.35759902 -0.2101560831 8.906165387e-39
0.06628812104 -0.4254823029 0.2810589075 8.906165387e-39
-0.184340924 -0.4281543493 -0.2999411523 8.906165387e-39
-0.08102143556 -0.4876076579 -0.04040289298 8.906165387e-39
-0.2022762895 -0.368966639 0.1393360943 8.906165387e-39
-0.328388989 -0.3720460832 -0.04797564819 8.906165387e-39
-0.07765169442 -0.4874592423 -0.09034596384 8.906165387e-39
-0.2619881928 -0.4256753623 0.250077039 8.906165387e-39
0.006786633283 -0.4290913343 0.02342953905 8.906165387e-39
0.004284862429 -0.4660059214 0.2922106087 8.906165387e-39
0.1160776615 -0.3385595381 -0.2165141106 8.906165387e-39
-0.2662597299 -0.4150384068 -0.2668406665 8.906165387e-39
0.06682407856 -0.3168094158 0.2845399976 8.906165387e-39
0.1181529611 -0.3744893074 -0.2258276343 8.906165387e-39
-0.3402075768 -0.3743283749 -0.0732421279 8.906165387e-39
-0.04870073497 -0.3298397064 0.3426389694 8.906165387e-39
0.05911090225 -0.4876281023 0.03598464653 8.906165387e-39
0.1633495092 -0.4324800372 -0.08782108128 8.906165387e-39
-0.08492943645 -0.1832733452 0.323368609 8.906165387e-39
-0.1538207233 -0.4854413271 0.2492782325 8.906165387e-39
-0.07121368498 -0.2576009631 0.3339381814 8.906165387e-39
0.1248180121 -0.3716562688 -0.2193053067 8.906165387e-39
-0.09192106128 -0.2242242992 0.3254941404 8.906165387e-39
0.1633062363 -0.3530993164 -0.008256617934 8.906165387e-39
0.0982401222 -0.1769520342 0.2563135922 8.906165387e-39
0.1606512517 -0.3738951981 0.07677665353 8.906165387e-39
0.09956364334 -0.4824102819 -0.1716718823 8.906165387e-39
0.1315666884 -0.47387591 0.1285270602 8.906165387e-39
0.1154642254 -0.4827867448 -0.1182429641 8.906165387e-39
0.1718224287 -0.2345813662 -0.07767659426 8.906165387e-39
0.06261312962 -0.4871063828 -0.03955465928 8.906165387e-39
-0.05633388087 -0.4172004461 0.1674432158 8.906165387e-39
-0.1921896785 -0.4854921103 -0.06373868883 8.906165387e-39
0.1638286561 -0.3562606275 -0.04628745094 8.906165387e-39
-0.3644636869 -0.4566156268 0.0557307899 8.906165387e-39
0.1181813478 -0.4614380598 -0.2316127717 8.906165387e-39
-0.08802363276 -0.4170534015 0.1183104664 8.906165387e-39
-0.05875433236 -0.4882391393 -0.2967627347 8.906165387e-39
0.1434506923 -0.432744503 0.02925779857 8.906165387e-39
0.1294105947 -0.1347785294 0.134897083 8.906165387e-39
0.1610047668 -0.4009153545 -0.08338943124 8.906165387e-39
0.130954802 -0.2835414112 0.2260390818 8.906165387e-39
-0.1919677407 -0.4287168384 -0.300935477 8.906165387e-39
-0.007794257253 -0.4818000197 0.2820705771 8.906165387e-39
0.166738376 -0.3227309585 0.03320659697 8.906165387e-39
-0.08208882809 -0.4708660543 0.3070323467 8.906165387e-39
0.1690912992 -0.295103699 -0.09145380557 8.906165387e-39
-0.2462013364 -0.4127575755 0.2781273127 8.906165387e-39
0.06368902326 -0.205552876 0.3028936684 8.906165387e-39
-0.07270942628 -0.4845141768 0.2026446313 8.906165387e-39
-0.2841172814 -0.4846941233 0.07234853506 8.906165387e-39
-0.09952394664 -0.2620386183 0.3261874318 8.906165387e-39
-0.1554780602 -0.4874546826 0.1466895193 8.906165387e-39
-0.3329714537 -0.3659287095 0.168174088 8.906165387e-39
0.06442502886 -0.1389392167 0.2944726646 8.906165387e-39
-0.1396184564 -0.2183631957 0.3139429092 8.906165387e-39
-0.2563015819 -0.4826842248 0.1923779249 8.906165387e-39
0.1353977174 -0.1269456446 0.09608459473 8.906165387e-39
-0.03256900609 -0.2454010397 0.3361406624 8.906165387e-39
0.1457423866 -0.4715527892 -0.007844164968 8.906165387e-39
0.1057679802 -0.1369163394 0.2157641202 8.906165387e-39
-0.143236354 -0.2010474354 0.3112600744 8.906165387e-39
-0.3900990486 -0.3815142214 -0.02171718329 8.906165387e-39
0.1606135815 -0.3728134036 0.0295034945 8.906165387e-39
-0.08003336936 -0.48389256 0.2451840639 8.906165387e-39
-0.1582328975 -0.486745894 -0.01053049043 8.906165387e-39
-0.01475035585 -0.4870121479 -0.1649261862 1.184631237e-38
-0.1052880064 -0.4862678051 0.02853987925 1.184631237e-38
0.1467221677 -0.3327797949 -0.2004271746 1.184631237e-38
-0.1695228219 -0.4862567782 -0.05025061592 1.184631237e-38
-0.1183141097 -0.4770970643 0.2940029502 1.184631237e-38
-0.3002969623 -0.3833926618 -0.2433705032 1.184631237e-38
0.1430998594 -0.2545751631 0.1550100446 1.184631237e-38
-0.05044247583 -0.398630023 0.1254771203 1.184631237e-38
0.1041286141 -0.4159207344 0.1747640818 1.184631237e-38
-0.117691204 -0.4859988689 -0.08656902611 1.184631237e-38
-0.3971481323 -0.347954005 -0.1936063915 1.184631237e-38
-0.3619827032 -0.4465770125 -0.09156702459 1.184631237e-38
-0.2094767392 -0.3195812702 0.3157861829 1.184631237e-38
0.1682935208 -0.3098468184 -0.1132062376 1.184631237e-38
-0.2571964264 -0.3813658059 -0.2351871133 1.184631237e-38
-0.1930318475 -0.2475629002 0.313678503 1.184631237e-38
-0.1984217912 -0.3710499704 0.09809307009 1.184631237e-38
0.1237764806 -0.1612040401 0.1584120691 1.184631237e-38
0.1535164565 -0.1383129358 0.03909739852 1.184631237e-38
-0.1286819428 -0.34731251 0.2784681916 1.184631237e-38
-0.2747716904 -0.3419861197 0.04797846079 1.184631237e-38
0.007823608816 -0.3603379726 0.3125967979 1.184631237e-38
-0.03488432616 -0.1857810616 0.319246769 1.184631237e-38
0.1560542583 -0.431411922 -0.04133403674 1.184631237e-38
0.07289777696 -0.478379041 -0.2433678508 1.184631237e-38
-0.3392812014 -0.4262528419 0.08314228803 1.184631237e-38
0.02466412634 -0.2047566473 0.2885766625 1.184631237e-38
0.08655256033 -0.1343977004 0.2209435552 1.184631237e-38
-0.2125038654 -0.4083514214 -0.2080721557 1.184631237e-38
0.05380000919 -0.201482892 0.2667399049 1.184631237e-38
-0.05171951279 -0.1819916368 0.3224506378 1.184631237e-38
0.1052042991 -0.4812408984 -0.2108021677 1.184631237e-38
-0.11944855 -0.4887354076 -0.2086421996 1.184631237e-38
-0.2865621746 -0.4366609156 0.2167319953 1.184631237e-38
0.1232794672 -0.4413807094 0.1065504998 1.184631237e-38
-0.1898750663 -0.4819094837 0.2030669749 1.184631237e-38
-0.224265337 -0.4868807793 0.05111905932 1.184631237e-38
-0.2605458498 -0.3425474465 0.1223808825 1.184631237e-38
-0.1458970606 -0.1245525479 0.3074604571 1.184631237e-38
-0.1867692173 -0.3443436921 0.3272280097 1.184631237e-38
0.1640945971 -0.3297627568 -0.119908765 1.184631237e-38
0.0175281018 -0.2983038723 0.2953228354 1.184631237e-38
-0.1577423811 -0.396556735 -0.2720025182 1.184631237e-38
-0.1832709461 -0.3511896133 0.2231549919 1.184631237e-38
-0.01389678195 -0.437640816 0.3002436459 1.184631237e-38
-0.3974243402 -0.334695369 -0.1323139369 1.184631237e-38
-0.129042387 -0.4860706329 -0.02168057486 1.184631237e-38
0.1341677755 -0.4643668532 0.01681327075 1.184631237e-38
-0.3021398187 -0.3296844661 0.03106313944 1.184631237e-38
-0.1594240367 -0.1426603049 0.3059696555 1.184631237e-38
-0.4114505649 -0.3380628526 -0.1153526306 1.184631237e-38
0.02965699881 -0.264165163 0.284599632 1.184631237e-38
-0.1688931435 -0.2345262021 0.314645052 1.184631237e-38
-0.1456463486 -0.4810836613 0.2545592189 1.184631237e-38
-0.3458436131 -0.4426783025 -0.1929659396 1.184631237e-38
0.003889385611 -0.4820101857 0.2318152636 1.184631237e-38
0.03914617747 -0.4869161844 0.1099065542 1.184631237e-38
-0.2299813181 -0.448086828 0.2703727484 1.184631237e-38
0.1519993991 -0.4355486333 -0.1357638091 1.184631237e-38
0.1722198874 -0.3038657904 -0.1048320383 1.184631237e-38
-0.1175201461 -0.4860307574 -0.1054421514 1.184631237e-38
-0.07774932683 -0.366224438 0.3394799232 1.184631237e-38
0.1561615616 -0.2928964198 -0.1894468367 1.184631237e-38
0.04297284037 -0.4326821566 0.2620386779 1.184631237e-38
-0.1458641887 -0.4013499618 -0.2750315964 1.184631237e-38
-0.05957411975 -0.4865322113 -0.05834086612 1.184631237e-38
-0.3041324615 -0.3258241415 0.08972700685 1.184631237e-38
-0.3955190778 -0.3321472406 -0.07701465487 1.184631237e-38
-0.05442295596 -0.4865127802 -0.1126492321 1.184631237e-38
-0.2676253319 -0.4012237191 0.2651970983 1.184631237e-38
-0.1139447019 -0.4019032121 -0.08337940276 1.184631237e-38
-0.02976585925 -0.4715410173 0.2838677168 1.184631237e-38
0.1502824426 -0.2814605236 -0.1933970004 1.184631237e-38
-0.2633655369 -0.3895469308 -0.2561441064 1.184631237e-38
-0.01583046094 -0.3649199307 0.2339223623 1.184631237e-38
0.149439916 -0.3127567768 -0.1957933903 1.184631237e-38
-0.3973406553 -0.3330571353 -0.09395933151 1.184631237e-38
-0.07431295514 -0.3452652395 0.3436525464 1.184631237e-38
0.08551092446 -0.4858236909 -0.001561962068 1.184631237e-38
0.1654749364 -0.3596158624 -0.1216173619 1.184631237e-38
-0.1141620427 -0.19268471 0.3205358088 1.184631237e-38
-0.1671390235 -0.4800780416 0.2497284114 1.184631237e-38
-0.09567937255 -0.2732643485 0.3407099247 1.184631237e-38
0.1528370529 -0.3067210913 -0.192258209 1.184631237e-38
-0.1176523566 -0.2330756932 0.3243640065 1.184631237e-38
0.1769514531 -0.304571718 -0.0487379618 1.184631237e-38
0.08977244794 -0.1963367164 0.2289545238 1.184631237e-38
0.1768583059 -0.3385111988 0.02342754789 1.184631237e-38
0.1399661601 -0.4539754391 -0.1761638373 1.184631237e-38
0.1204900444 -0.4555336237 0.07679057121 1.184631237e-38
0.1491400748 -0.4466237426 -0.1376008987 1.184631237e-38
0.1866440326 -0.1757231057 -0.1145614684 1.184631237e-38
0.1016574353 -0.4858780503 -0.06214923039 1.184631237e-38
-0.1643806696 -0.3804222345 0.1070089787 1.184631237e-38
-0.1701148301 -0.4854780436 -0.08158896863 1.184631237e-38
0.1771889776 -0.3062128723 -0.09390756488 1.184631237e-38
-0.3525607586 -0.4142208695 0.07298777252 1.184631237e-38
0.1470258087 -0.4255257249 -0.2085877508 1.184631237e-38
-0.198975727 -0.3703044057 0.04267673194 1.184631237e-38
0.001476991922 -0.473710537 -0.278886199 1.184631237e-38
0.1589750201 -0.397225678 -0.01433639973 1.184631237e-38
0.1470054388 -0.136240527 0.0715546459 1.184631237e-38
0.1654803753 -0.3307303786 -0.1149224043 1.184631237e-38
0.126611203 -0.2927789092 0.1790866107 1.184631237e-38
-0.1537941694 -0.4024926722 -0.2759234011 1.184631237e-38
-0.04441434145 -0.4784003496 0.2747731209 1.184631237e-38
0.1821164489 -0.2782081962 -0.02084705979 1.184631237e-38
-0.1119007021 -0.4695730805 0.311668843 1.184631237e-38
0.1766382605 -0.2297325432 -0.1263865381 1.184631237e-38
-0.2537437975 -0.3912714422 0.2845643461 1.184631237e-38
0.03734609485 -0.2227298319 0.2814460993 1.184631237e-38
-0.09685459733 -0.4860014021 0.1774754673 1.184631237e-38
-0.2746800184 -0.4787951112 0.06904194504 1.184631237e-38
-0.1342253685 -0.2709674239 0.3267413378 1.184631237e-38
-0.1518648267 -0.4867832959 0.1317151636 1.184631237e-38
-0.3404488564 -0.3468663394 0.1713602096 1.184631237e-38
0.04263214022 -0.1492452025 0.2737914324 1.184631237e-38
-0.1708613485 -0.2274706364 0.3126773238 1.184631237e-38
-0.2517310083 -0.4692505598 0.1947454512 1.184631237e-38
0.1517007053 -0.1221490502 0.03455775604 1.184631237e-38
-0.06155898422 -0.2615600228 0.3399530053 1.184631237e-38
0.1588372886 -0.4309398532 -0.05325641856 1.184631237e-38
0.1124174744 -0.1433867365 0.1723816246 1.184631237e-38
-0.1740688086 -0.2094300389 0.3093195856 1.184631237e-38
-0.4027957916 -0.3552977741 -0.03547642753 1.184631237e-38
0.1772494465 -0.32588467 -0.01615865529 1.184631237e-38
-0.1104836017 -0.4856412411 0.2346400917 1.184631237e-38
-0.1478766352 -0.4865700901 -0.02154236287 1.184631237e-38
0.01302718371 -0.4909453988 -0.2492583692 1.478322936e-38
-0.09619882703 -0.4878749251 -0.06300015748 1.478322936e-38
0.1327592731 -0.2372225821 -0.1937703192 1.478322936e-38
-0.1358161569 -0.4860626161 -0.150281772 1.478322936e-38
-0.1581559181 -0.4863313735 0.210220173 1.478322936e-38
-0.2186703235 -0.3612971902 -0.2623184323 1.478322936e-38
0.1675468534 -0.2778865993 0.0397137776 1.478322936e-38
-0.005524508655 -0.4234984517 0.05599936098 1.478322936e-38
0.1374365091 -0.4452739954 0.05612449721 1.478322936e-38
-0.07713057101 -0.4890313745 -0.1855626255 1.478322936e-38
-0.3432221413 -0.3497394025 -0.2359938622 1.478322936e-38
-0.3594475985 -0.4410845637 -0.1875617802 1.478322936e-38
-0.2387146354 -0.3693953753 0.3157832325 1.478322936e-38
0.1546244621 -0.2804800272 -0.1495509297 1.478322936e-38
-0.1617249399 -0.3379045129 -0.2432113588 1.478322936e-38
-0.2036264837 -0.2931274772 0.3128731549 1.478322936e-38
-0.1874834001 -0.3838432431 0.03236528859 1.478322936e-38
0.1473004222 -0.1813091636 0.06533016264 1.478322936e-38
0.1660734564 -0.1298760027 -0.04230549559 1.478322936e-38
-0.1150079668 -0.3651022315 0.2653022408 1.478322936e-38
-0.2666113973 -0.3562251031 -0.005446854979 1.478322936e-38
0.007752183825 -0.4298949838 0.2511643767 1.478322936e-38
-0.03409763426 -0.2454685867 0.3023066819 1.478322936e-38
0.1617003679 -0.4291189909 -0.09331774712 1.478322936e-38
0.08354717493 -0.4365712404 -0.2366098464 1.478322936e-38
-0.3691383004 -0.4153198302 -0.007350757718 1.478322936e-38
0.03888929635 -0.2672629356 0.2380729765 1.478322936e-38
0.1121037453 -0.1630225033 0.1342967153 1.478322936e-38
-0.1169904023 -0.4191751182 -0.2197660208 1.478322936e-38
0.07885437459 -0.2623022795 0.1947862953 1.478322936e-38
-0.05121342465 -0.2396369874 0.307403028 1.478322936e-38
0.1026444584 -0.4552372098 -0.2294912636 1.478322936e-38
-0.09530963004 -0.4852715135 -0.2912059128 1.478322936e-38
-0.3322646022 -0.4378263056 0.1344241798 1.478322936e-38
0.1506765187 -0.4434133768 0.02013084851 1.478322936e-38
-0.2441272289 -0.4851713777 0.1008913368 1.478322936e-38
-0.2555013299 -0.4861120582 -0.03987727687 1.478322936e-38
-0.253623426 -0.3575384319 0.0769507736 1.478322936e-38
-0.1655860543 -0.1592896581 0.281268239 1.478322936e-38
-0.2166950703 -0.3998827934 0.3249071538 1.478322936e-38
0.1495183855 -0.3149823546 -0.1507741809 1.478322936e-38
0.02283214778 -0.3616331518 0.2307576239 1.478322936e-38
-0.05625608936 -0.3249957561 -0.2419752777 1.478322936e-38
-0.1712997109 -0.3726940751 0.2017113715 1.478322936e-38
-0.04764652997 -0.4842363894 0.2204954773 1.478322936e-38
-0.3633544445 -0.3337518573 -0.1852042228 1.478322936e-38
-0.1128798574 -0.4870070517 -0.1003457308 1.478322936e-38
0.1576636732 -0.4627077579 -0.06125992909 1.478322936e-38
-0.2887258232 -0.3476011753 -0.01894268394 1.478322936e-38
-0.1762848496 -0.1753197163 0.2816292048 1.478322936e-38
-0.38648808 -0.3313981295 -0.1652113646 1.478322936e-38
0.04679517448 -0.3278928995 0.2165476829 1.478322936e-38
-0.175056532 -0.2778789997 0.308452785 1.478322936e-38
-0.1890065223 -0.4866324663 0.156442076 1.478322936e-38
-0.3048647642 -0.4306910038 -0.272536099 1.478322936e-38
-0.01801963151 -0.489135623 0.1085857749 1.478322936e-38
0.05056866258 -0.4892649651 0.006474714726 1.478322936e-38
-0.2721858025 -0.4693923593 0.1871576309 1.478322936e-38
0.1379158348 -0.4436023235 -0.1795193106 1.478322936e-38
0.1597288996 -0.2744970024 -0.1408278346 1.478322936e-38
-0.07860463858 -0.4901886582 -0.2048575878 1.478322936e-38
-0.09875921905 -0.4285949469 0.3123960793 1.478322936e-38
0.1395070255 -0.2047376633 -0.1888580918 1.478322936e-38
0.04051020741 -0.483332783 0.1456718594 1.478322936e-38
-0.04505963251 -0.3268330097 -0.2419136763 1.478322936e-38
-0.03086573817 -0.4868425131 -0.1451404691 1.478322936e-38
-0.2927024961 -0.3418739438 0.04806930199 1.478322936e-38
-0.3707354069 -0.3292929828 -0.1127829552 1.478322936e-38
-0.02579249069 -0.4887355268 -0.2038003802 1.478322936e-38
-0.3058477044 -0.4360492826 0.2037660331 1.478322936e-38
-0.02510387823 -0.4398391247 -0.1581889838 1.478322936e-38
-0.07266247272 -0.4863587916 0.1785923988 1.478322936e-38
0.1336826086 -0.1902416945 -0.1922181994 1.478322936e-38
-0.1695697904 -0.3427700102 -0.2582256794 1.478322936e-38
0.01762489602 -0.3998047411 0.1802139729 1.478322936e-38
0.1340139508 -0.2215617746 -0.1919827014 1.478322936e-38
-0.3725013733 -0.3300534487 -0.1377164572 1.478322936e-38
-0.09001119435 -0.4051221311 0.3149651885 1.478322936e-38
0.1144018471 -0.4864565134 -0.07375775278 1.478322936e-38
0.1533780545 -0.3582471311 -0.1537623107 1.478322936e-38
-0.1207061708 -0.2314553559 0.304833889 1.478322936e-38
-0.2193129063 -0.4855700731 0.146296978 1.478322936e-38
-0.1037248373 -0.3233647048 0.3329846263 1.478322936e-38
0.1369976997 -0.2174991369 -0.1905008554 1.478322936e-38
-0.1294162273 -0.2791242898 0.3166767359 1.478322936e-38
0.1739936024 -0.2830216289 -0.103692472 1.478322936e-38
0.1217784882 -0.2405763865 0.1328802258 1.478322936e-38
0.1754520833 -0.3237845302 -0.04301187024 1.478322936e-38
0.1316900998 -0.4566122293 -0.208330065 1.478322936e-38
0.1477062404 -0.4569903612 -0.002433143556 1.478322936e-38
0.1352189481 -0.4564070106 -0.1833070517 1.478322936e-38
0.1757975817 -0.1436390877 -0.1568077803 1.478322936e-38
0.1065475941 -0.4845552742 -0.1376055926 1.478322936e-38
-0.145128876 -0.3993816376 0.03743056208 1.478322936e-38
-0.1372762471 -0.4882503152 -0.1866635382 1.478322936e-38
0.1643404067 -0.2780630291 -0.1299015284 1.478322936e-38
-0.3765713573 -0.4034481049 -0.01285884529 1.478322936e-38
0.1396049112 -0.3280089796 -0.1958217472 1.478322936e-38
-0.1816342324 -0.3875018358 -0.02884121612 1.478322936e-38
0.04997306317 -0.4190022647 -0.2471615076 1.478322936e-38
0.1647600532 -0.3853414655 -0.0790463388 1.478322936e-38
0.1606875062 -0.1329721361 -0.01478560641 1.478322936e-38
0.1511906981 -0.3107381463 -0.1500615031 1.478322936e-38
0.1595537812 -0.3325823843 0.06719301641 1.478322936e-38
-0.05428213626 -0.3299252689 -0.2445144057 1.478322936e-38
-0.08957953751 -0.4865022898 0.1598110795 1.478322936e-38
0.1788348705 -0.2519981563 -0.08067849278 1.478322936e-38
-0.1528642774 -0.4841684699 0.2373085916 1.478322936e-38
0.1627197415 -0.2003333122 -0.1551949829 1.478322936e-38
-0.2875888348 -0.4333984852 0.2297367156 1.478322936e-38
0.05697008967 -0.2869508564 0.2168517411 1.478322936e-38
-0.1222480312 -0.4876238406 0.06399135292 1.478322936e-38
-0.303296268 -0.4787996411 -0.02778535709 1.478322936e-38
-0.1451567709 -0.3172336817 0.323859185 1.478322936e-38
-0.1872319728 -0.4876551032 0.01854714192 1.478322936e-38
-0.3372887969 -0.3370699584 0.1345888376 1.478322936e-38
0.05700028688 -0.2020594478 0.2211441398 1.478322936e-38
-0.176733017 -0.2680344582 0.3063370287 1.478322936e-38
-0.295427084 -0.4736730754 0.09848310053 1.478322936e-38
0.1653329134 -0.1141243279 -0.04591352865 1.478322936e-38
-0.06393241882 -0.324223429 0.3197386563 1.478322936e-38
0.1593963355 -0.4294276834 -0.1044564545 1.478322936e-38
0.1393725723 -0.1680845469 0.083509624 1.478322936e-38
-0.1805552542 -0.2417879105 0.2972762883 1.478322936e-38
-0.3965480328 -0.343270272 -0.07451318204 1.478322936e-38
0.1747543216 -0.3123008609 -0.07513776422 1.478322936e-38
-0.1399584115 -0.4869657755 0.1302255243 1.478322936e-38
-0.1365683079 -0.4868875742 -0.1029111147 1.478322936e-38
0.0005485489964 -0.4777484536 -0.2644526362 1.771655483e-38
-0.07423880696 -0.4869732857 -0.1182314903 1.771655483e-38
0.1413338631 -0.218465969 -0.1842509955 1.771655483e-38
-0.1084197462 -0.4879860878 -0.2144444585 1.771655483e-38
-0.1767850369 -0.4883322716 0.1702558845 1.771655483e-38
-0.1893092245 -0.3193573654 -0.2602620721 1.771655483e-38
0.1772647202 -0.2924557924 0.002203129232 1.771655483e-38
0.06437905133 -0.422495544 0.03174906969 1.771655483e-38
0.1580063552 -0.4544243813 0.00825686194 1.771655483e-38
-0.07056748867 -0.4890884757 -0.244037956 1.771655483e-38
-0.2659719586 -0.3552008271 -0.2551909089 1.771655483e-38
-0.3248734474 -0.4301640689 -0.2408125997 1.771655483e-38
-0.2616251707 -0.3560164571 0.3217648566 1.771655483e-38
0.166141957 -0.2699591517 -0.1707674265 1.771655483e-38
-0.1396704912 -0.2702667117 -0.2372191548 1.771655483e-38
-0.2425673008 -0.2812726498 0.3193278611 1.771655483e-38
-0.09384584427 -0.4212133586 0.07659219205 1.771655483e-38
0.1592974067 -0.203486979 0.03973124921 1.771655483e-38
0.1731786579 -0.1290395558 -0.08549787104 1.771655483e-38
-0.1191154197 -0.3567517996 0.3078718781 1.771655483e-38
-0.1605512798 -0.4054140151 0.02900510281 1.771655483e-38
0.02077926695 -0.4679127932 0.2331214249 1.771655483e-38
-0.04375837743 -0.2792105079 0.3002023399 1.771655483e-38
0.1637960523 -0.4146734476 -0.1323451996 1.771655483e-38
0.09283477068 -0.3949461877 -0.2196059823 1.771655483e-38
-0.3365107179 -0.4176770151 -0.04298875108 1.771655483e-38
0.06514126807 -0.3123329282 0.2277377099 1.771655483e-38
0.1381302327 -0.1924488395 0.1184309721 1.771655483e-38
-0.06450215727 -0.3542833328 -0.2169782519 1.771655483e-38
0.1134555042 -0.3028060198 0.1766799986 1.771655483e-38
-0.06184281409 -0.2745317221 0.3059107959 1.771655483e-38
0.1057581306 -0.4186930358 -0.2188555896 1.771655483e-38
-0.1050930247 -0.4555507898 -0.2991190255 1.771655483e-38
-0.3100944161 -0.4324036837 0.1460765451 1.771655483e-38
0.1632535458 -0.4393793344 -0.02989645675 1.771655483e-38
-0.2507647276 -0.4857428968 0.05985734612 1.771655483e-38
-0.2261521518 -0.485437572 -0.10076271 1.771655483e-38
-0.1729225814 -0.3994316459 0.1487134248 1.771655483e-38
-0.2131071687 -0.1540112644 0.2949753404 1.771655483e-38
-0.2410481125 -0.3854838014 0.3291382194 1.771655483e-38
0.1695891917 -0.3107048869 -0.1734210253 1.771655483e-38
0.05109597743 -0.4072500467 0.2177291811 1.771655483e-38
-0.04243959859 -0.2796240747 -0.2280302346 1.771655483e-38
-0.134723708 -0.3865990639 0.2608507574 1.771655483e-38
-0.06938010454 -0.4878349304 0.1810734868 1.771655483e-38
-0.2735506892 -0.352507323 -0.2170834839 1.771655483e-38
-0.08767654002 -0.4861279726 -0.1621184051 1.771655483e-38
0.1572611183 -0.4558517933 -0.1024471372 1.771655483e-38
-0.1817150861 -0.3987416029 0.008958371356 1.771655483e-38
-0.2165642679 -0.1678856164 0.2971521616 1.771655483e-38
-0.2988661528 -0.3523888886 -0.2010765225 1.771655483e-38
0.07827456295 -0.3729041815 0.1984751374 1.771655483e-38
-0.2027309984 -0.2739065289 0.3234226704 1.771655483e-38
-0.2050990611 -0.4877800345 0.1111748219 1.771655483e-38
-0.2653636336 -0.411724627 -0.3006284535 1.771655483e-38
-0.02025720291 -0.4909721911 0.03412535414 1.771655483e-38
0.06564481556 -0.4890107214 -0.05787828937 1.771655483e-38
-0.2742992043 -0.46638906 0.1904434413 1.771655483e-38
0.1459664106 -0.4454057813 -0.198865816 1.771655483e-38
0.1700413376 -0.2538752556 -0.1680742502 1.771655483e-38
-0.07721901685 -0.4875968397 -0.2599560916 1.771655483e-38
-0.1270135045 -0.451575011 0.3159106374 1.771655483e-38
0.154137522 -0.2012375891 -0.1814749241 1.771655483e-38
0.06604849547 -0.4893832207 0.09095486999 1.771655483e-38
-0.03426292539 -0.2818647623 -0.2269798517 1.771655483e-38
-0.03477088362 -0.4867790937 -0.2064099461 1.771655483e-38
-0.1986382157 -0.391664654 0.115188092 1.771655483e-38
-0.2836110294 -0.3520329595 -0.1173679531 1.771655483e-38
-0.03808820248 -0.4889377952 -0.252512455 1.771655483e-38
-0.2939860523 -0.4280042648 0.2265204787 1.771655483e-38
0.0486413464 -0.4265035987 -0.1772821099 1.771655483e-38
-0.0915075466 -0.4887807369 0.1347314417 1.771655483e-38
0.1416447908 -0.1899903715 -0.1876627207 1.771655483e-38
-0.1432394534 -0.3052332401 -0.2470135987 1.771655483e-38
0.06159122288 -0.3950551152 0.1544055343 1.771655483e-38
0.1437176764 -0.208610937 -0.1841398925 1.771655483e-38
-0.2835962474 -0.3517660201 -0.1589712799 1.771655483e-38
-0.1199528798 -0.4308707714 0.3201321363 1.771655483e-38
0.1097717285 -0.4853769541 -0.1219964027 1.771655483e-38
0.1693936139 -0.3590830863 -0.176327005 1.771655483e-38
-0.1630366594 -0.2298144996 0.3054392636 1.771655483e-38
-0.2328527868 -0.4865394235 0.1119619012 1.771655483e-38
-0.1422175169 -0.3357379735 0.3274385035 1.771655483e-38
0.1493237317 -0.2081760168 -0.1822047979 1.771655483e-38
-0.1723594218 -0.279086113 0.3172453642 1.771655483e-38
0.1784040332 -0.2631829977 -0.1436062306 1.771655483e-38
0.1509932876 -0.2745692134 0.1156010628 1.771655483e-38
0.1798018366 -0.3183472753 -0.08725062013 1.771655483e-38
0.138259545 -0.4352522194 -0.2105973512 1.771655483e-38
0.1590670198 -0.4480729699 -0.05516095832 1.771655483e-38
0.1423553675 -0.4551214874 -0.2025582641 1.771655483e-38
0.1812572479 -0.1247249693 -0.1771973222 1.771655483e-38
0.08847498894 -0.4843130112 -0.1857090443 1.771655483e-38
-0.05271076784 -0.4261029065 0.07501155883 1.771655483e-38
-0.1181024313 -0.4875689745 -0.2487899363 1.771655483e-38
0.1729270071 -0.2586302459 -0.1603911817 1.771655483e-38
-0.3434376121 -0.4051962495 -0.04237864539 1.771655483e-38
0.1538498551 -0.3014198244 -0.1874604076 1.771655483e-38
-0.06713859737 -0.4285160899 -0.01568347588 1.771655483e-38
0.0552566722 -0.3787882924 -0.228210181 1.771655483e-38
0.1703745872 -0.3764719665 -0.1186352819 1.771655483e-38
0.1692188084 -0.1341291368 -0.0597798042 1.771655483e-38
0.166840896 -0.3047270179 -0.1714076847 1.771655483e-38
0.1764521599 -0.3465297222 0.02601340786 1.771655483e-38
-0.04165469855 -0.2850645483 -0.2298328578 1.771655483e-38
-0.1037268341 -0.4891622365 0.1138301194 1.771655483e-38
0.1854046732 -0.2376550883 -0.1212524176 1.771655483e-38
-0.1723650694 -0.4876537919 0.2011655718 1.771655483e-38
0.1729977131 -0.178930074 -0.1817913055 1.771655483e-38
-0.2865948677 -0.4231185317 0.252058655 1.771655483e-38
0.09017691016 -0.3315738738 0.2015787363 1.771655483e-38
-0.1087660342 -0.4874901772 -0.01013727859 1.771655483e-38
-0.2894025147 -0.4760738611 -0.07818503678 1.771655483e-38
-0.1844187826 -0.3218300045 0.3299128711 1.771655483e-38
-0.1753627211 -0.4862381518 -0.04397213086 1.771655483e-38
-0.2957608104 -0.3518731892 0.2279788703 1.771655483e-38
0.08815689385 -0.2426267266 0.2060151994 1.771655483e-38
-0.2055067271 -0.2630929351 0.3214092255 1.771655483e-38
-0.2940790653 -0.4696485996 0.07446748018 1.771655483e-38
0.1705488265 -0.1151650101 -0.08907201886 1.771655483e-38
-0.0757624656 -0.3527807593 0.3212484717 1.771655483e-38
0.1621119529 -0.4184064269 -0.1411933154 1.771655483e-38
0.1523911208 -0.1871249676 0.06021137163 1.771655483e-38
-0.2120076418 -0.2353040874 0.3148495257 1.771655483e-38
-0.3315270543 -0.3564492464 -0.08534343541 1.771655483e-38
0.1786619425 -0.2980209291 -0.1205763966 1.771655483e-38
-0.147362262 -0.4879473448 0.06227288023 1.771655483e-38
-0.1041419432 -0.4859125614 -0.1641748101 1.771655483e-38
0.01778426021 -0.4186184406 -0.2601091564 2.06466517e-38
-0.04422395304 -0.4872680902 -0.1957715005 2.06466517e-38
0.1527937204 -0.1778631508 -0.2027424276 2.06466517e-38
-0.0926758796 -0.4757362306 -0.304351002 2.06466517e-38
-0.169341892 -0.4868610501 0.004793740809 2.06466517e-38
-0.09178900719 -0.2440513968 -0.2364607453 2.06466517e-38
0.1838975102 -0.2657219172 -0.06645303965 2.06466517e-38
0.1190232635 -0.4074856639 -0.05260802433 2.06466517e-38
0.1662204415 -0.4232651293 -0.0696978569 2.06466517e-38
-0.06671326607 -0.4657890797 -0.3007292449 2.06466517e-38
-0.1884249151 -0.3354862034 -0.2526252866 2.06466517e-38
-0.2685829997 -0.3964566588 -0.2949181497 2.06466517e-38
-0.2775883079 -0.4025574327 0.2925840616 2.06466517e-38
0.1695175618 -0.2513493299 -0.2082273662 2.06466517e-38
-0.03459165618 -0.1988629699 -0.2197842598 2.06466517e-38
-0.2708556652 -0.3337182403 0.3214432299 2.06466517e-38
0.004903528839 -0.4653098583 -0.04450755939 2.06466517e-38
0.1712571234 -0.1896708012 -0.06153225526 2.06466517e-38
0.1753852367 -0.1061707437 -0.1318145543 2.06466517e-38
-0.08318529278 -0.3926587999 0.2653031647 2.06466517e-38
-0.07391917706 -0.4504736662 -0.09029850364 2.06466517e-38
0.1012510508 -0.4917525053 0.081788674 2.06466517e-38
0.008580103517 -0.3381533623 0.2701490521 2.06466517e-38
0.1510803401 -0.3937385082 -0.1748731583 2.06466517e-38
0.1113814712 -0.2987036705 -0.2231791019 2.06466517e-38
-0.3282235861 -0.4016927183 -0.1776525378 2.06466517e-38
0.1349822283 -0.3508375883 0.1293518841 2.06466517e-38
0.1595966667 -0.2033517212 0.01095560566 2.06466517e-38
0.007502060384 -0.2887054384 -0.2160972655 2.06466517e-38
0.1647284776 -0.3308142722 0.06763091683 2.06466517e-38
-0.02765539289 -0.3338336349 0.2862748206 2.06466517e-38
0.1156886071 -0.3398389518 -0.2227097452 2.06466517e-38
-0.06114268675 -0.396479696 -0.2774605155 2.06466517e-38
-0.315995574 -0.4174536169 0.006774444133 2.06466517e-38
0.168792516 -0.409460634 -0.1033862978 2.06466517e-38
-0.2527524233 -0.4828581214 -0.08925014734 2.06466517e-38
-0.1922569424 -0.48698318 -0.2252451479 2.06466517e-38
-0.1005700231 -0.4456409514 0.04450072721 2.06466517e-38
-0.2237855345 -0.1830496043 0.2935438156 2.06466517e-38
-0.2638803124 -0.4286890924 0.2801986933 2.06466517e-38
0.1745964885 -0.3110292554 -0.2021780163 2.06466517e-38
0.1380622685 -0.444689095 0.08622814715 2.06466517e-38
0.04310882092 -0.197231397 -0.2139642239 2.06466517e-38
-0.08531366289 -0.4333904386 0.204601109 2.06466517e-38
-0.02006836794 -0.4924180806 0.001934796572 2.06466517e-38
-0.186897248 -0.3854722083 -0.2614946961 2.06466517e-38
-0.05640475452 -0.4894006252 -0.2615095675 2.06466517e-38
0.1467908472 -0.4352359772 -0.154001385 2.06466517e-38
-0.09560302645 -0.4433748126 -0.1058487743 2.06466517e-38
-0.2261636406 -0.2012055069 0.2984595001 2.06466517e-38
-0.2136484087 -0.3841942847 -0.2628338635 2.06466517e-38
0.1476363391 -0.4068431258 0.08006992936 2.06466517e-38
-0.2275424153 -0.3303995728 0.3266315758 2.06466517e-38
-0.2005224079 -0.4848096073 -0.04956391081 2.06466517e-38
-0.198528558 -0.3661763072 -0.2911764383 2.06466517e-38
0.03408700973 -0.491235137 -0.09145838022 2.06466517e-38
0.1042084098 -0.4879643321 -0.135087207 2.06466517e-38
-0.2954794168 -0.4578219652 0.04855776206 2.06466517e-38
0.1385929883 -0.4255055189 -0.2169825435 2.06466517e-38
0.165433079 -0.2291816771 -0.20108971 2.06466517e-38
-0.0711081326 -0.4566619098 -0.2971524894 2.06466517e-38
-0.1324198544 -0.4854020178 0.2377081513 2.06466517e-38
0.1668064594 -0.1693465412 -0.1998706013 2.06466517e-38
0.1276992559 -0.4908903837 -0.04176916555 2.06466517e-38
0.04978381842 -0.2002201378 -0.2137666941 2.06466517e-38
-0.02071892098 -0.4851691127 -0.2872896791 2.06466517e-38
-0.1306491196 -0.436722368 0.01434891298 2.06466517e-38
-0.1854937822 -0.4000234604 -0.2213799655 2.06466517e-38
-0.02067987248 -0.4593525827 -0.2803020775 2.06466517e-38
-0.3031886816 -0.4155086875 0.1362699121 2.06466517e-38
0.1162213534 -0.382478714 -0.1855955422 2.06466517e-38
-0.03684191406 -0.4914521575 -0.04629492387 2.06466517e-38
0.1532461345 -0.1597243696 -0.2065918446 2.06466517e-38
-0.03893666714 -0.2248002142 -0.224966228 2.06466517e-38
0.1107658893 -0.3966879547 0.06413774937 2.06466517e-38
0.1556486338 -0.1716763228 -0.2030877173 2.06466517e-38
-0.187564075 -0.3961853385 -0.2504839003 2.06466517e-38
-0.1244020388 -0.4810990691 0.2632524967 2.06466517e-38
0.1197922975 -0.4836619496 -0.1839482039 2.06466517e-38
0.1601144671 -0.367733717 -0.2044557929 2.06466517e-38
-0.1775962859 -0.29712075 0.3098368347 2.06466517e-38
-0.2430003136 -0.4836863279 -0.04120313004 2.06466517e-38
-0.160104841 -0.4017928839 0.3142326772 2.06466517e-38
0.161746487 -0.17278561 -0.2007881552 2.06466517e-38
-0.1883561313 -0.3470540941 0.3208682835 2.06466517e-38
0.1654623896 -0.2255898714 -0.17769292 2.06466517e-38
0.176759854 -0.2771360874 -0.002944111824 2.06466517e-38
0.1740552038 -0.2815763056 -0.1482898593 2.06466517e-38
0.1325150728 -0.3730945587 -0.213632673 2.06466517e-38
0.1618188173 -0.4198590219 -0.1180174351 2.06466517e-38
0.1355601549 -0.423815608 -0.2187601626 2.06466517e-38
0.1737297773 -0.08791133761 -0.2073350549 2.06466517e-38
0.09530195594 -0.4770030975 -0.2430143952 2.06466517e-38
0.04478665441 -0.4654454887 -0.04545182362 2.06466517e-38
-0.1026754528 -0.4595779777 -0.30751881 2.06466517e-38
0.1628608853 -0.2228957713 -0.1943440288 2.06466517e-38
-0.3273018599 -0.3880892396 -0.1683579087 2.06466517e-38
0.162969619 -0.2500861287 -0.1957262456 2.06466517e-38
0.02947024256 -0.465441227 -0.1269895434 2.06466517e-38
0.09468133748 -0.2752855122 -0.226628691 2.06466517e-38
0.1581893414 -0.3382884562 -0.1577873677 2.06466517e-38
0.1714610904 -0.115257591 -0.115206033 2.06466517e-38
0.1744447798 -0.2996848822 -0.2038267553 2.06466517e-38
0.1795348823 -0.3234526217 -0.05125877634 2.06466517e-38
0.04480881244 -0.2036634982 -0.2144237757 2.06466517e-38
-0.05083154514 -0.4902704954 -0.06334042549 2.06466517e-38
0.1742715836 -0.2047179043 -0.170013085 2.06466517e-38
-0.1728628427 -0.4873920083 0.0408285968 2.06466517e-38
0.1674938053 -0.1432938576 -0.2105456591 2.06466517e-38
-0.3011617661 -0.4230450988 0.1654022932 2.06466517e-38
0.1512322724 -0.3644691706 0.0918590799 2.06466517e-38
-0.06366672367 -0.4884676337 -0.1347234249 2.06466517e-38
-0.2691671252 -0.4637903571 -0.209034279 2.06466517e-38
-0.209007889 -0.384082973 0.3261922598 2.06466517e-38
-0.1396449804 -0.4858301282 -0.1577103138 2.06466517e-38
-0.2795310318 -0.3525263071 0.1756230593 2.06466517e-38
0.1460728943 -0.2796085477 0.1256638318 2.06466517e-38
-0.2281274348 -0.3197778165 0.3254632652 2.06466517e-38
-0.2976173162 -0.4563530684 -0.07169525325 2.06466517e-38
0.1742295176 -0.09356625378 -0.1340663731 2.06466517e-38
-0.05178380013 -0.4195795059 0.2963187993 2.06466517e-38
0.1547429413 -0.3938401937 -0.1885332167 2.06466517e-38
0.1656572223 -0.1783443987 -0.04888349399 2.06466517e-38
-0.2271663696 -0.2906568646 0.3201911151 2.06466517e-38
-0.2650036216 -0.3681770563 -0.17793037 2.06466517e-38
0.1676655114 -0.2593958974 -0.1643028706 2.06466517e-38
-0.105926156 -0.4872103631 -0.09147307277 2.06466517e-38
-0.07513422519 -0.4884411097 -0.2683545351 2.06466517e-38
0.07598507404 -0.3645016253 -0.2647427917 2.348204041e-38
0.02047945559 -0.4781281352 -0.2929990888 2.348204041e-38
0.1794397533 -0.2275383472 -0.2194958031 2.348204041e-38
-0.03435869142 -0.4099649191 -0.2910287678 2.348204041e-38
-0.008345879614 -0.4897636175 -0.2308060825 2.348204041e-38
0.04014170915 -0.1866608709 -0.2430431843 2.348204041e-38
0.1945125014 -0.2114756107 -0.1291175187 2.348204041e-38
0.1648617834 -0.1892945021 -0.2024054229 2.348204041e-38
0.1850984693 -0.3727278113 -0.1459577084 2.348204041e-38
-0.003585431725 -0.3974605501 -0.2894343734 2.348204041e-38
-0.1012218595 -0.2286604345 -0.2519668341 2.348204041e-38
-0.149297148 -0.3530943096 -0.2640938759 2.348204041e-38
-0.2042578906 -0.4539508224 -0.1982271969 2.348204041e-38
0.2023135573 -0.336856395 -0.2299932837 2.348204041e-38
0.06616918743 -0.1641189605 -0.2363114059 2.348204041e-38
-0.1594121605 -0.4799828529 -0.09743462503 2.348204041e-38
0.02091147751 -0.2884705663 -0.2321622074 2.348204041e-38
0.1926511526 -0.1342942864 -0.1091241241 2.348204041e-38
0.2007228434 -0.08561117947 -0.1507182419 2.348204041e-38
0.09192684293 -0.3670369685 -0.1725530624 2.348204041e-38
-0.05771569535 -0.2804467082 -0.2384365797 2.348204041e-38
0.1888277978 -0.4482816756 -0.1019738168 2.348204041e-38
0.1746416986 -0.3244122565 -0.03079805151 2.348204041e-38
0.1895912439 -0.4194853902 -0.2246623039 2.348204041e-38
0.1423653662 -0.2918960154 -0.2327425778 2.348204041e-38
-0.2298830599 -0.3573872745 -0.2729152739 2.348204041e-38
0.1819341928 -0.2690985501 -0.06943134964 2.348204041e-38
0.1848648041 -0.12638776 -0.08216762543 2.348204041e-38
0.04257132858 -0.1258057058 -0.2293358743 2.348204041e-38
0.1855895668 -0.2426946014 -0.08099097013 2.348204041e-38
0.167227149 -0.3373340964 -0.02620745078 2.348204041e-38
0.1418994665 -0.3264006376 -0.2340261936 2.348204041e-38
0.03242392093 -0.355214417 -0.2647350729 2.348204041e-38
-0.2506684661 -0.3825716078 -0.2753936946 2.348204041e-38
0.1836858839 -0.3732816279 -0.1558967531 2.348204041e-38
-0.1336712837 -0.4749433398 -0.2732321918 2.348204041e-38
-0.1195650995 -0.4466226697 -0.289835006 2.348204041e-38
-0.05847643688 -0.316426903 -0.2348970473 2.348204041e-38
0.04868097603 -0.3514063954 0.03179039434 2.348204041e-38
-0.1603325009 -0.480387181 -0.2055018097 2.348204041e-38
0.197397694 -0.407679379 -0.2368398309 2.348204041e-38
0.1838697344 -0.3686231971 -0.0903455317 2.348204041e-38
0.09840005636 -0.1844243109 -0.2372846007 2.348204041e-38
0.01903554797 -0.359162569 -0.2124727666 2.348204041e-38
0.1609260291 -0.486504972 -0.16180107 2.348204041e-38
-0.1362535805 -0.2318250686 -0.2512229681 2.348204041e-38
-0.009801756591 -0.4481681585 -0.2926887274 2.348204041e-38
0.1830931753 -0.4390233457 -0.2097896039 2.348204041e-38
-0.0782392025 -0.2744060159 -0.2402608395 2.348204041e-38
0.02161758393 -0.3819535971 0.01901564933 2.348204041e-38
-0.1555564553 -0.2483390719 -0.2527551055 2.348204041e-38
0.1833337694 -0.319585681 -0.08990199864 2.348204041e-38
-0.01685473137 -0.4901800752 -0.05717017129 2.348204041e-38
-0.06956936419 -0.4878821969 -0.2512460649 2.348204041e-38
-0.05160260201 -0.3128415346 -0.2493958175 2.348204041e-38
0.1626293808 -0.4856182337 -0.1891329587 2.348204041e-38
0.1729920805 -0.4822426438 -0.2050593048 2.348204041e-38
-0.2024503797 -0.4533661902 -0.263835609 2.348204041e-38
0.1564858705 -0.4086686671 -0.2327212691 2.348204041e-38
0.1951006204 -0.2800910175 -0.2260170281 2.348204041e-38
-0.001698307693 -0.3875965774 -0.287976563 2.348204041e-38
0.1375759244 -0.4899076521 -0.1269682646 2.348204041e-38
0.1880767941 -0.2257052511 -0.216717124 2.348204041e-38
0.1811214685 -0.4509294629 -0.1398057044 2.348204041e-38
0.1016705483 -0.187173143 -0.237374723 2.348204041e-38
0.03023181111 -0.4315394461 -0.2904654741 2.348204041e-38
-0.09196898341 -0.3009656072 -0.2386989295 2.348204041e-38
-0.143420577 -0.2380015552 -0.2488610744 2.348204041e-38
0.0324741751 -0.3902010918 -0.2820830047 2.348204041e-38
-0.2590347528 -0.3951381743 -0.2771910727 2.348204041e-38
0.1285798103 -0.1461071819 -0.2180532515 2.348204041e-38
0.1339655966 -0.4869164526 -0.1858735234 2.348204041e-38
0.1817673445 -0.2056582719 -0.219438076 2.348204041e-38
0.06532986462 -0.1823656112 -0.2404543161 2.348204041e-38
0.1826278865 -0.1877013147 -0.1801728159 2.348204041e-38
0.1817666292 -0.2221728861 -0.2188346982 2.348204041e-38
-0.1436181515 -0.2367366999 -0.2505541444 2.348204041e-38
0.1491629034 -0.4893324375 -0.1051606536 2.348204041e-38
0.1765200198 -0.473300457 -0.2592721283 2.348204041e-38
0.1797158718 -0.4449489117 -0.2312214673 2.348204041e-38
0.1292432845 -0.4317541718 -0.02574724331 2.348204041e-38
-0.1115720645 -0.4865475297 -0.2592819035 2.348204041e-38
0.1514513493 -0.4863019884 -0.0602392517 2.348204041e-38
0.1848516017 -0.2269122601 -0.2176882625 2.348204041e-38
0.1234970838 -0.481556356 -0.04808516428 2.348204041e-38
0.1749613583 -0.2236176431 -0.2110013962 2.348204041e-38
0.193159759 -0.1979279965 -0.08936040103 2.348204041e-38
0.1809219867 -0.2584095001 -0.1837198287 2.348204041e-38
0.1532879174 -0.3677510619 -0.2286629677 2.348204041e-38
0.1801086664 -0.4021499157 -0.164926067 2.348204041e-38
0.1536001265 -0.4051383138 -0.2341716886 2.348204041e-38
0.179420799 -0.0987945348 -0.2332581878 2.348204041e-38
0.1252343208 -0.4560996294 -0.2703541815 2.348204041e-38
0.07028134167 -0.2659436762 -0.2234656215 2.348204041e-38
-0.03156935424 -0.3925494254 -0.2900262773 2.348204041e-38
0.1872223169 -0.2559004426 -0.2205400765 2.348204041e-38
-0.2317065299 -0.3493770957 -0.2694844604 2.348204041e-38
0.1776390523 -0.3006006181 -0.2125484347 2.348204041e-38
0.03356263787 -0.2529916763 -0.2328279018 2.348204041e-38
0.1310784072 -0.2564743459 -0.2378771603 2.348204041e-38
0.1784236431 -0.3471356034 -0.1939202696 2.348204041e-38
0.1978149861 -0.08912488818 -0.1370964199 2.348204041e-38
0.2018789351 -0.3944962323 -0.2352725565 2.348204041e-38
0.1945692301 -0.2596955895 -0.1276995093 2.348204041e-38
0.09918729961 -0.1883237064 -0.2377397716 2.348204041e-38
0.1153832376 -0.487927705 -0.1980220526 2.348204041e-38
0.1809531003 -0.1927317083 -0.1999462694 2.348204041e-38
0.004281830043 -0.4902474284 -0.2207845151 2.348204041e-38
0.193225801 -0.2004421204 -0.2350348532 2.348204041e-38
-0.2616850138 -0.4168754816 -0.2742947936 2.348204041e-38
0.1828066856 -0.2761042416 -0.08369015157 2.348204041e-38
0.05702035874 -0.4883551896 -0.2455137074 2.348204041e-38
-0.1827627867 -0.4155325294 -0.2892983258 2.348204041e-38
0.07465650141 -0.4918278158 -0.07589131594 2.348204041e-38
-0.05119730532 -0.4815098941 -0.2800627649 2.348204041e-38
-0.1910709441 -0.3222661614 -0.2443248332 2.348204041e-38
0.1826857775 -0.1989089847 -0.06183069572 2.348204041e-38
-0.02040147781 -0.4901019335 -0.0472268872 2.348204041e-38
-0.2131683528 -0.4353583455 -0.2841367424 2.348204041e-38
0.2005704045 -0.06922399998 -0.1510762721 2.348204041e-38
0.1778510958 -0.4379351735 -0.04256974533 2.348204041e-38
0.1908169389 -0.4406167269 -0.235385716 2.348204041e-38
0.1885026693 -0.1227213889 -0.1001793444 2.348204041e-38
-0.0271180626 -0.4846628308 -0.03249964491 2.348204041e-38
-0.1933255047 -0.2860966623 -0.2524470389 2.348204041e-38
0.1752596945 -0.2489412427 -0.1980000436 2.348204041e-38
0.03037279099 -0.4887741506 -0.2379949689 2.348204041e-38
-0.02640652284 -0.4421214461 -0.2931725681 2.348204041e-38
0.08490878344 -0.3268495798 -0.2776151597 2.346801622e-38
0.03756068647 -0.447714448 -0.3064027727 2.346801622e-38
0.1845716387 -0.224609971 -0.2428042889 2.346801622e-38
-0.004496216774 -0.3677152395 -0.3021802008 2.346801622e-38
0.007523145527 -0.4878606796 -0.2767946124 2.346801622e-38
0.03138653189 -0.1669571698 -0.2683437467 2.346801622e-38
0.1954350919 -0.2115926892 -0.1757189631 2.346801622e-38
0.08875373006 -0.1258512586 -0.2590565085 2.346801622e-38
0.1902345568 -0.3583146632 -0.1818163842 2.346801622e-38
0.01605434716 -0.3558524847 -0.2961736023 2.346801622e-38
-0.0775231123 -0.182234928 -0.2725116014 2.346801622e-38
-0.0980450809 -0.2983644307 -0.2780185938 2.346801622e-38
-0.1674725115 -0.4627562761 -0.2549174726 2.346801622e-38
0.2078043967 -0.369897455 -0.2499957681 2.346801622e-38
0.04694031924 -0.1476256102 -0.2649343014 2.346801622e-38
-0.1121172979 -0.4829636216 -0.148124814 2.346801622e-38
-0.05240381882 -0.16101484 -0.2796590626 2.346801622e-38
0.1910493076 -0.1403458267 -0.1520983577 2.346801622e-38
0.2024529278 -0.0902017951 -0.1908735633 2.346801622e-38
0.03971711546 -0.302087158 -0.2529864907 2.346801622e-38
-0.1024905592 -0.1739072502 -0.2808107436 2.346801622e-38
0.1904044151 -0.4303693175 -0.1493786275 2.346801622e-38
0.1831323653 -0.316046387 -0.07483434677 2.346801622e-38
0.1918728501 -0.4557455182 -0.2632499337 2.346801622e-38
0.1515214145 -0.2667464912 -0.2504754961 2.346801622e-38
-0.1786690354 -0.3493760824 -0.2818652987 2.346801622e-38
0.190459758 -0.2627768815 -0.1268724054 2.346801622e-38
0.1892347932 -0.1306003332 -0.1248216629 2.346801622e-38
0.0001186467707 -0.1133063138 -0.2614473999 2.346801622e-38
0.1949883699 -0.2372311652 -0.1333061755 2.346801622e-38
0.1790035516 -0.3291160166 -0.06688772142 2.346801622e-38
0.1489683986 -0.2943295538 -0.2472686172 2.346801622e-38
0.04832978547 -0.2945651114 -0.2763336301 2.346801622e-38
-0.2086424232 -0.3791060448 -0.2892533243 2.346801622e-38
0.189674288 -0.3676396906 -0.190373525 2.346801622e-38
-0.1023184061 -0.4642769098 -0.2923849225 2.346801622e-38
-0.07151582092 -0.4126695395 -0.2926157415 2.346801622e-38
-0.09767766297 -0.2148171663 -0.2851631939 2.346801622e-38
0.08038112521 -0.3499667645 -0.006836194545 2.346801622e-38
-0.1286551952 -0.4839854538 -0.2573285699 2.346801622e-38
0.1893758923 -0.415086031 -0.2431869209 2.346801622e-38
0.1880221516 -0.3541376591 -0.141898334 2.346801622e-38
0.08929714561 -0.1672762483 -0.2631471753 2.346801622e-38
-0.03026944585 -0.2659106255 -0.27842471 2.346801622e-38
0.1752379388 -0.486995846 -0.2161731124 2.346801622e-38
-0.1183503196 -0.1910508275 -0.2777535617 2.346801622e-38
0.008917346597 -0.3999937475 -0.303317517 2.346801622e-38
0.1910113394 -0.4595493674 -0.2671772838 2.346801622e-38
-0.1114263237 -0.1754570305 -0.2777379155 2.346801622e-38
0.06304999441 -0.3796163797 -0.02400097623 2.346801622e-38
-0.1330420971 -0.2114539891 -0.2787182629 2.346801622e-38
0.1910894513 -0.3098740876 -0.1377386153 2.346801622e-38
0.03028483689 -0.4898445606 -0.1021525562 2.346801622e-38
-0.04581017047 -0.484082967 -0.2917372882 2.346801622e-38
-0.02179580368 -0.2366869152 -0.2738964558 2.346801622e-38
0.1768828481 -0.4864292145 -0.2480686605 2.346801622e-38
0.1835835427 -0.4776703715 -0.2672581375 2.346801622e-38
-0.1705264598 -0.4584046006 -0.2959190011 2.346801622e-38
0.1545647532 -0.3697666824 -0.2491751313 2.346801622e-38
0.2037014067 -0.3179103732 -0.2505883873 2.346801622e-38
0.01879928261 -0.3479282856 -0.2935966253 2.346801622e-38
0.1588862985 -0.4890913367 -0.1892809421 2.346801622e-38
0.1909545064 -0.2243884206 -0.2429166138 2.346801622e-38
0.1874530166 -0.4452419877 -0.1842506081 2.346801622e-38
0.09376479685 -0.1698931754 -0.2625477612 2.346801622e-38
0.03909070045 -0.3776410222 -0.2953098118 2.346801622e-38
-0.1156240329 -0.2067651451 -0.2824412882 2.346801622e-38
-0.1430406868 -0.201949656 -0.2786198258 2.346801622e-38
0.04325563461 -0.3496285975 -0.288295567 2.346801622e-38
-0.223397851 -0.3939881027 -0.2870263457 2.346801622e-38
0.04743592441 -0.09878566861 -0.2511427999 2.346801622e-38
0.1516514122 -0.4885953665 -0.2434659898 2.346801622e-38
0.1841186583 -0.2023611218 -0.2467471957 2.346801622e-38
0.04877348244 -0.1633530706 -0.2672525644 2.346801622e-38
0.1292541921 -0.1298808306 -0.2475428581 2.346801622e-38
0.1857159436 -0.2196124643 -0.2438668311 2.346801622e-38
-0.1372833848 -0.199460268 -0.2792841196 2.346801622e-38
0.1738207638 -0.4878900945 -0.1640162021 2.346801622e-38
0.1659950465 -0.4707306027 -0.291880101 2.346801622e-38
0.1756711006 -0.4238237143 -0.2420962751 2.346801622e-38
0.1448829025 -0.4236651659 -0.06231780723 2.346801622e-38
-0.08077147603 -0.4779147506 -0.2895331383 2.346801622e-38
0.1635314673 -0.4802425504 -0.1030729264 2.346801622e-38
0.1885879487 -0.225148499 -0.2427670658 2.346801622e-38
0.1383601576 -0.472229749 -0.08844311535 2.346801622e-38
0.1887870431 -0.2338408232 -0.2330682278 2.346801622e-38
0.1950126737 -0.1950295419 -0.1400426179 2.346801622e-38
0.1805469543 -0.2576221228 -0.2148720622 2.346801622e-38
0.1549034566 -0.3405579031 -0.2436701059 2.346801622e-38
0.1904740185 -0.3978489637 -0.2111833543 2.346801622e-38
0.1520963311 -0.366392225 -0.2507197857 2.346801622e-38
0.1904895008 -0.123507902 -0.2537246346 2.346801622e-38
0.1096725464 -0.4018366337 -0.2773661017 2.346801622e-38
-0.01454111002 -0.1500080079 -0.2747758031 2.346801622e-38
-0.004740357399 -0.3525161147 -0.2999070585 2.346801622e-38
0.1985634863 -0.2802519798 -0.2446476519 2.346801622e-38
-0.1807011366 -0.340194732 -0.2788190246 2.346801622e-38
0.1835164279 -0.2856660783 -0.2353768945 2.346801622e-38
-0.04232785478 -0.1367635578 -0.2740083337 2.346801622e-38
0.1454620212 -0.2392257899 -0.2581117451 2.346801622e-38
0.1987082064 -0.3554773331 -0.2351716757 2.346801622e-38
0.2004994601 -0.09525331855 -0.1774977148 2.346801622e-38
0.1941744983 -0.4084399045 -0.2455272377 2.346801622e-38
0.1941977888 -0.2536180317 -0.168074131 2.346801622e-38
0.09113256633 -0.1705605686 -0.2630581856 2.346801622e-38
0.1319925934 -0.489043951 -0.2584247887 2.346801622e-38
