# .PCD v0.7 - Point Cloud Data file format
VERSION 0.7
FIELDS x y z rgb
SIZE 4 4 4 4
TYPE F F F F
COUNT 1 1 1 1
WIDTH 829
HEIGHT 1
VIEWPOINT 0 0 0 1 0 0 0
POINTS 829
DATA ascii
-0.2540747821 -0.1521534324 -0.2629290819 5.962428276e-39
-0.243878305 -0.4713799953 -0.1994648427 5.962428276e-39
-0.179043889 -0.09203584492 -0.2255915999 5.962428276e-39
0.1440376043 -0.2009863555 -0.1970686167 5.962428276e-39
-0.05053014681 -0.2877331078 -0.1893805265 5.962428276e-39
-0.2769052982 -0.06300407648 -0.1829944104 5.962428276e-39
-0.2885303199 0.004485279322 -0.2359624207 5.962428276e-39
0.2625404 -0.2459554821 -0.1873300374 5.962428276e-39
-0.2387567461 -0.2577553988 -0.2384330779 5.962428276e-39
-0.1395528615 -0.0938103497 -0.1884606481 5.962428276e-39
-0.2217527032 0.01162075996 -0.2556185126 5.962428276e-39
-0.2737426162 -0.4673690796 -0.2297132909 5.962428276e-39
-0.31509161 -0.374907434 -0.2183084786 5.962428276e-39
-0.2864795327 -0.2241789997 -0.2560310066 5.962428276e-39
0.2178037763 -0.3509673476 -0.1967436969 5.962428276e-39
-0.1078984588 -0.4707366228 -0.1966106296 5.962428276e-39
-0.2108419836 -0.2330851108 -0.1815533489 5.962428276e-39
0.2270614207 -0.3067363501 -0.2017070055 5.962428276e-39
-0.2584687173 -0.1176062375 -0.2657062709 5.962428276e-39
-0.2736694217 -0.2404819578 -0.2607707977 5.962428276e-39
-0.1787165999 0.03819894791 -0.245948717 5.962428276e-39
-0.2854150832 -0.1143714935 -0.2323689312 5.962428276e-39
-0.205365479 -0.2822755277 -0.1878652126 5.962428276e-39
0.1154050604 -0.1584186554 -0.1876345426 5.962428276e-39
-0.2820572853 -0.1397472173 -0.2637716532 5.962428276e-39
0.2297143042 -0.2518675923 -0.2002588063 5.962428276e-39
-0.09400334954 -0.180262655 -0.1891540438 5.962428276e-39
-0.2762723863 -0.1338591874 -0.1842311174 5.962428276e-39
-0.09223482758 -0.0378999114 -0.2011052519 5.962428276e-39
-0.141913563 -0.3317905962 -0.1895155013 5.962428276e-39
-0.09200507402 -0.1282726079 -0.1880628318 5.962428276e-39
-0.2616553903 0.05464008451 -0.2620174885 5.962428276e-39
0.04692399502 -0.09011633694 -0.1981752068 5.962428276e-39
-0.2859039605 -0.1740500778 -0.2576429844 5.962428276e-39
-0.2765475214 -0.3595305085 -0.2443787605 5.962428276e-39
-0.1782389283 -0.03618636727 -0.2343120575 5.962428276e-39
0.0370490104 0.001588732004 -0.2306940854 5.962428276e-39
-0.08920642734 -0.3812657595 -0.197395727 5.962428276e-39
-0.2376227677 -0.4229776561 -0.1872412562 8.906165387e-39
-0.1571630538 0.0534555912 -0.1874500364 8.906165387e-39
-0.20870924 0.005771100521 -0.169672519 8.906165387e-39
-0.2657854259 -0.415373981 -0.1902646273 8.906165387e-39
-0.1588396132 -0.2564613223 -0.1927189827 8.906165387e-39
-0.244014591 -0.1812120229 -0.2046160549 8.906165387e-39
0.1593016386 -0.228881821 -0.1907566786 8.906165387e-39
-0.08301141858 -0.3233873546 -0.1894319654 8.906165387e-39
-0.1661031544 -0.3218379617 -0.1860446036 8.906165387e-39
-0.01520915702 0.02018895745 -0.1748601198 8.906165387e-39
0.1954414546 -0.2905601859 -0.2003481537 8.906165387e-39
0.3024047911 -0.1075863391 -0.1710730791 8.906165387e-39
0.2032010853 -0.1915142387 -0.1928765923 8.906165387e-39
0.05154600739 -0.4160528183 -0.1858006269 8.906165387e-39
-0.2120017111 -0.01511016488 -0.1622234583 8.906165387e-39
-0.2485157251 -0.4745452404 -0.2260067016 8.906165387e-39
0.06373073906 -0.3349195421 -0.1438679248 8.906165387e-39
0.09534082562 -0.01005935669 -0.1707586199 8.906165387e-39
0.02629753575 -0.08540633321 -0.1680588722 8.906165387e-39
-0.194806695 -0.3137458265 -0.2007520646 8.906165387e-39
-0.2411286235 -0.06927141547 -0.1626632959 8.906165387e-39
0.3728195429 -0.2620013356 -0.1739671826 8.906165387e-39
0.1206640378 -0.3970406055 -0.1836309433 8.906165387e-39
-0.1414699852 -0.2818493843 -0.1762437075 8.906165387e-39
0.1768697202 -0.1737841666 -0.1821198314 8.906165387e-39
-0.25688833 -0.2415406406 -0.2048813701 8.906165387e-39
-0.2257744372 -0.08331502974 -0.2033171952 8.906165387e-39
-0.2743736506 -0.2519768476 -0.188294515 8.906165387e-39
0.3107039332 -0.2418221533 -0.1695453376 8.906165387e-39
-0.2083591223 -0.06190285087 -0.2033011913 8.906165387e-39
0.2132745385 -0.2643245161 -0.198513031 8.906165387e-39
0.004789721221 0.01322770119 -0.1854673624 8.906165387e-39
0.1980452836 -0.2022577971 -0.1822059602 8.906165387e-39
-0.1254956126 -0.2608232796 -0.1703426242 8.906165387e-39
0.3710831106 -0.1671518236 -0.1633719504 8.906165387e-39
-0.200807482 -0.08585366607 -0.2059424222 8.906165387e-39
0.2247661948 -0.1389925927 -0.1665432006 8.906165387e-39
-0.2542780638 -0.1886111051 -0.1757757068 8.906165387e-39
-0.04423175752 -0.3371667266 -0.1488111615 8.906165387e-39
0.1994632483 -0.05820325017 -0.1640760899 8.906165387e-39
-0.1346388906 -0.04550504684 -0.2043232322 8.906165387e-39
-0.08171895891 0.02567434311 -0.1813059896 8.906165387e-39
0.2438659668 -0.3350881338 -0.1912364066 8.906165387e-39
-0.1321997494 -0.4666229486 -0.1948361397 8.906165387e-39
0.339958638 -0.3131452799 -0.1731174737 8.906165387e-39
-0.06689316034 0.03366240859 -0.1800776869 8.906165387e-39
-0.1491494775 -0.35058707 -0.188831225 8.906165387e-39
-0.04383787513 -0.1500170678 -0.1796098351 8.906165387e-39
-0.09562245011 -0.3915780783 -0.1944886893 8.906165387e-39
-0.1575399041 -0.1729169339 -0.2014496922 8.906165387e-39
0.3850004375 -0.2446293235 -0.1660064161 8.906165387e-39
-0.06992571056 -0.04677850008 -0.1764079481 8.906165387e-39
-0.2193008959 -0.2012776285 -0.2065009624 8.906165387e-39
-0.2607667148 -0.1879048198 -0.1878931373 8.906165387e-39
-0.08046932518 -0.3327141106 -0.1897649616 8.906165387e-39
-0.05776628852 -0.08296774328 -0.1769312024 8.906165387e-39
0.3042947948 -0.1529635042 -0.1696196795 8.906165387e-39
-0.2578063011 -0.4735912085 -0.2267669737 8.906165387e-39
-0.0005761198699 -0.02513110638 -0.200387314 8.906165387e-39
0.2616506517 -0.1092277318 -0.17203179 8.906165387e-39
-0.0262108352 -0.1106817871 -0.1838443428 8.906165387e-39
-0.162038058 -0.3116737604 -0.1856577098 8.906165387e-39
-0.2569852471 -0.1749092788 -0.1959706396 8.906165387e-39
-0.1870422959 -0.1682888865 -0.1753882319 8.906165387e-39
0.07038059831 -0.06820580363 -0.1863595992 8.906165387e-39
0.1685717702 -0.01607248187 -0.1711169481 8.906165387e-39
-0.2700924873 -0.2453853488 -0.1890313625 8.906165387e-39
0.2993193567 -0.3346684873 -0.1757630557 8.906165387e-39
-0.03371058404 -0.05683040619 -0.1788333952 8.906165387e-39
-0.1847142279 -0.05630615354 -0.2073077112 8.906165387e-39
-0.1447569132 -0.2932535708 -0.1905182898 8.906165387e-39
-0.07386277616 -0.1949928552 -0.1958891302 8.906165387e-39
0.03556896746 -0.4054178596 -0.1860953271 8.906165387e-39
-0.008189195767 -0.273866117 -0.1789126098 8.906165387e-39
-0.03585162386 -0.06327685714 -0.1840761453 8.906165387e-39
0.1826296747 -0.3105170727 -0.1518570334 8.906165387e-39
-0.2840380073 -0.4190430939 -0.1903664768 8.906165387e-39
-0.1622933447 0.04108279943 -0.1669304073 8.906165387e-39
0.09900409728 -0.1703407466 -0.1972150803 8.906165387e-39
-0.2795500159 -0.2670342922 -0.1907656491 8.906165387e-39
-0.2513869405 -0.1353338212 -0.1701386571 8.906165387e-39
-0.1594460309 0.02637961507 -0.1956212223 8.906165387e-39
-0.05635106564 0.03443485498 -0.1794742644 8.906165387e-39
0.3062694967 -0.2929715514 -0.1909587681 8.906165387e-39
-0.2472317815 -0.1650209725 -0.2033703476 8.906165387e-39
-0.02792810649 -0.09933833778 -0.2008779794 8.906165387e-39
-0.133456707 -0.2879197299 -0.1743437499 8.906165387e-39
-0.2424793839 -0.00427365303 -0.1961063892 8.906165387e-39
0.2234044075 -0.2600709796 -0.1591802537 8.906165387e-39
-0.187048912 -0.4322505593 -0.1997002214 8.906165387e-39
-0.1319489926 -0.07862648368 -0.1997952163 8.906165387e-39
-0.2899452746 -0.4594202638 -0.2236413807 8.906165387e-39
-0.01416983455 -0.04070654511 -0.182029739 8.906165387e-39
0.1826557815 -0.3250458837 -0.1950017661 8.906165387e-39
-0.05771797895 -0.3180221021 -0.1901481599 8.906165387e-39
-0.1883509755 0.02395448089 -0.1670488864 8.906165387e-39
-0.1574440598 0.05347031355 -0.188192606 8.906165387e-39
0.1996368766 -0.2876565456 -0.1556102782 8.906165387e-39
-0.1122790873 -0.1766931564 -0.179742679 8.906165387e-39
-0.1416759789 -0.1324669272 -0.1926893145 8.906165387e-39
-0.03285397962 0.03183344007 -0.1848678291 8.906165387e-39
-0.276894033 -0.4310004115 -0.2175381482 8.906165387e-39
-0.2690158486 -0.2554558516 -0.1939225942 8.906165387e-39
-0.2160862684 -0.1393727511 -0.2059237063 8.906165387e-39
0.1588324904 -0.3711625338 -0.1892272085 8.906165387e-39
-0.197206974 -0.468046248 -0.2273298204 8.906165387e-39
-0.1532758176 -0.1092480123 -0.1702823639 8.906165387e-39
0.1926932633 -0.3350063562 -0.1976055354 8.906165387e-39
-0.1405921429 -0.04197070003 -0.2063900083 8.906165387e-39
-0.1916854084 -0.161080718 -0.2118201852 8.906165387e-39
0.04023136199 -0.02627035975 -0.1772080958 8.906165387e-39
-0.246645689 -0.02062362432 -0.1947569549 8.906165387e-39
-0.236155659 -0.3823610544 -0.1878890544 8.906165387e-39
0.08808021247 -0.1919966936 -0.1899358481 8.906165387e-39
-0.1817651093 -0.05730324984 -0.2072462142 8.906165387e-39
0.2210872769 -0.28467834 -0.2000448853 8.906165387e-39
-0.09392859042 -0.2127928585 -0.1933914274 8.906165387e-39
-0.2239641249 -0.03774133325 -0.1615432203 8.906165387e-39
0.0005916394293 -0.1318990737 -0.1887680292 8.906165387e-39
-0.152585879 -0.377322197 -0.1894779056 8.906165387e-39
-0.01540411822 -0.2448880523 -0.1781598926 8.906165387e-39
-0.0225224942 0.00176012516 -0.1873114705 8.906165387e-39
0.1571282446 -0.2335124016 -0.1894357204 8.906165387e-39
-0.2076427937 -0.09204244614 -0.2050775886 8.906165387e-39
-0.159502089 -0.2623689473 -0.1913946271 8.906165387e-39
0.01598500833 0.0009864866734 -0.1867114455 8.906165387e-39
0.2281687558 -0.1050999761 -0.1675548553 8.906165387e-39
-0.1171541139 -0.4222640097 -0.1921704859 8.906165387e-39
-0.2803463936 -0.4161096513 -0.1897292435 1.184631237e-38
-0.1369701326 0.03902897239 -0.1926902831 1.184631237e-38
-0.2300385535 0.04562085867 -0.1872918159 1.184631237e-38
-0.2709049582 -0.294110626 -0.1914808154 1.184631237e-38
-0.2680640221 -0.1585906893 -0.27182886 1.184631237e-38
-0.2854832113 -0.0814460516 -0.239488408 1.184631237e-38
0.1187405214 -0.2526574731 -0.18218714 1.184631237e-38
-0.1320679933 -0.340087682 -0.192723006 1.184631237e-38
-0.2839986384 -0.2202879786 -0.2852177322 1.184631237e-38
0.01837714761 0.0007691979408 -0.1908230931 1.184631237e-38
0.1492268741 -0.3298848271 -0.1922266185 1.184631237e-38
0.2293703556 -0.1942302734 -0.1711120605 1.184631237e-38
0.168140173 -0.2183977813 -0.1801138669 1.184631237e-38
-0.07860793173 -0.4655279517 -0.1807821095 1.184631237e-38
-0.2379009128 0.04097887874 -0.1836834252 1.184631237e-38
-0.3160198927 -0.4267103076 -0.280094862 1.184631237e-38
-0.1828385592 -0.2143265307 -0.1993496269 1.184631237e-38
0.1226055697 -0.02635422349 -0.1823694408 1.184631237e-38
-0.09845748544 0.009580403566 -0.2268369198 1.184631237e-38
-0.2752133608 -0.2060395181 -0.2828912139 1.184631237e-38
-0.2687686086 0.003335118294 -0.1904200166 1.184631237e-38
0.3199067712 -0.3115684092 -0.1617949605 1.184631237e-38
-0.005292769521 -0.4593926072 -0.1665302962 1.184631237e-38
-0.2625996768 -0.1906599998 -0.2569408715 1.184631237e-38
0.1745069623 -0.2036974281 -0.1901084036 1.184631237e-38
-0.288522929 -0.1454373002 -0.2357483357 1.184631237e-38
-0.2811693251 -0.0007429420948 -0.2473820299 1.184631237e-38
-0.2918173671 -0.1530929655 -0.214479804 1.184631237e-38
0.1911558509 -0.3660403192 -0.1661543697 1.184631237e-38
-0.2775520086 0.02065882087 -0.2544540763 1.184631237e-38
0.1787318885 -0.3014206588 -0.1871402711 1.184631237e-38
-0.01394188963 0.03341048956 -0.2126888037 1.184631237e-38
0.1887513101 -0.2338394821 -0.1901760846 1.184631237e-38
-0.2598342597 -0.162639305 -0.2467518896 1.184631237e-38
0.2816255093 -0.2372520864 -0.1550815552 1.184631237e-38
-0.2764005363 0.004222393036 -0.2658055723 1.184631237e-38
0.2071546316 -0.2449127734 -0.1621487588 1.184631237e-38
-0.2761452496 -0.1107569188 -0.1901642531 1.184631237e-38
-0.2573950589 -0.2285439968 -0.2357013822 1.184631237e-38
0.1969486177 -0.09137579799 -0.1804183722 1.184631237e-38
-0.2471210361 0.03690516949 -0.267981708 1.184631237e-38
-0.07036650181 0.002054870129 -0.1957905143 1.184631237e-38
0.2102686763 -0.3852261901 -0.1767304987 1.184631237e-38
-0.2352091372 -0.4558780789 -0.2075195611 1.184631237e-38
0.2759410441 -0.3740534484 -0.1517071724 1.184631237e-38
-0.03300951421 0.01523968577 -0.1926385313 1.184631237e-38
-0.2401790321 -0.4035305977 -0.1880481541 1.184631237e-38
-0.05701166764 -0.1794309765 -0.1835678518 1.184631237e-38
-0.1743785441 -0.421544373 -0.2022802234 1.184631237e-38
-0.2616147399 -0.08410383761 -0.2761949599 1.184631237e-38
0.3273878694 -0.3129137754 -0.1495454311 1.184631237e-38
-0.07691137493 -0.0838111192 -0.1874293536 1.184631237e-38
-0.2811764777 -0.1041552424 -0.2616260052 1.184631237e-38
-0.2876096368 -0.107900098 -0.2092283815 1.184631237e-38
-0.1313664019 -0.3502777219 -0.1928730458 1.184631237e-38
-0.0666802749 -0.120453313 -0.1869811863 1.184631237e-38
0.2193881273 -0.2940968573 -0.1701032221 1.184631237e-38
-0.3198790848 -0.4175127447 -0.2800139487 1.184631237e-38
0.05726164579 -0.04944401979 -0.194815889 1.184631237e-38
0.2121808827 -0.1624958813 -0.1728086472 1.184631237e-38
-0.02568322606 -0.1554526538 -0.1943650246 1.184631237e-38
-0.2804543376 -0.212095663 -0.2806530595 1.184631237e-38
-0.2876862884 -0.08473449945 -0.2232126147 1.184631237e-38
-0.2102936506 -0.09080071747 -0.1736785769 1.184631237e-38
0.1085261032 -0.07967656851 -0.187294215 1.184631237e-38
0.1907832325 -0.03160920739 -0.1883368045 1.184631237e-38
-0.2920075357 -0.1476974487 -0.2175494432 1.184631237e-38
0.2343088984 -0.4011720121 -0.1553741843 1.184631237e-38
-0.1838137507 0.02620911598 -0.2420178801 1.184631237e-38
-0.2760060132 0.02634108067 -0.2675782442 1.184631237e-38
-0.2144363523 -0.3223899007 -0.191179052 1.184631237e-38
-0.1065140292 -0.2217395157 -0.1880187094 1.184631237e-38
-0.07079514861 -0.4638162851 -0.1860612929 1.184631237e-38
-0.02110556513 -0.3043134809 -0.1826618612 1.184631237e-38
-0.03473130986 -0.09493024647 -0.1962325424 1.184631237e-38
-0.03556098416 -0.2678707838 -0.1716512442 1.184631237e-38
-0.2847714424 -0.2814095914 -0.1968403161 1.184631237e-38
-0.1648057401 0.03657323122 -0.1794037372 1.184631237e-38
0.1237611547 -0.1826599389 -0.1955619156 1.184631237e-38
-0.2919053137 -0.1632322669 -0.2142012715 1.184631237e-38
-0.2739120424 -0.06801238656 -0.1892050654 1.184631237e-38
-0.1538556218 0.05026611686 -0.2161066085 1.184631237e-38
-0.02351589128 0.01461485028 -0.1937805265 1.184631237e-38
0.2689122856 -0.3407332003 -0.1779132783 1.184631237e-38
-0.2861113846 -0.06355157495 -0.2360367775 1.184631237e-38
-0.06148454547 -0.1201463193 -0.2139139175 1.184631237e-38
-0.2590997219 -0.1948578209 -0.2524024248 1.184631237e-38
-0.2626131475 0.04389804602 -0.2174945474 1.184631237e-38
0.04086662084 -0.3184400797 -0.1650077701 1.184631237e-38
-0.3069497049 -0.3176523447 -0.3134019375 1.184631237e-38
-0.2477957606 0.01379498839 -0.2758270204 1.184631237e-38
-0.317394346 -0.3676049113 -0.2625446916 1.184631237e-38
-0.1254544109 0.04205515981 -0.236074388 1.184631237e-38
0.1693974435 -0.3443925679 -0.2038654834 1.184631237e-38
-0.1009745449 -0.3385753632 -0.1910908073 1.184631237e-38
-0.1952000856 0.04446473718 -0.1749671102 1.184631237e-38
-0.136099115 0.03927147388 -0.1931737959 1.184631237e-38
-0.002523187548 -0.2877544761 -0.1682780385 1.184631237e-38
-0.2469140291 -0.07112658024 -0.2631798089 1.184631237e-38
-0.1800945401 -0.1433225423 -0.1932809651 1.184631237e-38
-0.02497118339 0.0213907361 -0.2022455931 1.184631237e-38
-0.309001416 -0.3190720379 -0.2840110064 1.184631237e-38
-0.2935073674 -0.156156078 -0.2269156724 1.184631237e-38
-0.2804770172 -0.04756855965 -0.2586813569 1.184631237e-38
0.09715063125 -0.4302919507 -0.1742959619 1.184631237e-38
-0.3011236489 -0.4309554696 -0.2939675748 1.184631237e-38
-0.1735754907 -0.0785446465 -0.1749105901 1.184631237e-38
0.1496758163 -0.3758234382 -0.1857518852 1.184631237e-38
-0.2497399151 0.04056689143 -0.2664099336 1.184631237e-38
-0.2735105753 -0.07354158163 -0.2767741084 1.184631237e-38
0.08992283791 -0.02715942264 -0.1838695109 1.184631237e-38
-0.2705581188 0.03278082609 -0.2214459479 1.184631237e-38
-0.271240443 -0.4051200747 -0.1893312037 1.184631237e-38
0.05844336748 -0.2166158259 -0.1923691779 1.184631237e-38
-0.2747864127 0.02579009533 -0.2689077258 1.184631237e-38
0.1851207912 -0.3258013427 -0.1899406612 1.184631237e-38
-0.136942625 -0.2321764231 -0.1908178777 1.184631237e-38
-0.2506231964 0.02880883217 -0.1767444611 1.184631237e-38
0.007407937199 -0.1715133637 -0.1981124133 1.184631237e-38
-0.2496595085 -0.4372682571 -0.1909798682 1.184631237e-38
-0.03279799595 -0.2684593499 -0.1813268661 1.184631237e-38
0.03127767146 -0.01031541824 -0.1871350557 1.184631237e-38
0.1700665653 -0.2638754547 -0.1966136694 1.184631237e-38
-0.2779393494 -0.001839488745 -0.2608573437 1.184631237e-38
-0.2687799037 -0.1644692421 -0.2706748843 1.184631237e-38
-0.006469046697 0.03734201193 -0.2165825963 1.184631237e-38
0.2088460028 -0.1431956142 -0.1824262887 1.184631237e-38
-0.2213306427 -0.4607644677 -0.2065000683 1.184631237e-38
-0.2884500325 -0.408809334 -0.182428956 1.478322936e-38
-0.1389081776 0.04299655557 -0.1985594183 1.478322936e-38
-0.2378020585 0.05338352919 -0.1766800135 1.478322936e-38
-0.2753396332 -0.2867234647 -0.1763121933 1.478322936e-38
-0.2295267284 -0.142709285 -0.2521303296 1.478322936e-38
-0.2775208056 -0.07837760448 -0.2254056334 1.478322936e-38
0.17386958 -0.2421644628 -0.1809500158 1.478322936e-38
-0.1107819974 -0.3399116993 -0.1909301132 1.478322936e-38
-0.2349210978 -0.2032339275 -0.2528233528 1.478322936e-38
0.007844902575 -0.001097917557 -0.1972076595 1.478322936e-38
0.205445379 -0.3088596463 -0.1921934485 1.478322936e-38
0.2927997708 -0.1668815017 -0.1634711474 1.478322936e-38
0.2180114985 -0.208209306 -0.1822964251 1.478322936e-38
-0.0576897189 -0.4443172812 -0.1775387228 1.478322936e-38
-0.2458388507 0.04786670208 -0.174753353 1.478322936e-38
-0.2952567637 -0.4013616443 -0.2389568537 1.478322936e-38
-0.09448996186 -0.1781672835 -0.1872587353 1.478322936e-38
0.1280917823 -0.02660375834 -0.1874434352 1.478322936e-38
-0.07343955338 0.01316618919 -0.2360293567 1.478322936e-38
-0.2436598539 -0.1981110275 -0.2543949187 1.478322936e-38
-0.2716604471 0.01741045713 -0.1765073389 1.478322936e-38
0.3701936901 -0.2725825608 -0.1626429409 1.478322936e-38
0.03470254689 -0.4335890412 -0.1669232845 1.478322936e-38
-0.221090883 -0.1681892276 -0.237402603 1.478322936e-38
0.1927612722 -0.2014975548 -0.1951161027 1.478322936e-38
-0.281719178 -0.1394386888 -0.2193963975 1.478322936e-38
-0.2777865231 0.008742064238 -0.2358159423 1.478322936e-38
-0.2918533385 -0.1474475563 -0.1981236637 1.478322936e-38
0.2419930995 -0.3125688732 -0.1635607928 1.478322936e-38
-0.2728538215 0.02933427691 -0.2437484115 1.478322936e-38
0.2298849821 -0.2812818289 -0.1893439293 1.478322936e-38
-0.0268342346 0.03322827816 -0.2183859646 1.478322936e-38
0.2131619155 -0.2367835045 -0.1954330504 1.478322936e-38
-0.2274629772 -0.1394622624 -0.233494103 1.478322936e-38
0.3517385721 -0.1972040683 -0.147636503 1.478322936e-38
-0.2582359612 0.01445633173 -0.249926284 1.478322936e-38
0.252372086 -0.2091920674 -0.172484532 1.478322936e-38
-0.2792136669 -0.09948585927 -0.1774429679 1.478322936e-38
-0.1945815086 -0.1959406435 -0.2081115991 1.478322936e-38
0.2212731838 -0.08108977973 -0.1849656105 1.478322936e-38
-0.2440187633 0.04714339972 -0.2696469426 1.478322936e-38
-0.07754166424 0.007404327393 -0.194007948 1.478322936e-38
0.2528277338 -0.354557544 -0.1800768226 1.478322936e-38
-0.2600246668 -0.45808357 -0.2032787055 1.478322936e-38
0.3141314387 -0.3252652884 -0.1569535881 1.478322936e-38
-0.03863732889 0.01440668106 -0.1953103244 1.478322936e-38
-0.2435358763 -0.403334856 -0.1859840155 1.478322936e-38
-0.05175216869 -0.1574607939 -0.1790810227 1.478322936e-38
-0.1794174016 -0.4239831865 -0.1975089908 1.478322936e-38
-0.2348147631 -0.06737497449 -0.2581138909 1.478322936e-38
0.3773645759 -0.2725753188 -0.1514554173 1.478322936e-38
-0.0799690634 -0.0663819313 -0.1831725389 1.478322936e-38
-0.2570762336 -0.1007303894 -0.2426613718 1.478322936e-38
-0.2891989946 -0.1014698893 -0.2005647272 1.478322936e-38
-0.1120491624 -0.3492645323 -0.1915278882 1.478322936e-38
-0.06610009074 -0.1026187539 -0.1822232008 1.478322936e-38
0.2608651817 -0.2532964051 -0.1715462655 1.478322936e-38
-0.2967574596 -0.3868300915 -0.2379833609 1.478322936e-38
0.04555485398 -0.04234093428 -0.1987918764 1.478322936e-38
0.283334136 -0.1481545866 -0.1658334881 1.478322936e-38
-0.01881836914 -0.1415291131 -0.1911401749 1.478322936e-38
-0.2319416404 -0.1937726587 -0.2511865497 1.478322936e-38
-0.2843484879 -0.07762974501 -0.2126393765 1.478322936e-38
-0.2167371511 -0.08535373211 -0.1690836102 1.478322936e-38
0.1075710729 -0.08175548911 -0.1895125061 1.478322936e-38
0.2013085186 -0.02744022012 -0.1925976872 1.478322936e-38
-0.2914490104 -0.143153131 -0.2034677416 1.478322936e-38
0.2731030583 -0.3521264493 -0.1598834395 1.478322936e-38
-0.1628341973 0.03833952546 -0.252684325 1.478322936e-38
-0.2644993961 0.03647634387 -0.259835124 1.478322936e-38
-0.2092503309 -0.3238910139 -0.1879496127 1.478322936e-38
-0.07312030345 -0.2181939185 -0.1872686148 1.478322936e-38
-0.07306572795 -0.4399196208 -0.1856254339 1.478322936e-38
-0.01297800243 -0.2887721062 -0.1816488653 1.478322936e-38
-0.03167909384 -0.08622656763 -0.1921073347 1.478322936e-38
0.04920295626 -0.2258860767 -0.1650523394 1.478322936e-38
-0.2883150578 -0.2755998373 -0.1844050884 1.478322936e-38
-0.1753419936 0.04422158003 -0.1738823056 1.478322936e-38
0.1226333752 -0.1800593734 -0.1995108426 1.478322936e-38
-0.2920511067 -0.1579282433 -0.196726501 1.478322936e-38
-0.278362751 -0.05508551002 -0.1764139831 1.478322936e-38
-0.1403501928 0.05011495948 -0.2198386788 1.478322936e-38
-0.0306479279 0.0130263567 -0.1983002573 1.478322936e-38
0.3146411777 -0.308409065 -0.1786711663 1.478322936e-38
-0.2799219489 -0.06009981036 -0.223469004 1.478322936e-38
-0.008231259882 -0.1132686138 -0.2070969939 1.478322936e-38
-0.2260279059 -0.1696437299 -0.2341990918 1.478322936e-38
-0.2665776014 0.05710232258 -0.207182318 1.478322936e-38
0.1213114634 -0.2704649866 -0.161476329 1.478322936e-38
-0.2452911437 -0.2988193035 -0.2607194185 1.478322936e-38
-0.236735642 0.02253884077 -0.265609473 1.478322936e-38
-0.3091856837 -0.3492611051 -0.2382730097 1.478322936e-38
-0.1174552217 0.04445627332 -0.2499614209 1.478322936e-38
0.1942204535 -0.3511049747 -0.2067858875 1.478322936e-38
-0.07329083979 -0.3304649591 -0.1888759434 1.478322936e-38
-0.2025456131 0.05120691657 -0.1724381745 1.478322936e-38
-0.1375931203 0.04175624251 -0.1992165148 1.478322936e-38
0.08339963108 -0.2433053553 -0.1630405337 1.478322936e-38
-0.2193156183 -0.0499073267 -0.2512850761 1.478322936e-38
-0.156706512 -0.142316103 -0.1927070618 1.478322936e-38
-0.03309222311 0.02036798 -0.2073762119 1.478322936e-38
-0.2851600051 -0.2974425852 -0.2319041342 1.478322936e-38
-0.2896685004 -0.1531147659 -0.2090269029 1.478322936e-38
-0.257977128 -0.03971457481 -0.2388133258 1.478322936e-38
0.1203854606 -0.401674509 -0.1772459894 1.478322936e-38
-0.2743099928 -0.4167236686 -0.2572742403 1.478322936e-38
-0.1843316555 -0.06451359391 -0.1743257046 1.478322936e-38
0.2084934711 -0.350730449 -0.1864361912 1.478322936e-38
-0.2441985011 0.04855653644 -0.2674237788 1.478322936e-38
-0.2453906834 -0.0595395267 -0.2552878857 1.478322936e-38
0.07906683534 -0.0332993269 -0.1898829192 1.478322936e-38
-0.2715546191 0.04817003012 -0.2076722682 1.478322936e-38
-0.2752692699 -0.3953217566 -0.1828214675 1.478322936e-38
0.1044932976 -0.2091179192 -0.1893635541 1.478322936e-38
-0.2631111741 0.03676941991 -0.2614743114 1.478322936e-38
0.2402499318 -0.3033042848 -0.190817073 1.478322936e-38
-0.1082850397 -0.2309607267 -0.1876947135 1.478322936e-38
-0.2581232488 0.04001510143 -0.1705130041 1.478322936e-38
0.009344600141 -0.1620796025 -0.1964745671 1.478322936e-38
-0.2607295513 -0.4424803257 -0.1877848655 1.478322936e-38
-0.0244554095 -0.2557430565 -0.1772292852 1.478322936e-38
0.02117308602 -0.01302677393 -0.1897190064 1.478322936e-38
0.1819889843 -0.2658449113 -0.197612673 1.478322936e-38
-0.2600961626 0.00741699338 -0.2449855953 1.478322936e-38
-0.2298196256 -0.1474469602 -0.2512998879 1.478322936e-38
-0.03043450974 0.03933674097 -0.2261364162 1.478322936e-38
0.2357623875 -0.130483076 -0.1873015761 1.478322936e-38
-0.2360767126 -0.4568099976 -0.2014574856 1.478322936e-38
-0.2897238731 -0.3398426473 -0.1845880151 1.771655483e-38
-0.02646021917 0.01075032353 -0.1995838732 1.771655483e-38
-0.1814166307 0.05463930964 -0.1819640696 1.771655483e-38
-0.2756750882 -0.2193174064 -0.1790296435 1.771655483e-38
-0.2287627161 -0.08806315064 -0.2516244054 1.771655483e-38
-0.2926151156 -0.02793219686 -0.2241920829 1.771655483e-38
0.1442768276 -0.2636357546 -0.1791947782 1.771655483e-38
-0.1323082149 -0.3633368015 -0.1908888519 1.771655483e-38
-0.2237977087 -0.1478208154 -0.2481839508 1.771655483e-38
0.1207484081 -0.03530731797 -0.18190898 1.771655483e-38
0.1640298069 -0.3324721754 -0.18885611 1.771655483e-38
0.2404907048 -0.2272958457 -0.1709686071 1.771655483e-38
0.1939837635 -0.2347582281 -0.178383112 1.771655483e-38
-0.1744375527 -0.4358741641 -0.1961776614 1.771655483e-38
-0.208930701 0.0551250577 -0.1760214418 1.771655483e-38
-0.296012044 -0.3328066468 -0.2394616753 1.771655483e-38
-0.1313404441 -0.0963691175 -0.2179112583 1.771655483e-38
0.2142252624 -0.08959701657 -0.1805829257 1.771655483e-38
0.01207646355 0.007846236229 -0.2444461733 1.771655483e-38
-0.2431125641 -0.1426736265 -0.2524235249 1.771655483e-38
-0.2516257763 0.04373669624 -0.1757471561 1.771655483e-38
0.3136710823 -0.3079740405 -0.159302786 1.771655483e-38
-0.1073265001 -0.4317845404 -0.1849850565 1.771655483e-38
-0.2276400328 -0.1059422195 -0.2389842123 1.771655483e-38
0.2137998939 -0.2766218185 -0.199468866 1.771655483e-38
-0.2894659638 -0.09999711812 -0.2193849832 1.771655483e-38
-0.2858278453 0.03575587273 -0.230202958 1.771655483e-38
-0.2967486382 -0.1052732766 -0.199242413 1.771655483e-38
0.1215206161 -0.3297062814 -0.1668965518 1.771655483e-38
-0.2609609365 0.04672759771 -0.2378367037 1.771655483e-38
0.1964607835 -0.30826056 -0.1877033561 1.771655483e-38
0.1117775068 -0.007725149393 -0.190991357 1.771655483e-38
0.2244951725 -0.3081707954 -0.2013281286 1.771655483e-38
-0.2219437957 -0.07195843756 -0.2372113615 1.771655483e-38
0.2834020853 -0.2400739938 -0.1500142962 1.771655483e-38
-0.2685424685 0.04269298911 -0.252497673 1.771655483e-38
0.1890140474 -0.291395843 -0.1694805175 1.771655483e-38
-0.2796843946 -0.05454331636 -0.182893917 1.771655483e-38
-0.1903306544 -0.1186151206 -0.2245070487 1.771655483e-38
0.2355089784 -0.1730859727 -0.1843119264 1.771655483e-38
-0.1635721326 0.05480986834 -0.2372979969 1.771655483e-38
0.01514688879 -0.02798742056 -0.1964191794 1.771655483e-38
0.1628591716 -0.3969407678 -0.1717974246 1.771655483e-38
-0.2979287803 -0.4491292834 -0.2221336812 1.771655483e-38
0.1865359545 -0.3813562691 -0.1553220153 1.771655483e-38
0.05921519548 -0.02082741261 -0.1894783378 1.771655483e-38
-0.2762766778 -0.4385306835 -0.1860983521 1.771655483e-38
-0.02595406771 -0.215566054 -0.1832152158 1.771655483e-38
-0.2293839157 -0.4518232942 -0.1997458488 1.771655483e-38
-0.2497357726 -0.007118999958 -0.260081172 1.771655483e-38
0.2990716994 -0.3110518456 -0.1468894035 1.771655483e-38
-0.04324782267 -0.1220962703 -0.1877961308 1.771655483e-38
-0.26679492 -0.04766586423 -0.2364021838 1.771655483e-38
-0.2938221097 -0.0528511703 -0.1998378485 1.771655483e-38
-0.1362440437 -0.3732134402 -0.1912848055 1.771655483e-38
-0.03272562101 -0.1604048908 -0.1879181117 1.771655483e-38
0.1798776686 -0.3140726388 -0.1755811274 1.771655483e-38
-0.2974556386 -0.3190643489 -0.2379918545 1.771655483e-38
0.09614067525 -0.1184252352 -0.2051491886 1.771655483e-38
0.2415395677 -0.209941715 -0.1747741252 1.771655483e-38
0.01279870421 -0.1986202747 -0.1943310946 1.771655483e-38
-0.2241069973 -0.1400051266 -0.2473452538 1.771655483e-38
-0.2904360592 -0.03284046054 -0.2110550851 1.771655483e-38
-0.1961125731 -0.05146065354 -0.1784154326 1.771655483e-38
0.1750951111 -0.1582522839 -0.1929417849 1.771655483e-38
0.2343266308 -0.1104163826 -0.17987293 1.771655483e-38
-0.2968844473 -0.10177432 -0.2041981667 1.771655483e-38
0.1256100535 -0.4068669379 -0.1593605876 1.771655483e-38
-0.07670870423 0.03847959638 -0.2397253364 1.771655483e-38
-0.2257939875 0.05071735382 -0.2422380596 1.771655483e-38
-0.2425267696 -0.3832896054 -0.1872266233 1.771655483e-38
-0.11513751 -0.2313475013 -0.1880633384 1.771655483e-38
-0.1511137486 -0.4441401958 -0.1931856722 1.771655483e-38
0.01228459552 -0.3403876722 -0.1917109191 1.771655483e-38
0.008630625904 -0.1371750981 -0.1961199492 1.771655483e-38
-0.03221077472 -0.1271563023 -0.1954717636 1.771655483e-38
-0.2910306752 -0.2121154666 -0.1893906295 1.771655483e-38
-0.1188941374 0.01533567905 -0.1845613271 1.771655483e-38
0.1766408682 -0.2590500116 -0.2046248168 1.771655483e-38
-0.297085315 -0.1148168594 -0.1993782073 1.771655483e-38
-0.2760651708 -0.008417069912 -0.182789892 1.771655483e-38
-0.04012683406 0.01658812165 -0.1923224628 1.771655483e-38
0.06979804486 -0.02288812399 -0.1862267703 1.771655483e-38
0.2688164711 -0.3412365913 -0.1731586903 1.771655483e-38
-0.2930192947 -0.01502287388 -0.2235297859 1.771655483e-38
-0.02622201853 -0.1323996782 -0.2121057808 1.771655483e-38
-0.2300245166 -0.1059539318 -0.2361247987 1.771655483e-38
-0.1901080012 0.04924198985 -0.1982303709 1.771655483e-38
0.02515988052 -0.154108271 -0.1821993589 1.771655483e-38
-0.234365344 -0.2409791648 -0.2550104856 1.771655483e-38
-0.2253015339 0.04895940423 -0.2571228445 1.771655483e-38
-0.3128023744 -0.2818338275 -0.2377028018 1.771655483e-38
0.007582560182 0.02279138565 -0.2237972766 1.771655483e-38
0.2055602074 -0.3740831614 -0.208382532 1.771655483e-38
-0.0912560001 -0.3518517315 -0.1884980351 1.771655483e-38
-0.1535876095 0.02719187737 -0.1825903654 1.771655483e-38
-0.02390495688 0.009701400995 -0.199617818 1.771655483e-38
-0.007221221924 -0.1369989961 -0.189433828 1.771655483e-38
-0.217779249 -0.006004273891 -0.2573776543 1.771655483e-38
-0.1805527508 -0.1712932587 -0.1947389096 1.771655483e-38
0.0742521435 -0.01542055607 -0.1874571145 1.771655483e-38
-0.2942900956 -0.2474489212 -0.2374331802 1.771655483e-38
-0.295296818 -0.109973371 -0.2095226645 1.771655483e-38
-0.278025806 0.007444143295 -0.244609192 1.771655483e-38
-0.00723307021 -0.4399729669 -0.1741752326 1.771655483e-38
-0.2654839158 -0.3575852215 -0.2529990077 1.771655483e-38
-0.151305452 -0.05551937222 -0.1825424731 1.771655483e-38
0.12594226 -0.3809638917 -0.1805953383 1.771655483e-38
-0.1583133638 0.05441921949 -0.234673664 1.771655483e-38
-0.2593067884 -0.003392726183 -0.2562540472 1.771655483e-38
0.1747260094 -0.09700395167 -0.1858217716 1.771655483e-38
-0.222550869 0.05171212554 -0.1990525723 1.771655483e-38
-0.275000602 -0.3333824575 -0.1818889529 1.771655483e-38
0.07245176286 -0.2412269413 -0.1896911412 1.771655483e-38
-0.2236823738 0.0511700511 -0.2428997904 1.771655483e-38
0.2009883225 -0.3277952969 -0.1857556999 1.771655483e-38
-0.1398835778 -0.2481143177 -0.1866011322 1.771655483e-38
-0.2267488837 0.0525803864 -0.173166573 1.771655483e-38
0.04491130263 -0.2174434066 -0.2001446933 1.771655483e-38
-0.2957548797 -0.435061276 -0.188615948 1.771655483e-38
-0.000338383019 -0.3056312501 -0.1838527769 1.771655483e-38
0.1059249714 -0.06250160933 -0.191249907 1.771655483e-38
0.2006457448 -0.3356572092 -0.203514114 1.771655483e-38
-0.2746744454 0.03592887521 -0.2479555756 1.771655483e-38
-0.2288392782 -0.09297324717 -0.2506704926 1.771655483e-38
0.1167110279 -0.002617686987 -0.1950611323 1.771655483e-38
0.2448504567 -0.2184423506 -0.1864788383 1.771655483e-38
-0.2772282362 -0.442802608 -0.2019049674 1.771655483e-38
-0.2873790562 -0.4344369769 -0.1834917367 2.06466517e-38
-0.1311193705 0.0294007957 -0.1972313374 2.06466517e-38
-0.2449496984 0.03031694889 -0.1782380641 2.06466517e-38
-0.2812279761 -0.3531981707 -0.182895273 2.06466517e-38
-0.2371194363 -0.1877752841 -0.2501717806 2.06466517e-38
-0.2789729238 -0.1238690615 -0.2273065597 2.06466517e-38
0.1781556308 -0.2301589251 -0.1831515133 2.06466517e-38
-0.08448782563 -0.3290291131 -0.188679561 2.06466517e-38
-0.2416916788 -0.2434463203 -0.2498609871 2.06466517e-38
0.04714849591 -0.01508951187 -0.1907631904 2.06466517e-38
0.2138212025 -0.295955956 -0.1919607818 2.06466517e-38
0.2969449162 -0.1541082412 -0.1609734297 2.06466517e-38
0.2271845043 -0.1937986165 -0.1835150272 2.06466517e-38
0.002292603254 -0.4424764514 -0.1757155657 2.06466517e-38
-0.2565385997 0.01988145709 -0.174093321 2.06466517e-38
-0.309574455 -0.4398059845 -0.2556162179 2.06466517e-38
-0.06960849464 -0.2189017236 -0.1705928296 2.06466517e-38
0.190002054 -0.03871816397 -0.1820186973 2.06466517e-38
-0.03718125075 -0.009629786015 -0.2147834599 2.06466517e-38
-0.257207036 -0.2425982654 -0.2554277778 2.06466517e-38
-0.2800598741 -0.02718669176 -0.1762269139 2.06466517e-38
0.3757978678 -0.2585121989 -0.1705194116 2.06466517e-38
0.08623050898 -0.4268341064 -0.1705981791 2.06466517e-38
-0.2213263512 -0.2091851979 -0.2331800312 2.06466517e-38
0.2381703258 -0.1996314526 -0.1916322559 2.06466517e-38
-0.2852780223 -0.1870605499 -0.2231473923 2.06466517e-38
-0.2739548087 -0.02918154001 -0.230020389 2.06466517e-38
-0.2948532403 -0.1911879778 -0.2007069439 2.06466517e-38
0.2636554539 -0.2848550379 -0.1591067314 2.06466517e-38
-0.2656385899 -0.006472617388 -0.2329875231 2.06466517e-38
0.2365595698 -0.2688609362 -0.1885211766 2.06466517e-38
0.0386608541 0.01753380895 -0.2058042288 2.06466517e-38
0.2558983862 -0.2316936255 -0.1926483363 2.06466517e-38
-0.2258936465 -0.1839731485 -0.2293796986 2.06466517e-38
0.3623622656 -0.1773940772 -0.1464933008 2.06466517e-38
-0.2508689463 -0.0253804028 -0.2380283922 2.06466517e-38
0.2667577267 -0.186218366 -0.168398574 2.06466517e-38
-0.2824711204 -0.1431844682 -0.1760914177 2.06466517e-38
-0.1710542738 -0.2290517092 -0.193501696 2.06466517e-38
0.2658748627 -0.08678288758 -0.1810089499 2.06466517e-38
-0.2218050659 0.02268543839 -0.2445575744 2.06466517e-38
-0.0705948472 0.0006375908852 -0.1916344017 2.06466517e-38
0.256744802 -0.3413619399 -0.1849580556 2.06466517e-38
-0.2048617601 -0.4523463845 -0.1951075792 2.06466517e-38
0.3313996196 -0.3114538491 -0.1636601835 2.06466517e-38
-0.006047921255 0.0006275773048 -0.1890755594 2.06466517e-38
-0.2065320611 -0.375241816 -0.1878674775 2.06466517e-38
-0.0559817329 -0.174680829 -0.179831177 2.06466517e-38
-0.1407445669 -0.4034842849 -0.1956374496 2.06466517e-38
-0.2363519669 -0.112169534 -0.2557367384 2.06466517e-38
0.3867218196 -0.2544327676 -0.1582150906 2.06466517e-38
-0.08370085061 -0.07558615506 -0.1839791685 2.06466517e-38
-0.2656757832 -0.1414334923 -0.2428069562 2.06466517e-38
-0.2916173935 -0.1412434876 -0.2043142617 2.06466517e-38
-0.08335962892 -0.3365605175 -0.1900859773 2.06466517e-38
-0.06989491731 -0.1122595221 -0.1835369021 2.06466517e-38
0.2748506963 -0.2288540304 -0.1663128436 2.06466517e-38
-0.3140919209 -0.43634969 -0.2560286224 2.06466517e-38
0.06955601275 -0.05679062009 -0.1979426295 2.06466517e-38
0.2884896994 -0.136990577 -0.1634614617 2.06466517e-38
-0.02092468739 -0.1508132517 -0.1904593259 2.06466517e-38
-0.2377765775 -0.234741807 -0.2476676852 2.06466517e-38
-0.2868724465 -0.1246158928 -0.2156741172 2.06466517e-38
-0.2227973044 -0.1330401599 -0.1718037874 2.06466517e-38
0.1550843716 -0.08538100123 -0.1867743731 2.06466517e-38
0.2416815758 -0.03993615508 -0.1861592233 2.06466517e-38
-0.2944839895 -0.1870810688 -0.2067511231 2.06466517e-38
0.2978241444 -0.3353900611 -0.1669151038 2.06466517e-38
-0.1265788823 0.00793376565 -0.2354435921 2.06466517e-38
-0.2575834095 0.007132053375 -0.2425215393 2.06466517e-38
-0.1769829392 -0.3079378307 -0.1889741272 2.06466517e-38
-0.06889092922 -0.2145887613 -0.1919094473 2.06466517e-38
-0.01116581634 -0.4269114435 -0.179315865 2.06466517e-38
-0.0152916573 -0.3017409444 -0.1829489022 2.06466517e-38
-0.02668559924 -0.09006631374 -0.1908072531 2.06466517e-38
0.06929578632 -0.2696781158 -0.1554457843 2.06466517e-38
-0.2955828905 -0.3380921781 -0.1830222458 2.06466517e-38
-0.1835566461 0.0311614275 -0.1729873568 2.06466517e-38
0.1766090691 -0.183758378 -0.1984428614 2.06466517e-38
-0.2957651615 -0.2034141421 -0.1985151619 2.06466517e-38
-0.2855621576 -0.09910047054 -0.1754955351 2.06466517e-38
-0.1166783795 0.03546196222 -0.2034378797 2.06466517e-38
0.006485503167 -0.001174479723 -0.1909915805 2.06466517e-38
0.3159438372 -0.2958748937 -0.1839330941 2.06466517e-38
-0.2804560959 -0.1089493036 -0.2250573635 2.06466517e-38
-0.001273840666 -0.1048331261 -0.2071709186 2.06466517e-38
-0.2248464823 -0.210443005 -0.2292057425 2.06466517e-38
-0.2580348551 0.02656194568 -0.2058047503 2.06466517e-38
0.1307668984 -0.3077690601 -0.1570366025 2.06466517e-38
-0.2584996819 -0.3486020565 -0.2729245424 2.06466517e-38
-0.2333569527 -0.001383304596 -0.2524279952 2.06466517e-38
-0.3222329021 -0.4158420563 -0.24331747 2.06466517e-38
-0.07349519432 0.02311900258 -0.2290261239 2.06466517e-38
0.2340235412 -0.3488411009 -0.2025414258 2.06466517e-38
-0.05009032413 -0.3219915628 -0.1874645352 2.06466517e-38
-0.214745909 0.03626206517 -0.1715542972 2.06466517e-38
-0.1297426224 0.02824383974 -0.1977120638 2.06466517e-38
0.09780789167 -0.2882798314 -0.1557200253 2.06466517e-38
-0.2190915644 -0.09489238262 -0.2428477556 2.06466517e-38
-0.1544166803 -0.1431365907 -0.1912445128 2.06466517e-38
0.01427373663 0.00599527359 -0.2001443505 2.06466517e-38
-0.305493623 -0.3524352312 -0.2515474558 2.06466517e-38
-0.2933619916 -0.1971347481 -0.2133320719 2.06466517e-38
-0.2613232136 -0.08437819779 -0.2353484333 2.06466517e-38
0.1570765376 -0.38431862 -0.1823170632 2.06466517e-38
-0.2713719904 -0.4363777041 -0.2558155954 2.06466517e-38
-0.1900903285 -0.1019656956 -0.169841677 2.06466517e-38
0.214895308 -0.3378061652 -0.190185234 2.06466517e-38
-0.2244802415 0.02543571591 -0.2430194467 2.06466517e-38
-0.2495628297 -0.1052521318 -0.2528501153 2.06466517e-38
0.1232375428 -0.04412016273 -0.1835358143 2.06466517e-38
-0.2661596537 0.0124347806 -0.2072339803 2.06466517e-38
-0.2757738829 -0.4279788435 -0.1855254769 2.06466517e-38
0.1145552918 -0.2035783827 -0.1879441738 2.06466517e-38
-0.2562352717 0.008309662342 -0.2438423485 2.06466517e-38
0.2465893626 -0.2907185853 -0.1922665983 2.06466517e-38
-0.09690466523 -0.2276476622 -0.1853791922 2.06466517e-38
-0.2669754028 0.002113580704 -0.167440027 2.06466517e-38
0.01572108269 -0.1638913155 -0.1941556633 2.06466517e-38
-0.2193027437 -0.4037875533 -0.1900560558 2.06466517e-38
-0.02952726185 -0.272134155 -0.1798785776 2.06466517e-38
0.04835369438 -0.02575144172 -0.1891281605 2.06466517e-38
0.2248201668 -0.2621811032 -0.195869863 2.06466517e-38
-0.2536337078 -0.03414842486 -0.2354926318 2.06466517e-38
-0.2350981236 -0.1931476891 -0.2489400059 2.06466517e-38
0.04137847573 0.0260733068 -0.2117730975 2.06466517e-38
0.2743850052 -0.1367532015 -0.1821515858 2.06466517e-38
-0.1773893535 -0.4449076951 -0.1973064989 2.06466517e-38
-0.256267488 -0.4116529226 -0.1906174272 2.348204041e-38
-0.1665994525 0.02596086264 -0.2035586983 2.348204041e-38
-0.2732304037 0.006217718124 -0.2036158442 2.348204041e-38
-0.2892258167 -0.4015451074 -0.193053022 2.348204041e-38
-0.2731688321 -0.2108638883 -0.2793856859 2.348204041e-38
-0.2899118662 -0.152424559 -0.2582051456 2.348204041e-38
0.2088136077 -0.2218747735 -0.1820558608 2.348204041e-38
-0.0468076691 -0.336093545 -0.1872653961 2.348204041e-38
-0.2822364867 -0.2614247501 -0.2923701108 2.348204041e-38
0.05791552365 -0.02499854565 -0.1933833808 2.348204041e-38
0.2611699104 -0.2895517945 -0.1906003803 2.348204041e-38
0.3021443188 -0.1381513178 -0.1737082005 2.348204041e-38
0.2397823334 -0.1928580701 -0.1821374446 2.348204041e-38
0.1240536645 -0.424326241 -0.1761297882 2.348204041e-38
-0.2790304124 -0.01651546359 -0.2003554702 2.348204041e-38
-0.2815056443 -0.438126862 -0.2500184774 2.348204041e-38
-0.01554241963 -0.2575017214 -0.18153961 2.348204041e-38
0.1931998134 -0.04721626639 -0.181627363 2.348204041e-38
-0.04209281504 -0.01903098822 -0.2152205706 2.348204041e-38
-0.2927580774 -0.2641610801 -0.2973341346 2.348204041e-38
-0.2970160246 -0.06729310751 -0.2061688602 2.348204041e-38
0.3701528609 -0.2419381738 -0.1702310294 2.348204041e-38
0.200799942 -0.3981198072 -0.1704227179 2.348204041e-38
-0.2592925131 -0.2280451506 -0.2698894739 2.348204041e-38
0.2398652434 -0.1967327893 -0.1860164702 2.348204041e-38
-0.3003575802 -0.2145875394 -0.2653551698 2.348204041e-38
-0.2908435166 -0.05381646752 -0.2596924305 2.348204041e-38
-0.3034433722 -0.2297318876 -0.2237336338 2.348204041e-38
0.3031946123 -0.2626922131 -0.1713716388 2.348204041e-38
-0.2870068848 -0.02869457006 -0.2656679451 2.348204041e-38
0.2627880871 -0.2600638568 -0.1883866489 2.348204041e-38
0.03038156778 0.008048176765 -0.2117362618 2.348204041e-38
0.2521156669 -0.229080528 -0.1867187321 2.348204041e-38
-0.2635556161 -0.200599432 -0.2566773593 2.348204041e-38
0.3558042049 -0.16390495 -0.1561913192 2.348204041e-38
-0.2787380219 -0.04775351286 -0.2713141441 2.348204041e-38
0.2833245993 -0.1629697233 -0.1814909875 2.348204041e-38
-0.2864174247 -0.1832768917 -0.1984571666 2.348204041e-38
-0.1382351369 -0.2668892145 -0.2131506503 2.348204041e-38
0.2685124576 -0.09001916647 -0.1809494644 2.348204041e-38
-0.2474307716 0.01266798377 -0.265737921 2.348204041e-38
-0.09029597044 0.00339537859 -0.1966650486 2.348204041e-38
0.3116685748 -0.3262487054 -0.1834361851 2.348204041e-38
-0.1552155316 -0.450686872 -0.2010517418 2.348204041e-38
0.3680340946 -0.296651721 -0.1625756174 2.348204041e-38
-0.01275280491 -0.008993774652 -0.1983796656 2.348204041e-38
-0.1573168039 -0.3514547646 -0.1911892593 2.348204041e-38
-0.06567147374 -0.1713775843 -0.1894486696 2.348204041e-38
-0.09484367073 -0.386287719 -0.1986981928 2.348204041e-38
-0.2665391266 -0.1380467415 -0.2749658227 2.348204041e-38
0.3751369715 -0.2341984212 -0.1620658189 2.348204041e-38
-0.1035317406 -0.06910607219 -0.1954195499 2.348204041e-38
-0.2867299616 -0.1712246835 -0.2758824825 2.348204041e-38
-0.302231431 -0.1697866172 -0.2402316183 2.348204041e-38
-0.0450258255 -0.3431063592 -0.1882447451 2.348204041e-38
-0.08957830071 -0.104461804 -0.1957270503 2.348204041e-38
0.2972449362 -0.1966612935 -0.1790906936 2.348204041e-38
-0.2935422659 -0.4364589155 -0.2533577681 2.348204041e-38
0.06518778205 -0.05623114109 -0.1964346468 2.348204041e-38
0.2860691547 -0.1257235408 -0.1774935722 2.348204041e-38
-0.03750183806 -0.1430526674 -0.2031712979 2.348204041e-38
-0.2779707611 -0.2520448864 -0.2892708182 2.348204041e-38
-0.2965839505 -0.1527304202 -0.2445073277 2.348204041e-38
-0.2231121063 -0.17851533 -0.1840059906 2.348204041e-38
0.1761242449 -0.08253841102 -0.1810114235 2.348204041e-38
0.2466277182 -0.04880073667 -0.1901458651 2.348204041e-38
-0.3054166436 -0.2198527902 -0.2338268012 2.348204041e-38
0.3489853144 -0.319966495 -0.1647056937 2.348204041e-38
-0.1713647544 -0.0004792809486 -0.2444131821 2.348204041e-38
-0.2718437016 -0.01068025827 -0.2683655024 2.348204041e-38
-0.1362627149 -0.2970224917 -0.1898538023 2.348204041e-38
-0.05024923012 -0.2172236443 -0.1917047948 2.348204041e-38
0.1006284729 -0.4128534198 -0.1842224002 2.348204041e-38
-0.01668929681 -0.3029984832 -0.1924025118 2.348204041e-38
-0.04810709879 -0.08810655773 -0.203523159 2.348204041e-38
0.141356051 -0.3082421124 -0.1785158515 2.348204041e-38
-0.3071871698 -0.3857797384 -0.1982551366 2.348204041e-38
-0.2107517123 0.02103671432 -0.1839973927 2.348204041e-38
0.2013513446 -0.182495296 -0.1898862273 2.348204041e-38
-0.3048586249 -0.243446365 -0.2195445746 2.348204041e-38
-0.2935024798 -0.1397092044 -0.203992933 2.348204041e-38
-0.1585066319 0.02577054501 -0.2271791697 2.348204041e-38
0.006400566548 -0.01114907861 -0.2000446022 2.348204041e-38
0.3407178819 -0.2775326371 -0.1795423627 2.348204041e-38
-0.2899328172 -0.136552766 -0.2524482906 2.348204041e-38
0.03499279171 -0.1074665934 -0.1983705759 2.348204041e-38
-0.2613801062 -0.2298166454 -0.2651175559 2.348204041e-38
-0.2773816288 0.009337425232 -0.2314559668 2.348204041e-38
0.1976772249 -0.3146009147 -0.181775257 2.348204041e-38
-0.2801500857 -0.3857530653 -0.2981008887 2.348204041e-38
-0.2546508014 -0.0141055584 -0.2666838467 2.348204041e-38
-0.3274254203 -0.4300055504 -0.2423949093 2.348204041e-38
-0.1040507928 0.01564064622 -0.2315558195 2.348204041e-38
0.2317259908 -0.3355342448 -0.2006757557 2.348204041e-38
-0.01371456496 -0.3267986476 -0.186413452 2.348204041e-38
-0.2379798889 0.0130854249 -0.1784191877 2.348204041e-38
-0.165738225 0.02503618598 -0.204178229 2.348204041e-38
0.1703940928 -0.3122380078 -0.179978922 2.348204041e-38
-0.2573383451 -0.1176480204 -0.2608808279 2.348204041e-38
-0.1383537501 -0.1621935517 -0.1907753199 2.348204041e-38
0.01135101914 -0.00610485673 -0.2070897371 2.348204041e-38
-0.3199985921 -0.3911150396 -0.2739623487 2.348204041e-38
-0.3067813218 -0.2277575135 -0.240666613 2.348204041e-38
-0.2841950655 -0.1134450436 -0.2730102539 2.348204041e-38
0.2410820723 -0.3699325323 -0.1831455082 2.348204041e-38
-0.2305101454 -0.4369944334 -0.246043399 2.348204041e-38
-0.1996481121 -0.1207693815 -0.1766780913 2.348204041e-38
0.2776020765 -0.3252579868 -0.1899943054 2.348204041e-38
-0.2468696833 0.01567977667 -0.2654947042 2.348204041e-38
-0.2731176317 -0.1293988973 -0.278417021 2.348204041e-38
0.1385707259 -0.05087158084 -0.1810623109 2.348204041e-38
-0.2841774523 -0.009270846844 -0.2337465137 2.348204041e-38
-0.2559305131 -0.3780764937 -0.1899446994 2.348204041e-38
0.148159951 -0.2032873034 -0.1834974289 2.348204041e-38
-0.2695720196 -0.009987711906 -0.268432498 2.348204041e-38
0.2781923413 -0.2808746696 -0.1904315203 2.348204041e-38
-0.06728772819 -0.2388419807 -0.1900661886 2.348204041e-38
-0.286362052 -0.03888469934 -0.1938720495 2.348204041e-38
0.01839998737 -0.1613399088 -0.20453915 2.348204041e-38
-0.1682410538 -0.370254457 -0.1937557906 2.348204041e-38
-0.03043852188 -0.2744722068 -0.1862547398 2.348204041e-38
0.05654530972 -0.03198567033 -0.1904792637 2.348204041e-38
0.2292912304 -0.2557418942 -0.1911437958 2.348204041e-38
-0.2822182477 -0.05741208792 -0.2707246542 2.348204041e-38
-0.2720984817 -0.2145649195 -0.2794966996 2.348204041e-38
0.03026349097 0.01751834154 -0.2163032442 2.348204041e-38
0.2737189531 -0.137825802 -0.18316333 2.348204041e-38
-0.1326425374 -0.4137464762 -0.204607293 2.348204041e-38
-0.3005345166 -0.4442407787 -0.1943596154 2.346801622e-38
-0.1129782349 0.007211863995 -0.1939639002 2.346801622e-38
-0.2533574104 0.01408943534 -0.2040786445 2.346801622e-38
-0.2856650949 -0.3644661307 -0.1944462806 2.346801622e-38
-0.3160307705 -0.2095031291 -0.2893635333 2.346801622e-38
-0.3016675115 -0.1411293149 -0.2687573433 2.346801622e-38
0.1704025269 -0.2807888687 -0.18326132 2.346801622e-38
-0.1055251583 -0.3711716831 -0.1923110485 2.346801622e-38
-0.3237194121 -0.2612635493 -0.2997300625 2.346801622e-38
0.1467130184 -0.04699957371 -0.1745927781 2.346801622e-38
0.2317515016 -0.3468732536 -0.1859714538 2.346801622e-38
0.2576881349 -0.1982190311 -0.1625651419 2.346801622e-38
0.201903522 -0.253608644 -0.1813760698 2.346801622e-38
-0.009470231831 -0.4580868483 -0.1745215505 2.346801622e-38
-0.2634555101 0.002464234829 -0.2027925551 2.346801622e-38
-0.3152863085 -0.4370319247 -0.25175336 2.346801622e-38
-0.08065616339 -0.2447315156 -0.1783240438 2.346801622e-38
0.2484076321 -0.07549622655 -0.1762078851 2.346801622e-38
-0.0150611382 -0.003082036972 -0.2342729419 2.346801622e-38
-0.3160707057 -0.2572835088 -0.3062746823 2.346801622e-38
-0.2850068212 -0.04385656118 -0.2090432197 2.346801622e-38
0.3321776986 -0.2994233668 -0.1618192792 2.346801622e-38
0.05432378501 -0.4519252777 -0.1661568135 2.346801622e-38
