# .PCD v0.7 - Point Cloud Data file format
VERSION 0.7
FIELDS x y z rgb
SIZE 4 4 4 4
TYPE F F F F
COUNT 1 1 1 1
WIDTH 840
HEIGHT 1
VIEWPOINT 0 0 0 1 0 0 0
POINTS 840
DATA ascii
0.1624752581 -0.4172717631 0.1331482232 8.906165387e-39
0.121277459 -0.248640731 0.3068493307 8.906165387e-39
-0.2586206794 -0.3797832429 -0.1851903796 8.906165387e-39
-0.2461405098 -0.3378624618 -0.2187503874 8.906165387e-39
-0.1632592976 -0.4754222631 -0.2238435894 8.906165387e-39
0.04971465096 -0.3446387351 0.3261697292 8.906165387e-39
-0.1134735942 -0.384478718 -0.3201653957 8.906165387e-39
-0.2344730794 -0.4757678509 -0.2507672012 8.906165387e-39
0.1683540195 -0.452369839 -0.1577246934 8.906165387e-39
0.1741770059 -0.1921265125 0.01134957746 8.906165387e-39
-0.1879698634 -0.1908660233 -0.2841594219 8.906165387e-39
-0.1219084859 -0.3381994665 -0.314394325 8.906165387e-39
-0.2263762355 -0.3150667548 -0.2779506743 8.906165387e-39
-0.06673806161 -0.3570172191 -0.3124623001 8.906165387e-39
-0.07673538476 -0.4816122949 -0.3215766251 8.906165387e-39
-0.07490032166 -0.3268585205 -0.3083668351 8.906165387e-39
-0.1984018832 -0.3234314919 -0.2953044772 8.906165387e-39
0.03792619705 -0.3129068613 0.3325656354 8.906165387e-39
0.1083276346 -0.2205427289 0.3181411326 8.906165387e-39
-0.2114496231 -0.4760397375 -0.2317557931 8.906165387e-39
-0.1696677506 -0.3336721361 -0.3040245771 8.906165387e-39
0.1107675284 -0.1919457167 0.3193080723 8.906165387e-39
-0.2301960588 -0.4756609201 -0.1837665737 8.906165387e-39
-0.2641606331 -0.43501243 -0.2018182427 8.906165387e-39
0.1296513379 -0.1211824045 0.2673214078 8.906165387e-39
-0.1783396751 -0.4179135859 -0.3154128194 8.906165387e-39
-0.2320286036 -0.4390071034 -0.2925103903 8.906165387e-39
0.04704126716 -0.4761142433 0.01844323426 8.906165387e-39
-0.227815479 -0.3662165403 -0.2859596312 8.906165387e-39
0.1351212412 -0.2979648113 0.2999936938 8.906165387e-39
-0.08080235124 -0.3313650489 -0.3094237149 8.906165387e-39
-0.1405719966 -0.4621787667 0.1478490084 8.906165387e-39
0.07083775103 -0.4570389688 0.2188187242 8.906165387e-39
-0.11338 -0.2398806214 -0.3006365001 8.906165387e-39
0.07631649077 -0.3153222501 0.3225482106 8.906165387e-39
0.0833285898 -0.2376553267 0.3280264437 8.906165387e-39
-0.2318407297 -0.4374821782 -0.2923870087 8.906165387e-39
-0.01881761476 -0.4852902293 -0.2508486211 8.906165387e-39
0.1699996889 -0.1754201353 0.0004699006677 8.906165387e-39
-0.1448868215 -0.386954546 -0.3215653002 8.906165387e-39
-0.1430356503 -0.3563709557 -0.3162099421 8.906165387e-39
0.1443012357 -0.2439444065 0.2818197906 8.906165387e-39
0.139030382 -0.3774495125 0.267267406 8.906165387e-39
-0.06732023507 -0.4811767638 -0.2114502937 8.906165387e-39
-0.1863518506 -0.2319801003 -0.2877654433 8.906165387e-39
-0.1849134415 -0.3226227164 -0.2992657721 8.906165387e-39
-0.1647177935 -0.2762933373 -0.2974432111 8.906165387e-39
0.002661183476 -0.2761868536 -0.3011875749 8.906165387e-39
-0.09662789106 -0.4770124555 -0.1381024867 8.906165387e-39
0.1695168763 -0.4226135612 0.05443538353 8.906165387e-39
-0.001962587237 -0.4849441946 -0.2304828167 8.906165387e-39
-0.1008024663 -0.4364621937 -0.3247177899 8.906165387e-39
-0.1660809815 -0.4774265587 -0.3167202175 8.906165387e-39
0.1501846611 -0.4506803751 0.01190708578 8.906165387e-39
-0.002105403692 -0.3433984518 -0.3107664287 8.906165387e-39
-0.1468990296 -0.3445019722 -0.3117374182 8.906165387e-39
-0.228007257 -0.4696436524 -0.2951456606 8.906165387e-39
0.1425307691 -0.4106653333 0.2213768959 8.906165387e-39
-0.1581973433 -0.3347606361 -0.3062222898 8.906165387e-39
-0.2148660123 -0.4084207416 -0.2533043921 1.184631237e-38
0.008380863816 -0.2899648249 -0.3085574508 1.184631237e-38
0.1577759385 -0.4048379958 0.2868375182 1.184631237e-38
0.1586901397 -0.1598718762 0.2529617548 1.184631237e-38
0.1503257453 -0.1328966916 0.3272230327 1.184631237e-38
-0.008041888475 -0.4773524404 -0.03855980933 1.184631237e-38
0.1857907027 -0.4014109671 -0.02825322747 1.184631237e-38
-0.07976292074 -0.3173254132 0.2462345958 1.184631237e-38
0.1607678384 -0.3973768055 0.2903177142 1.184631237e-38
0.1622586995 -0.4379867017 0.2054342479 1.184631237e-38
0.1607014537 -0.1484402269 0.2344502807 1.184631237e-38
-0.1011623591 -0.4703556597 -0.3360915184 1.184631237e-38
-0.2138140798 -0.4672934413 -0.1247192323 1.184631237e-38
-0.2017043531 -0.3947618902 -0.2758384049 1.184631237e-38
-0.2010713369 -0.4696337581 -0.260002315 1.184631237e-38
-0.1775936335 -0.3014973998 -0.2930837274 1.184631237e-38
-0.1848899871 -0.4748295844 -0.2904860079 1.184631237e-38
0.1832877696 -0.3314695954 -0.04672462121 1.184631237e-38
0.1732340902 -0.4225369394 -0.2102133185 1.184631237e-38
0.1606420279 -0.3132835627 0.3137155473 1.184631237e-38
0.02252104506 -0.3022606373 0.286441654 1.184631237e-38
0.1143872291 -0.4703720808 -0.3008808494 1.184631237e-38
0.06469016522 -0.2112128288 -0.3075131476 1.184631237e-38
-0.1382389516 -0.4052270949 -0.3276102245 1.184631237e-38
-0.1238062978 -0.3936209679 -0.3285435438 1.184631237e-38
0.1433408856 -0.4671647251 0.1622359008 1.184631237e-38
0.1403078437 -0.4662416279 0.1803531498 1.184631237e-38
-0.0361866802 -0.3193013668 -0.3147909045 1.184631237e-38
-0.02017837018 -0.2130820006 -0.3001184762 1.184631237e-38
-0.2201865911 -0.4607394338 -0.01426604576 1.184631237e-38
-0.0428038463 -0.458547622 0.159560591 1.184631237e-38
0.04610649124 -0.4762373567 0.06224710122 1.184631237e-38
0.1275422573 -0.473988384 0.1074083894 1.184631237e-38
0.01989539713 -0.4880649745 -0.2453744262 1.184631237e-38
-0.1409662366 -0.4692829847 -0.02081237361 1.184631237e-38
-0.08642731607 -0.4818661213 -0.207626164 1.184631237e-38
0.05404861644 -0.2635275126 -0.3091168106 1.184631237e-38
-0.232155025 -0.4181020558 -0.1993931383 1.184631237e-38
-0.2212610543 -0.3801881373 -0.2236722857 1.184631237e-38
-0.1586569101 -0.2318475544 -0.2888188064 1.184631237e-38
0.06995806098 -0.3096761703 0.3045903146 1.184631237e-38
0.1769753993 -0.4319309294 -0.121461153 1.184631237e-38
0.1219589561 -0.34209764 0.3178272247 1.184631237e-38
-0.09497237206 -0.2993384004 -0.3105557859 1.184631237e-38
-0.22334975 -0.457100004 -0.06314682961 1.184631237e-38
0.1222761944 -0.05324799567 0.100643605 1.184631237e-38
-0.1367526054 -0.3071600795 -0.3044418693 1.184631237e-38
-0.2216244042 -0.4623632729 -0.1262155473 1.184631237e-38
0.1365281194 -0.1379499286 -0.0883584097 1.184631237e-38
-0.2188368738 -0.3645663857 -0.2254855931 1.184631237e-38
-0.1904405951 -0.2954660654 -0.2742259502 1.184631237e-38
0.1095557809 -0.07119356096 -0.07888758183 1.184631237e-38
-0.02250748873 -0.2182690352 -0.3008116484 1.184631237e-38
0.02790626138 -0.3193465769 -0.3138702214 1.184631237e-38
0.1693768054 -0.2366752923 -0.1378987581 1.184631237e-38
0.1410349458 -0.1781390905 -0.1430896968 1.184631237e-38
-0.05019166321 -0.233222723 -0.3060887456 1.184631237e-38
0.04318578169 -0.4708783627 0.1568003297 1.184631237e-38
0.109691754 -0.4858329296 -0.1281766444 1.184631237e-38
0.1718046814 -0.2611114085 0.01084830612 1.184631237e-38
0.04913067073 -0.2834457755 -0.3108179867 1.184631237e-38
0.1496851444 -0.1216100082 0.2845465839 1.184631237e-38
0.1275460422 -0.1305551231 -0.1338486969 1.184631237e-38
-0.1249480397 -0.2926283181 -0.3042711914 1.184631237e-38
-0.05502004921 -0.346601963 -0.3197568953 1.184631237e-38
-0.2313798964 -0.4480721951 -0.170821324 1.184631237e-38
-0.0280020088 -0.4883822799 -0.2793199718 1.184631237e-38
0.1616327167 -0.4474188387 0.06294618547 1.184631237e-38
0.1102584973 -0.2985572815 0.3206826448 1.184631237e-38
0.1737570763 -0.2951377034 0.0520141907 1.184631237e-38
0.1490088999 -0.1171314716 0.2800762355 1.184631237e-38
-0.2284883857 -0.3977228105 -0.2048987299 1.184631237e-38
-0.2159172595 -0.3553826809 -0.2305831909 1.184631237e-38
-0.05445934087 -0.4840629697 -0.2292215079 1.184631237e-38
0.1454845369 -0.2142091542 0.3261814713 1.184631237e-38
-0.0113048926 -0.3728908598 -0.3205453753 1.184631237e-38
-0.166147843 -0.4786882699 -0.2671664953 1.184631237e-38
0.1837689728 -0.3936651647 -0.1584651619 1.184631237e-38
0.1309423894 -0.1532752365 -0.1714516133 1.184631237e-38
-0.1321110576 -0.203174755 -0.2912315428 1.184631237e-38
-0.02466344088 -0.3273664117 -0.315472424 1.184631237e-38
-0.179308787 -0.3354460597 -0.2993599474 1.184631237e-38
0.02040665969 -0.3400789499 -0.3158699274 1.184631237e-38
0.01615839265 -0.4814136624 -0.3221922815 1.184631237e-38
0.01922228746 -0.3093063235 -0.3120821118 1.184631237e-38
-0.1466277093 -0.3353343904 -0.3085117042 1.184631237e-38
0.1389459372 -0.1910166591 0.3300752044 1.184631237e-38
0.1465829313 -0.08635249734 0.3005906641 1.184631237e-38
-0.1140458286 -0.482327193 -0.2462003082 1.184631237e-38
-0.1103657335 -0.3321377337 -0.3148024976 1.184631237e-38
0.1392941177 -0.07322275639 0.2894359231 1.184631237e-38
-0.1542889625 -0.4768900275 -0.1960483491 1.184631237e-38
-0.223223567 -0.4483427703 -0.2226823717 1.184631237e-38
0.1281380206 -0.06425023079 0.07623784244 1.184631237e-38
-0.1061551273 -0.4105390906 -0.3319776952 1.184631237e-38
-0.1858340502 -0.4580949545 -0.3198692799 1.184631237e-38
0.1492941976 -0.4639075696 0.08701477945 1.184631237e-38
-0.1817716658 -0.3845250309 -0.3083051741 1.184631237e-38
0.1591849625 -0.1662843227 0.2532069385 1.184631237e-38
0.01583493873 -0.314037025 -0.3123743236 1.184631237e-38
-0.01014087722 -0.4595460296 0.1756214648 1.184631237e-38
0.1648367643 -0.4117685556 0.2665400803 1.184631237e-38
-0.04777295887 -0.2204646617 -0.3049060106 1.184631237e-38
0.1544506848 -0.1529099941 0.3245753944 1.184631237e-38
0.1500222683 -0.09095512331 0.3267520368 1.184631237e-38
-0.1860474348 -0.4566907883 -0.3197886944 1.184631237e-38
0.09191574156 -0.485910058 -0.2307967395 1.184631237e-38
0.1259823143 -0.145073846 -0.1838408262 1.184631237e-38
-0.04471541941 -0.3798919022 -0.3237465024 1.184631237e-38
-0.05104967207 -0.3440974355 -0.3192441463 1.184631237e-38
0.1592953056 -0.1453327239 0.1625610441 1.184631237e-38
0.1637895107 -0.2246952951 0.2162253261 1.184631237e-38
0.05346500874 -0.4864751399 -0.1905323863 1.184631237e-38
-0.1284648329 -0.2439958453 -0.2969197631 1.184631237e-38
-0.1314690709 -0.3319406211 -0.309705615 1.184631237e-38
-0.108757332 -0.2822886407 -0.3042588532 1.184631237e-38
0.06723581254 -0.2612769604 -0.3080558777 1.184631237e-38
0.05133328959 -0.4805003703 -0.1029420495 1.184631237e-38
0.1808516383 -0.3295396268 0.003105565906 1.184631237e-38
0.1078886837 -0.4857321382 -0.2071299851 1.184631237e-38
-0.003666881472 -0.4249187708 -0.3250318766 1.184631237e-38
-0.0558340773 -0.4860068858 -0.3209290802 1.184631237e-38
0.1858340949 -0.3755398095 0.01693905517 1.184631237e-38
0.061898157 -0.3273312747 -0.3186324239 1.184631237e-38
-0.06965523958 -0.3260220289 -0.3175023794 1.184631237e-38
-0.1623873264 -0.4788547158 -0.3147538006 1.184631237e-38
0.1653309613 -0.2792162895 0.1685494781 1.184631237e-38
-0.09585130215 -0.3217709661 -0.3158538938 1.184631237e-38
-0.1345765889 -0.4479174614 -0.2502144873 1.478322936e-38
0.08945637941 -0.254571259 -0.304372102 1.478322936e-38
0.1685270071 -0.2144189179 0.2738996148 1.478322936e-38
0.1532164216 -0.09188566357 0.08749261498 1.478322936e-38
0.1488556862 -0.06749556214 0.2648102939 1.478322936e-38
0.1389709115 -0.4744611681 0.1191803217 1.478322936e-38
0.1769873202 -0.268511951 -0.1145637929 1.478322936e-38
-0.004559874535 -0.2357588112 0.2629840076 1.478322936e-38
0.1668058038 -0.201295197 0.2661234438 1.478322936e-38
0.1706697047 -0.2563866973 0.1531073451 1.478322936e-38
0.1500720978 -0.08947071433 0.05304560438 1.478322936e-38
0.02541043796 -0.4700784385 -0.3273696601 1.478322936e-38
-0.08973307908 -0.473592639 0.01517703757 1.478322936e-38
-0.1137177646 -0.4264116883 -0.2872625291 1.478322936e-38
-0.05481360853 -0.4800770581 -0.2122061402 1.478322936e-38
-0.08376313746 -0.3019587994 -0.300878644 1.478322936e-38
-0.03562968969 -0.4824135602 -0.2548996806 1.478322936e-38
0.1632753611 -0.2052442729 -0.1974874735 1.478322936e-38
0.1730270833 -0.2914424539 -0.2372513413 1.478322936e-38
0.1657221019 -0.1544225067 0.2763535976 1.478322936e-38
0.09870105982 -0.2004999816 0.2936998308 1.478322936e-38
0.1620692313 -0.4052683115 -0.277171433 1.478322936e-38
0.1191959307 -0.1917178631 -0.3081138134 1.478322936e-38
-0.01367509738 -0.3837558031 -0.3263645768 1.478322936e-38
0.007086440921 -0.3764675558 -0.3239668608 1.478322936e-38
0.1794347763 -0.343457967 0.2061347365 1.478322936e-38
0.1791118234 -0.3467841744 0.2356672883 1.478322936e-38
0.06572732329 -0.2870875001 -0.3096998334 1.478322936e-38
0.07502743602 -0.1783379912 -0.3026354909 1.478322936e-38
-0.1188739985 -0.4636658132 0.1569029242 1.478322936e-38
0.102877371 -0.4207625985 0.3087233007 1.478322936e-38
0.1629655361 -0.4532910883 0.2272677124 1.478322936e-38
0.1859452426 -0.3942795098 0.2002420574 1.478322936e-38
0.1621836275 -0.4822235703 -0.1715572476 1.478322936e-38
0.03201606497 -0.4691346884 0.1687927544 1.478322936e-38
0.07719744742 -0.4812774658 -0.105516091 1.478322936e-38
0.1169703975 -0.2410255671 -0.3107054234 1.478322936e-38
-0.1710617244 -0.4595585465 -0.1483679712 1.478322936e-38
-0.1660411805 -0.4284437299 -0.2058096975 1.478322936e-38
-0.06052218378 -0.2255790979 -0.2998064756 1.478322936e-38
0.1367028505 -0.190851599 0.3072243333 1.478322936e-38
0.1809092015 -0.3021015525 -0.1472274214 1.478322936e-38
0.1746513098 -0.192160517 0.3149726987 1.478322936e-38
0.01730395295 -0.2709521651 -0.3121263087 1.478322936e-38
-0.1309688836 -0.4691787064 0.1013775915 1.478322936e-38
0.1176718548 -0.05727861822 -0.07652883977 1.478322936e-38
-0.03867713362 -0.2899266779 -0.3144380748 1.478322936e-38
-0.1116286218 -0.4727580249 0.01005811617 1.478322936e-38
0.1269403994 -0.1216110662 -0.2367841303 1.478322936e-38
-0.1625988781 -0.4103911221 -0.2146763802 1.478322936e-38
-0.1081587672 -0.3059664071 -0.2773025334 1.478322936e-38
0.1086033955 -0.07671692967 -0.21708709 1.478322936e-38
0.07347906381 -0.1839027852 -0.3024708331 1.478322936e-38
0.1060137004 -0.2903010249 -0.3116415143 1.478322936e-38
0.1487111449 -0.1653830707 -0.2750808895 1.478322936e-38
0.1348983198 -0.1395897269 -0.2725410163 1.478322936e-38
0.05806546658 -0.1956356168 -0.3004732728 1.478322936e-38
0.1500967443 -0.4225600958 0.2966249883 1.478322936e-38
0.1915682405 -0.4382900894 -0.05740461498 1.478322936e-38
0.1535594463 -0.1786779761 -0.1426329017 1.478322936e-38
0.1168495119 -0.2596783638 -0.3113780916 1.478322936e-38
0.1467534006 -0.06966190785 0.1373847425 1.478322936e-38
0.1238486618 -0.1191460639 -0.2657260001 1.478322936e-38
-0.02793423831 -0.2683849931 -0.3114371002 1.478322936e-38
0.05424847454 -0.3201960325 -0.3147053123 1.478322936e-38
-0.152956441 -0.4719490409 -0.08231977373 1.478322936e-38
0.1182981953 -0.4819900095 -0.2201628834 1.478322936e-38
0.1816229522 -0.3288349509 0.05866695568 1.478322936e-38
0.1653406322 -0.1623504758 0.314979583 1.478322936e-38
0.1644656062 -0.1897502542 -0.100362733 1.478322936e-38
0.1459868997 -0.06842460483 0.1247440726 1.478322936e-38
-0.1770058423 -0.4466533661 -0.1652162969 1.478322936e-38
-0.1551139057 -0.3975164294 -0.2243105769 1.478322936e-38
0.1007137299 -0.4843311608 -0.1388588548 1.478322936e-38
0.166228652 -0.09563625604 0.3007938564 1.478322936e-38
0.07690990716 -0.3452896476 -0.3168033063 1.478322936e-38
-0.00251666829 -0.4815983474 -0.2146569937 1.478322936e-38
0.1723946184 -0.2630313039 -0.223154217 1.478322936e-38
0.1290224791 -0.127686888 -0.2876203358 1.478322936e-38
-0.03070650995 -0.1915831566 -0.3013598323 1.478322936e-38
0.0726480335 -0.2929381132 -0.3107158542 1.478322936e-38
-0.08282089233 -0.3403771222 -0.308575809 1.478322936e-38
0.1020353884 -0.3109001815 -0.3144449294 1.478322936e-38
0.1301391721 -0.4596437216 -0.3110875189 1.478322936e-38
0.09763272107 -0.2763116062 -0.3070876002 1.478322936e-38
-0.04597954452 -0.3224112988 -0.3204862177 1.478322936e-38
0.1588689536 -0.08529614657 0.3040263951 1.478322936e-38
0.1381530762 -0.05447465181 0.1613769531 1.478322936e-38
0.05019643158 -0.4821356833 -0.1649158746 1.478322936e-38
0.004424124956 -0.3049743772 -0.3155148923 1.478322936e-38
0.1349923909 -0.05078402162 0.1377840936 1.478322936e-38
0.03184255958 -0.4764827788 -0.09529852867 1.478322936e-38
-0.1319524944 -0.4728987515 -0.1716986597 1.478322936e-38
0.1175479814 -0.06701484323 -0.1042966843 1.478322936e-38
0.01969468594 -0.4056914151 -0.3279485106 1.478322936e-38
-0.05520365387 -0.4615185857 -0.3166967332 1.478322936e-38
0.1831958294 -0.3507407308 0.1177508682 1.478322936e-38
-0.07374741137 -0.3896611035 -0.3190357387 1.478322936e-38
0.1537545025 -0.09549325705 0.0903557092 1.478322936e-38
0.09478056431 -0.2809349895 -0.3073399365 1.478322936e-38
0.1270133555 -0.4148418903 0.3107892275 1.478322936e-38
0.1651352942 -0.2175024003 0.2417375743 1.478322936e-38
0.06021428481 -0.1831156164 -0.2998794913 1.478322936e-38
0.1532640755 -0.07597264647 0.2589173913 1.478322936e-38
0.1386673301 -0.05260985345 0.228395015 1.478322936e-38
-0.05615143478 -0.4599832594 -0.3171600103 1.478322936e-38
0.1748219877 -0.4499568641 -0.1706766635 1.478322936e-38
0.1270795763 -0.1238346547 -0.2924351394 1.478322936e-38
0.05972760916 -0.3563568592 -0.319062829 1.478322936e-38
0.05680002645 -0.3165166676 -0.314034164 1.478322936e-38
0.1415119171 -0.09706450254 -0.03438596427 1.478322936e-38
0.1545282602 -0.1408071965 0.05050711706 1.478322936e-38
0.1811885089 -0.4715672731 -0.1043156534 1.478322936e-38
-0.0300013274 -0.2306292206 -0.3059565425 1.478322936e-38
-0.02768082172 -0.3100618124 -0.3178680539 1.478322936e-38
-0.008755329996 -0.2530077994 -0.3098673224 1.478322936e-38
0.1259595156 -0.2435796559 -0.3121035099 1.478322936e-38
0.1703119725 -0.4739254117 0.001794029027 1.478322936e-38
0.1641678214 -0.1991876662 -0.1561787277 1.478322936e-38
0.1776420176 -0.4412315786 -0.1488348544 1.478322936e-38
0.09681852162 -0.4011885822 -0.3224343956 1.478322936e-38
0.077362068 -0.4814116657 -0.3037233353 1.478322936e-38
0.1723688245 -0.238609314 -0.1120278537 1.478322936e-38
0.1383999884 -0.2985592782 -0.3057534993 1.478322936e-38
0.04705262184 -0.3041287661 -0.313439399 1.478322936e-38
-0.01683518291 -0.4822100103 -0.2885774076 1.478322936e-38
0.1600044072 -0.1693014205 0.01810777187 1.478322936e-38
0.02388847992 -0.2965646982 -0.3133887947 1.478322936e-38
0.0730143562 -0.3991737068 -0.1010121852 1.771655483e-38
0.1471357048 -0.2820744514 -0.314928472 1.771655483e-38
0.1598562002 -0.172462374 0.2367934287 1.771655483e-38
0.1478333473 -0.09740880132 0.02748318389 1.771655483e-38
0.1428908855 -0.0854973793 0.2250933051 1.771655483e-38
0.1749797314 -0.427840203 0.2607616782 1.771655483e-38
0.1634019911 -0.2272031158 -0.1928423494 1.771655483e-38
0.06184903905 -0.1800206602 0.2920440137 1.771655483e-38
0.1594333053 -0.1675382704 0.22849527 1.771655483e-38
0.156253472 -0.2183313668 0.1154605448 1.771655483e-38
0.145137459 -0.09820343554 -0.002885531634 1.771655483e-38
0.1471140385 -0.4791092575 -0.3061481416 1.771655483e-38
0.08679839969 -0.4602565467 0.2058927268 1.771655483e-38
0.0731369406 -0.3772002161 -0.1748821139 1.771655483e-38
0.09760856628 -0.4766277969 -0.06460537016 1.771655483e-38
0.07783143967 -0.2649351656 -0.2315247953 1.771655483e-38
0.09963131696 -0.4815724492 -0.1314135492 1.771655483e-38
0.1626835763 -0.1823307276 -0.2594737113 1.771655483e-38
0.1700680405 -0.2567679286 -0.2919437587 1.771655483e-38
0.1616134048 -0.1255928427 0.2254758179 1.771655483e-38
0.1176210046 -0.1453000903 0.3011627495 1.771655483e-38
0.1750814021 -0.3415068388 -0.2722344995 1.771655483e-38
0.1515381634 -0.2244106531 -0.3183253407 1.771655483e-38
0.1044232696 -0.4151257277 -0.3146263957 1.771655483e-38
0.1161690652 -0.4074845612 -0.3238306344 1.771655483e-38
0.1574231386 -0.2501693964 0.1700259298 1.771655483e-38
0.1570673436 -0.2431935668 0.2075189948 1.771655483e-38
0.1441002786 -0.3068413436 -0.3156237006 1.771655483e-38
0.145870775 -0.195138976 -0.3104933202 1.771655483e-38
0.06405941397 -0.4045515656 0.3047399521 1.771655483e-38
0.1465706825 -0.3149371743 0.3280250728 1.771655483e-38
0.1678549945 -0.360545516 0.2856318951 1.771655483e-38
0.1588460803 -0.2843424976 0.1714323908 1.771655483e-38
0.1921627522 -0.4403614402 -0.08750769496 1.771655483e-38
0.1338799596 -0.4283767939 0.3186899424 1.771655483e-38
0.1707073301 -0.4845683575 0.05819064751 1.771655483e-38
0.1581052244 -0.2651215494 -0.3125080168 1.771655483e-38
0.04959709197 -0.4097391367 0.0558626987 1.771655483e-38
0.05584118515 -0.369156003 -0.0337449424 1.771655483e-38
0.0764439255 -0.207066834 -0.2664333582 1.771655483e-38
0.1455896497 -0.1409009993 0.3020436764 1.771655483e-38
0.167778492 -0.2577152252 -0.215153873 1.771655483e-38
0.1615814418 -0.1430035383 0.2977284789 1.771655483e-38
0.1274395734 -0.2806620002 -0.3191257417 1.771655483e-38
0.0609828867 -0.4276333749 0.2672727108 1.771655483e-38
0.1342151016 -0.07336840034 -0.1061726958 1.771655483e-38
0.1064878926 -0.2917562723 -0.3018274009 1.771655483e-38
0.07868355513 -0.454044193 0.198038891 1.771655483e-38
0.1492568552 -0.1191544458 -0.2659792304 1.771655483e-38
0.05176018924 -0.3508384526 -0.05337559432 1.771655483e-38
0.05822442472 -0.2611252367 -0.1970239431 1.771655483e-38
0.1370777488 -0.08222182095 -0.23022075 1.771655483e-38
0.1457212269 -0.1998957098 -0.3104469776 1.771655483e-38
0.1592812538 -0.3123058081 -0.3105475307 1.771655483e-38
0.1564903557 -0.1465901881 -0.3038005233 1.771655483e-38
0.1525601447 -0.1274183542 -0.2997502685 1.771655483e-38
0.1454877704 -0.2039413005 -0.3128766716 1.771655483e-38
0.1574398875 -0.3102709651 0.3095052242 1.771655483e-38
0.1844734251 -0.3783411682 -0.02587714978 1.771655483e-38
0.154458344 -0.1605750769 -0.1940344274 1.771655483e-38
0.15956375 -0.2799733877 -0.3108722568 1.771655483e-38
0.1447314769 -0.08282892406 0.08252047002 1.771655483e-38
0.1495880485 -0.1120809317 -0.2874289155 1.771655483e-38
0.1113276556 -0.2730790973 -0.3080107868 1.771655483e-38
0.1444781721 -0.3398884535 -0.3195372522 1.771655483e-38
0.06049464643 -0.4301111698 0.1269509047 1.771655483e-38
0.1914863139 -0.4649877846 -0.1252789199 1.771655483e-38
0.163767606 -0.257850945 -0.001113131642 1.771655483e-38
0.1593361497 -0.1281009018 0.3000204861 1.771655483e-38
0.1556583792 -0.1792860329 -0.16032812 1.771655483e-38
0.1434939206 -0.08218047023 0.07041274011 1.771655483e-38
0.04514077306 -0.3889068067 0.0340497382 1.771655483e-38
0.05112451687 -0.3396847844 -0.07687999308 1.771655483e-38
0.1861438304 -0.4796731174 0.003853186965 1.771655483e-38
0.1532429457 -0.101213403 0.2673897445 1.771655483e-38
0.1553834677 -0.3780665696 -0.3206461072 1.771655483e-38
0.1194998324 -0.4877017736 -0.06565473974 1.771655483e-38
0.1682824045 -0.2255308032 -0.2870571017 1.771655483e-38
0.1514757574 -0.1174969375 -0.3064590693 1.771655483e-38
0.09066067636 -0.184204787 -0.2979229987 1.771655483e-38
0.1464155763 -0.3168984652 -0.3162736595 1.771655483e-38
0.08424173295 -0.3040797114 -0.2378977537 1.771655483e-38
0.1591826677 -0.3314872384 -0.3101920485 1.771655483e-38
0.1638551354 -0.4299882054 -0.2836908698 1.771655483e-38
0.1561775506 -0.3091906905 -0.3140597939 1.771655483e-38
0.1006730646 -0.3213569522 -0.2977223396 1.771655483e-38
0.1516365558 -0.09484683722 0.2735478878 1.771655483e-38
0.1384637356 -0.07451151311 0.1062242389 1.771655483e-38
0.1531052142 -0.487993747 -0.01319024153 1.771655483e-38
0.1196655855 -0.3205648661 -0.3193558753 1.771655483e-38
0.135583967 -0.07170829177 0.08491154015 1.771655483e-38
0.1375197619 -0.4855903685 0.08199970424 1.771655483e-38
0.07338342071 -0.4364928901 0.0217185542 1.771655483e-38
0.1365024745 -0.0824483484 -0.139302969 1.771655483e-38
0.132616654 -0.4304614067 -0.3304339349 1.771655483e-38
0.08241730928 -0.4604236186 -0.2305671573 1.771655483e-38
0.1596929431 -0.268112123 0.06535029411 1.771655483e-38
0.08139659464 -0.3617153466 -0.2516732216 1.771655483e-38
0.1484628469 -0.0996042788 0.02936766669 1.771655483e-38
0.1556277573 -0.3145551682 -0.3153710663 1.771655483e-38
0.1507673562 -0.3028302491 0.3240950704 1.771655483e-38
0.1584641635 -0.185069412 0.2003905922 1.771655483e-38
0.1458070129 -0.1909130216 -0.3134310842 1.771655483e-38
0.1471634209 -0.088847965 0.2105749995 1.771655483e-38
0.1364655197 -0.07585017383 0.1790815592 1.771655483e-38
0.08169528842 -0.4592269361 -0.2319359779 1.771655483e-38
0.183248356 -0.4008954465 -0.1476240456 1.771655483e-38
0.1509332806 -0.1135036573 -0.3092745245 1.771655483e-38
0.1484375 -0.380100131 -0.3235483468 1.771655483e-38
0.1448377371 -0.3366363645 -0.3190134168 1.771655483e-38
0.1437458098 -0.1115476564 -0.08351124823 1.771655483e-38
0.1525249779 -0.1379325837 -0.00469532609 1.771655483e-38
0.1896712333 -0.417620033 -0.03468213603 1.771655483e-38
0.1064658612 -0.2203565389 -0.296718508 1.771655483e-38
0.1061152667 -0.3168008327 -0.3127265275 1.771655483e-38
0.1186776906 -0.2576087117 -0.3132046759 1.771655483e-38
0.1613361239 -0.2615021467 -0.3103041053 1.771655483e-38
0.1893956214 -0.4137352705 0.1097749919 1.771655483e-38
0.1600339413 -0.1836563796 -0.2193059921 1.771655483e-38
0.1831813604 -0.3872030973 -0.133506164 1.771655483e-38
0.1559271216 -0.4219388664 -0.3135093153 1.771655483e-38
0.1761359274 -0.4787744582 -0.239175275 1.771655483e-38
0.1607563049 -0.2060799301 -0.1853301078 1.771655483e-38
0.1668496728 -0.3040833175 -0.3044732809 1.771655483e-38
0.14100568 -0.3192044199 -0.3187109828 1.771655483e-38
0.1079557016 -0.4822182953 -0.1839055121 1.771655483e-38
0.1526554972 -0.1649889052 -0.03414826468 1.771655483e-38
0.1301553249 -0.3112472296 -0.3205578625 1.771655483e-38
0.06245325878 -0.4295454621 0.006124857813 2.06466517e-38
0.1575475633 -0.3369570374 -0.3095142245 2.06466517e-38
0.154399693 -0.154911086 0.1984096318 2.06466517e-38
0.1420349777 -0.09624804556 0.01507660747 2.06466517e-38
0.1414893866 -0.0830796212 0.1960801482 2.06466517e-38
0.1581661999 -0.3410873711 0.2660629153 2.06466517e-38
0.1601551175 -0.2038283944 -0.1774855852 2.06466517e-38
0.07387640327 -0.1800334156 0.2961695492 2.06466517e-38
0.1546344459 -0.1506995112 0.1905932873 2.06466517e-38
0.1542116404 -0.1840030849 0.1028562635 2.06466517e-38
0.1417973787 -0.09491496533 -0.006830813363 2.06466517e-38
0.171518594 -0.4721326232 -0.180142954 2.06466517e-38
0.101015836 -0.4610674977 0.2866466343 2.06466517e-38
0.06799733639 -0.4176307917 -0.08513692021 2.06466517e-38
0.1117495671 -0.477812916 0.07631331682 2.06466517e-38
0.06621281058 -0.3146346509 -0.1970471591 2.06466517e-38
0.1216854677 -0.480828315 0.01108765975 2.06466517e-38
0.1571338475 -0.1708462685 -0.2460293621 2.06466517e-38
0.1667476296 -0.2283281684 -0.278824985 2.06466517e-38
0.1566955149 -0.1180410385 0.1952166408 2.06466517e-38
0.1325596571 -0.1440729201 0.2971180975 2.06466517e-38
0.1677134633 -0.3015172482 -0.2279385477 2.06466517e-38
0.157644093 -0.2493976951 -0.3065532148 2.06466517e-38
0.1032504812 -0.4564784467 -0.2676240504 2.06466517e-38
0.11688032 -0.4569057524 -0.2937746346 2.06466517e-38
0.1540649384 -0.2125184536 0.1579634398 2.06466517e-38
0.1532697976 -0.2087850571 0.1856673807 2.06466517e-38
0.1530133337 -0.3797611892 -0.3224808872 2.06466517e-38
0.1483656317 -0.2527092099 -0.3136842251 2.06466517e-38
0.07563793659 -0.3952262104 0.3262004256 2.06466517e-38
0.154135555 -0.2761127651 0.322188884 2.06466517e-38
0.1530382037 -0.2755077481 0.2634879649 2.06466517e-38
0.1535300314 -0.233612597 0.1649007201 2.06466517e-38
0.1767325401 -0.3794060946 0.004590522498 2.06466517e-38
0.1421681941 -0.3960596323 0.3323715925 2.06466517e-38
0.1777476519 -0.4428242445 0.1717778593 2.06466517e-38
0.1610785723 -0.2893179953 -0.300907433 2.06466517e-38
0.04377992824 -0.431660533 0.1467044204 2.06466517e-38
0.04117287695 -0.40383479 0.05724960193 2.06466517e-38
0.0678550899 -0.2457173765 -0.2338541895 2.06466517e-38
0.1581303179 -0.1342920363 0.2953386307 2.06466517e-38
0.1641823649 -0.2267593741 -0.204106465 2.06466517e-38
0.1581664681 -0.1323539019 0.2829770744 2.06466517e-38
0.1219071969 -0.3545285463 -0.3232122362 2.06466517e-38
0.06888636947 -0.4275566638 0.3209279776 2.06466517e-38
0.133398518 -0.06877729297 -0.08715513349 2.06466517e-38
0.09118868411 -0.3435029387 -0.2784590125 2.06466517e-38
0.08414641023 -0.4600667953 0.2766377926 2.06466517e-38
0.1467987597 -0.1119805425 -0.2449611276 2.06466517e-38
0.03877303004 -0.3888490498 0.03750915453 2.06466517e-38
0.04812737927 -0.3011328876 -0.1502997428 2.06466517e-38
0.1359366775 -0.07175754011 -0.2046332061 2.06466517e-38
0.1482790112 -0.2589261234 -0.31379807 2.06466517e-38
0.1614281982 -0.3412259221 -0.2991481721 2.06466517e-38
0.1546102166 -0.144695282 -0.2957260907 2.06466517e-38
0.1518471241 -0.1239794716 -0.2843320668 2.06466517e-38
0.1450299472 -0.2721417844 -0.3181139827 2.06466517e-38
0.1558489799 -0.2459262013 0.2889502048 2.06466517e-38
0.1638946831 -0.3026543558 0.005948875099 2.06466517e-38
0.1504848301 -0.1501274854 -0.1797816455 2.06466517e-38
0.1620860398 -0.3053204417 -0.2992288172 2.06466517e-38
0.1391764581 -0.08148752153 0.05675746873 2.06466517e-38
0.1481494308 -0.104482621 -0.2660318315 2.06466517e-38
0.09909814596 -0.327770412 -0.2938818634 2.06466517e-38
0.1505497843 -0.4160086215 -0.3277778625 2.06466517e-38
0.05119397864 -0.4464963078 0.2047715634 2.06466517e-38
0.1818902642 -0.4149654806 -0.001783724874 2.06466517e-38
0.1569483876 -0.2113770843 0.01236996055 2.06466517e-38
0.1614824533 -0.122631833 0.2904220223 2.06466517e-38
0.1526624858 -0.1608214825 -0.1424822658 2.06466517e-38
0.1389968693 -0.08119367063 0.04710262641 2.06466517e-38
0.03339461237 -0.4188423753 0.1171486676 2.06466517e-38
0.04026260227 -0.3792329729 0.01655700058 2.06466517e-38
0.1812213957 -0.4235911965 0.1110410988 2.06466517e-38
0.1518048346 -0.1004089266 0.2467697859 2.06466517e-38
0.1540923417 -0.4127324224 -0.3072778583 2.06466517e-38
0.1456057429 -0.482920289 0.07393625379 2.06466517e-38
0.1655574143 -0.2025486678 -0.2803381085 2.06466517e-38
0.1512826085 -0.1132753864 -0.2892671525 2.06466517e-38
0.08720917255 -0.2244059443 -0.2770037055 2.06466517e-38
0.1564335525 -0.3839716017 -0.3193148077 2.06466517e-38
0.0700365901 -0.3574590087 -0.1946285516 2.06466517e-38
0.1608438343 -0.3600668013 -0.2989087999 2.06466517e-38
0.1723183244 -0.3897936046 -0.1936501563 2.06466517e-38
0.1600266397 -0.3391595781 -0.3016967177 2.06466517e-38
0.08435346186 -0.3731725216 -0.266244024 2.06466517e-38
0.1505265385 -0.09516593814 0.2586174905 2.06466517e-38
0.1354562342 -0.07373206317 0.0819119513 2.06466517e-38
0.1769812703 -0.4650171399 0.1193264425 2.06466517e-38
0.1102391109 -0.3934367895 -0.3150148988 2.06466517e-38
0.1342044771 -0.07151030004 0.06393481791 2.06466517e-38
0.1614488363 -0.4746291637 0.2044502795 2.06466517e-38
0.07387289405 -0.4552108645 0.1173154563 2.06466517e-38
0.1349823475 -0.07533738017 -0.1162937135 2.06466517e-38
0.1422187984 -0.4714750648 -0.2953295112 2.06466517e-38
0.09033972025 -0.4764211476 -0.1207883805 2.06466517e-38
0.1562002897 -0.2219457328 0.06865461171 2.06466517e-38
0.06758392602 -0.4116080701 -0.1917557269 2.06466517e-38
0.142205894 -0.09846750647 0.01702036336 2.06466517e-38
0.1594959795 -0.3454369307 -0.3022562861 2.06466517e-38
0.1571834385 -0.2562743127 0.3153035045 2.06466517e-38
0.1549562514 -0.1605378389 0.1626631469 2.06466517e-38
0.1458823383 -0.2536471486 -0.3180217147 2.06466517e-38
0.1440088153 -0.08728192747 0.1810924411 2.06466517e-38
0.1357200742 -0.0735238269 0.155028224 2.06466517e-38
0.08940017223 -0.4751862288 -0.1230112463 2.06466517e-38
0.1725645959 -0.3326435983 -0.0824617967 2.06466517e-38
0.1507178396 -0.1087984443 -0.2917172611 2.06466517e-38
0.1545367688 -0.4398877621 -0.3226034939 2.06466517e-38
0.1512537897 -0.4118522406 -0.3269022107 2.06466517e-38
0.1424126327 -0.1067377925 -0.08171921968 2.06466517e-38
0.1459791362 -0.1308279186 -0.008287336677 2.06466517e-38
0.1703083068 -0.3516834378 0.03424407914 2.06466517e-38
0.09839612991 -0.265265584 -0.2786504626 2.06466517e-38
0.09445821494 -0.3754887879 -0.2895296514 2.06466517e-38
0.1093871519 -0.3180020154 -0.3128970563 2.06466517e-38
0.1646297425 -0.283610642 -0.3002613783 2.06466517e-38
0.1629766524 -0.3327536583 0.1400767267 2.06466517e-38
0.1545292735 -0.1695265174 -0.2032510638 2.06466517e-38
0.1709159762 -0.3185339272 -0.0755706504 2.06466517e-38
0.1606731266 -0.4095691741 -0.276365459 2.06466517e-38
0.1802278757 -0.4384775162 -0.114950031 2.06466517e-38
0.156607911 -0.1884472668 -0.1678203344 2.06466517e-38
0.1690236628 -0.3204444647 -0.2932540476 2.06466517e-38
0.1441377401 -0.3944764733 -0.3271031678 2.06466517e-38
0.1323846877 -0.4839007854 -0.04564744607 2.06466517e-38
0.1459073126 -0.1543251276 -0.03736990318 2.06466517e-38
0.1229708344 -0.3894154727 -0.3262766898 2.06466517e-38
0.05049628764 -0.4407347441 -0.0461993292 2.348204041e-38
0.1591462344 -0.321192652 -0.2840450108 2.348204041e-38
0.164334923 -0.1741532832 0.1882250011 2.348204041e-38
0.1533955038 -0.1142717153 0.01107744873 2.348204041e-38
0.1541693807 -0.08395074308 0.1834355891 2.348204041e-38
0.1804984659 -0.3783511519 0.2335688174 2.348204041e-38
0.165125072 -0.2275135666 -0.1482013017 2.348204041e-38
0.07506795228 -0.2072800398 0.2885679603 2.348204041e-38
0.1640292108 -0.1699288189 0.1791626811 2.348204041e-38
0.1605983377 -0.2143661082 0.1021984816 2.348204041e-38
0.1515665352 -0.1141204387 -0.007982650772 2.348204041e-38
0.1718671769 -0.4651328921 -0.2035802901 2.348204041e-38
0.09290456772 -0.4664008617 0.2319604754 2.348204041e-38
0.05077594891 -0.4301770329 -0.1138727516 2.348204041e-38
0.1066438854 -0.4722778797 0.02263730019 2.348204041e-38
0.05622604117 -0.3217112422 -0.1933785528 2.348204041e-38
0.1149274707 -0.4759540558 -0.03144196793 2.348204041e-38
0.1642187536 -0.1988167167 -0.2068419904 2.348204041e-38
0.1733586341 -0.2609430552 -0.2360645682 2.348204041e-38
0.1649419665 -0.1319396049 0.1795849949 2.348204041e-38
0.1343529671 -0.160726279 0.293235153 2.348204041e-38
0.1759688705 -0.3239952922 -0.2036365569 2.348204041e-38
0.1592838019 -0.2334910035 -0.2769143581 2.348204041e-38
0.1079895794 -0.4554962516 -0.2679281533 2.348204041e-38
0.1234940663 -0.4521115422 -0.2873264253 2.348204041e-38
0.1612800062 -0.2416869402 0.1395778954 2.348204041e-38
0.1623820364 -0.237087369 0.1589756906 2.348204041e-38
0.1562316716 -0.3693097234 -0.2942598164 2.348204041e-38
0.1542264223 -0.2505413294 -0.2898315191 2.348204041e-38
0.05250569806 -0.4295955896 0.3143996 2.348204041e-38
0.1597065032 -0.3134075999 0.3145267665 2.348204041e-38
0.1673311591 -0.3182721734 0.2388853729 2.348204041e-38
0.1606999636 -0.2609222531 0.1445552707 2.348204041e-38
0.1824132204 -0.3911272585 -0.0154709518 2.348204041e-38
0.1499043703 -0.4296076596 0.323858887 2.348204041e-38
0.1865642667 -0.4442416131 0.1192184836 2.348204041e-38
0.1614575982 -0.2743989527 -0.2713032067 2.348204041e-38
0.04146179929 -0.4368578196 0.08445960283 2.348204041e-38
0.03328663111 -0.4145023227 0.001581992954 2.348204041e-38
0.06619250774 -0.2494610846 -0.2274491936 2.348204041e-38
0.1611223221 -0.151415363 0.2932644188 2.348204041e-38
0.1702267379 -0.2549681664 -0.1663024724 2.348204041e-38
0.1657121778 -0.1487633586 0.2724314332 2.348204041e-38
0.1274950504 -0.3466663957 -0.3026193976 2.348204041e-38
0.04921142384 -0.4502827227 0.284812808 2.348204041e-38
0.140884757 -0.08066639304 -0.0857655704 2.348204041e-38
0.0931846872 -0.3424301744 -0.2674517632 2.348204041e-38
0.078977108 -0.4631848037 0.2220288217 2.348204041e-38
0.1576707512 -0.1269209981 -0.2187619954 2.348204041e-38
0.02868720889 -0.4020292759 -0.01533881016 2.348204041e-38
0.0355778262 -0.3123210073 -0.1570657045 2.348204041e-38
0.1462741643 -0.08356915414 -0.1837236285 2.348204041e-38
0.1540060639 -0.2567759156 -0.2898611128 2.348204041e-38
0.1607456505 -0.3259882331 -0.2715431452 2.348204041e-38
0.1647007465 -0.1626966149 -0.25276649 2.348204041e-38
0.1596250087 -0.1397378147 -0.2481114715 2.348204041e-38
0.1503360271 -0.2703784704 -0.2951517701 2.348204041e-38
0.1704072952 -0.2888922691 0.2795355916 2.348204041e-38
0.1705504507 -0.3372504115 0.005010675639 2.348204041e-38
0.1593935788 -0.1707317978 -0.1479228735 2.348204041e-38
0.1621100157 -0.2902075052 -0.2701124251 2.348204041e-38
0.1528974473 -0.09076471627 0.05307460949 2.348204041e-38
0.1586597264 -0.1205113903 -0.2361730933 2.348204041e-38
0.1017976999 -0.3248491883 -0.2796914279 2.348204041e-38
0.1540196836 -0.4027359188 -0.2987413704 2.348204041e-38
0.05408691615 -0.4556543231 0.1413154751 2.348204041e-38
0.1882306784 -0.4194571078 -0.03481955826 2.348204041e-38
0.1622346342 -0.2462579459 0.01664557308 2.348204041e-38
0.1665897965 -0.1338329911 0.2872635424 2.348204041e-38
0.1580602825 -0.1880098581 -0.1189022511 2.348204041e-38
0.1523605138 -0.0911809504 0.04244923964 2.348204041e-38
0.0294736661 -0.4267483354 0.05722313747 2.348204041e-38
0.02815561742 -0.3926132321 -0.03325234354 2.348204041e-38
0.193710342 -0.4294038415 0.07268773019 2.348204041e-38
0.161397934 -0.1038140804 0.2296353579 2.348204041e-38
0.1576716006 -0.3956465125 -0.2801350355 2.348204041e-38
0.1417231709 -0.4782676995 0.02558509633 2.348204041e-38
0.1718682945 -0.2330711782 -0.2396738827 2.348204041e-38
0.1597202718 -0.1289370954 -0.2555473149 2.348204041e-38
0.09029944241 -0.2223102152 -0.2678444088 2.348204041e-38
0.1572064161 -0.3690417111 -0.2913692892 2.348204041e-38
0.05924736708 -0.3613447845 -0.1954838187 2.348204041e-38
0.1601017267 -0.3443031907 -0.2715866268 2.348204041e-38
0.1736872047 -0.3923419118 -0.1833278537 2.348204041e-38
0.1607991904 -0.324960798 -0.2747146785 2.348204041e-38
0.08682303131 -0.3733349442 -0.2583800852 2.348204041e-38
0.1590466201 -0.09868992865 0.2490574718 2.348204041e-38
0.1501238793 -0.07465177029 0.07697822154 2.348204041e-38
0.183125481 -0.4616076946 0.07147035003 2.348204041e-38
0.1174775511 -0.3865495622 -0.2982497215 2.348204041e-38
0.1476018429 -0.07029507309 0.05824359879 2.348204041e-38
0.1627179086 -0.4721144438 0.1470954567 2.348204041e-38
0.06939339638 -0.4602916539 0.05423085764 2.348204041e-38
0.1429580748 -0.08960072696 -0.1090053916 2.348204041e-38
0.146230042 -0.4655256271 -0.2953094542 2.348204041e-38
0.08758309484 -0.4780677855 -0.1516760141 2.348204041e-38
0.1609419733 -0.252497375 0.07173040509 2.348204041e-38
0.06134035438 -0.417291671 -0.200294435 2.348204041e-38
0.1534480751 -0.116603978 0.01266621053 2.348204041e-38
0.1608305871 -0.3307573497 -0.2754137516 2.348204041e-38
0.1678556204 -0.2934373617 0.3058579266 2.348204041e-38
0.1624156088 -0.1865540743 0.1477452815 2.348204041e-38
0.1500582993 -0.253133893 -0.2954300344 2.348204041e-38
0.1598150432 -0.08874723315 0.1682991982 2.348204041e-38
0.1515794694 -0.07369738817 0.1434421688 2.348204041e-38
0.08624634147 -0.4781891406 -0.1550954431 2.348204041e-38
0.1763041168 -0.3564245701 -0.07919624448 2.348204041e-38
0.1597631723 -0.1243994758 -0.2591147423 2.348204041e-38
0.1574337482 -0.4218939245 -0.2954095006 2.348204041e-38
0.1546436697 -0.3983061314 -0.2977473736 2.348204041e-38
0.151372388 -0.1234695688 -0.06470073014 2.348204041e-38
0.1515620947 -0.1517497897 -0.008565673605 2.348204041e-38
0.1780322492 -0.3677957356 0.01523277909 2.348204041e-38
0.09765005112 -0.2660572827 -0.2686733603 2.348204041e-38
0.09900668263 -0.3749906123 -0.2786758244 2.348204041e-38
0.1136124954 -0.3128658831 -0.2949051857 2.348204041e-38
0.1648347974 -0.2684531808 -0.2685480118 2.348204041e-38
0.1757208109 -0.3607642651 0.1298173964 2.348204041e-38
0.1616906673 -0.195954904 -0.1708151549 2.348204041e-38
0.1753905863 -0.3457202017 -0.07135978341 2.348204041e-38
0.1614977419 -0.4056726396 -0.2609222233 2.348204041e-38
0.1827535033 -0.4362774193 -0.1287913918 2.348204041e-38
0.1621784866 -0.2138015628 -0.1398662627 2.348204041e-38
0.1702840924 -0.312743187 -0.2635292113 2.348204041e-38
0.1520531625 -0.3851544857 -0.3000517488 2.348204041e-38
0.1310565472 -0.4785503149 -0.08654469252 2.348204041e-38
0.1534920931 -0.1788978577 -0.0317273587 2.348204041e-38
0.1311433762 -0.3785779178 -0.3030500412 2.348204041e-38
0.0425831303 -0.4653537273 -0.02901503071 2.346801622e-38
0.1567449123 -0.3917836547 -0.2593615949 2.346801622e-38
0.1686168313 -0.1938904226 0.1473148912 2.346801622e-38
0.1561321169 -0.1233762875 -0.00957775861 2.346801622e-38
0.1568675339 -0.0918648988 0.1391536295 2.346801622e-38
0.1886885017 -0.369944036 0.2274082899 2.346801622e-38
0.1590741426 -0.2426364124 -0.1200356334 2.346801622e-38
0.08743041754 -0.2138634026 0.2718718648 2.346801622e-38
0.1678389609 -0.1896484941 0.1387794465 2.346801622e-38
0.1610884964 -0.2319835722 0.07406423986 2.346801622e-38
0.1541328132 -0.122776933 -0.02466950193 2.346801622e-38
0.1849983484 -0.4573362172 -0.0995773226 2.346801622e-38
0.1050437838 -0.4703173339 0.2365406156 2.346801622e-38
0.03171785176 -0.4653022885 -0.08190150559 2.346801622e-38
0.1168963537 -0.471838057 0.06087778881 2.346801622e-38
0.03465624154 -0.3689218163 -0.1634783 2.346801622e-38
0.1295475662 -0.4739824533 0.03376630321 2.346801622e-38
0.1619957089 -0.2226282507 -0.1812268943 2.346801622e-38
0.1660013795 -0.2795423865 -0.1984406114 2.346801622e-38
0.1694973111 -0.143914938 0.1453704089 2.346801622e-38
0.1405748129 -0.1602297425 0.2691829503 2.346801622e-38
0.167268455 -0.3324799538 -0.141470015 2.346801622e-38
0.1590265036 -0.2940732837 -0.2541992962 2.346801622e-38
0.1101931185 -0.4778636098 -0.2144130319 2.346801622e-38
0.1275880337 -0.4767943323 -0.2308564186 2.346801622e-38
0.1646188498 -0.2533330321 0.1132949889 2.346801622e-38
0.1675186902 -0.250629127 0.1275386065 2.346801622e-38
0.152254045 -0.4375203848 -0.2693114877 2.346801622e-38
0.1552871466 -0.3286359906 -0.2710705698 2.346801622e-38
0.06419350952 -0.4436605871 0.3054983616 2.346801622e-38
0.1683518589 -0.3326664269 0.2934433222 2.346801622e-38
0.1712028384 -0.3226443529 0.2110589445 2.346801622e-38
0.1635421515 -0.2728223801 0.1206680983 2.346801622e-38
0.1814018935 -0.3820582032 0.04123209789 2.346801622e-38
0.1593228281 -0.434139818 0.3084053397 2.346801622e-38
0.190201655 -0.4351574779 0.150390476 2.346801622e-38
0.157767117 -0.340318054 -0.2505171001 2.346801622e-38
0.04202450067 -0.4614182115 0.07463936508 2.346801622e-38
0.01699131913 -0.4518962204 0.00263145566 2.346801622e-38
0.04981043935 -0.2923891544 -0.1972673237 2.346801622e-38
0.1625037193 -0.1503746808 0.2620567083 2.346801622e-38
0.1629422307 -0.2679751813 -0.1324615777 2.346801622e-38
0.1681925356 -0.1552920789 0.2311778963 2.346801622e-38
0.1131677777 -0.4140827358 -0.2769884765 2.346801622e-38
0.06384379417 -0.4588595331 0.280834347 2.346801622e-38
0.1431783736 -0.08595651388 -0.09783817828 2.346801622e-38
0.07426688075 -0.395703584 -0.2369910032 2.346801622e-38
0.09027166665 -0.4700617492 0.2269286513 2.346801622e-38
0.1565574706 -0.13075535 -0.2056608349 2.346801622e-38
0.008783686906 -0.4393571913 -0.007385473698 2.346801622e-38
0.0121127218 -0.3537998796 -0.1264534891 2.346801622e-38
0.1450884342 -0.08596661687 -0.1756477654 2.346801622e-38
0.1551201195 -0.3351121545 -0.2710662782 2.346801622e-38
0.1560142338 -0.3914279342 -0.2485289127 2.346801622e-38
0.1624252498 -0.1871909201 -0.2327616811 2.346801622e-38
0.1596271098 -0.1507173926 -0.2281863838 2.346801622e-38
0.1428483725 -0.340377748 -0.2746252716 2.346801622e-38
0.1733297259 -0.3015987873 0.2389961779 2.346801622e-38
0.1645589173 -0.333290875 0.02957832441 2.346801622e-38
0.1608865261 -0.1907151043 -0.1411848962 2.346801622e-38
0.1574398577 -0.3574094176 -0.2492081821 2.346801622e-38
0.1540108919 -0.105063647 0.02239489928 2.346801622e-38
0.1567947716 -0.1242410168 -0.2199578285 2.346801622e-38
0.08594778925 -0.3808320761 -0.2494129688 2.346801622e-38
0.1497038603 -0.4595901966 -0.2680186033 2.346801622e-38
0.06030992046 -0.4655369818 0.1443660855 2.346801622e-38
0.18673338 -0.4107810259 0.02899551764 2.346801622e-38
0.1582687497 -0.2622005343 0.01225529239 2.346801622e-38
0.1661778986 -0.1382966489 0.2471060753 2.346801622e-38
0.1582398415 -0.2066137046 -0.1151511818 2.346801622e-38
0.1538703442 -0.1055287346 0.01310167462 2.346801622e-38
0.02447576262 -0.4569043517 0.05323713645 2.346801622e-38
0.007438931614 -0.4307332337 -0.02037649602 2.346801622e-38
0.1898849756 -0.4212691486 0.1135915369 2.346801622e-38
0.1622467935 -0.1091876402 0.1845663786 2.346801622e-38
0.1574508101 -0.4334554374 -0.2277911901 2.346801622e-38
0.1574032903 -0.472199589 0.08223214746 2.346801622e-38
0.1650858819 -0.2570415735 -0.2045795172 2.346801622e-38
0.158794269 -0.1355683953 -0.2356606424 2.346801622e-38
0.07992260903 -0.2693172693 -0.2352456152 2.346801622e-38
0.1553757489 -0.4340399504 -0.2652846873 2.346801622e-38
0.03555659577 -0.4094979763 -0.1637947112 2.346801622e-38
0.1570329666 -0.4020777643 -0.2420425266 2.346801622e-38
0.1760226935 -0.3887797296 -0.09146587551 2.346801622e-38
0.1552660018 -0.3915102184 -0.2514494956 2.346801622e-38
0.06764280796 -0.4278709888 -0.226459384 2.346801622e-38
0.1564060152 -0.1012501493 0.2018299401 2.346801622e-38
0.1510279179 -0.08818380535 0.04371878132 2.346801622e-38
0.1888082623 -0.4525970221 0.1142717749 2.346801622e-38
0.1068222597 -0.4450151324 -0.267794162 2.346801622e-38
0.1491064131 -0.08458936214 0.02991035208 2.346801622e-38
0.1729244143 -0.4661756456 0.1661776751 2.346801622e-38
0.07170859724 -0.4678744078 0.07000316679 2.346801622e-38
0.1447402984 -0.09422198683 -0.1162183136 2.346801622e-38
0.1604724526 -0.4700832069 -0.2014226019 2.346801622e-38
0.09632524848 -0.4753568172 -0.08541209996 2.346801622e-38
0.1587370485 -0.2639407218 0.06048527732 2.346801622e-38
0.04423690587 -0.4624326229 -0.1628671736 2.346801622e-38
0.156423077 -0.1251519769 -0.007759574801 2.346801622e-38
0.1552690417 -0.3959584236 -0.2514846027 2.346801622e-38
0.1749020666 -0.3094473481 0.2785862982 2.346801622e-38
0.1676309705 -0.2042003125 0.1109846681 2.346801622e-38
0.1438140869 -0.3223605156 -0.2742485702 2.346801622e-38
0.1618653238 -0.09962887317 0.129450798 2.346801622e-38
0.1510400474 -0.08250266314 0.1033504754 2.346801622e-38
0.09504553676 -0.4754762948 -0.08873595297 2.346801622e-38
0.1701925248 -0.3514298499 -0.01849706285 2.346801622e-38
0.1583789885 -0.1304084808 -0.2387091815 2.346801622e-38
0.1619941741 -0.4512267709 -0.2323304564 2.346801622e-38
0.1504745185 -0.456677109 -0.2675626874 2.346801622e-38
0.1538377851 -0.1287488341 -0.0729380846 2.346801622e-38
0.1559355557 -0.1579548419 -0.02020948008 2.346801622e-38
0.1757190228 -0.3578772545 0.06007273868 2.346801622e-38
0.07967072725 -0.3203122318 -0.2368910462 2.346801622e-38
0.08201189339 -0.4328177273 -0.2464242876 2.346801622e-38
0.09913343191 -0.3786357343 -0.2678682506 2.346801622e-38
0.1593350321 -0.3318121731 -0.2478196472 2.346801622e-38
0.1757649928 -0.3466820717 0.1444761455 2.346801622e-38
0.1596033126 -0.2196907699 -0.1518756002 2.346801622e-38
0.1673246622 -0.3446490169 -0.01926678047 2.346801622e-38
0.1696939617 -0.4149815738 -0.1659211367 2.346801622e-38
0.1905585527 -0.4290572405 -0.04256990552 2.346801622e-38
0.15832147 -0.2313674539 -0.1200180501 2.346801622e-38
0.1610875577 -0.3717868328 -0.2430912107 2.346801622e-38
0.1459833086 -0.4522979558 -0.2743989825 2.346801622e-38
0.1448944509 -0.4761575162 -0.00986960344 2.346801622e-38
0.1557560563 -0.1873360574 -0.03919140995 2.346801622e-38
0.1226249188 -0.4422227442 -0.2742682993 2.346801622e-38
0.08487203717 -0.4662321806 0.03868216649 2.345219836e-38
0.1587785184 -0.4184344113 -0.2210390717 2.345219836e-38
0.182586208 -0.1827028394 0.1351209432 2.345219836e-38
0.1698133498 -0.1319513172 -0.003188163042 2.345219836e-38
0.1735903621 -0.1002994627 0.1313254833 2.345219836e-38
0.1826413274 -0.3313452303 0.1960732043 2.345219836e-38
0.1612395942 -0.2415113151 -0.1085215211 2.345219836e-38
0.111428313 -0.19169572 0.2482469976 2.345219836e-38
0.1821335107 -0.1787870526 0.1281213909 2.345219836e-38
0.1718607992 -0.2219233215 0.06810346246 2.345219836e-38
0.1685821265 -0.1302703321 -0.01744996011 2.345219836e-38
0.1928878576 -0.4294070303 -0.001529302448 2.345219836e-38
0.1485446543 -0.4664506018 0.2869728506 2.345219836e-38
