# .PCD v0.7 - Point Cloud Data file format
VERSION 0.7
FIELDS x y z rgb
SIZE 4 4 4 4
TYPE F F F F
COUNT 1 1 1 1
WIDTH 825
HEIGHT 1
VIEWPOINT 0 0 0 1 0 0 0
POINTS 825
DATA ascii
0.3151153624 -0.3491948247 -0.1886838377 3.015101038e-39
0.3188156486 -0.2774970233 -0.2028448433 3.015101038e-39
0.2798419297 -0.2696200609 -0.1628498882 3.015101038e-39
0.3392859399 -0.3240763545 -0.1767827421 3.015101038e-39
0.3239872158 -0.1399478614 -0.1583037674 3.015101038e-39
0.2698039711 -0.337113142 -0.178481847 3.015101038e-39
0.3436670005 -0.1896212995 -0.2109796554 3.015101038e-39
-0.01200631075 -0.07634605467 -0.2135323137 3.015101038e-39
0.0150867328 -0.314963758 -0.1858616471 3.015101038e-39
0.3111765087 -0.1073992997 -0.2079240233 3.015101038e-39
0.00761776045 -0.2955253422 -0.1898946762 3.015101038e-39
-0.08912743628 -0.2908082902 -0.1840400845 5.962428276e-39
0.008772529662 -0.1488701105 -0.1801822186 5.962428276e-39
-0.0259346962 -0.3316189647 -0.192802608 5.962428276e-39
-0.03871336579 -0.4283971786 -0.195118174 5.962428276e-39
0.09224557877 -0.06700378656 -0.1874282062 5.962428276e-39
0.1562857777 -0.0185507983 -0.1844319701 5.962428276e-39
0.1783895642 -0.424018681 -0.2003261298 5.962428276e-39
0.01695864275 -0.01784922183 -0.2122225314 5.962428276e-39
0.1908193976 -0.3115582466 -0.1780288517 5.962428276e-39
-0.05803386867 -0.0252648741 -0.2091073543 5.962428276e-39
0.1546499431 -0.3893800378 -0.1960735321 5.962428276e-39
0.2592546344 -0.1008925661 -0.1664101779 5.962428276e-39
0.2335441858 -0.3027148545 -0.1973786354 5.962428276e-39
0.03422340751 -0.03799827397 -0.2049465626 5.962428276e-39
0.3022552729 -0.3512151241 -0.1814043075 5.962428276e-39
-0.03258018941 -0.3151655793 -0.1860118359 5.962428276e-39
-0.06901072711 -0.2143036723 -0.1875639558 5.962428276e-39
-0.09811535478 -0.180242449 -0.1971064508 5.962428276e-39
0.1757771373 -0.3527385592 -0.1876375377 5.962428276e-39
-0.02743230946 -0.1943675876 -0.1851313412 5.962428276e-39
-0.0124253789 -0.2374220043 -0.1786802262 5.962428276e-39
-0.02280925214 -0.2310364544 -0.1803968698 5.962428276e-39
0.1967715621 -0.2131774127 -0.1708403975 5.962428276e-39
0.15386796 -0.3915151954 -0.1960854381 5.962428276e-39
-0.005513792858 -0.3999770284 -0.1957489252 5.962428276e-39
-0.02638262883 -0.2102542967 -0.1924422532 5.962428276e-39
0.2158529162 -0.3987379372 -0.194616884 5.962428276e-39
0.02653667331 -0.128433913 -0.18184264 5.962428276e-39
0.144624263 -0.2706571817 -0.1729657799 5.962428276e-39
0.1285900623 -0.1004468724 -0.1805266589 5.962428276e-39
0.2230950147 -0.01666891575 -0.1755006313 5.962428276e-39
0.05342411622 -0.3284012079 -0.1939044148 5.962428276e-39
0.1416685134 -0.1788168103 -0.1744278669 5.962428276e-39
0.1341361701 -0.1918072104 -0.1946243942 5.962428276e-39
0.2550050318 -0.1746272594 -0.1966704577 5.962428276e-39
-0.04508247226 -0.2763604522 -0.1860178709 5.962428276e-39
-0.07649619877 -0.2175615281 -0.1871779561 5.962428276e-39
0.1350375116 -0.2286205143 -0.1733743101 5.962428276e-39
0.1298599988 -0.4350590408 -0.2014381737 5.962428276e-39
0.2412514836 -0.07261760533 -0.1703907996 5.962428276e-39
0.1885195822 -0.2189239264 -0.1711203605 5.962428276e-39
0.1031281948 -0.4236264229 -0.1999855787 5.962428276e-39
-0.08233942091 -0.3180119395 -0.186452046 5.962428276e-39
0.1727420837 -0.241550982 -0.1709681451 5.962428276e-39
0.05648783967 -0.3389247656 -0.1937361658 5.962428276e-39
0.01670136303 -0.2011173218 -0.1756600887 5.962428276e-39
0.1266362667 -0.115006268 -0.1792692393 5.962428276e-39
0.03005860373 -0.06433399022 -0.1971404403 5.962428276e-39
0.280657351 -0.3662887812 -0.1822437495 5.962428276e-39
0.2020171732 -0.3990142345 -0.1960922033 5.962428276e-39
-0.07947415113 -0.180237025 -0.1969578415 5.962428276e-39
0.05501155183 -0.2139353752 -0.1751090586 5.962428276e-39
0.2585814297 -0.2240921706 -0.1996632516 5.962428276e-39
-0.04001322389 -0.2215997577 -0.1925759166 5.962428276e-39
0.263043493 -0.2039077878 -0.1996863335 5.962428276e-39
0.1871722937 -0.06016026437 -0.1786622107 5.962428276e-39
0.2132140696 -0.2631247342 -0.1948218048 5.962428276e-39
0.162752226 -0.01352275908 -0.1834434569 5.962428276e-39
0.02819680423 -0.207327351 -0.1926160008 5.962428276e-39
0.279432565 -0.04455912113 -0.1681492478 5.962428276e-39
0.1301338226 -0.02905136347 -0.1863232702 5.962428276e-39
0.0254833065 -0.127263099 -0.1821975857 5.962428276e-39
0.2016407996 -0.4195927382 -0.198020637 5.962428276e-39
0.002670444548 -0.278100431 -0.1809229404 5.962428276e-39
-0.01091025583 -0.3842542768 -0.194021523 5.962428276e-39
0.2594745755 -0.2331151813 -0.1613974571 5.962428276e-39
-0.08908824623 -0.289681077 -0.1839663535 5.962428276e-39
0.1082524657 -0.05435436964 -0.1862998158 5.962428276e-39
0.1433677971 -0.2963448763 -0.1780909896 5.962428276e-39
0.07381173968 -0.07253070176 -0.1882310361 5.962428276e-39
-0.04045896232 -0.2860928774 -0.1869418472 5.962428276e-39
0.2459036559 -0.1068544537 -0.1675614715 5.962428276e-39
0.02336712927 -0.2099908739 -0.1752941012 5.962428276e-39
0.2403166145 -0.03112529218 -0.1734969318 5.962428276e-39
0.05330091342 -0.01324893534 -0.2065104097 5.962428276e-39
0.03299121559 -0.01642251015 -0.2106005698 5.962428276e-39
-0.04162185639 -0.4281594753 -0.1948913932 5.962428276e-39
-0.08578746021 -0.4240936041 -0.191538319 5.962428276e-39
0.2699534893 -0.3199300468 -0.199888438 5.962428276e-39
0.260945648 -0.150044471 -0.1645976752 5.962428276e-39
-0.05676589906 -0.1142003238 -0.2140780836 5.962428276e-39
0.03065126389 -0.09942440689 -0.18664895 5.962428276e-39
0.008787117898 -0.2483895719 -0.1776927412 5.962428276e-39
0.00858021155 -0.1649290323 -0.177679643 5.962428276e-39
0.2448769659 -0.09845754504 -0.1681863368 5.962428276e-39
0.2862046361 -0.367274344 -0.1818314344 5.962428276e-39
-0.02168224379 -0.1612010896 -0.1869387329 5.962428276e-39
0.1830181032 -0.03642323613 -0.1802747995 5.962428276e-39
-0.03266312927 -0.08837525547 -0.2140191644 5.962428276e-39
-0.008648434654 -0.3233674169 -0.186179325 5.962428276e-39
-0.02614835836 -0.3894079924 -0.1939596087 5.962428276e-39
0.2152553201 -0.4038050771 -0.1952723265 5.962428276e-39
0.2727658749 -0.05006590486 -0.168406114 5.962428276e-39
0.2742010057 -0.08724085987 -0.166367963 5.962428276e-39
0.1179914176 -0.09948280454 -0.1811122745 5.962428276e-39
-0.06648613513 -0.3653736115 -0.1938239485 5.962428276e-39
-0.05642657727 -0.1014277861 -0.2163557857 5.962428276e-39
0.2032910734 -0.3197831213 -0.1974400729 5.962428276e-39
0.2404671162 -0.3915660679 -0.1905235201 5.962428276e-39
0.02843722701 -0.1970103234 -0.1753364205 5.962428276e-39
0.03039303049 -0.1332778037 -0.1805854142 5.962428276e-39
-0.03059096821 -0.3649697602 -0.1901985407 5.962428276e-39
-0.09375278652 -0.1628855616 -0.2027141303 5.962428276e-39
0.009001374245 -0.2226151824 -0.1762963682 5.962428276e-39
0.1207691282 -0.02774485946 -0.1874482781 5.962428276e-39
-0.03128811345 -0.1130200475 -0.2074074298 5.962428276e-39
-0.06883033365 -0.05312463641 -0.2162264735 5.962428276e-39
0.2079639137 -0.3294684589 -0.1806408167 5.962428276e-39
-0.01562860981 -0.3019595742 -0.1845281571 5.962428276e-39
-0.05147455633 -0.2508454919 -0.1845109165 5.962428276e-39
0.001383025199 -0.06626518071 -0.2064457685 5.962428276e-39
-0.02037842758 -0.2021562904 -0.1824113131 5.962428276e-39
0.2073284835 -0.2086149454 -0.1910024881 5.962428276e-39
0.2466306835 -0.3819410801 -0.1882251352 5.962428276e-39
-0.03164229915 -0.08894306421 -0.2134439796 5.962428276e-39
-0.02087162063 -0.2315294445 -0.1798152626 5.962428276e-39
0.162578553 -0.2390984148 -0.1947221011 5.962428276e-39
0.2076682597 -0.4013485909 -0.1957836002 5.962428276e-39
0.2434485704 -0.388907373 -0.1934718341 5.962428276e-39
0.194919467 -0.2533351481 -0.1686150432 5.962428276e-39
0.2507153451 -0.3683143556 -0.1862589717 5.962428276e-39
0.2654125988 -0.08773198724 -0.1670578271 5.962428276e-39
0.1587420553 -0.3016560376 -0.1782420725 5.962428276e-39
0.2930239141 -0.3047317266 -0.2013780326 5.962428276e-39
-0.06537261605 -0.05381955206 -0.2169223577 5.962428276e-39
-0.04317503422 -0.2854852676 -0.1866307557 5.962428276e-39
0.2568346262 -0.2105428725 -0.1985667795 5.962428276e-39
-0.07889579237 -0.3891806006 -0.1908483356 5.962428276e-39
-0.1513876617 -0.2826199532 -0.1885534078 8.906165387e-39
-0.03819976747 -0.1391053498 -0.1949032992 8.906165387e-39
-0.1290108114 -0.4173301756 -0.193417877 8.906165387e-39
-0.1514792293 -0.4037596583 -0.1971501112 8.906165387e-39
0.02970969677 -0.05682195723 -0.198728919 8.906165387e-39
0.08439916372 -0.01004768908 -0.1980167329 8.906165387e-39
0.009501367807 -0.3770413101 -0.1925559193 8.906165387e-39
-0.0316631645 -0.0172688812 -0.2172595114 8.906165387e-39
0.07410947978 -0.2802377939 -0.1752022207 8.906165387e-39
-0.1058020294 -0.02556872368 -0.1951381415 8.906165387e-39
-0.004597116262 -0.4504142404 -0.1961488873 8.906165387e-39
0.1695587784 -0.06700576842 -0.1731892377 8.906165387e-39
0.09172043204 -0.4024180174 -0.1918478906 8.906165387e-39
-0.01714352146 -0.03106312454 -0.2187593728 8.906165387e-39
0.1489517093 -0.3687454462 -0.1874482632 8.906165387e-39
-0.09653367102 -0.2982662022 -0.1881614923 8.906165387e-39
-0.1293871552 -0.2073034197 -0.1994413882 8.906165387e-39
-0.1450220793 -0.1775050759 -0.2006223351 8.906165387e-39
0.05025395378 -0.3035603166 -0.1781803221 8.906165387e-39
-0.08381831646 -0.1874018759 -0.1960277855 8.906165387e-39
-0.06412048638 -0.2243082374 -0.1868383884 8.906165387e-39
-0.07575242966 -0.2203829437 -0.1885947436 8.906165387e-39
0.1082250774 -0.1572620571 -0.1687248647 8.906165387e-39
-0.006063442677 -0.4502208829 -0.1964562833 8.906165387e-39
-0.1000525802 -0.3527448475 -0.1915244758 8.906165387e-39
-0.1249857098 -0.306858629 -0.1956660748 8.906165387e-39
0.04185530916 -0.3549455404 -0.1893157512 8.906165387e-39
-0.02139606513 -0.1198258549 -0.1954229474 8.906165387e-39
0.04073819146 -0.2350799441 -0.1708708555 8.906165387e-39
0.06061898544 -0.08606076241 -0.1824551821 8.906165387e-39
0.1454486698 -0.005561500788 -0.1875153333 8.906165387e-39
-0.06202444434 -0.4140078425 -0.1909499466 8.906165387e-39
0.0640693903 -0.1409668028 -0.1725721955 8.906165387e-39
0.004389241338 -0.2724862695 -0.1798867583 8.906165387e-39
0.1369614154 -0.2756162286 -0.1887946129 8.906165387e-39
-0.1093743443 -0.2694523931 -0.1882657558 8.906165387e-39
-0.1354898065 -0.210857749 -0.1980717331 8.906165387e-39
0.05282857642 -0.1800107658 -0.1707486212 8.906165387e-39
-0.02944203652 -0.3822042942 -0.1934996992 8.906165387e-39
0.1545096934 -0.04667654634 -0.1770659685 8.906165387e-39
0.1013679951 -0.1626968086 -0.1681411862 8.906165387e-39
-0.0349011831 -0.3529825807 -0.1894183606 8.906165387e-39
-0.1501031816 -0.3046399355 -0.1899888515 8.906165387e-39
0.08600816131 -0.1841582805 -0.1669953763 8.906165387e-39
-0.06103381515 -0.4213466644 -0.1916200966 8.906165387e-39
-0.03048344888 -0.1812266707 -0.1836019456 8.906165387e-39
0.05690025911 -0.0984210223 -0.1813739985 8.906165387e-39
-0.02164573409 -0.05870494246 -0.2138731331 8.906165387e-39
0.1141145378 -0.3504425585 -0.1875089556 8.906165387e-39
0.03967731819 -0.340949893 -0.1860387772 8.906165387e-39
-0.1339719296 -0.1789951026 -0.2052897662 8.906165387e-39
0.0005375146866 -0.1833599806 -0.1797102392 8.906165387e-39
0.13723059 -0.3397795558 -0.1910520047 8.906165387e-39
-0.1358480603 -0.3172752261 -0.1957003176 8.906165387e-39
0.146217227 -0.319083035 -0.1926440299 8.906165387e-39
0.109577924 -0.04464529455 -0.1798567623 8.906165387e-39
0.07523986697 -0.3560196161 -0.1882590801 8.906165387e-39
0.0900990963 -0.0057105124 -0.1979107261 8.906165387e-39
-0.07611253113 -0.3040062487 -0.192967847 8.906165387e-39
0.1936506629 -0.02381235361 -0.1784318984 8.906165387e-39
0.0637409091 -0.02029785514 -0.2006263882 8.906165387e-39
-0.02266316116 -0.1192555875 -0.1959656924 8.906165387e-39
0.02932384983 -0.4258624315 -0.1980264634 8.906165387e-39
-0.06407396495 -0.2666887343 -0.1838761568 8.906165387e-39
-0.09738384187 -0.3432611525 -0.1904601008 8.906165387e-39
0.1624295413 -0.1680820286 -0.1683294475 8.906165387e-39
-0.1512743384 -0.2818011343 -0.188502267 8.906165387e-39
0.04550523683 -0.04274097085 -0.1978052109 8.906165387e-39
0.03395166248 -0.2698357999 -0.1756667793 8.906165387e-39
0.01794728264 -0.06243260205 -0.2018784732 8.906165387e-39
-0.1028746068 -0.2753168941 -0.1873137355 8.906165387e-39
0.155974105 -0.0735321641 -0.1737363338 8.906165387e-39
-0.02509114332 -0.1877038181 -0.1824475229 8.906165387e-39
0.1597301811 -0.01577624679 -0.1833954751 8.906165387e-39
0.004041910172 -0.01165929437 -0.2187509686 8.906165387e-39
-0.01600612514 -0.01567588747 -0.2186165005 8.906165387e-39
-0.1531518996 -0.4035819471 -0.1970025301 8.906165387e-39
-0.1747361571 -0.3891436458 -0.1951722652 8.906165387e-39
0.1226667315 -0.419308126 -0.1961689144 8.906165387e-39
0.1694977283 -0.101225622 -0.1716729552 8.906165387e-39
-0.1207744032 -0.1087307185 -0.2185409516 8.906165387e-39
-0.01816992089 -0.09481206536 -0.2023524195 8.906165387e-39
-0.05056843907 -0.2306712717 -0.182821393 8.906165387e-39
-0.03491486609 -0.1506133378 -0.1903907508 8.906165387e-39
0.1557279527 -0.06668186188 -0.1742201746 8.906165387e-39
0.1216255277 -0.3654165864 -0.1898550093 8.906165387e-39
-0.07279383391 -0.1587103009 -0.2018597573 8.906165387e-39
0.1052963287 -0.02467006445 -0.1862379909 8.906165387e-39
-0.09689535201 -0.08372163773 -0.2221896201 8.906165387e-39
-0.08004496992 -0.3012779355 -0.187688902 8.906165387e-39
-0.112169832 -0.3496572077 -0.1911254078 8.906165387e-39
0.04099213704 -0.3727686107 -0.191970706 8.906165387e-39
0.1860998571 -0.02789586782 -0.1776143312 8.906165387e-39
0.1855541617 -0.05409677327 -0.1740190685 8.906165387e-39
0.05080413446 -0.08698505163 -0.1841486245 8.906165387e-39
-0.1435649246 -0.3400975168 -0.1908652931 8.906165387e-39
-0.1208264381 -0.09616369009 -0.2189873606 8.906165387e-39
0.05840451643 -0.4072454572 -0.1907397211 8.906165387e-39
0.06223867461 -0.3676078916 -0.1922973841 8.906165387e-39
-0.01789489388 -0.1751867235 -0.1829309911 8.906165387e-39
-0.01646166481 -0.1222753078 -0.1932399273 8.906165387e-39
-0.1084373444 -0.336348176 -0.1898156703 8.906165387e-39
-0.1426055282 -0.1583957374 -0.2051337212 8.906165387e-39
-0.04129730165 -0.2028769106 -0.1839392185 8.906165387e-39
0.05535861477 -0.02016361058 -0.2032918483 8.906165387e-39
-0.09588630497 -0.1104514673 -0.2190854996 8.906165387e-39
-0.121317327 -0.05307848752 -0.2056105584 8.906165387e-39
0.08469498158 -0.2905109525 -0.1760942638 8.906165387e-39
-0.07878541201 -0.2835249305 -0.1875198483 8.906165387e-39
-0.1182020754 -0.242027387 -0.1927078217 8.906165387e-39
-0.05672350526 -0.06314790249 -0.2179864794 8.906165387e-39
-0.07488362491 -0.1935826093 -0.1926829666 8.906165387e-39
0.07288920879 -0.2936519086 -0.1853066683 8.906165387e-39
0.07219961286 -0.3437039256 -0.1885707378 8.906165387e-39
-0.09558396041 -0.08434078097 -0.2220854312 8.906165387e-39
-0.07281382382 -0.2202905416 -0.1881925613 8.906165387e-39
0.02681384236 -0.3264910579 -0.1856857687 8.906165387e-39
0.03720245138 -0.3512607217 -0.1882843524 8.906165387e-39
0.06929275393 -0.4264927506 -0.1995108724 8.906165387e-39
0.1050925702 -0.1950678974 -0.1668674052 8.906165387e-39
0.0946187377 -0.3170591891 -0.1827712655 8.906165387e-39
0.1764937937 -0.05648134649 -0.1739023328 8.906165387e-39
0.04543371126 -0.2745479941 -0.1759255081 8.906165387e-39
0.1582273394 -0.3960521221 -0.1918319464 8.906165387e-39
-0.1193431318 -0.05349120498 -0.2075086385 8.906165387e-39
-0.1069142967 -0.2750152946 -0.1878720522 8.906165387e-39
0.1361140162 -0.3234069943 -0.1908535957 8.906165387e-39
-0.178917855 -0.4087725878 -0.1958574504 8.906165387e-39
-0.2341618389 -0.3058405519 -0.1856201291 1.184631237e-38
-0.09142611921 -0.1492259055 -0.1955930144 1.184631237e-38
-0.2169102728 -0.4496891499 -0.1949802786 1.184631237e-38
-0.2354266346 -0.4474057853 -0.1973272264 1.184631237e-38
-0.001475090161 -0.06707333028 -0.2035589963 1.184631237e-38
0.0541077517 -0.0211045295 -0.2021798342 1.184631237e-38
-0.06294587255 -0.4229762554 -0.2063349038 1.184631237e-38
-0.07418306917 -0.02465476096 -0.2052987665 1.184631237e-38
0.01414121315 -0.3086896241 -0.1804165542 1.184631237e-38
-0.1632190943 -0.02907890081 -0.1813557297 1.184631237e-38
-0.0800184235 -0.4869865179 -0.2044672221 1.184631237e-38
0.1444535851 -0.0873876214 -0.1722486168 1.184631237e-38
0.03778433427 -0.4175587296 -0.1966595501 1.184631237e-38
-0.0592347905 -0.04047393799 -0.2110640556 1.184631237e-38
0.09672537446 -0.3917052746 -0.1928684711 1.184631237e-38
-0.1929097623 -0.3320881128 -0.1868271828 1.184631237e-38
-0.2123076916 -0.2282090634 -0.1915910691 1.184631237e-38
-0.2237329483 -0.1908810586 -0.1840187609 1.184631237e-38
-0.02197130397 -0.3407767415 -0.1900383234 1.184631237e-38
-0.1671618223 -0.2096179277 -0.1939717233 1.184631237e-38
-0.1365467757 -0.2530726492 -0.1854543239 1.184631237e-38
-0.155836001 -0.246510759 -0.1868463308 1.184631237e-38
0.06375004351 -0.1879675239 -0.1721722484 1.184631237e-38
-0.08191035688 -0.487436831 -0.2047767192 1.184631237e-38
-0.1950868219 -0.3932010531 -0.1917961687 1.184631237e-38
-0.1955448091 -0.3266939223 -0.1863468885 1.184631237e-38
-0.01895971596 -0.3963919878 -0.1999229193 1.184631237e-38
-0.06517149508 -0.1296183616 -0.1961327642 1.184631237e-38
0.001522587612 -0.2684850097 -0.1786075383 1.184631237e-38
0.02685348317 -0.09666967392 -0.19140701 1.184631237e-38
0.1194308549 -0.01471020281 -0.187369436 1.184631237e-38
-0.1488150209 -0.4518688023 -0.1988528222 1.184631237e-38
0.02696025372 -0.1673976481 -0.1832263023 1.184631237e-38
-0.06037760898 -0.296074152 -0.1903486848 1.184631237e-38
0.08198870718 -0.2785053551 -0.1911462098 1.184631237e-38
-0.1963404715 -0.2926517725 -0.1833743453 1.184631237e-38
-0.2187376618 -0.2320591211 -0.1890851706 1.184631237e-38
0.01558912545 -0.2135466337 -0.1810243428 1.184631237e-38
-0.1086042672 -0.4351110458 -0.2061128169 1.184631237e-38
0.1274142414 -0.06061330438 -0.1755051166 1.184631237e-38
0.05532477424 -0.1948006004 -0.1732047796 1.184631237e-38
-0.1120665073 -0.3970346451 -0.2006617337 1.184631237e-38
-0.2368527651 -0.3319327831 -0.188925311 1.184631237e-38
0.03966302052 -0.2183511853 -0.1755277663 1.184631237e-38
-0.1496813893 -0.460003525 -0.1992012709 1.184631237e-38
-0.08553446829 -0.2018048316 -0.1902835369 1.184631237e-38
0.02284650132 -0.1097112298 -0.1903977841 1.184631237e-38
-0.06490930915 -0.06754016876 -0.2090483159 1.184631237e-38
0.05872245505 -0.3796668649 -0.19102332 1.184631237e-38
-0.02653448842 -0.382892251 -0.1972521842 1.184631237e-38
-0.2132225037 -0.1935127228 -0.190796122 1.184631237e-38
-0.04982826486 -0.2122821212 -0.190843001 1.184631237e-38
0.07966718078 -0.3421211839 -0.1960483789 1.184631237e-38
-0.2123956531 -0.3365522325 -0.1864377856 1.184631237e-38
0.08892971277 -0.3199627101 -0.1951183528 1.184631237e-38
0.07644699514 -0.05550804734 -0.1856893897 1.184631237e-38
0.0226018168 -0.3745782971 -0.1914065778 1.184631237e-38
0.0618029125 -0.01567873359 -0.2006033808 1.184631237e-38
-0.1410269588 -0.332691133 -0.192415148 1.184631237e-38
0.1726928651 -0.03455469012 -0.1777532995 1.184631237e-38
0.02865727991 -0.03115710616 -0.2068199962 1.184631237e-38
-0.06632889062 -0.128886342 -0.1963865459 1.184631237e-38
-0.04069592059 -0.4556421041 -0.207052812 1.184631237e-38
-0.1390806586 -0.2949950993 -0.1864789575 1.184631237e-38
-0.1944552511 -0.3836956024 -0.1915660053 1.184631237e-38
0.1236137748 -0.197339341 -0.1660512686 1.184631237e-38
-0.233971104 -0.3048160076 -0.1855264902 1.184631237e-38
0.0122044161 -0.05374294519 -0.2048212141 1.184631237e-38
-0.01967891492 -0.2979335487 -0.182133168 1.184631237e-38
-0.01646129042 -0.07277727127 -0.2043158263 1.184631237e-38
-0.191457212 -0.3009151816 -0.1830615848 1.184631237e-38
0.1276857108 -0.09345656633 -0.1717247218 1.184631237e-38
-0.0798548013 -0.2112775147 -0.190298304 1.184631237e-38
0.1314163208 -0.02563531697 -0.182769075 1.184631237e-38
-0.02578886226 -0.01902474463 -0.2100241631 1.184631237e-38
-0.05384393781 -0.02328337729 -0.2082137316 1.184631237e-38
-0.2369554639 -0.4468272924 -0.1970461905 1.184631237e-38
-0.2566541433 -0.4336995482 -0.1954434216 1.184631237e-38
0.06340506673 -0.4436235428 -0.1991616488 1.184631237e-38
0.1418106854 -0.1267826855 -0.1685771346 1.184631237e-38
-0.1903025806 -0.1181002632 -0.2049057037 1.184631237e-38
-0.06006741151 -0.1039793193 -0.2004325241 1.184631237e-38
-0.1122244895 -0.2617574334 -0.1864061505 1.184631237e-38
-0.09022475779 -0.163580507 -0.1930278838 1.184631237e-38
0.1275380701 -0.08526018262 -0.1726229191 1.184631237e-38
0.06619639695 -0.3942176998 -0.1933547109 1.184631237e-38
-0.1478536129 -0.1700762361 -0.1967227757 1.184631237e-38
0.07393851876 -0.03527520597 -0.1933075637 1.184631237e-38
-0.1640600264 -0.09186330438 -0.207923457 1.184631237e-38
-0.1718965322 -0.3383181095 -0.1894951612 1.184631237e-38
-0.208240211 -0.3884758353 -0.1905374676 1.184631237e-38
-0.02089085244 -0.4116119742 -0.2027639896 1.184631237e-38
0.165048033 -0.03840443492 -0.1772552729 1.184631237e-38
0.1638779342 -0.07230268419 -0.1732561886 1.184631237e-38
0.01757356152 -0.09792986512 -0.1929045916 1.184631237e-38
-0.2334051579 -0.3775728941 -0.1916407496 1.184631237e-38
-0.1875643879 -0.1049257591 -0.2049273103 1.184631237e-38
-0.002650594339 -0.4316464067 -0.1959314048 1.184631237e-38
0.00490321219 -0.4026924372 -0.1991841048 1.184631237e-38
-0.0708912611 -0.1959998459 -0.1906010062 1.184631237e-38
-0.06030664593 -0.1327860951 -0.1950432807 1.184631237e-38
-0.2060195953 -0.3751383722 -0.1898727268 1.184631237e-38
-0.2200667113 -0.168474406 -0.1880102456 1.184631237e-38
-0.09853574634 -0.2276862413 -0.1892154217 1.184631237e-38
0.02204046398 -0.0296176374 -0.2079701871 1.184631237e-38
-0.1667035967 -0.1191476136 -0.2068606466 1.184631237e-38
-0.1926979423 -0.05647335947 -0.1955101043 1.184631237e-38
0.02027397975 -0.3214394748 -0.1827047169 1.184631237e-38
-0.1681998521 -0.3170554936 -0.1870064437 1.184631237e-38
-0.2008232474 -0.2659066319 -0.1880113631 1.184631237e-38
-0.1077622771 -0.06991879642 -0.2078659981 1.184631237e-38
-0.1549307257 -0.2167442143 -0.191130206 1.184631237e-38
0.02004065737 -0.3144449294 -0.1904782355 1.184631237e-38
0.01553053781 -0.3810954094 -0.1933057159 1.184631237e-38
-0.162520051 -0.09248825908 -0.2081095725 1.184631237e-38
-0.1513440758 -0.2468764633 -0.1862616241 1.184631237e-38
-0.03832885623 -0.3474184871 -0.1927274764 1.184631237e-38
-0.02646812238 -0.3938863575 -0.1997323185 1.184631237e-38
0.01229922473 -0.4525257647 -0.2053244263 1.184631237e-38
0.05577938631 -0.2285737246 -0.1725075543 1.184631237e-38
0.03093007579 -0.3539396524 -0.1878931075 1.184631237e-38
0.1530126929 -0.07486975193 -0.1731817126 1.184631237e-38
-0.01087095588 -0.3029567003 -0.1816776395 1.184631237e-38
0.1033612192 -0.4163872004 -0.1954175979 1.184631237e-38
-0.1906174272 -0.05693557858 -0.1967466176 1.184631237e-38
-0.195241347 -0.2999402583 -0.1831986308 1.184631237e-38
0.07970321178 -0.3252181411 -0.19441697 1.184631237e-38
-0.2626397908 -0.4472820759 -0.1922751665 1.184631237e-38
-0.2632363737 -0.326443851 -0.1851725578 1.478322936e-38
-0.133067444 -0.1644383371 -0.1871869415 1.478322936e-38
-0.2229454219 -0.456510067 -0.1888628304 1.478322936e-38
-0.2531675398 -0.4615256786 -0.1948785633 1.478322936e-38
-0.03519773856 -0.06942804158 -0.1973614395 1.478322936e-38
0.02085378021 -0.01609380543 -0.1977160722 1.478322936e-38
-0.07854866982 -0.4582716823 -0.2150418311 1.478322936e-38
-0.1032598168 -0.01907075942 -0.1967374533 1.478322936e-38
-0.03890455514 -0.3464943171 -0.1854409724 1.478322936e-38
-0.1980126202 -0.01890918612 -0.1769654453 1.478322936e-38
-0.07759962976 -0.4947977066 -0.1985763907 1.478322936e-38
0.1070725173 -0.1037371904 -0.1678738445 1.478322936e-38
0.03475498781 -0.4092949629 -0.1859374642 1.478322936e-38
-0.08941413462 -0.03982669115 -0.2003026754 1.478322936e-38
0.07414767146 -0.4394523203 -0.1990640461 1.478322936e-38
-0.2204640955 -0.3603122234 -0.1838635653 1.478322936e-38
-0.2420598865 -0.2484719753 -0.1852224916 1.478322936e-38
-0.2481428832 -0.2010778934 -0.1802429706 1.478322936e-38
-0.0641617924 -0.3764367104 -0.1998102367 1.478322936e-38
-0.2038173079 -0.2334286124 -0.187469095 1.478322936e-38
-0.1725525111 -0.2827013135 -0.1790448278 1.478322936e-38
-0.1900446564 -0.2769632041 -0.1802228093 1.478322936e-38
0.02504200488 -0.2324009836 -0.175410226 1.478322936e-38
-0.07962699234 -0.4950329363 -0.1992359608 1.478322936e-38
-0.2130241543 -0.4332696199 -0.1934598088 1.478322936e-38
-0.1975183785 -0.3285001218 -0.1846646816 1.478322936e-38
-0.04421800002 -0.4370756745 -0.2107564956 1.478322936e-38
-0.1055586934 -0.1395666897 -0.1890584528 1.478322936e-38
-0.04171207547 -0.3016528487 -0.1806586832 1.478322936e-38
-0.00709271431 -0.1113625467 -0.1898758411 1.478322936e-38
0.08730781078 -0.004801169038 -0.1869321167 1.478322936e-38
-0.1446954757 -0.4590478539 -0.1924897432 1.478322936e-38
-0.007366202772 -0.2033910155 -0.1850158423 1.478322936e-38
-0.06118833646 -0.3023170233 -0.1852241904 1.478322936e-38
0.06445716321 -0.2670578659 -0.1868542135 1.478322936e-38
-0.2275355458 -0.3130660057 -0.1804244518 1.478322936e-38
-0.2458784282 -0.2518607974 -0.1837626249 1.478322936e-38
-0.02826679312 -0.260445118 -0.1830530465 1.478322936e-38
-0.1266523898 -0.4672228098 -0.2131199688 1.478322936e-38
0.08892731369 -0.0735194236 -0.1743454933 1.478322936e-38
0.01909874007 -0.239822194 -0.1763268262 1.478322936e-38
-0.1430601627 -0.4388676286 -0.2116176933 1.478322936e-38
-0.264008075 -0.3586623669 -0.1874430776 1.478322936e-38
0.0007726121694 -0.2670888305 -0.1775634736 1.478322936e-38
-0.1463216841 -0.4670770764 -0.19351542 1.478322936e-38
-0.1206726432 -0.230605796 -0.1827561557 1.478322936e-38
-0.01129443757 -0.128238678 -0.1890888065 1.478322936e-38
-0.09648451209 -0.06624048948 -0.1992964149 1.478322936e-38
0.03702718392 -0.4258954525 -0.1988498569 1.478322936e-38
-0.05660114437 -0.4230207205 -0.2105880529 1.478322936e-38
-0.2412781268 -0.2060652971 -0.1847231835 1.478322936e-38
-0.09069223702 -0.2447442114 -0.1857128888 1.478322936e-38
0.06580200791 -0.3322816491 -0.1889657229 1.478322936e-38
-0.2132472396 -0.3334923685 -0.1854158491 1.478322936e-38
0.07138693333 -0.3100657463 -0.1903010458 1.478322936e-38
0.04148374125 -0.06545525789 -0.185992375 1.478322936e-38
0.01391327009 -0.3619495034 -0.1846322268 1.478322936e-38
0.02654759958 -0.009228423238 -0.1973111629 1.478322936e-38
-0.1411477178 -0.340636611 -0.1861924529 1.478322936e-38
0.1365087926 -0.0337972939 -0.1708268374 1.478322936e-38
-0.001364957541 -0.02997142076 -0.1998607218 1.478322936e-38
-0.1067539901 -0.1384962499 -0.1893986613 1.478322936e-38
-0.04736793041 -0.4844658375 -0.2132258862 1.478322936e-38
-0.1746021658 -0.3141297698 -0.1833662689 1.478322936e-38
-0.213156715 -0.4168123603 -0.1911969483 1.478322936e-38
0.07686850429 -0.2431035638 -0.1647233367 1.478322936e-38
-0.262921989 -0.3251939118 -0.1851445287 1.478322936e-38
-0.02026182041 -0.05534996092 -0.198312372 1.478322936e-38
-0.06201934814 -0.3331032991 -0.1846091449 1.478322936e-38
-0.0524668321 -0.07465580106 -0.1979849041 1.478322936e-38
-0.2230691016 -0.323346138 -0.1795164794 1.478322936e-38
0.09027799964 -0.111018911 -0.1705015898 1.478322936e-38
-0.1143854707 -0.2402064353 -0.1833947748 1.478322936e-38
0.09838990867 -0.02059671283 -0.1810721308 1.478322936e-38
-0.06312710047 -0.0149922967 -0.2011849731 1.478322936e-38
-0.08519692719 -0.01966662705 -0.1982665956 1.478322936e-38
-0.2549999952 -0.4605903029 -0.1944832802 1.478322936e-38
-0.2735329568 -0.4447130561 -0.1932346672 1.478322936e-38
0.06124638394 -0.4496046901 -0.1972547323 1.478322936e-38
0.1019828767 -0.1514257789 -0.1639383286 1.478322936e-38
-0.222328037 -0.1203213111 -0.1964134574 1.478322936e-38
-0.09311981499 -0.1069444641 -0.1941439062 1.478322936e-38
-0.1466237754 -0.2879526317 -0.1810817868 1.478322936e-38
-0.1307375133 -0.1865060925 -0.1844300479 1.478322936e-38
0.0899553746 -0.1020969898 -0.1714428216 1.478322936e-38
0.04624627903 -0.4387873411 -0.2019022554 1.478322936e-38
-0.1915462315 -0.1862269342 -0.1897188872 1.478322936e-38
0.03928916529 -0.03964138031 -0.1914164126 1.478322936e-38
-0.1970475614 -0.09344565868 -0.1984336525 1.478322936e-38
-0.2019191533 -0.3692895174 -0.188279897 1.478322936e-38
-0.2241491824 -0.4227776825 -0.1917017996 1.478322936e-38
-0.04237633571 -0.4511344731 -0.2123571783 1.478322936e-38
0.1292720586 -0.04022416472 -0.1699725389 1.478322936e-38
0.1270279884 -0.08709527552 -0.1660654247 1.478322936e-38
-0.01621299237 -0.1107290164 -0.1899652481 1.478322936e-38
-0.2554720342 -0.4016397893 -0.1906183958 1.478322936e-38
-0.2189069092 -0.1062495336 -0.1961042881 1.478322936e-38
-0.003058873117 -0.4242624044 -0.1855325848 1.478322936e-38
-0.01693894342 -0.4439548254 -0.2094108015 1.478322936e-38
-0.1081654429 -0.2247384489 -0.1838463694 1.478322936e-38
-0.1002589464 -0.1450561285 -0.1877031177 1.478322936e-38
-0.225216493 -0.4031317532 -0.1886806339 1.478322936e-38
-0.2453326285 -0.1746851504 -0.1842810959 1.478322936e-38
-0.1327296793 -0.2576119006 -0.1815694273 1.478322936e-38
-0.009804643691 -0.02825571597 -0.200513944 1.478322936e-38
-0.2028716207 -0.1222351193 -0.1964000911 1.478322936e-38
-0.2174007148 -0.05308483541 -0.1897171289 1.478322936e-38
-0.03290737048 -0.3616262674 -0.1884918064 1.478322936e-38
-0.2011707425 -0.3453218341 -0.1862503588 1.478322936e-38
-0.2328513712 -0.2888047099 -0.183164686 1.478322936e-38
-0.1422194839 -0.06846819818 -0.1980491877 1.478322936e-38
-0.1928323656 -0.2424800545 -0.1852651983 1.478322936e-38
0.007429942489 -0.3032614589 -0.1846865863 1.478322936e-38
-0.01165124774 -0.423491776 -0.2054579407 1.478322936e-38
-0.1960126907 -0.09416048229 -0.198579967 1.478322936e-38
-0.1863258183 -0.2776150703 -0.1797286719 1.478322936e-38
-0.03921419755 -0.3468167186 -0.1858051866 1.478322936e-38
-0.05220601335 -0.4342988133 -0.2114747018 1.478322936e-38
0.004110887647 -0.4842247367 -0.2119786888 1.478322936e-38
0.01366652921 -0.2766222358 -0.1747524589 1.478322936e-38
-0.004349811003 -0.3934186697 -0.1950147003 1.478322936e-38
0.1165889055 -0.0901735723 -0.1673714668 1.478322936e-38
-0.05614749342 -0.3387579918 -0.1857066751 1.478322936e-38
0.08191283047 -0.4411069751 -0.2023059875 1.478322936e-38
-0.2150278091 -0.05392132699 -0.1909353137 1.478322936e-38
-0.2264476568 -0.3225928247 -0.1801823825 1.478322936e-38
0.0643337965 -0.3140112162 -0.1886495054 1.478322936e-38
-0.2746284604 -0.456969738 -0.1910375506 1.478322936e-38
-0.2841516733 -0.304502666 -0.1768874377 1.771655483e-38
-0.2055517435 -0.1353610158 -0.1958928704 1.771655483e-38
-0.277240783 -0.4803067744 -0.187207371 1.771655483e-38
-0.2874565423 -0.4487289488 -0.1916261613 1.771655483e-38
-0.1013957411 -0.04961887002 -0.2064482421 1.771655483e-38
-0.02723908797 0.002903088927 -0.1998734027 1.771655483e-38
-0.1589003056 -0.456949085 -0.2337280363 1.771655483e-38
-0.1534976363 -0.001467302442 -0.1901958436 1.771655483e-38
-0.0942774564 -0.3406948447 -0.1993811578 1.771655483e-38
-0.2280032635 0.001537457108 -0.1677078307 1.771655483e-38
-0.160377875 -0.4946188927 -0.2197940499 1.771655483e-38
0.06956389546 -0.08322435617 -0.1884549409 1.771655483e-38
-0.01072378457 -0.4579152465 -0.1997416168 1.771655483e-38
-0.1452507973 -0.01617673039 -0.2010091692 1.771655483e-38
0.02107790485 -0.4534521699 -0.2213342637 1.771655483e-38
-0.2611124814 -0.3398987055 -0.1838980019 1.771655483e-38
-0.2707259655 -0.2158735693 -0.179362148 1.771655483e-38
-0.2767633796 -0.1689747572 -0.1769748926 1.771655483e-38
-0.1230567545 -0.36838907 -0.2110868245 1.771655483e-38
-0.2475649118 -0.1986910701 -0.1893160939 1.771655483e-38
-0.2249393016 -0.2571566701 -0.1853979081 1.771655483e-38
-0.2395721823 -0.2490744293 -0.1865845323 1.771655483e-38
-0.0310345497 -0.2229615301 -0.1930669844 1.771655483e-38
-0.1625436395 -0.4944884479 -0.2205103487 1.771655483e-38
-0.2518662214 -0.4088836014 -0.1951754838 1.771655483e-38
-0.2355981171 -0.4004666805 -0.1827919185 1.771655483e-38
-0.1113298088 -0.4386540651 -0.2303907424 1.771655483e-38
-0.1797766238 -0.1128364578 -0.198337689 1.771655483e-38
-0.105358094 -0.2928307652 -0.1940513849 1.771655483e-38
-0.07336139679 -0.09259784222 -0.1988215744 1.771655483e-38
0.05472081527 0.01813863218 -0.1967202276 1.771655483e-38
-0.2089618593 -0.4937098324 -0.1902075708 1.771655483e-38
-0.08054898679 -0.189936623 -0.1969232857 1.771655483e-38
-0.09105086327 -0.3717156053 -0.1877779663 1.771655483e-38
0.04020812735 -0.3136199713 -0.1894231886 1.771655483e-38
-0.2645735741 -0.2988184094 -0.1801072955 1.771655483e-38
-0.2736183107 -0.2189543992 -0.1771559417 1.771655483e-38
-0.09986774623 -0.2428423315 -0.1953668743 1.771655483e-38
-0.1960044056 -0.4642854333 -0.2277070433 1.771655483e-38
0.04948017374 -0.05230382085 -0.191870153 1.771655483e-38
-0.04122586921 -0.2302640676 -0.1935508847 1.771655483e-38
-0.201960206 -0.4299065173 -0.2217033356 1.771655483e-38
-0.2884941995 -0.3373554349 -0.1802999824 1.771655483e-38
-0.06482990086 -0.2547905445 -0.1938282996 1.771655483e-38
-0.2109697759 -0.4955617785 -0.1917734146 1.771655483e-38
-0.1896987855 -0.2025753558 -0.1900427341 1.771655483e-38
-0.08165618777 -0.1099540517 -0.1975793242 1.771655483e-38
-0.162777409 -0.0415943861 -0.2020670027 1.771655483e-38
-0.03338142857 -0.4359354377 -0.2230723053 1.771655483e-38
-0.1190550625 -0.4217163324 -0.2267264873 1.771655483e-38
-0.2683327198 -0.1721702218 -0.1803901792 1.771655483e-38
-0.1517501175 -0.2153016627 -0.1912413985 1.771655483e-38
0.03942116722 -0.3737037778 -0.193133086 1.771655483e-38
-0.2480348796 -0.4035214484 -0.1845187545 1.771655483e-38
0.04608101025 -0.3513416648 -0.1936155409 1.771655483e-38
-0.008265042678 -0.04490686953 -0.1981669366 1.771655483e-38
-0.02615107223 -0.4175057113 -0.1912487149 1.771655483e-38
-0.0184472166 0.01023846865 -0.1998056918 1.771655483e-38
-0.1807999313 -0.4216811657 -0.1812660694 1.771655483e-38
0.1141061932 -0.008856385946 -0.1861404628 1.771655483e-38
-0.05664936453 -0.01092594862 -0.2023995072 1.771655483e-38
-0.1811129898 -0.1116290763 -0.1983940005 1.771655483e-38
-0.1267241538 -0.4840193391 -0.2347545773 1.771655483e-38
-0.2174054533 -0.3039866984 -0.1854051948 1.771655483e-38
-0.2515317798 -0.3943378925 -0.1924849749 1.771655483e-38
0.02927717939 -0.2342977375 -0.1868915558 1.771655483e-38
-0.2841223478 -0.3033298552 -0.1768691242 1.771655483e-38
-0.0825657323 -0.03690013289 -0.2046196312 1.771655483e-38
-0.1256546974 -0.3260464966 -0.1989961565 1.771655483e-38
-0.1168503463 -0.05316160619 -0.2065504938 1.771655483e-38
-0.2615325749 -0.3062681854 -0.180316925 1.771655483e-38
0.04701593891 -0.09372508526 -0.1915949732 1.771655483e-38
-0.182124421 -0.2128847241 -0.1893492341 1.771655483e-38
0.0692512691 0.004419177771 -0.1947177202 1.771655483e-38
-0.111208424 0.003999516368 -0.1998895854 1.771655483e-38
-0.1346808076 0.0007104575634 -0.1954883188 1.771655483e-38
-0.2889431119 -0.4475924969 -0.1911669821 1.771655483e-38
-0.3017657101 -0.4311715662 -0.1879250705 1.771655483e-38
0.0190079622 -0.4756729901 -0.2122140676 1.771655483e-38
0.05866708234 -0.1359688044 -0.1874859929 1.771655483e-38
-0.2560820878 -0.0911732018 -0.1913632154 1.771655483e-38
-0.1698635817 -0.08232313395 -0.2015617341 1.771655483e-38
-0.2046940029 -0.2686315179 -0.1861407012 1.771655483e-38
-0.2032083571 -0.1569721848 -0.1944991797 1.771655483e-38
0.04777276888 -0.08323869109 -0.1920112371 1.771655483e-38
-0.02102948353 -0.4504563808 -0.2259625942 1.771655483e-38
-0.2371994108 -0.1495447159 -0.1925370842 1.771655483e-38
-0.003187911585 -0.01903232932 -0.1984489858 1.771655483e-38
-0.2335727364 -0.06470452249 -0.1948184371 1.771655483e-38
-0.2432020605 -0.3508303761 -0.1900386065 1.771655483e-38
-0.2630422413 -0.3982252777 -0.1896636635 1.771655483e-38
-0.1127265394 -0.4529274106 -0.23357068 1.771655483e-38
0.1029403806 -0.01693063974 -0.1867212355 1.771655483e-38
0.09798265994 -0.06444302201 -0.1836835742 1.771655483e-38
-0.08583374321 -0.09135320783 -0.2003252357 1.771655483e-38
-0.2891255617 -0.3786957264 -0.1862136126 1.771655483e-38
-0.2516717315 -0.07784478366 -0.1913551241 1.771655483e-38
-0.05118829757 -0.4765478671 -0.2003101856 1.771655483e-38
-0.08840124309 -0.4490730464 -0.2322629541 1.771655483e-38
-0.1758039743 -0.1959247887 -0.1903386563 1.771655483e-38
-0.1746039242 -0.1189837307 -0.1980843991 1.771655483e-38
-0.2645123899 -0.3819563985 -0.1878585815 1.771655483e-38
-0.2752090991 -0.1467128992 -0.1817964017 1.771655483e-38
-0.1991447806 -0.2310867608 -0.1878760159 1.771655483e-38
-0.06675459445 -0.009444147348 -0.2034466118 1.771655483e-38
-0.2415716648 -0.09218668938 -0.1932386011 1.771655483e-38
-0.2462895662 -0.02821044624 -0.1778156012 1.771655483e-38
-0.08796942234 -0.3547682464 -0.2025544792 1.771655483e-38
-0.2425888628 -0.3273072839 -0.1863829345 1.771655483e-38
-0.2670625448 -0.2718091905 -0.1790874898 1.771655483e-38
-0.2016419768 -0.0452440083 -0.1971230358 1.771655483e-38
-0.2397416085 -0.2104490995 -0.1903145313 1.771655483e-38
-0.03024674952 -0.360136807 -0.1917261928 1.771655483e-38
-0.08101065457 -0.4295794964 -0.2256967574 1.771655483e-38
-0.2330930978 -0.06533156335 -0.1950189769 1.771655483e-38
-0.2366244942 -0.2498160005 -0.186629191 1.771655483e-38
-0.07506126165 -0.4103057384 -0.1884422302 1.771655483e-38
-0.1187241375 -0.4347839057 -0.2297511548 1.771655483e-38
-0.06768228114 -0.4864926934 -0.2352157384 1.771655483e-38
-0.04540028051 -0.267860651 -0.1909834743 1.771655483e-38
-0.06796830893 -0.3954640329 -0.2127106935 1.771655483e-38
0.0825779438 -0.06789898872 -0.1864188164 1.771655483e-38
-0.1175203919 -0.3320852518 -0.2002821118 1.771655483e-38
0.05401379988 -0.4640126228 -0.2132085413 1.771655483e-38
-0.2439242005 -0.02926850319 -0.179591462 1.771655483e-38
-0.2638754547 -0.3055598736 -0.1803403199 1.771655483e-38
0.03824906424 -0.3570739031 -0.1926415861 1.771655483e-38
-0.3033031821 -0.450065434 -0.1879484057 1.771655483e-38
-0.3054045737 -0.3104588985 -0.1744241565 2.06466517e-38
-0.2587711811 -0.1520900577 -0.2012331933 2.06466517e-38
-0.2882351875 -0.4779761136 -0.1847141683 2.06466517e-38
-0.3110512197 -0.4565652311 -0.189194575 2.06466517e-38
-0.2164921761 -0.06192229688 -0.2172663659 2.06466517e-38
-0.1289465278 -0.01297000051 -0.2124504 2.06466517e-38
-0.219875142 -0.4878541827 -0.2569335401 2.06466517e-38
-0.2002895176 -0.01399858296 -0.1805035919 2.06466517e-38
-0.2024483532 -0.3883982599 -0.2543977499 2.06466517e-38
-0.2585454881 -0.007561132312 -0.1588076502 2.06466517e-38
-0.1925614774 -0.4912363589 -0.2197331637 2.06466517e-38
-0.03724654019 -0.1313574016 -0.2190542966 2.06466517e-38
-0.07473750412 -0.4226067662 -0.2046020478 2.06466517e-38
-0.2080968171 -0.027325809 -0.1929678023 2.06466517e-38
-0.0269276686 -0.4784197509 -0.2475896329 2.06466517e-38
-0.301002264 -0.3616219163 -0.1896070838 2.06466517e-38
-0.29416731 -0.2326602638 -0.1794918925 2.06466517e-38
-0.2962266207 -0.1844196618 -0.1729771495 2.06466517e-38
-0.2250176519 -0.4401778281 -0.2665984631 2.06466517e-38
-0.2813391089 -0.2155033499 -0.1892033666 2.06466517e-38
-0.2804403901 -0.280387491 -0.1972450465 2.06466517e-38
-0.282410264 -0.2717202902 -0.192796886 2.06466517e-38
-0.1662732065 -0.2843663096 -0.2117765397 2.06466517e-38
-0.1947728693 -0.4912539124 -0.2204895169 2.06466517e-38
-0.3008376658 -0.4362514615 -0.2104230076 2.06466517e-38
-0.254088968 -0.3696509004 -0.1900505573 2.06466517e-38
-0.1893871129 -0.4872573912 -0.2668916881 2.06466517e-38
-0.2501364052 -0.1314396858 -0.2041525394 2.06466517e-38
-0.2235697806 -0.3215988278 -0.2252567261 2.06466517e-38
-0.2044418603 -0.1170919761 -0.2126655132 2.06466517e-38
-0.05128328502 -0.008823513985 -0.2122629434 2.06466517e-38
-0.2260726541 -0.4891764522 -0.188530907 2.06466517e-38
-0.2007293552 -0.2380670011 -0.2105551511 2.06466517e-38
-0.1304559857 -0.3548678756 -0.1958395094 2.06466517e-38
-0.0224355571 -0.2839530408 -0.2021027952 2.06466517e-38
-0.2962360978 -0.3098663092 -0.1822976321 2.06466517e-38
-0.2960377932 -0.2358805537 -0.1776342541 2.06466517e-38
-0.2131501287 -0.2881856561 -0.2119400352 2.06466517e-38
-0.250397265 -0.486910969 -0.2483917624 2.06466517e-38
-0.06248723716 -0.08670057356 -0.2170391232 2.06466517e-38
-0.1759019196 -0.2884863019 -0.2121381015 2.06466517e-38
-0.2660056651 -0.4734301567 -0.2520530522 2.06466517e-38
-0.3096943498 -0.3466342688 -0.1797412485 2.06466517e-38
-0.1929245889 -0.3026052713 -0.2140944749 2.06466517e-38
-0.2285280526 -0.4914972484 -0.1897906959 2.06466517e-38
-0.2648412883 -0.2355719209 -0.2023699135 2.06466517e-38
-0.2090427727 -0.1375885606 -0.2116588801 2.06466517e-38
-0.2273968011 -0.05353334546 -0.1959452331 2.06466517e-38
-0.09326779842 -0.4844992459 -0.2626524568 2.06466517e-38
-0.2096213847 -0.4851699173 -0.2729054093 2.06466517e-38
-0.2918811738 -0.1889820993 -0.1780213118 2.06466517e-38
-0.254354775 -0.257732451 -0.2054174393 2.06466517e-38
-0.02876325138 -0.3429295421 -0.2036947161 2.06466517e-38
-0.2683912218 -0.3746620417 -0.1912296563 2.06466517e-38
-0.01819644868 -0.3207329512 -0.2032150477 2.06466517e-38
-0.1289858967 -0.06945984066 -0.2132517248 2.06466517e-38
-0.08721369505 -0.3900685608 -0.2018081099 2.06466517e-38
-0.1180513948 -0.005891948938 -0.211241737 2.06466517e-38
-0.2066827267 -0.3821012378 -0.188466385 2.06466517e-38
0.01427062601 -0.04128760099 -0.2148955315 2.06466517e-38
-0.1589872241 -0.02458588779 -0.2157651037 2.06466517e-38
-0.2500708997 -0.1294251531 -0.2035911828 2.06466517e-38
-0.1761723608 -0.48946473 -0.2400464267 2.06466517e-38
-0.2849982083 -0.3302214742 -0.202748999 2.06466517e-38
-0.3020198643 -0.4264730513 -0.2097022086 2.06466517e-38
-0.09240993857 -0.310125798 -0.2208269089 2.06466517e-38
-0.3052509725 -0.3091337383 -0.1743571609 2.06466517e-38
-0.1969625354 -0.04948952794 -0.2180306762 2.06466517e-38
-0.2339030206 -0.3550089896 -0.2420167178 2.06466517e-38
-0.226622209 -0.06636439264 -0.2147425562 2.06466517e-38
-0.2989315987 -0.3242207468 -0.1838972867 2.06466517e-38
-0.06421210617 -0.1430954933 -0.2176337093 2.06466517e-38
-0.264942497 -0.2478808761 -0.2014884502 2.06466517e-38
-0.03947847709 -0.02903112769 -0.2147028297 2.06466517e-38
-0.1833464801 -0.004892066121 -0.1964313835 2.06466517e-38
-0.1916371286 -0.01194708049 -0.1872991771 2.06466517e-38
-0.3117346466 -0.4554120898 -0.1889410913 2.06466517e-38
-0.3197774291 -0.4333164692 -0.1854626089 2.06466517e-38
-0.04377801716 -0.4475272298 -0.2108682841 2.06466517e-38
-0.05247376114 -0.2097511739 -0.2166871876 2.06466517e-38
-0.2814959884 -0.1002813578 -0.1819797903 2.06466517e-38
-0.2416918576 -0.09501475096 -0.2015341371 2.06466517e-38
-0.2768085003 -0.2890995145 -0.2007062584 2.06466517e-38
-0.2610691786 -0.178803727 -0.2031888515 2.06466517e-38
-0.06355474889 -0.1278028786 -0.218217954 2.06466517e-38
-0.07783421874 -0.4840163887 -0.2557044625 2.06466517e-38
-0.2730034888 -0.1660503596 -0.1909419894 2.06466517e-38
-0.1191238761 -0.0408474803 -0.2125612348 2.06466517e-38
-0.2690423429 -0.07360835373 -0.182168439 2.06466517e-38
-0.2967830002 -0.3705046177 -0.2049988657 2.06466517e-38
-0.3044638336 -0.4265379906 -0.2019693702 2.06466517e-38
-0.1820189357 -0.4885217249 -0.2597308755 2.06466517e-38
-0.0003517698497 -0.05025978386 -0.2150835544 2.06466517e-38
-0.01074860059 -0.106091246 -0.2183585018 2.06466517e-38
-0.214130342 -0.1135241538 -0.2140290588 2.06466517e-38
-0.312281996 -0.3993101418 -0.1872215569 2.06466517e-38
-0.2793984115 -0.08608910441 -0.1810422838 2.06466517e-38
-0.1044200957 -0.4439209104 -0.204384312 2.06466517e-38
-0.1566988528 -0.487823844 -0.2608386874 2.06466517e-38
-0.2621966898 -0.231463477 -0.2032925636 2.06466517e-38
-0.2507636845 -0.139521569 -0.2062854022 2.06466517e-38
-0.305454731 -0.412574023 -0.1999307126 2.06466517e-38
-0.2936003506 -0.1593180597 -0.1745482236 2.06466517e-38
-0.2690916061 -0.2637897134 -0.2001899928 2.06466517e-38
-0.1642435193 -0.02173238993 -0.2148826569 2.06466517e-38
-0.2723454535 -0.1034648716 -0.1838567853 2.06466517e-38
-0.2735148668 -0.03905709088 -0.1653097868 2.06466517e-38
-0.193037793 -0.4223915935 -0.2623383403 2.06466517e-38
-0.2940686047 -0.3533500433 -0.1979557127 2.06466517e-38
-0.2960072756 -0.2825483084 -0.1820373088 2.06466517e-38
-0.2430091053 -0.05469162762 -0.1869731694 2.06466517e-38
-0.2796837389 -0.2286635935 -0.1926793009 2.06466517e-38
-0.08759483695 -0.3381409049 -0.201273039 2.06466517e-38
-0.1526714563 -0.486772567 -0.2662529349 2.06466517e-38
-0.2686701715 -0.07427796721 -0.1823235452 2.06466517e-38
-0.2817104161 -0.2727608979 -0.1936941445 2.06466517e-38
-0.1182757914 -0.3889045715 -0.196814388 2.06466517e-38
-0.199689284 -0.4866977036 -0.2687624693 2.06466517e-38
-0.1259400845 -0.4877140522 -0.2385195941 2.06466517e-38
-0.1800045669 -0.3112849593 -0.2190553397 2.06466517e-38
-0.1530901194 -0.4711142778 -0.2700141072 2.06466517e-38
-0.02491785027 -0.1099716052 -0.2187455446 2.06466517e-38
-0.2249214202 -0.3640919626 -0.2476181835 2.06466517e-38
-0.00503876619 -0.4338368475 -0.214359656 2.06466517e-38
-0.2708984315 -0.04054307938 -0.1661062688 2.06466517e-38
-0.2988950908 -0.3218525648 -0.1828374416 2.06466517e-38
-0.02810961008 -0.3275314867 -0.202756092 2.06466517e-38
-0.3214940429 -0.4505502582 -0.184925735 2.06466517e-38
-0.3295207918 -0.2894847989 -0.1735187471 2.348204041e-38
-0.2749905884 -0.1350104213 -0.1981319189 2.348204041e-38
-0.3255953789 -0.4717691541 -0.1892021745 2.348204041e-38
-0.3318611085 -0.4357313514 -0.1914686412 2.348204041e-38
-0.2174826115 -0.05629757047 -0.2117886692 2.348204041e-38
-0.1197909266 -0.01132418215 -0.2031613737 2.348204041e-38
-0.2582342923 -0.4892829955 -0.254252404 2.348204041e-38
-0.1910986751 -0.01138518751 -0.1694300473 2.348204041e-38
-0.2260962427 -0.371668011 -0.2327815741 2.348204041e-38
-0.2469869256 -0.00769880414 -0.151778385 2.348204041e-38
-0.2289331257 -0.4942906797 -0.2211095244 2.348204041e-38
-0.03880734369 -0.1150751784 -0.2009696513 2.348204041e-38
-0.09234800935 -0.4213144779 -0.1976075321 2.348204041e-38
-0.2083000541 -0.02737531066 -0.1848407239 2.348204041e-38
-0.04520706832 -0.4659659863 -0.2334968895 2.348204041e-38
-0.3223563433 -0.3456967473 -0.1873455942 2.348204041e-38
-0.3112549782 -0.2161382288 -0.1750606149 2.348204041e-38
-0.3075740635 -0.1736535877 -0.1660332978 2.348204041e-38
-0.2530005276 -0.4199432433 -0.2485825866 2.348204041e-38
-0.2991204858 -0.1971324384 -0.1874636859 2.348204041e-38
-0.3026617765 -0.2595800459 -0.196695134 2.348204041e-38
-0.3043770194 -0.2505937219 -0.1922715902 2.348204041e-38
-0.1748491824 -0.2602240443 -0.1995606571 2.348204041e-38
-0.2312341928 -0.4945313036 -0.2219404131 2.348204041e-38
-0.3231852949 -0.4198476076 -0.2080755085 2.348204041e-38
-0.2915334105 -0.3751637042 -0.1898123175 2.348204041e-38
-0.2270589024 -0.4859913588 -0.257420212 2.348204041e-38
-0.2659574747 -0.1134929433 -0.2011132687 2.348204041e-38
-0.2439095676 -0.3087727129 -0.2102495283 2.348204041e-38
-0.2120174021 -0.1035221219 -0.2078916281 2.348204041e-38
-0.03617672622 -0.002921774983 -0.199532181 2.348204041e-38
-0.2700783312 -0.4904684424 -0.1939581484 2.348204041e-38
-0.2146097869 -0.2159205377 -0.1987121254 2.348204041e-38
-0.1452099681 -0.3590077162 -0.1921975166 2.348204041e-38
-0.0349824056 -0.274456501 -0.1915333122 2.348204041e-38
-0.3195595145 -0.2929501832 -0.1808303297 2.348204041e-38
-0.3131234944 -0.2192054838 -0.1733689159 2.348204041e-38
-0.2256023139 -0.2648581266 -0.2003003806 2.348204041e-38
-0.2916585207 -0.485180527 -0.2490194291 2.348204041e-38
-0.05661543459 -0.07582592964 -0.2032401115 2.348204041e-38
-0.184323281 -0.2642910779 -0.1998832375 2.348204041e-38
-0.3016203642 -0.4619061351 -0.250043273 2.348204041e-38
-0.3311794996 -0.3220609128 -0.1764415503 2.348204041e-38
-0.2055574059 -0.2815880775 -0.2018028945 2.348204041e-38
-0.2735262513 -0.4947992265 -0.1963985115 2.348204041e-38
-0.2849034071 -0.2116779238 -0.2032191902 2.348204041e-38
