# .PCD v0.7 - Point Cloud Data file format
VERSION 0.7
FIELDS x y z rgb
SIZE 4 4 4 4
TYPE F F F F
COUNT 1 1 1 1
WIDTH 829
HEIGHT 1
VIEWPOINT 0 0 0 1 0 0 0
POINTS 829
DATA ascii
0.2951211631 -0.3997778594 -0.1410887241 5.820783626e-39
0.3326300681 -0.3770268857 0.01029360667 5.820783626e-39
0.337169379 -0.3665331304 0.1635097861 5.820783626e-39
0.3926303089 -0.4138912559 0.2292152941 5.820783626e-39
0.2279443443 -0.4368404448 -0.1362127066 5.820783626e-39
0.2624607384 -0.2566289902 -0.1227567792 5.820783626e-39
0.2737979889 -0.492113173 0.2362257242 5.820783626e-39
0.1649034619 -0.493324697 0.2766071856 5.820783626e-39
0.3569369316 -0.4440715909 0.06473847479 5.820783626e-39
0.2031220496 -0.4847239852 0.2886355519 5.820783626e-39
0.05400528014 -0.4920581281 0.02504207566 5.820783626e-39
0.2173555791 -0.4920306206 0.08438133448 5.820783626e-39
0.2939731479 -0.2726425529 -0.1497224718 5.820783626e-39
0.3141590655 -0.3493458629 -0.0547670871 5.820783626e-39
0.1634226143 -0.4933166504 0.2748981118 5.820783626e-39
-0.05256582052 -0.3885999322 0.2811800539 5.820783626e-39
-0.00389040634 -0.3102030456 0.2166461647 5.820783626e-39
0.2200445533 -0.3914349675 -0.1299177706 5.820783626e-39
-0.01529831067 -0.4975660443 0.0943198204 5.820783626e-39
0.26643309 -0.4921807647 0.2344150245 5.820783626e-39
0.289706856 -0.3919225931 -0.1367972046 5.820783626e-39
0.3269573152 -0.4917513728 0.06408531964 5.820783626e-39
0.3491992652 -0.3911559284 0.2144084275 5.820783626e-39
0.3267502785 -0.3532961905 0.1415620893 5.820783626e-39
0.02240585536 -0.3100563586 0.207276985 5.820783626e-39
0.2899528146 -0.4887907505 -0.108169131 5.820783626e-39
0.3771254122 -0.3641903102 0.2020498961 5.820783626e-39
-0.06678819656 -0.4436276555 0.3316287696 5.820783626e-39
0.2789722979 -0.2810591161 -0.1404977292 5.820783626e-39
0.3485198319 -0.3184191883 0.1846269369 5.820783626e-39
0.3625169992 -0.3365255892 0.1949309558 5.820783626e-39
0.3209244013 -0.3579229116 -0.04063132405 5.820783626e-39
0.3630026877 -0.484305948 0.2431627065 5.820783626e-39
0.225140661 -0.4595621228 -0.1376959234 5.820783626e-39
0.2558072507 -0.3643753529 0.06201194972 5.820783626e-39
0.3409304619 -0.4268919528 -0.01396218315 5.820783626e-39
0.2905139327 -0.404730916 -0.1418360025 5.820783626e-39
0.08302262425 -0.4805900156 0.3038275242 5.820783626e-39
-0.07788339257 -0.4227502346 0.3325983882 5.820783626e-39
0.3575166762 -0.4851929545 0.1803850532 5.820783626e-39
0.3093685508 -0.3635857999 -0.02905810066 5.820783626e-39
0.3182805479 -0.3609073758 -0.03876663744 5.820783626e-39
0.1591644287 -0.4931766987 0.1015331447 5.820783626e-39
0.2930394113 -0.482601285 -0.1391164511 5.820783626e-39
0.3042047024 -0.4916494489 0.1282125264 5.820783626e-39
0.3076096177 -0.3539058268 -0.07693056017 5.820783626e-39
0.3088082969 -0.4918349087 -0.007103309035 5.820783626e-39
0.3662793934 -0.3745136857 0.1852933168 5.820783626e-39
0.2684931159 -0.2596497238 -0.1351828277 5.820783626e-39
0.3389641643 -0.491900146 0.08708915114 5.820783626e-39
0.2720635533 -0.2461307049 -0.1395431906 5.820783626e-39
0.2948741317 -0.491820991 0.2523060143 5.820783626e-39
0.3045016825 -0.3448324203 0.1849597842 5.820783626e-39
-0.1161610857 -0.4895091355 0.3455962837 5.820783626e-39
0.3578531444 -0.4636875093 0.1006352901 5.820783626e-39
0.2534348965 -0.4922136664 0.06131086498 5.820783626e-39
0.1904501319 -0.4189653397 -0.1117198169 5.820783626e-39
0.06746452302 -0.4716101289 0.1206199303 5.820783626e-39
0.3810152411 -0.3606297672 0.2034104019 5.820783626e-39
0.3580124974 -0.3909960389 0.08093401045 5.820783626e-39
0.1545650363 -0.4931847453 0.3121614754 5.820783626e-39
0.3314171731 -0.2942067087 0.1496275961 5.820783626e-39
0.2418223321 -0.2620905936 -0.1005997434 5.820783626e-39
0.1921418607 -0.4931413233 0.3077850938 5.820783626e-39
0.3076079488 -0.4381478727 -0.1046656147 5.820783626e-39
-0.0568998456 -0.2798463106 0.2527547181 5.820783626e-39
-0.09263358265 -0.4905248582 0.3489669859 5.820783626e-39
0.2934902012 -0.4499518275 -0.1410841197 5.820783626e-39
0.3194988668 -0.370229423 -0.03172132373 5.820783626e-39
-0.09314271808 -0.462316215 0.3512724936 5.820783626e-39
0.08283369243 -0.4895733595 -0.09284626693 5.820783626e-39
0.2721353769 -0.3660450876 0.05357893556 5.820783626e-39
0.3098631799 -0.4919477105 0.06400814652 5.820783626e-39
0.3334985077 -0.4878325164 0.2748430073 5.820783626e-39
0.1302983165 -0.4801110029 -0.1172764897 5.820783626e-39
-0.04328655452 -0.4233553112 0.345825702 2.898180898e-39
0.1054777578 -0.4996587634 0.3248044252 2.898180898e-39
-0.05492822826 -0.3952164948 0.2565564513 2.898180898e-39
0.1503189504 -0.3590910435 -0.1186054498 2.898180898e-39
0.3159648478 -0.4019643366 -0.1073782369 2.898180898e-39
0.2920593917 -0.4943810403 0.08020465076 2.898180898e-39
0.1257285774 -0.2776764035 -0.1273604184 2.898180898e-39
0.2601979673 -0.3116174936 -0.1372947246 2.898180898e-39
0.2148982286 -0.3022091985 -0.1270833611 2.898180898e-39
0.2992831171 -0.3659349978 -0.1299703568 2.898180898e-39
-0.07066371292 -0.4921646416 0.2258449942 2.898180898e-39
-0.02120475844 -0.4344818592 0.06160379201 2.898180898e-39
-0.1248461977 -0.4901212752 0.2608110607 2.898180898e-39
0.2994514108 -0.3403291106 -0.1269473135 2.898180898e-39
0.3006173074 -0.3420032263 -0.1073874608 2.898180898e-39
0.2442570627 -0.3267432749 -0.1279058307 2.898180898e-39
0.3042993248 -0.4282701313 -0.05398398638 2.898180898e-39
-0.01390435174 -0.2738666236 0.1304449588 2.898180898e-39
0.01207757741 -0.4896366894 0.3409535587 2.898180898e-39
0.1902460754 -0.2884767652 -0.1247321665 2.898180898e-39
-0.07422401011 -0.4976094663 -0.01792761311 2.898180898e-39
0.2742905021 -0.3095977902 -0.1294147223 2.898180898e-39
0.2844806314 -0.4577170312 -0.124954775 2.898180898e-39
0.1309475899 -0.3367090523 -0.1179996133 2.898180898e-39
0.009060878307 -0.4516250789 -0.06156218797 2.898180898e-39
0.2271752656 -0.443593055 -0.1057856381 2.898180898e-39
0.1393195987 -0.4120746553 -0.122422263 2.898180898e-39
-0.06173536181 -0.3933191299 0.1514478773 2.898180898e-39
0.2711288333 -0.4490029812 -0.1353695691 2.898180898e-39
-0.05371467769 -0.2434826195 0.3029395938 2.898180898e-39
-0.03866152838 -0.2781199217 0.3203198612 2.898180898e-39
0.1042399183 -0.5006360412 0.3214854002 2.898180898e-39
-0.06574696302 -0.3199857771 0.1853649467 2.898180898e-39
0.2093956769 -0.1995670795 -0.1423222572 2.898180898e-39
0.3116696775 -0.4754535556 -0.08386810124 2.898180898e-39
0.06774517149 -0.5026764274 0.2600108385 2.898180898e-39
0.03422752768 -0.4550851583 0.1105703712 2.898180898e-39
0.3210755885 -0.4235780835 -0.05890519172 2.898180898e-39
0.04730838537 -0.2350966781 -0.1250789165 2.898180898e-39
0.05441450328 -0.4937791824 0.05561578274 2.898180898e-39
0.07460059226 -0.4901807308 -0.1092789844 2.898180898e-39
-0.08839727938 -0.4934274852 0.1293639392 2.898180898e-39
0.2383569479 -0.4894493222 -0.01318562403 2.898180898e-39
0.1987399161 -0.4915945232 -0.0148513075 2.898180898e-39
0.281922996 -0.3452703357 -0.09537409246 2.898180898e-39
-0.009428221732 -0.3696402311 0.03383262455 2.898180898e-39
0.3120047748 -0.4971269071 0.07954394072 2.898180898e-39
-0.09965454042 -0.4894922972 0.3326101601 2.898180898e-39
-0.0822481811 -0.4903619289 0.3128370345 2.898180898e-39
-0.06285153329 -0.4103094935 0.3464824557 2.898180898e-39
0.2460304499 -0.2438802719 -0.1293499321 2.898180898e-39
0.06735640019 -0.4936514795 0.07990830392 2.898180898e-39
0.06369516999 -0.4739532471 -0.1197755486 2.898180898e-39
0.2551628649 -0.2160474658 -0.128855601 2.898180898e-39
0.3390176892 -0.461961776 -0.0537474528 2.898180898e-39
0.1390447915 -0.4886506796 -0.1028270423 2.898180898e-39
0.2554692328 -0.5035325885 0.2101952732 2.898180898e-39
0.1638461649 -0.2617020011 -0.131251812 2.898180898e-39
0.2804683149 -0.2739970982 -0.1280990392 2.898180898e-39
-0.01029684208 -0.4917727709 0.243077442 2.898180898e-39
-0.1135760546 -0.4907579124 0.2695202529 2.898180898e-39
0.2805654407 -0.4899175763 -0.02018244006 2.898180898e-39
-0.03810857981 -0.4817096293 0.3580416143 2.898180898e-39
0.004169683903 -0.3032711148 0.1149326339 2.898180898e-39
-0.09015300125 -0.4982755184 0.03824916482 2.898180898e-39
0.2681905925 -0.2657055259 -0.1447880268 2.898180898e-39
0.3162638247 -0.4312335849 -0.09633357078 2.898180898e-39
-0.1155459136 -0.490622431 0.2679934502 2.898180898e-39
-0.07958304882 -0.3335442543 0.3284044564 2.898180898e-39
-0.04610046744 -0.2440989614 0.3041229248 2.898180898e-39
0.1069925055 -0.1869530976 -0.1513060182 2.898180898e-39
0.009004049003 -0.356217891 0.160544768 2.898180898e-39
-0.01967415214 -0.4917360246 0.2415959537 2.898180898e-39
0.1956267953 -0.4201248586 -0.1297157258 2.898180898e-39
0.1272479892 -0.4927390218 -0.01375662163 2.898180898e-39
-0.008301915601 -0.4631812871 0.3136927485 2.898180898e-39
0.06260319799 -0.4586102962 -0.06271033734 2.898180898e-39
-0.04024387896 -0.2380191386 0.305410862 2.898180898e-39
0.1086396798 -0.4566302598 -0.1195085794 2.898180898e-39
0.08354646713 -0.5001929998 0.1621500552 2.898180898e-39
-0.09924429655 -0.4447778761 0.3317386508 2.898180898e-39
0.2429580688 -0.3803573847 -0.1314128041 2.898180898e-39
-0.06562243402 -0.3220548928 0.1450650245 2.898180898e-39
-0.05979593098 -0.3913514018 0.1243648231 2.898180898e-39
0.3280508816 -0.4471194744 -0.08521418273 2.898180898e-39
0.1099757478 -0.4927214086 0.2823200226 2.898180898e-39
0.1573011875 -0.2952164114 -0.1248088181 2.898180898e-39
0.2110780478 -0.3966028392 -0.1188329756 2.898180898e-39
0.2902385592 -0.4902275503 -0.06137517095 2.898180898e-39
0.242061615 -0.2208188027 -0.128017962 2.898180898e-39
-0.06090222672 -0.4544609785 0.3584912419 2.898180898e-39
-0.04085932672 -0.2110335231 0.2953318954 2.898180898e-39
0.1593328416 -0.4931169748 0.1605602503 2.898180898e-39
0.3198280632 -0.4201998413 -0.07019310445 2.898180898e-39
0.3290166557 -0.4335554838 -0.07976868004 2.898180898e-39
-0.02029033378 -0.460074544 0.09154929966 2.898180898e-39
0.1515219808 -0.3973470032 -0.1224913299 2.898180898e-39
0.06984550506 -0.4937036335 0.09431701154 2.898180898e-39
0.3024727404 -0.4613564909 -0.1081150547 2.898180898e-39
0.09663774818 -0.4920710325 -0.06765467674 2.898180898e-39
-0.02819474414 -0.4606429636 0.1475974172 2.898180898e-39
0.2666444182 -0.3335337937 -0.1370248497 2.898180898e-39
0.1407113373 -0.4927322268 0.003141063266 2.898180898e-39
0.2525477409 -0.3588189781 -0.1379033774 2.898180898e-39
0.007684040815 -0.4910873175 0.2820813656 2.898180898e-39
-0.06191130728 -0.31707865 0.2658062279 2.898180898e-39
-0.05913412571 -0.2258392274 0.2863993645 2.898180898e-39
0.2520427108 -0.4907130599 0.006138043012 2.898180898e-39
-0.03982561454 -0.4926720262 -0.01164638251 2.898180898e-39
0.04708162695 -0.2241857797 -0.138852194 2.898180898e-39
-0.03004495241 -0.2618373632 0.1839107126 2.898180898e-39
0.2844181955 -0.50141716 0.06864015013 2.898180898e-39
0.3453319371 -0.4902068973 -0.03121032007 2.898180898e-39
-0.09438091516 -0.4899787903 0.3188793063 2.898180898e-39
-0.05184838921 -0.3000744879 0.08342561871 2.898180898e-39
0.2737808228 -0.2746011019 -0.102697216 2.898180898e-39
-0.04443261027 -0.489420265 0.3667353392 2.898180898e-39
0.2006410658 -0.4879820943 -0.1226468533 2.898180898e-39
-0.07157289982 -0.2502067089 0.2988879979 2.898180898e-39
-0.08848926425 -0.261054337 0.2980287671 2.898180898e-39
0.1771842837 -0.367960453 -0.1236905605 2.898180898e-39
0.3220666349 -0.4636048079 -0.08117683977 2.898180898e-39
-0.1031839401 -0.3626600206 0.3137705922 2.898180898e-39
0.07829948515 -0.3837423325 -0.04243222624 2.898180898e-39
0.2332511544 -0.3930127025 -0.1033134535 2.898180898e-39
0.09998231381 -0.4931753874 -0.01438645087 2.898180898e-39
0.05140604824 -0.4919722676 0.3362376392 2.898180898e-39
0.1154915914 -0.314784348 -0.122519806 2.898180898e-39
-0.06215240061 -0.4222580791 0.3313949108 6.490113838e-41
0.04509612918 -0.4937960505 0.3475289345 6.490113838e-41
-0.03015910462 -0.2849011123 0.217611149 6.490113838e-41
0.09821242839 -0.3322252035 -0.120245263 6.490113838e-41
0.3110159636 -0.4568606615 -0.1153019667 6.490113838e-41
0.2012017965 -0.4904862642 0.1592518985 6.490113838e-41
0.04446604848 -0.2461683154 -0.1241096854 6.490113838e-41
0.2201512456 -0.3500051796 -0.138155207 6.490113838e-41
0.1742248833 -0.2752438784 -0.1252221614 6.490113838e-41
0.2749933004 -0.4057586789 -0.133455947 6.490113838e-41
-0.1243407577 -0.4929564297 0.1989868879 6.490113838e-41
-0.05936640501 -0.4069324136 0.06659904122 6.490113838e-41
-0.08247536421 -0.4501976967 0.2261772752 6.490113838e-41
0.2770727575 -0.3768825531 -0.1319726408 6.490113838e-41
0.2847433388 -0.3430896997 -0.1014501676 6.490113838e-41
0.2157485783 -0.2880023718 -0.1252978891 6.490113838e-41
0.3134462535 -0.4825837314 -0.06050184369 6.490113838e-41
-0.04587094486 -0.2577189505 0.1866467595 6.490113838e-41
-0.01545185782 -0.4839651585 0.3590916395 6.490113838e-41
0.1425385177 -0.2819775939 -0.1310450882 6.490113838e-41
-0.05068910122 -0.4686707854 0.0526778996 6.490113838e-41
0.252803117 -0.3443318605 -0.1293566823 6.490113838e-41
0.2569620311 -0.4884977341 -0.1280725002 6.490113838e-41
0.09451276809 -0.322113812 -0.1119717807 6.490113838e-41
0.006365898997 -0.4023430347 0.02857822552 6.490113838e-41
0.1863560081 -0.4803706408 -0.07660052925 6.490113838e-41
0.0891604051 -0.37435776 -0.1117150113 6.490113838e-41
-0.0711440444 -0.3631807864 0.1485938728 6.490113838e-41
0.2436220944 -0.4852274954 -0.1381273121 6.490113838e-41
-0.07696493715 -0.2507511675 0.2813308239 6.490113838e-41
-0.05839842558 -0.2692520916 0.3014981449 6.490113838e-41
0.04325232655 -0.4935246408 0.3441933692 6.490113838e-41
-0.0659095645 -0.2964759469 0.1757642478 6.490113838e-41
0.1068205461 -0.3146157861 -0.1122329831 6.490113838e-41
0.2793087959 -0.4899462461 -0.08720335364 6.490113838e-41
0.01231582463 -0.4865157604 0.2762590945 6.490113838e-41
-0.02605643868 -0.2659390867 0.1506096125 6.490113838e-41
0.3309635818 -0.4743021727 -0.0776887238 6.490113838e-41
-0.0213118121 -0.2458270788 0.02243217826 6.490113838e-41
-0.05477245152 -0.4924454689 0.08675199002 6.490113838e-41
-0.05878351629 -0.4932594895 -0.1216185987 6.490113838e-41
-0.09626118839 -0.4898356795 0.1292859465 6.490113838e-41
0.2290555835 -0.5044034719 0.09320564568 6.490113838e-41
0.0809976235 -0.4932973683 0.03630131111 6.490113838e-41
0.2546247244 -0.3468610644 -0.08890549839 6.490113838e-41
-0.04773435742 -0.3346461654 0.03669794649 6.490113838e-41
0.2202933133 -0.4947384596 0.1710529327 6.490113838e-41
-0.1241954118 -0.472078383 0.2836008668 6.490113838e-41
-0.1247413754 -0.4822049737 0.2627361715 6.490113838e-41
-0.08578415215 -0.4345603883 0.3284257054 6.490113838e-41
0.2054047883 -0.284955889 -0.1285380274 6.490113838e-41
-0.04240147397 -0.4925296307 0.1044354141 6.490113838e-41
0.007844924927 -0.4372089207 -0.09822236747 6.490113838e-41
0.2320172489 -0.2029363215 -0.1341348588 6.490113838e-41
0.329741925 -0.4878321886 -0.04870475829 6.490113838e-41
0.1134578362 -0.5039842725 0.01737873442 6.490113838e-41
0.1694870591 -0.5000245571 0.2614805996 6.490113838e-41
0.09001557529 -0.2453408092 -0.1478560269 6.490113838e-41
0.2544898093 -0.3046573699 -0.1262891591 6.490113838e-41
-0.08434632421 -0.4914698601 0.233030051 6.490113838e-41
-0.09493124485 -0.4688983262 0.232576564 6.490113838e-41
0.1828634739 -0.4918064475 0.02229911089 6.490113838e-41
-0.05492570996 -0.4827255011 0.3561644554 6.490113838e-41
-0.04560689256 -0.24353908 0.1605336368 6.490113838e-41
-0.05458712205 -0.4678722322 0.08294967562 6.490113838e-41
0.1879111528 -0.3590948582 -0.1239429712 6.490113838e-41
0.3113838136 -0.4858198166 -0.1062502265 6.490113838e-41
-0.09250599891 -0.4655752182 0.2315656543 6.490113838e-41
-0.09885262698 -0.3791413009 0.3048918247 6.490113838e-41
-0.07450711727 -0.2494266927 0.2825101316 6.490113838e-41
0.04165190458 -0.2569337785 -0.1430350691 6.490113838e-41
-0.04898684472 -0.2399679124 0.1739019603 6.490113838e-41
-0.0921304971 -0.4905821085 0.230661422 6.490113838e-41
0.137306869 -0.3837216496 -0.1191518754 6.490113838e-41
-0.01142174378 -0.4928333461 0.02120157331 6.490113838e-41
-0.03920022026 -0.438686192 0.3151853085 6.490113838e-41
0.01976226643 -0.4478632808 0.01180980634 6.490113838e-41
-0.07252907753 -0.2419518083 0.2915868461 6.490113838e-41
0.04624570906 -0.4256255925 -0.1077949256 6.490113838e-41
0.01400634274 -0.4973728955 0.1986825317 6.490113838e-41
-0.1057965308 -0.3817746043 0.2954775393 6.490113838e-41
0.2116735578 -0.3421866298 -0.1243404001 6.490113838e-41
-0.06843070686 -0.2964793444 0.1383156925 6.490113838e-41
-0.07426698506 -0.3623230457 0.1189764142 6.490113838e-41
0.3100388646 -0.4895628095 -0.08956249058 6.490113838e-41
0.02236070484 -0.4916014671 0.2698027492 6.490113838e-41
0.1027863249 -0.2852578759 -0.1338327974 6.490113838e-41
0.1540336311 -0.4200941026 -0.1180284917 6.490113838e-41
0.2088903189 -0.491287291 -0.05081820488 6.490113838e-41
0.215660274 -0.2098982334 -0.1341139376 6.490113838e-41
-0.08390207589 -0.4760265052 0.3434734344 6.490113838e-41
-0.02873725258 -0.2537112236 0.2852809727 6.490113838e-41
0.04347521812 -0.492632091 0.1673997194 6.490113838e-41
0.3326358199 -0.4678096175 -0.0836815387 6.490113838e-41
0.3271579742 -0.4810422659 -0.08683748543 6.490113838e-41
0.005239315331 -0.4035688937 0.124052994 6.490113838e-41
0.09749992937 -0.3569470346 -0.111770317 6.490113838e-41
-0.03959073499 -0.4925447106 0.1133313775 6.490113838e-41
0.2776319981 -0.4891445637 -0.1149264872 6.490113838e-41
-0.05045757443 -0.4929263294 -0.07112622261 6.490113838e-41
-0.06987195462 -0.4353180528 0.1502808779 6.490113838e-41
0.2302918434 -0.3722525239 -0.1373240799 6.490113838e-41
0.009276419878 -0.4933924377 0.05022854358 6.490113838e-41
0.2283150256 -0.4228939712 -0.1342102289 6.490113838e-41
-0.05264792219 -0.490481317 0.2676738203 6.490113838e-41
-0.06128567085 -0.2959975898 0.2441215664 6.490113838e-41
-0.04301310703 -0.1843839586 0.2792042494 6.490113838e-41
0.1280530691 -0.4930522442 0.06756146997 6.490113838e-41
-0.08976076543 -0.4961901605 0.04270331189 6.490113838e-41
-0.01126197353 -0.2487464547 0.01839848422 6.490113838e-41
-0.04805763066 -0.2723130882 0.2095823735 6.490113838e-41
0.2467614412 -0.5071898103 0.1704804897 6.490113838e-41
0.3015573323 -0.4917827249 0.01295776572 6.490113838e-41
-0.1246859282 -0.475720346 0.2664723992 6.490113838e-41
-0.06739166379 -0.2712240219 0.08774062991 6.490113838e-41
0.2491765916 -0.2926213145 -0.09515859187 6.490113838e-41
-0.06034136191 -0.4904052615 0.3636902273 6.490113838e-41
0.06374938786 -0.488081187 -0.1264817715 6.490113838e-41
-0.09494620562 -0.2642474174 0.2805054784 6.490113838e-41
-0.07187214494 -0.191758424 0.2863543928 6.490113838e-41
0.116652064 -0.3361130655 -0.1168862134 6.490113838e-41
0.2919735909 -0.4899201393 -0.08498337865 6.490113838e-41
-0.09988495708 -0.2670233846 0.2898483574 6.490113838e-41
-0.02594776824 -0.2620562911 0.06440585107 6.490113838e-41
0.1797388792 -0.426297605 -0.1110348329 6.490113838e-41
-0.04234606773 -0.4924656749 0.0223915875 6.490113838e-41
0.001686807722 -0.487665385 0.3341659307 6.490113838e-41
0.009031195194 -0.2558896542 -0.04652009159 6.490113838e-41
-0.07199387252 -0.4338505864 0.3440615237 3.015101038e-39
0.007702391595 -0.4920921326 0.3291213512 3.015101038e-39
-0.0327607207 -0.2699547708 0.05163113773 3.015101038e-39
-0.03329528123 -0.1993446946 -0.127996251 3.015101038e-39
0.2460472286 -0.4760324061 -0.1411472708 3.015101038e-39
0.1191729829 -0.4926960766 0.1108200029 3.015101038e-39
-0.07178121805 -0.160729304 -0.1594098359 3.015101038e-39
0.1230959222 -0.3632183373 -0.1286240071 3.015101038e-39
0.1462979615 -0.1892207712 -0.1270684004 3.015101038e-39
0.1876754463 -0.373349607 -0.1322159618 3.015101038e-39
-0.1362031251 -0.4646438956 0.02916334011 3.015101038e-39
-0.07773402333 -0.3737370968 0.09766242653 3.015101038e-39
-0.05780700594 -0.4036171436 0.071231924 3.015101038e-39
0.1809882522 -0.3404501975 -0.1340262294 3.015101038e-39
0.2679388821 -0.3686541319 -0.1187867373 3.015101038e-39
0.2123137712 -0.2093789279 -0.1245135218 3.015101038e-39
0.3363096714 -0.4904201627 -0.04567544907 3.015101038e-39
-0.08558284491 -0.2140225768 0.04632759839 3.015101038e-39
-0.03606451675 -0.4857918024 0.3496058583 3.015101038e-39
0.0794724673 -0.1686786115 -0.1310101897 3.015101038e-39
-0.1153020561 -0.3200859129 -0.109276928 3.015101038e-39
0.1050793603 -0.2989565432 -0.1347532272 3.015101038e-39
0.1443243921 -0.4445583522 -0.1231134981 3.015101038e-39
-0.09209372103 -0.1792821884 -0.1442958713 3.015101038e-39
-0.1230322644 -0.2357385159 -0.120714888 3.015101038e-39
0.239992708 -0.4951683283 -0.03654709458 3.015101038e-39
-0.02658916079 -0.2362476885 -0.1237232089 3.015101038e-39
-0.06592235714 -0.3296665549 0.2260080874 3.015101038e-39
0.1255889535 -0.411575228 -0.1203518361 3.015101038e-39
-0.07743509114 -0.2491525114 0.2939216793 3.015101038e-39
-0.04808744043 -0.2501010895 0.3001151979 3.015101038e-39
0.01158332825 -0.4920591712 0.3334721923 3.015101038e-39
-0.06729982793 -0.2636938095 0.2395323813 3.015101038e-39
0.07897737622 -0.2817340195 -0.1404533088 3.015101038e-39
0.1863325238 -0.4912105203 -0.131005615 3.015101038e-39
-0.01335192472 -0.4758251011 0.3066033125 3.015101038e-39
-0.09545455873 -0.1696925014 -0.09975104034 3.015101038e-39
0.324778676 -0.4908874035 -0.08499904722 3.015101038e-39
-0.08096350729 -0.1946780831 -0.09555920959 3.015101038e-39
-0.1505194455 -0.4875275493 -0.1016556397 3.015101038e-39
-0.1049896777 -0.360383749 -0.1282927543 3.015101038e-39
-0.1131026819 -0.4063719511 -0.07164657116 3.015101038e-39
0.2179122269 -0.5058406591 0.1309667677 3.015101038e-39
-0.0493500717 -0.4919461906 -0.08046867698 3.015101038e-39
0.2338113785 -0.3467933536 -0.1059823111 3.015101038e-39
-0.08084349334 -0.2980098426 0.05639819801 3.015101038e-39
0.1510725915 -0.4928405285 0.1370237768 3.015101038e-39
-0.08792057633 -0.4546696842 0.2111717165 3.015101038e-39
-0.111380145 -0.4627374411 0.1714347303 3.015101038e-39
-0.09333564341 -0.4707206488 0.3326669037 3.015101038e-39
0.01027132571 -0.2676170468 -0.1362972111 3.015101038e-39
-0.1436438113 -0.4920822978 -0.07313054055 3.015101038e-39
-0.1012641266 -0.2801078558 -0.1328788996 3.015101038e-39
0.2394264936 -0.1845126897 -0.1269122958 3.015101038e-39
0.2976682782 -0.4902059436 -0.07353302836 3.015101038e-39
0.1151720509 -0.5037178993 0.04890856892 3.015101038e-39
0.102916427 -0.4933565557 0.2489918321 3.015101038e-39
0.01122744381 -0.1556346714 -0.1451213807 3.015101038e-39
0.1010306552 -0.2463104576 -0.1322850436 3.015101038e-39
-0.153185308 -0.4928060472 0.1317974776 3.015101038e-39
-0.0652127862 -0.4207642674 0.08985105157 3.015101038e-39
0.08465429395 -0.4930564165 -0.04901085049 3.015101038e-39
-0.07178816944 -0.4849066734 0.3537433445 3.015101038e-39
-0.09071651101 -0.1769651324 -0.03392394632 3.015101038e-39
-0.113087222 -0.3249227405 -0.1018242687 3.015101038e-39
0.1552605927 -0.3375104368 -0.1490526348 3.015101038e-39
0.2481103837 -0.4884267747 -0.1373339295 3.015101038e-39
-0.06372376531 -0.4171823263 0.08565275371 3.015101038e-39
-0.1035707146 -0.4150808752 0.3090030253 3.015101038e-39
-0.07518545538 -0.2488436997 0.2933996916 3.015101038e-39
-0.03140898794 -0.2016885579 -0.1453579366 3.015101038e-39
-0.08701059222 -0.1727869213 -0.02631122805 3.015101038e-39
-0.1615440249 -0.4924378693 0.1209697053 3.015101038e-39
0.06102512032 -0.2410396636 -0.1200533956 3.015101038e-39
-0.1268998235 -0.4925964475 -0.120063439 3.015101038e-39
-0.04262661189 -0.4270236194 0.3391368389 3.015101038e-39
-0.08707790077 -0.4272801578 0.01533594262 3.015101038e-39
-0.07093298435 -0.2404648364 0.2922197282 3.015101038e-39
-0.08465205133 -0.2694070339 -0.1280572265 3.015101038e-39
-0.0002840235829 -0.4842963815 0.2406701744 3.015101038e-39
-0.105817996 -0.4012431204 0.2845168114 3.015101038e-39
0.1925220191 -0.2478240728 -0.1239362806 3.015101038e-39
-0.06837905198 -0.2619625628 0.2026287019 3.015101038e-39
-0.07267938554 -0.3290621936 0.1914187372 3.015101038e-39
0.264372468 -0.4907190204 -0.1228599101 3.015101038e-39
-0.04147628695 -0.4911367595 0.2051852942 3.015101038e-39
-0.02990665473 -0.1569193602 -0.1409082115 3.015101038e-39
0.144384414 -0.4482705593 -0.1166238636 3.015101038e-39
0.08592335135 -0.491066426 -0.1127601415 3.015101038e-39
0.2207739949 -0.1811681092 -0.1276282668 3.015101038e-39
-0.0968067944 -0.4802117348 0.3405931592 3.015101038e-39
-0.03711574152 -0.2358494401 0.2419559956 3.015101038e-39
-0.0411276184 -0.4915690422 0.08173020929 3.015101038e-39
0.3188634217 -0.4914064407 -0.1037748829 3.015101038e-39
0.2936121225 -0.4911860228 -0.1113856435 3.015101038e-39
-0.1094586402 -0.2383461297 -0.09912314266 3.015101038e-39
-0.01042564586 -0.2231550068 -0.1232449859 3.015101038e-39
-0.1373827308 -0.4917188883 -0.05440052599 3.015101038e-39
0.1675403118 -0.4811906517 -0.1345250458 3.015101038e-39
-0.1215390638 -0.4323416352 -0.1300724596 3.015101038e-39
-0.06632992625 -0.3965582252 0.2054970264 3.015101038e-39
0.1413498521 -0.374815464 -0.1287338585 3.015101038e-39
-0.1035079435 -0.4919940233 -0.09775752574 3.015101038e-39
0.1533284485 -0.3964668512 -0.1221506596 3.015101038e-39
-0.1193374097 -0.4908437431 0.1798752695 3.015101038e-39
-0.05819062516 -0.2638705373 0.3029301465 3.015101038e-39
-0.03210292011 -0.1798842847 0.2208176255 3.015101038e-39
0.01917240024 -0.4927737713 -0.02460518293 3.015101038e-39
-0.1167786568 -0.3839153945 -0.1126413196 3.015101038e-39
-0.07406894118 -0.2109792531 -0.09874455631 3.015101038e-39
-0.08462002873 -0.234847188 0.1129272208 3.015101038e-39
0.1917854548 -0.5037071109 0.177574113 3.015101038e-39
0.2662788332 -0.4909773171 -0.01350709051 3.015101038e-39
-0.08618362248 -0.4580104053 0.1823868901 3.015101038e-39
-0.07139097154 -0.2390244156 0.1351825744 3.015101038e-39
0.2177636325 -0.2755714357 -0.1137316078 3.015101038e-39
-0.09687069058 -0.4891270995 0.3331549168 3.015101038e-39
-0.04854992405 -0.3811108768 -0.1242856532 3.015101038e-39
-0.09394747019 -0.2816943824 0.295425117 3.015101038e-39
-0.04800504446 -0.198453173 0.2460325956 3.015101038e-39
0.0316644609 -0.2074504942 -0.1208208948 3.015101038e-39
0.2332586348 -0.4911414981 -0.1238839477 3.015101038e-39
-0.07013235986 -0.2749877572 0.2396291792 3.015101038e-39
-0.1013122946 -0.1663325131 -0.1235694885 3.015101038e-39
0.1810584664 -0.4544962049 -0.1135606617 3.015101038e-39
-0.138991788 -0.483764112 -0.123390913 3.015101038e-39
-0.06168524176 -0.4909398556 0.2678827941 3.015101038e-39
-0.09587750584 -0.1663443744 -0.1468427777 3.015101038e-39
-0.129537791 -0.4875019789 0.3444640934 5.962428276e-39
-0.04686436802 -0.4916284978 0.2451070249 5.962428276e-39
-0.04539289325 -0.2111829221 -0.01591125876 5.962428276e-39
-0.027683964 -0.1834283471 -0.1356338561 5.962428276e-39
0.1682111025 -0.4526242614 -0.1307360083 5.962428276e-39
0.01236062497 -0.4920822084 0.05527204275 5.962428276e-39
-0.04459885135 -0.1886264384 -0.1546541005 5.962428276e-39
0.1002226695 -0.3887414336 -0.1256939024 5.962428276e-39
0.1259968281 -0.1720735729 -0.1324879229 5.962428276e-39
0.1154521927 -0.3877987862 -0.1285492182 5.962428276e-39
-0.1145318598 -0.4164429009 -0.0484167859 5.962428276e-39
-0.0889775455 -0.4054798782 0.1105319113 5.962428276e-39
-0.04913672805 -0.3487449586 4.050508142e-05 5.962428276e-39
0.1058356389 -0.3533552885 -0.1301364452 5.962428276e-39
0.262989521 -0.4200381935 -0.1317507029 5.962428276e-39
0.2002626359 -0.1906642914 -0.1291953921 5.962428276e-39
0.3125605583 -0.4904887676 -0.07153740525 5.962428276e-39
-0.07152181864 -0.2456659079 0.06667554379 5.962428276e-39
-0.06559580564 -0.4917116165 0.320879072 5.962428276e-39
0.0606360063 -0.1685145646 -0.1369002163 5.962428276e-39
-0.1232174337 -0.2688024342 -0.1158923954 5.962428276e-39
0.04248385131 -0.3361365497 -0.1279085726 5.962428276e-39
0.03835404664 -0.3854512572 -0.1267565191 5.962428276e-39
-0.06842622161 -0.1750037521 -0.1484509706 5.962428276e-39
-0.1192504093 -0.2156555653 -0.1288453192 5.962428276e-39
0.3181958497 -0.4932962656 -0.01394772343 5.962428276e-39
-0.02899861336 -0.2075526416 -0.1309914142 5.962428276e-39
-0.07450434566 -0.3676063418 0.238631472 5.962428276e-39
0.04229999334 -0.3533512056 -0.1250191927 5.962428276e-39
-0.1016913727 -0.2717257738 0.3050251603 5.962428276e-39
-0.08001464605 -0.2871638238 0.3067835867 5.962428276e-39
-0.03951045871 -0.491707027 0.2547345161 5.962428276e-39
-0.08271960914 -0.3049052954 0.2529340684 5.962428276e-39
0.02773249149 -0.3129727542 -0.126918748 5.962428276e-39
0.05747614056 -0.4735144377 -0.1341113895 5.962428276e-39
0.001245412976 -0.4840201735 0.2999759614 5.962428276e-39
-0.08459322155 -0.1805385798 -0.1188276112 5.962428276e-39
0.2742545903 -0.4913085699 -0.1107654572 5.962428276e-39
-0.05132295191 -0.2183310688 -0.07046197355 5.962428276e-39
-0.1342698783 -0.4421372712 -0.1142109334 5.962428276e-39
-0.09900861979 -0.2995223701 -0.1295131445 5.962428276e-39
-0.1156895235 -0.3152923286 -0.0980232507 5.962428276e-39
0.1800096929 -0.4984151721 0.1482360214 5.962428276e-39
-0.1109399498 -0.4909234047 -0.1161737442 5.962428276e-39
0.2894056737 -0.4235768318 -0.1224902123 5.962428276e-39
-0.1032003909 -0.3414676189 0.04488892853 5.962428276e-39
0.03852904588 -0.4916947484 0.07646389306 5.962428276e-39
-0.06755764782 -0.4149330258 0.1119881347 5.962428276e-39
-0.09590668976 -0.4241146147 0.06581586599 5.962428276e-39
-0.1611838341 -0.4863784313 0.328020066 5.962428276e-39
-0.05549447238 -0.3247594237 -0.1245140731 5.962428276e-39
-0.1449612677 -0.4616555572 -0.1123130769 5.962428276e-39
-0.1047066376 -0.2419231385 -0.1362589449 5.962428276e-39
0.2250140607 -0.2079656422 -0.1352671236 5.962428276e-39
0.2189290524 -0.4914385974 -0.09677401185 5.962428276e-39
0.12923491 -0.5116446018 0.09012696147 5.962428276e-39
0.03362619132 -0.4912965298 0.1948428005 5.962428276e-39
0.001459103078 -0.1842451245 -0.1465779692 5.962428276e-39
0.0009028352797 -0.2760038376 -0.1278733462 5.962428276e-39
-0.1768015027 -0.4741525054 0.005483627319 5.962428276e-39
-0.04989368841 -0.36861974 0.0121224178 5.962428276e-39
-0.02276827022 -0.4910213351 -0.08959326893 5.962428276e-39
-0.1352114677 -0.489834249 0.3223068714 5.962428276e-39
-0.07257756591 -0.1949271113 -0.01253504679 5.962428276e-39
-0.1247761399 -0.2683182359 -0.1101967692 5.962428276e-39
0.1025582626 -0.3715420663 -0.1432547867 5.962428276e-39
0.1498132348 -0.4719912112 -0.1321161091 5.962428276e-39
-0.04926875606 -0.3651027977 0.009789387695 5.962428276e-39
-0.1433847845 -0.4707182646 0.3180246949 5.962428276e-39
-0.09739124775 -0.2703942657 0.3041734099 5.962428276e-39
-0.02399898507 -0.2229260802 -0.1430551708 5.962428276e-39
-0.08368697762 -0.1854287088 -0.01499762014 5.962428276e-39
-0.1728642285 -0.4685393572 -0.003803988919 5.962428276e-39
0.04465729743 -0.217596516 -0.1275416613 5.962428276e-39
-0.1265220344 -0.4559960663 -0.1215540469 5.962428276e-39
-0.04103560373 -0.4693393707 0.3279222846 5.962428276e-39
-0.09068228304 -0.4861626923 0.05476845801 5.962428276e-39
-0.09292522073 -0.2584653199 0.2973943949 5.962428276e-39
-0.08212572336 -0.2324017137 -0.1331505924 5.962428276e-39
0.008077796549 -0.487652719 0.2433510423 5.962428276e-39
-0.09574747086 -0.3822487891 0.2500252426 5.962428276e-39
0.1866029501 -0.2308632433 -0.1273061186 5.962428276e-39
-0.08379109949 -0.3039462268 0.2136330754 5.962428276e-39
-0.07963255048 -0.3705362678 0.2049635202 5.962428276e-39
0.1644447744 -0.484498322 -0.1297895908 5.962428276e-39
-0.1063445732 -0.4916188121 0.1242518201 5.962428276e-39
-0.01616401039 -0.1759949476 -0.1435807794 5.962428276e-39
0.2635773718 -0.4853163958 -0.08666906506 5.962428276e-39
-0.02899239585 -0.4776110351 -0.1281093061 5.962428276e-39
0.2052151859 -0.1987898648 -0.1340714395 5.962428276e-39
-0.1767311096 -0.4895597398 0.3087588251 5.962428276e-39
-0.05672923476 -0.2532820702 0.2297829092 5.962428276e-39
-0.1150677651 -0.4921522737 -0.003412650898 5.962428276e-39
0.2554874122 -0.4911112189 -0.1184157431 5.962428276e-39
0.2127669156 -0.4890272021 -0.1264607608 5.962428276e-39
-0.1097931489 -0.2128196061 -0.1099703386 5.962428276e-39
-0.0168610774 -0.1983002126 -0.1316828877 5.962428276e-39
-0.1494162679 -0.4708352983 -0.1115903854 5.962428276e-39
0.06287068129 -0.4264380038 -0.1286283135 5.962428276e-39
-0.1084954739 -0.3522937596 -0.1267264038 5.962428276e-39
-0.05179842561 -0.4278233945 0.2376725227 5.962428276e-39
0.1143845096 -0.3747439981 -0.1271204501 5.962428276e-39
-0.1337564439 -0.4750564694 -0.1190746576 5.962428276e-39
0.1117424592 -0.3276659846 -0.1248355955 5.962428276e-39
-0.1777557135 -0.4848775268 0.07418394834 5.962428276e-39
-0.07455945015 -0.3031661808 0.3149134517 5.962428276e-39
-0.03937563673 -0.177721709 0.1728863418 5.962428276e-39
-0.06645549834 -0.4911721945 -0.09147483855 5.962428276e-39
-0.1148749813 -0.3071403503 -0.1129104346 5.962428276e-39
-0.03998959437 -0.2316390276 -0.06781823188 5.962428276e-39
-0.07567021251 -0.2617252469 0.1129764095 5.962428276e-39
0.1353131235 -0.493799448 0.1797976941 5.962428276e-39
0.1523146927 -0.492133379 -0.04927518219 5.962428276e-39
-0.07019017637 -0.4147933125 0.07946734875 5.962428276e-39
-0.09178635478 -0.2755779922 0.1274302453 5.962428276e-39
0.1830736697 -0.3215876818 -0.1160940379 5.962428276e-39
-0.1783926785 -0.486479342 0.2767304182 5.962428276e-39
-0.04111430049 -0.3065141737 -0.1286191046 5.962428276e-39
-0.1175265908 -0.3180191815 0.3093756735 5.962428276e-39
-0.04299741983 -0.1878376305 0.2346978635 5.962428276e-39
0.01579645649 -0.1908893585 -0.1314710379 5.962428276e-39
0.1073609069 -0.4838579297 -0.1320023984 5.962428276e-39
-0.05252884328 -0.2320654243 0.2304871082 5.962428276e-39
-0.07831353694 -0.1820298731 -0.1161508411 5.962428276e-39
0.3119550943 -0.4807018638 -0.07534153014 5.962428276e-39
-0.1263468266 -0.4341189861 -0.1214141697 5.962428276e-39
-0.1332459152 -0.491152972 0.1836712211 5.962428276e-39
-0.06667471677 -0.1845543981 -0.139982298 5.962428276e-39
-0.2139804959 -0.4885691404 0.3075158894 8.906165387e-39
-0.07991084456 -0.4910166264 0.1796955168 8.906165387e-39
-0.07436922193 -0.1768256724 -0.03442136943 8.906165387e-39
-0.04180053994 -0.1790451407 -0.1372963488 8.906165387e-39
0.1196508631 -0.4549518228 -0.1313846409 8.906165387e-39
-0.03904023021 -0.4915991426 0.02064899355 8.906165387e-39
-0.05217577517 -0.2077646554 -0.1288774312 8.906165387e-39
0.1052821502 -0.3645840585 -0.1284161508 8.906165387e-39
0.08588303626 -0.1703536958 -0.1354101598 8.906165387e-39
0.1010618433 -0.4082829952 -0.1266828626 8.906165387e-39
-0.1116507426 -0.3573380113 -0.0640244931 8.906165387e-39
-0.02952530235 -0.4864062071 0.1297849864 8.906165387e-39
-0.07094527781 -0.2933344841 -0.03925856948 8.906165387e-39
0.1138179079 -0.4021448493 -0.1278654635 8.906165387e-39
0.2511866391 -0.464938283 -0.1416505873 8.906165387e-39
0.1615900099 -0.1774461418 -0.1311741918 8.906165387e-39
0.2429105043 -0.4916219115 -0.07198763639 8.906165387e-39
-0.08666485548 -0.2935576141 0.07959586382 8.906165387e-39
-0.1111460701 -0.4911691546 0.2469920367 8.906165387e-39
0.02333165705 -0.1699689627 -0.1402787566 8.906165387e-39
-0.1412367821 -0.242762506 -0.114590168 8.906165387e-39
0.08141088486 -0.3822079897 -0.1296767294 8.906165387e-39
-0.01376762241 -0.3805417418 -0.1302347183 8.906165387e-39
-0.0684170723 -0.1712009311 -0.1445928067 8.906165387e-39
-0.1165906861 -0.199206844 -0.1187190562 8.906165387e-39
0.2942371964 -0.4914215803 0.004992942326 8.906165387e-39
-0.05059012771 -0.2027972937 -0.1322453916 8.906165387e-39
-0.07563397288 -0.4728018641 0.2045782954 8.906165387e-39
-0.004875062034 -0.3506731391 -0.1290763468 8.906165387e-39
-0.1427624524 -0.4634156525 0.3227019608 8.906165387e-39
-0.09777507931 -0.4612153471 0.3253805637 8.906165387e-39
-0.07143270969 -0.4910319746 0.1895434111 8.906165387e-39
-0.09227555245 -0.4414859712 0.2131874412 8.906165387e-39
-0.006094286218 -0.36912781 -0.09978888929 8.906165387e-39
-0.0143042244 -0.4615634084 -0.1326651126 8.906165387e-39
0.03906343132 -0.4918088317 0.3116222322 8.906165387e-39
-0.08097945154 -0.1851104647 -0.06190745533 8.906165387e-39
0.2061078548 -0.4911853075 -0.09945895523 8.906165387e-39
-0.05678737164 -0.2691414654 -0.02489290945 8.906165387e-39
-0.1439161301 -0.3846192062 -0.1119924486 8.906165387e-39
-0.1121138036 -0.2728675306 -0.1279622018 8.906165387e-39
-0.1329523325 -0.2743848264 -0.09641580284 8.906165387e-39
0.1639381051 -0.4928023815 0.1301384121 8.906165387e-39
-0.1460156441 -0.4736790061 -0.1207862496 8.906165387e-39
0.3017873168 -0.4718878269 -0.1335216463 8.906165387e-39
-0.1095643491 -0.4583550096 0.007510572672 8.906165387e-39
-0.009459206834 -0.4919195175 0.04211197793 8.906165387e-39
-0.0637505278 -0.3958545327 0.03394951671 8.906165387e-39
-0.08248952031 -0.3971575201 -0.002019410022 8.906165387e-39
-0.1999627948 -0.4889403582 0.2505687475 8.906165387e-39
-0.02245598659 -0.3485239446 -0.1261630952 8.906165387e-39
-0.1487202048 -0.4179623723 -0.1131131202 8.906165387e-39
-0.1129146591 -0.2285077721 -0.1367792636 8.906165387e-39
0.1730569601 -0.2408478558 -0.1413090676 8.906165387e-39
0.1376740336 -0.4913402796 -0.08930160105 8.906165387e-39
0.2101575434 -0.4999573827 0.1197925135 8.906165387e-39
-0.00399996154 -0.4910556674 0.1321746707 8.906165387e-39
-0.02182847634 -0.1976718903 -0.1456731111 8.906165387e-39
0.0327802971 -0.3054946959 -0.1285742372 8.906165387e-39
-0.1743966639 -0.4521566033 -0.05920778215 8.906165387e-39
-0.06932093203 -0.3136374652 -0.03386560082 8.906165387e-39
-0.08237465471 -0.4904391766 -0.1025863662 8.906165387e-39
-0.1975037754 -0.4890252352 0.247965008 8.906165387e-39
-0.07547977567 -0.2439266294 0.0405812189 8.906165387e-39
-0.1414603889 -0.2422848642 -0.1086309999 8.906165387e-39
0.05638469011 -0.4281999171 -0.1153273284 8.906165387e-39
0.07389701903 -0.468083173 -0.13562648 8.906165387e-39
-0.06909929216 -0.3088584542 -0.03409364074 8.906165387e-39
-0.1481384337 -0.4796774983 0.255201906 8.906165387e-39
-0.1393409669 -0.4631232023 0.3217497468 8.906165387e-39
-0.02851229161 -0.2777611613 -0.1086604744 8.906165387e-39
-0.07640569657 -0.2133436501 0.03635267168 8.906165387e-39
-0.1618127823 -0.4463008046 -0.05927918106 8.906165387e-39
0.01316273585 -0.2068420798 -0.1303808242 8.906165387e-39
-0.1380496323 -0.4036577344 -0.1189309657 8.906165387e-39
-0.02770033292 -0.4915935397 0.3501459658 8.906165387e-39
0.02198524028 -0.5020486116 0.0972769931 8.906165387e-39
-0.1196174547 -0.4441023469 0.3125235736 8.906165387e-39
-0.0895999372 -0.2206251025 -0.1347922087 8.906165387e-39
0.08938992023 -0.4922412634 0.2943420708 8.906165387e-39
-0.05662492663 -0.4126467109 0.1455751806 8.906165387e-39
0.1470442116 -0.2153321505 -0.1312455088 8.906165387e-39
-0.09322778881 -0.4406343102 0.1658020169 8.906165387e-39
-0.07628483325 -0.4732146561 0.1688606441 8.906165387e-39
0.07711987197 -0.4827994108 -0.1334581971 8.906165387e-39
-0.1416425109 -0.4906268716 0.0501088798 8.906165387e-39
-0.02488776855 -0.179449901 -0.1452456564 8.906165387e-39
0.3350034058 -0.4874605834 -0.05450684577 8.906165387e-39
-0.07897381485 -0.4592962265 -0.1285640597 8.906165387e-39
0.1450880766 -0.2282288373 -0.1399211437 8.906165387e-39
-0.2096051276 -0.4889524579 0.227428779 8.906165387e-39
-0.08184868842 -0.2861650884 0.16028063 8.906165387e-39
-0.1445130259 -0.4903925359 -0.04582060128 8.906165387e-39
0.1934613883 -0.4906721115 -0.116165489 8.906165387e-39
0.139560312 -0.4879680574 -0.1307764351 8.906165387e-39
-0.1107823998 -0.1927703768 -0.1003701389 8.906165387e-39
-0.03816702589 -0.1949871182 -0.1330412179 8.906165387e-39
-0.1492180824 -0.428684324 -0.1117121056 8.906165387e-39
-0.008218958974 -0.4218803644 -0.130757764 8.906165387e-39
-0.1172201559 -0.3082116544 -0.1214050949 8.906165387e-39
0.0249126181 -0.4904931188 0.2691116929 8.906165387e-39
0.09728390723 -0.3720806241 -0.1279191673 8.906165387e-39
-0.1405585706 -0.4407068193 -0.1200010329 8.906165387e-39
0.05583847314 -0.3243163824 -0.1272343695 8.906165387e-39
-0.196556747 -0.476721108 -0.007258690894 8.906165387e-39
-0.08284799755 -0.4411032498 0.307657212 8.906165387e-39
-0.07068701088 -0.1805742532 0.09185898304 8.906165387e-39
-0.1155781671 -0.4908035994 -0.1049330086 8.906165387e-39
-0.1372222155 -0.2731957138 -0.1126159281 8.906165387e-39
-0.05604554713 -0.2844103277 -0.0236853566 8.906165387e-39
-0.09424561262 -0.3066717386 0.09597491473 8.906165387e-39
0.1065476462 -0.4921824038 0.1372193098 8.906165387e-39
0.07633416355 -0.4920159578 -0.04821559042 8.906165387e-39
-0.07079277933 -0.383847028 0.008799925447 8.906165387e-39
-0.1051959991 -0.4256911874 0.0698915869 8.906165387e-39
0.1920534968 -0.3805043995 -0.1190476567 8.906165387e-39
-0.2107284069 -0.4875597954 0.1873935014 8.906165387e-39
-0.06633226573 -0.2872444391 -0.1296376437 8.906165387e-39
-0.1615696549 -0.4887485504 0.3150533736 8.906165387e-39
-0.05516093597 -0.1927467138 0.1187204197 8.906165387e-39
-0.007370429114 -0.1874207109 -0.1339886039 8.906165387e-39
0.02105134726 -0.4785906672 -0.1350628436 8.906165387e-39
-0.04309560359 -0.2754102945 0.09702195972 8.906165387e-39
-0.07289734483 -0.1942418814 -0.05218601972 8.906165387e-39
0.3424665928 -0.489082396 -0.05743701011 8.906165387e-39
-0.1329643428 -0.3696674407 -0.1166565716 8.906165387e-39
-0.1646700203 -0.4900920987 0.09813139588 8.906165387e-39
-0.06567713618 -0.198110193 -0.09996901453 8.906165387e-39
-0.2685362101 -0.4895009398 0.2702953517 1.184631237e-38
-0.145562917 -0.490965426 0.1624428928 1.184631237e-38
-0.09501346946 -0.1735654771 -0.08487095684 1.184631237e-38
-0.012414461 -0.1775924861 -0.1288195103 1.184631237e-38
0.01940770075 -0.4632485509 -0.1449638009 1.184631237e-38
-0.1013430506 -0.4911956191 0.006352820899 1.184631237e-38
-0.02945054881 -0.2962137163 -0.07655196637 1.184631237e-38
0.04516717046 -0.3348212242 -0.1330188811 1.184631237e-38
0.09564841539 -0.2005463392 -0.1371695846 1.184631237e-38
0.02393218875 -0.4105292261 -0.1357109398 1.184631237e-38
-0.1373654157 -0.3070818186 -0.09637004137 1.184631237e-38
-0.007977399975 -0.4849095345 0.1760321558 1.184631237e-38
-0.0983595252 -0.2629682422 -0.07859219611 1.184631237e-38
0.07057452947 -0.4254316986 -0.1348143071 1.184631237e-38
0.1980168819 -0.4900236726 -0.1548305005 1.184631237e-38
0.1686907411 -0.2005437911 -0.1365485042 1.184631237e-38
0.1190152392 -0.4926411808 -0.04659756273 1.184631237e-38
-0.07447949052 -0.384598732 0.09501194954 1.184631237e-38
-0.1746729016 -0.4910339713 0.2250036895 1.184631237e-38
0.03820800781 -0.2113210857 -0.1282037348 1.184631237e-38
-0.1728138328 -0.2182112932 -0.1202782393 1.184631237e-38
0.06781480461 -0.3980180621 -0.1322803944 1.184631237e-38
-0.05325331539 -0.3515366912 -0.1294571161 1.184631237e-38
-0.04252544045 -0.2026107013 -0.1231569201 1.184631237e-38
-0.09662522376 -0.1879992634 -0.1176205873 1.184631237e-38
0.1696696579 -0.4931133986 0.03322789073 1.184631237e-38
-0.03402253613 -0.172289297 -0.1288814694 1.184631237e-38
-0.03383985534 -0.4859668016 0.2703156471 1.184631237e-38
-0.02240812592 -0.2987583578 -0.1265560985 1.184631237e-38
-0.1901811063 -0.4912198782 0.3529964089 1.184631237e-38
-0.08735832572 -0.4899165034 0.3510846496 1.184631237e-38
-0.1366995573 -0.4910051525 0.1713903099 1.184631237e-38
-0.0650652349 -0.4769524932 0.2654831409 1.184631237e-38
0.01766724139 -0.4347655773 -0.07813245058 1.184631237e-38
-0.08800997585 -0.4536753893 -0.1319119781 1.184631237e-38
-0.02634137496 -0.4911962748 0.2992820144 1.184631237e-38
-0.04973208904 -0.2368101478 -0.009330764413 1.184631237e-38
0.07482732087 -0.4908680022 -0.0886945799 1.184631237e-38
-0.06210819632 -0.3716050684 0.01891300268 1.184631237e-38
-0.1843185425 -0.322295934 -0.1111638471 1.184631237e-38
-0.1423501819 -0.243596673 -0.1234033704 1.184631237e-38
-0.187962234 -0.2446868122 -0.115273729 1.184631237e-38
0.06682433933 -0.4917870164 0.1218063757 1.184631237e-38
-0.1720042825 -0.4378936589 -0.1258203387 1.184631237e-38
0.2402502 -0.4913268685 -0.1367543638 1.184631237e-38
-0.06443351507 -0.4682478011 0.05977518857 1.184631237e-38
-0.07458667457 -0.4917703867 0.03207176179 1.184631237e-38
-0.08329002559 -0.3827136755 -0.01986466534 1.184631237e-38
-0.1085849404 -0.3722125888 -0.04894543439 1.184631237e-38
-0.2253313661 -0.4952368736 0.2183432877 1.184631237e-38
0.08765617013 -0.4017577767 -0.1356821507 1.184631237e-38
-0.1912685931 -0.3589309752 -0.1112131402 1.184631237e-38
-0.1198912784 -0.1965920925 -0.1329006553 1.184631237e-38
0.1594960392 -0.3340093791 -0.1402193159 1.184631237e-38
0.009787660092 -0.4904807806 -0.07372066379 1.184631237e-38
0.1678470969 -0.4919539094 0.1542930603 1.184631237e-38
-0.05780965835 -0.4911648631 0.1171783805 1.184631237e-38
0.02400727198 -0.2790103853 -0.1069231257 1.184631237e-38
0.1211380288 -0.4243738949 -0.1356403083 1.184631237e-38
-0.2225387692 -0.4366040826 -0.09712542593 1.184631237e-38
-0.09430803359 -0.2802805305 -0.07354905456 1.184631237e-38
-0.1462043822 -0.4902148843 -0.1100762039 1.184631237e-38
-0.2716508806 -0.4898241162 0.2029010653 1.184631237e-38
-0.07329554111 -0.3356806338 0.06680644304 1.184631237e-38
-0.1694307327 -0.2177237421 -0.1178626865 1.184631237e-38
0.07758606225 -0.4382880926 -0.09059298784 1.184631237e-38
-0.01768404618 -0.4679918587 -0.1387289166 1.184631237e-38
-0.09475058317 -0.2772666514 -0.07422343642 1.184631237e-38
-0.1601013541 -0.4990538955 0.2146948427 1.184631237e-38
-0.1766965687 -0.490896225 0.3516862094 1.184631237e-38
-0.04481543601 -0.3798702359 -0.07428604364 1.184631237e-38
-0.07705931365 -0.310223788 0.06924626976 1.184631237e-38
-0.2036205232 -0.4210413098 -0.09677758813 1.184631237e-38
0.02094483376 -0.1861764938 -0.1339420378 1.184631237e-38
-0.1714997292 -0.3431888819 -0.1183535457 1.184631237e-38
-0.09559836239 -0.4909124374 0.3317537904 1.184631237e-38
0.1050894186 -0.4945462346 0.1746131629 1.184631237e-38
-0.1206196249 -0.4874758124 0.3362172246 1.184631237e-38
-0.09293777496 -0.1904001236 -0.1317970306 1.184631237e-38
0.03715468943 -0.4910567999 0.3087802529 1.184631237e-38
-0.05202525482 -0.4434638321 0.08583756536 1.184631237e-38
0.1562491357 -0.1838680059 -0.1321186721 1.184631237e-38
-0.06801114231 -0.4752954841 0.2129727602 1.184631237e-38
-0.03715172783 -0.4866549373 0.2349624485 1.184631237e-38
-0.01999199949 -0.4833779037 -0.1329177916 1.184631237e-38
-0.2115171254 -0.4895139337 0.03223327547 1.184631237e-38
-0.006145967171 -0.2411599755 -0.109988153 1.184631237e-38
0.270465821 -0.4920638204 -0.002743952908 1.184631237e-38
-0.1320799589 -0.4452203512 -0.1311155856 1.184631237e-38
0.1450863481 -0.3166228533 -0.1382106245 1.184631237e-38
-0.2329787314 -0.4958739877 0.1793338656 1.184631237e-38
-0.07562793791 -0.3486711085 0.1412264407 1.184631237e-38
-0.209420681 -0.482681334 -0.07597153634 1.184631237e-38
0.06022298336 -0.4901684523 -0.1077402905 1.184631237e-38
0.01754315197 -0.4894040525 -0.125999853 1.184631237e-38
-0.1018240973 -0.183798179 -0.1091807559 1.184631237e-38
-0.01797757298 -0.1727231592 -0.1287946403 1.184631237e-38
-0.1950266361 -0.3780499101 -0.1123771071 1.184631237e-38
-0.07288707793 -0.4096518755 -0.1353211105 1.184631237e-38
-0.1623036563 -0.2677241564 -0.1212288141 1.184631237e-38
0.04949258268 -0.4883315861 0.332110256 1.184631237e-38
0.02194140106 -0.3439363837 -0.132638827 1.184631237e-38
-0.1778104305 -0.3906866908 -0.1189951152 1.184631237e-38
0.02983332425 -0.2874755859 -0.1296073794 1.184631237e-38
-0.255426228 -0.470441699 -0.05001850426 1.184631237e-38
-0.07036264241 -0.4770922065 0.3305259645 1.184631237e-38
-0.08964674175 -0.2542370856 0.05478837341 1.184631237e-38
-0.1715305746 -0.4824029207 -0.1158898026 1.184631237e-38
-0.1868233979 -0.2430911362 -0.1197620928 1.184631237e-38
-0.06343746185 -0.3859845698 0.01068794727 1.184631237e-38
-0.07469315827 -0.3949926496 0.1045199856 1.184631237e-38
0.02820814401 -0.491638422 0.1302400976 1.184631237e-38
-0.0306329336 -0.4911834002 -0.04076207429 1.184631237e-38
-0.09148910642 -0.3623451591 -0.03993967921 1.184631237e-38
