# .PCD v0.7 - Point Cloud Data file format
VERSION 0.7
FIELDS x y z rgb
SIZE 4 4 4 4
TYPE F F F F
COUNT 1 1 1 1
WIDTH 829
HEIGHT 1
VIEWPOINT 0 0 0 1 0 0 0
POINTS 829
DATA ascii
-0.1104792655 -0.3029051423 0.03429478779 6.490113838e-41
-0.05266289786 -0.4684313536 0.01138077676 6.490113838e-41
-0.0138935484 -0.3400706947 0.270224452 6.490113838e-41
0.01330980286 -0.4517170787 0.2121884823 6.490113838e-41
-0.0484758988 -0.4526823163 -0.1455171108 6.490113838e-41
0.04762114212 -0.2910124362 0.1101392508 6.490113838e-41
0.07626289129 -0.4583133459 -0.005838900805 6.490113838e-41
-0.1864953935 -0.405595094 0.1992019713 6.490113838e-41
0.1304718405 -0.3006162345 -0.08006346971 6.490113838e-41
0.2121226192 -0.3544676304 0.1789134443 6.490113838e-41
-0.01380519941 -0.3899365067 0.2786919773 6.490113838e-41
0.1624858081 -0.4574267864 0.1552705318 6.490113838e-41
-0.06892073154 -0.4595349431 -0.09331258386 6.490113838e-41
-0.1356950551 -0.3175439835 -0.03368038684 6.490113838e-41
-0.09452752769 -0.3396524787 -0.04271122068 6.490113838e-41
0.1673686355 -0.3419158459 0.1343490183 6.490113838e-41
0.2122435868 -0.4160357118 0.05007837713 6.490113838e-41
0.07154552639 -0.4635503888 0.1653854251 6.490113838e-41
0.2182219028 -0.3860239983 0.01534240693 6.490113838e-41
0.152115047 -0.4262973666 -0.08758664876 6.490113838e-41
0.1720042825 -0.3382738233 0.05745775253 6.490113838e-41
0.2000682056 -0.3515064418 0.03919500485 6.490113838e-41
-0.0756566599 -0.4120364189 0.2520110607 6.490113838e-41
0.1812634021 -0.4596829414 0.08853264898 6.490113838e-41
-0.02319787815 -0.4361056089 0.2497862577 6.490113838e-41
0.1918571889 -0.3799208701 -0.04618661106 6.490113838e-41
0.007312957197 -0.2854253352 0.1663720608 6.490113838e-41
0.009125243872 -0.4237387776 0.2719796002 6.490113838e-41
-0.1846370399 -0.3522353172 0.2038506866 6.490113838e-41
0.06610360742 -0.4543117285 0.006072580814 6.490113838e-41
-0.1549693346 -0.4375451803 -0.04810931534 6.490113838e-41
0.08739008009 -0.3342817426 0.2686301768 6.490113838e-41
-0.0716637969 -0.3728806674 0.2695413232 6.490113838e-41
0.1847550869 -0.3368289769 0.002164132893 6.490113838e-41
0.01662861183 -0.3709024191 0.2808735669 6.490113838e-41
-0.106362991 -0.4666386247 0.03306572512 6.490113838e-41
0.1283030361 -0.3062012792 0.01234120876 6.490113838e-41
-0.1334249824 -0.3085065484 -0.005653038621 6.490113838e-41
0.1443373263 -0.3270326853 0.09367930889 6.490113838e-41
0.1772201955 -0.4140324593 -0.02052393556 6.490113838e-41
-0.07017412782 -0.3775723577 -0.1061307713 6.490113838e-41
-0.01508879289 -0.4390338063 0.2328515649 6.490113838e-41
0.04513304308 -0.2873532772 -0.08347455412 6.490113838e-41
-0.05964432284 -0.2665933073 0.03507172689 6.490113838e-41
-0.06217269227 -0.4220269322 0.2254873812 6.490113838e-41
-0.03814118356 -0.4682925344 0.008066616952 6.490113838e-41
0.08481693268 -0.2987009883 -0.1113984808 6.490113838e-41
-0.1149640158 -0.4518369436 -0.07967763394 6.490113838e-41
-0.1868084967 -0.2920081317 0.06204156578 6.490113838e-41
0.09364625812 -0.4646741152 -0.1215269491 6.490113838e-41
-0.02536775917 -0.4660217762 -0.0247926712 6.490113838e-41
0.03232039139 -0.4617611766 -0.09341911227 6.490113838e-41
-0.03351362422 -0.2586686611 0.01788622141 6.490113838e-41
-0.112359345 -0.3309493065 -0.0375566557 6.490113838e-41
-0.100579083 -0.260507524 0.1817538142 6.490113838e-41
-0.1623212248 -0.3200304508 0.2292051017 6.490113838e-41
0.1463411599 -0.3303619623 0.1316148192 6.490113838e-41
0.1422183663 -0.456130147 0.177713871 6.490113838e-41
-0.08636189997 -0.4355319738 0.2095840573 6.490113838e-41
-0.05359780043 -0.4578324556 0.1420018077 6.490113838e-41
0.1385056973 -0.3146387935 0.03588067368 6.490113838e-41
0.1506054401 -0.3340271711 0.1687276065 6.490113838e-41
-0.19226107 -0.2979661822 0.1154582053 6.490113838e-41
-0.1391310841 -0.4148135781 0.2487857342 6.490113838e-41
0.03974408284 -0.3410855234 0.2732320726 6.490113838e-41
-0.04644862562 -0.3826635182 0.2760380805 6.490113838e-41
-0.01822770759 -0.4388753772 0.2436533272 6.490113838e-41
-0.07195378095 -0.3990767002 -0.1381311715 6.490113838e-41
-0.124838531 -0.4572481513 -0.02392750978 6.490113838e-41
0.07365326583 -0.3121012449 0.1575954854 6.490113838e-41
0.03234578297 -0.4681581855 -0.01248844713 6.490113838e-41
0.09573738277 -0.3048355579 0.07428561896 6.490113838e-41
0.1178786904 -0.3060867786 -0.1174125597 6.490113838e-41
-0.09760661423 -0.2507936954 0.1433874518 6.490113838e-41
-0.230061993 -0.3172516227 0.04872565344 6.490113838e-41
-0.2272138149 -0.4007972181 0.06951452792 6.490113838e-41
-0.1770053655 -0.290592432 0.03899514675 6.490113838e-41
-0.07267322391 -0.3506798446 -0.05925210565 6.490113838e-41
0.06951454282 -0.2788593173 -0.02489449829 6.490113838e-41
0.1044171751 -0.453558445 0.2226168513 6.490113838e-41
0.04340473935 -0.4622582197 -0.08658991009 6.490113838e-41
-0.07976709306 -0.4676440358 0.1091206074 6.490113838e-41
-0.07621771097 -0.4433717728 -0.141895771 6.490113838e-41
0.03425451741 -0.4528309703 0.1224697307 6.490113838e-41
-0.1881095469 -0.431946218 0.1644895673 6.490113838e-41
-0.2116902471 -0.4218385816 0.03984249011 6.490113838e-41
-0.1750800014 -0.304279983 -0.04405389726 6.490113838e-41
0.1269216537 -0.3247410655 0.1177902743 6.490113838e-41
0.02506082878 -0.466676116 -0.02219896764 6.490113838e-41
0.2018932998 -0.4333949685 0.06544595212 6.490113838e-41
0.03238422051 -0.4529836178 0.2263897657 6.490113838e-41
0.029957477 -0.4622549415 -0.08685577661 6.490113838e-41
0.1519661546 -0.4634574652 0.07074138522 6.490113838e-41
-0.007312688977 -0.3370358646 0.2687571943 6.490113838e-41
0.0888633281 -0.4538666606 0.2269362807 6.490113838e-41
0.03483617678 -0.3767034113 -0.1441828012 6.490113838e-41
-0.2175820619 -0.3043938875 0.05150224268 6.490113838e-41
-0.03371234238 -0.4692360163 0.1025238186 6.490113838e-41
0.1000133604 -0.3459924459 0.2730506659 6.490113838e-41
-0.1802372634 -0.4284417629 0.1903300583 6.490113838e-41
-0.08489373326 -0.2951598167 0.0422976166 6.490113838e-41
-0.102713272 -0.2639088631 0.1930603981 6.490113838e-41
-0.1566894203 -0.2995660007 0.0001910254359 6.490113838e-41
0.1008421183 -0.2933011055 -0.08070207387 6.490113838e-41
-0.012995556 -0.4386128783 0.1551548988 6.490113838e-41
0.1464793831 -0.3323149383 0.1902272105 6.490113838e-41
-0.1622950882 -0.4530444145 0.08686367422 6.490113838e-41
0.153894484 -0.3372319341 0.2319286764 6.490113838e-41
0.1204138845 -0.4673173428 0.1042567641 6.490113838e-41
0.1962808967 -0.4437183738 0.1204995066 6.490113838e-41
0.1499869823 -0.4648153186 0.08479529619 6.490113838e-41
0.06079303846 -0.3099399805 0.2202529311 6.490113838e-41
-0.1054868549 -0.3717125058 -0.1112373993 6.490113838e-41
-0.192952171 -0.4119968414 -0.02060896903 6.490113838e-41
-0.09969881922 -0.4608199596 0.1531956643 6.490113838e-41
0.1804234087 -0.3324303031 -0.01017126441 6.490113838e-41
-0.08372136205 -0.4634878039 -0.04474696517 6.490113838e-41
-0.007425826043 -0.4007532597 -0.1480258107 6.490113838e-41
-0.1413972527 -0.297665894 0.03124216199 6.490113838e-41
-0.1101333275 -0.46397686 0.008169770241 6.490113838e-41
-0.004522070289 -0.2562459111 0.08784983307 6.490113838e-41
-0.03938621283 -0.4644368887 -0.04876700789 6.490113838e-41
0.1315014958 -0.4521591663 -0.07803563029 6.490113838e-41
-0.165196076 -0.2953499258 0.1851226985 6.490113838e-41
-0.0539710857 -0.2795490026 0.226483196 6.490113838e-41
-0.04028718919 -0.2799836397 -0.002195484936 6.490113838e-41
-0.03248627484 -0.2638929188 0.005407758057 6.490113838e-41
0.01173173264 -0.2948701382 -0.06371247023 6.490113838e-41
-0.06545254588 -0.352663815 -0.06298594922 6.490113838e-41
-0.01181667298 -0.281870693 0.1904944479 6.490113838e-41
0.1355937719 -0.4370138645 -0.02010057122 6.490113838e-41
-0.1975176781 -0.290643692 0.02218747884 6.490113838e-41
-0.1453648508 -0.4518375397 -0.007891505957 6.490113838e-41
-0.1131688356 -0.398273766 0.1017558128 5.962428276e-39
0.08963134885 -0.3931413591 0.144046098 5.962428276e-39
-0.165571481 -0.3776093721 0.1025801152 5.962428276e-39
-0.01434823498 -0.3978233635 0.003869250417 5.962428276e-39
0.1717668623 -0.3099511862 0.04900688678 5.962428276e-39
0.1240160018 -0.2977227569 -0.005608081818 5.962428276e-39
-0.09104081988 -0.3646046519 -0.05387648195 5.962428276e-39
0.0004215501249 -0.3251235485 0.07240656763 5.962428276e-39
0.01033528522 -0.3273047507 0.01130273938 5.962428276e-39
0.1185861677 -0.3268606961 0.03938167542 5.962428276e-39
0.07161457837 -0.3507505655 -0.05731584877 5.962428276e-39
0.06410968304 -0.3997840285 0.2024365067 5.962428276e-39
0.05299497768 -0.3656420112 0.2256548107 5.962428276e-39
0.003176819533 -0.3133682013 0.06172062084 5.962428276e-39
0.1084904969 -0.3075194359 -0.07497357577 5.962428276e-39
0.138809368 -0.3707476258 0.1099187285 5.962428276e-39
0.05309253559 -0.3489480019 0.2072491348 5.962428276e-39
0.03024898842 -0.3509010077 0.108188957 5.962428276e-39
-0.1033061296 -0.368330121 -0.01790849864 5.962428276e-39
-0.03258860111 -0.4022271037 0.01531653479 5.962428276e-39
-0.1569858044 -0.327860117 0.1282926053 5.962428276e-39
-0.1009605825 -0.3504446447 0.1969597042 5.962428276e-39
-0.007718026638 -0.3246541917 0.04345483333 5.962428276e-39
0.1600387841 -0.3701173961 0.1282158941 5.962428276e-39
-0.06923025846 -0.307467103 0.1024204195 5.962428276e-39
0.0464357473 -0.3268193603 -0.01273629069 5.962428276e-39
-0.05523702502 -0.3302249908 0.11959894 5.962428276e-39
-0.02761784941 -0.3166980147 0.03820249066 5.962428276e-39
-0.07693959773 -0.354119271 -0.09902554005 5.962428276e-39
0.03984390572 -0.3291255832 0.02547553927 5.962428276e-39
0.1571463794 -0.3935596943 0.1563800275 5.962428276e-39
-0.003221396357 -0.3935678601 -0.08315152675 5.962428276e-39
-0.08066933602 -0.3411825895 0.1641788483 5.962428276e-39
-0.09158310294 -0.3497775197 0.1842227876 5.962428276e-39
-0.1334543079 -0.3647727966 0.04764744639 5.962428276e-39
0.04561908171 -0.3265066743 0.01244835556 5.962428276e-39
0.02081618086 -0.3278034329 0.005347438157 5.962428276e-39
-0.1273154616 -0.32770437 0.1105352789 5.962428276e-39
0.1635293663 -0.4047852457 0.1755872667 5.962428276e-39
0.03081755713 -0.3289445639 -0.005111090839 5.962428276e-39
0.1164454371 -0.4174396992 0.2095463574 5.962428276e-39
0.1000082195 -0.404096961 0.1610697806 5.962428276e-39
0.07815875113 -0.3087147474 -0.02712165564 5.962428276e-39
0.03925405815 -0.3612224758 0.2186097801 5.962428276e-39
0.1225138456 -0.2803033292 -0.05740273744 5.962428276e-39
-0.1027864665 -0.3372170925 0.07742236555 5.962428276e-39
-0.1417023391 -0.4061475992 0.1591044962 5.962428276e-39
0.110606432 -0.3186295033 -0.08393303305 5.962428276e-39
0.104216516 -0.3615964651 0.2528064251 5.962428276e-39
0.009498041123 -0.3319609761 0.009151875973 5.962428276e-39
0.05467721447 -0.3489232063 -0.03995513916 5.962428276e-39
-0.1203545332 -0.3821846843 0.07111638784 5.962428276e-39
0.0356596224 -0.3664102554 -0.03294470161 5.962428276e-39
0.1007669866 -0.3826572597 0.1205520183 5.962428276e-39
-0.09975554049 -0.3303720951 0.192730695 5.962428276e-39
-0.05505046993 -0.325905323 0.05853120983 5.962428276e-39
0.1372436881 -0.3611933887 0.09470624477 5.962428276e-39
0.08355894685 -0.3970499635 0.1553758681 5.962428276e-39
-0.06033217534 -0.3511625528 0.1952899992 5.962428276e-39
-0.07354585826 -0.3868270814 0.09780333936 5.962428276e-39
0.003436665982 -0.3870378435 -0.01019386947 5.962428276e-39
0.1440716833 -0.4201247096 0.2295353115 5.962428276e-39
-0.1060125977 -0.3705028892 -0.003320097923 5.962428276e-39
-0.06194452569 -0.3713295758 0.09600409865 5.962428276e-39
-0.0613764599 -0.3630226851 0.01118458807 5.962428276e-39
-0.08197744191 -0.3460998833 0.1859291345 5.962428276e-39
0.113090694 -0.3646756709 0.145809114 5.962428276e-39
0.1183369905 -0.2963014841 -0.01109095663 5.962428276e-39
0.01503914967 -0.3432077169 0.1991007626 5.962428276e-39
-0.05936295539 -0.337084949 0.1589736789 5.962428276e-39
-0.1172869653 -0.3919643164 0.1743114591 5.962428276e-39
-0.1029720679 -0.4007885754 0.1029846817 5.962428276e-39
-0.130287528 -0.4039951265 0.1687657386 5.962428276e-39
-0.03967040405 -0.3146433234 0.1742707491 5.962428276e-39
0.1008150876 -0.3473082185 -0.08773488551 5.962428276e-39
0.04369895533 -0.3837580979 0.1611572802 5.962428276e-39
0.0663639605 -0.3740350008 -0.06349220127 5.962428276e-39
0.1469837725 -0.3691241145 0.2253297567 5.962428276e-39
-0.01000984013 -0.360057652 0.02390240505 5.962428276e-39
-0.01449417695 -0.3456856012 0.03783409297 5.962428276e-39
-0.08154076338 -0.3420523405 0.1664923728 5.962428276e-39
-0.02937075123 -0.3177989423 0.1754875779 5.962428276e-39
-0.09418541193 -0.3623902202 0.01785819232 5.962428276e-39
-0.1101334989 -0.3969786763 0.09191747755 5.962428276e-39
-0.1764364541 -0.357049942 0.08541669697 5.962428276e-39
0.1271106899 -0.276286602 -0.0555081591 5.962428276e-39
-0.0432475023 -0.326997757 0.1096573472 5.962428276e-39
-0.1200858951 -0.3170685768 0.1509390771 5.962428276e-39
0.1194418669 -0.3910823464 0.129666239 5.962428276e-39
0.1248598546 -0.3699820638 0.1796084791 5.962428276e-39
-0.06251230836 -0.2999120355 0.1059161872 5.962428276e-39
-0.07145155221 -0.3775984347 0.1048265845 5.962428276e-39
0.1303654462 -0.3863543272 0.1238058135 5.962428276e-39
0.09180957079 -0.3711373806 0.09997776151 5.962428276e-39
0.1512393206 -0.4284365177 0.2020561993 5.962428276e-39
-0.1661032587 -0.3203991055 -0.04386432469 5.962428276e-39
-0.0113896057 -0.3991013765 -0.001950912178 5.962428276e-39
-0.1127886027 -0.3446951509 -0.08066082746 5.962428276e-39
-0.1858242154 -0.3372780383 0.06360592693 5.962428276e-39
0.1144245714 -0.2935282588 -0.07243841141 5.962428276e-39
0.002992779016 -0.3258452713 0.07261455059 5.962428276e-39
0.07084001601 -0.375159353 -0.06865287572 5.962428276e-39
-0.152010411 -0.3861096501 0.1488655508 5.962428276e-39
-0.1401465982 -0.3548836112 0.02482209355 5.962428276e-39
0.1069485843 -0.3664766252 0.2054664493 5.962428276e-39
0.007310893387 -0.3908522725 -0.09266933054 5.962428276e-39
-0.08425516635 -0.3874854147 0.02063640952 5.962428276e-39
0.1210748106 -0.395197928 0.1361752152 5.962428276e-39
-0.1521739513 -0.3950712085 0.1161931902 5.962428276e-39
0.04541408643 -0.380636245 -0.1167994067 5.962428276e-39
0.1317413151 -0.3612616658 0.09085152298 5.962428276e-39
-0.1291740239 -0.3987440467 0.1124557108 5.962428276e-39
0.05488472804 -0.3548715711 0.09013535827 5.962428276e-39
-0.0381475836 -0.3308686614 0.08350853622 5.962428276e-39
0.05310127512 -0.3818866014 -0.1120520309 5.962428276e-39
-0.05037533119 -0.2956053019 0.1079838872 5.962428276e-39
0.02630120888 -0.3683655262 0.210001111 5.962428276e-39
0.1625470817 -0.3976902068 0.1668426096 5.962428276e-39
0.0205992721 -0.3754953742 0.167801559 5.962428276e-39
-0.1210727021 -0.3270251751 0.11359182 5.962428276e-39
0.116119653 -0.381477654 0.1153132617 5.962428276e-39
-0.09085531533 -0.3492366672 0.1937316358 5.962428276e-39
-0.08065924048 -0.3486374617 0.04926054925 5.962428276e-39
-0.1449932158 -0.3558807969 0.16803509 5.962428276e-39
-0.0335278362 -0.3954017162 -0.03189986944 5.962428276e-39
0.05038845912 -0.3877567053 0.1618107259 5.962428276e-39
0.04045660421 -0.3433845937 0.0737894997 5.962428276e-39
-0.06330342591 -0.353358984 -0.1105858013 5.962428276e-39
-0.01668170094 -0.3476047218 0.2017493546 5.962428276e-39
0.06073496863 -0.3507890701 -0.04647485167 5.962428276e-39
-0.09676612914 -0.4012869596 0.09451936185 5.962428276e-39
0.01966376975 -0.3200707436 0.07190514356 5.962428276e-39
0.1468790025 -0.3643804789 0.2409293652 5.962428276e-39
0.05312728509 -0.3751372397 0.132573396 5.962428276e-39
0.1536637098 -0.3640370369 0.1134288311 5.962428276e-39
-0.07863605022 -0.3630977273 -0.07484851032 5.962428276e-39
-0.1527410299 -0.3210130334 0.1210704744 5.962428276e-39
-0.130304873 -0.3274041712 0.1069573462 5.962428276e-39
0.09425880015 -0.3621467352 0.2181125879 5.962428276e-39
0.1598429233 -0.3043202758 0.02942664921 5.962428276e-39
0.0824214071 -0.3538863063 0.07048182189 5.962428276e-39
0.1612886637 -0.2847909629 -0.0004809945822 5.962428276e-39
0.09935197234 -0.3116106093 -0.06659949571 5.962428276e-39
0.08459888399 -0.3583585024 0.1677317917 5.962428276e-39
0.1111584008 -0.3644900322 0.149785012 5.962428276e-39
-0.03266001493 -0.3273224235 0.08198046684 5.962428276e-39
0.1429551989 -0.3352782726 0.06599079072 5.962428276e-39
0.01964547113 -0.3346670866 0.08055700362 5.962428276e-39
0.1312983632 -0.2736277282 -0.04850085825 5.962428276e-39
-0.009313862771 -0.3700941205 0.2012552619 5.962428276e-39
0.07348288596 -0.3791612387 0.1289165914 5.962428276e-39
-0.1060429215 -0.3996062875 0.1217225641 5.962428276e-39
0.0556816943 -0.3475627303 -0.04004538059 5.962428276e-39
-0.154055059 -0.3329373598 -0.02925942838 5.962428276e-39
0.137856558 -0.42758286 0.2057773471 5.962428276e-39
-0.02386646718 -0.326171279 0.1068568826 5.962428276e-39
0.09023495018 -0.3542413116 0.1236293688 5.962428276e-39
0.0919598937 -0.4006412923 0.1579447389 5.962428276e-39
-0.0871449858 -0.3798530698 -0.00268997252 5.962428276e-39
0.02732656524 -0.3325402141 0.1363423765 5.962428276e-39
-0.1519120187 -0.336956799 0.1374293268 5.962428276e-39
0.06120653078 -0.3527908325 0.1973316967 5.962428276e-39
0.1167987883 -0.2886178792 -0.02937446535 5.962428276e-39
-0.1060831845 -0.3465873599 0.0504613854 5.962428276e-39
0.02040661499 -0.3332361579 0.07275277376 5.962428276e-39
-0.03487931192 -0.3013808727 0.08643401414 5.962428276e-39
-0.1042187512 -0.3257390261 0.1870295107 5.962428276e-39
-0.02484855428 -0.3277558386 0.06495061517 5.962428276e-39
-0.01626355201 -0.3994413316 -0.0394115448 5.962428276e-39
-0.009501382709 -0.3103074431 0.05842339247 5.962428276e-39
-0.1174010932 -0.3497712612 -0.05758208781 5.962428276e-39
-0.1465254277 -0.3976605833 0.1405181736 5.962428276e-39
0.06871660054 -0.3804590106 -0.1032380536 5.962428276e-39
-0.01157613844 -0.3962568939 -0.05870942026 5.962428276e-39
0.02002144232 -0.3908900619 -0.0966854319 5.962428276e-39
-0.09207227081 -0.3129890263 0.1812626272 5.962428276e-39
-0.1412015408 -0.3228167892 0.1131777018 5.962428276e-39
-0.08237294108 -0.3426667452 0.1675665081 5.962428276e-39
-0.08391469717 -0.3609719276 0.1462625861 5.962428276e-39
0.07188738883 -0.3551380932 0.2192663252 5.962428276e-39
0.1463140547 -0.3721726835 0.1189898401 5.962428276e-39
-0.03333666176 -0.3470391631 0.06527388096 5.962428276e-39
-0.0136667341 -0.3645185828 0.02687142044 5.962428276e-39
0.04307124391 -0.341781497 0.1534247547 5.962428276e-39
0.08458647132 -0.3599777818 0.2399532497 5.962428276e-39
-0.1356406063 -0.4048109949 0.1413564086 5.962428276e-39
-0.0587214604 -0.3583685458 0.1008853316 5.962428276e-39
0.1041409671 -0.4131610096 0.1810271144 5.962428276e-39
0.01274618134 -0.3458375931 0.1166344285 5.962428276e-39
0.02170227095 -0.3353615403 0.07887774706 5.962428276e-39
-0.1030926183 -0.3567589819 0.02427069843 5.962428276e-39
-0.1168078184 -0.359600842 -0.0230845511 5.962428276e-39
0.02863329276 -0.3689139187 0.2103631496 5.962428276e-39
0.03658491746 -0.3923465014 -0.05607049912 5.962428276e-39
0.009143207222 -0.3284571469 0.1785173416 5.962428276e-39
0.01893467829 -0.3162529171 0.04434709996 5.962428276e-39
-0.0931827426 -0.3505816162 0.184079349 5.962428276e-39
-0.1746700406 -0.3691997528 0.09801642597 5.962428276e-39
-0.1774208993 -0.3451277912 0.0699948594 5.962428276e-39
-0.1515727639 -0.3873240948 0.1435908973 5.962428276e-39
-0.1146853864 -0.3333465457 0.09108893573 5.962428276e-39
-0.02775803208 -0.3059588969 0.1196654141 5.962428276e-39
0.1348645389 -0.3891066909 0.1299940497 5.962428276e-39
0.03003269807 -0.3926500082 -0.09378685802 5.962428276e-39
-0.03607198596 -0.4014577866 0.02512609959 5.962428276e-39
-0.09079171717 -0.3449860215 -0.1045092866 5.962428276e-39
0.03162000701 -0.3269769847 0.01743061468 5.962428276e-39
-0.1055952683 -0.394263804 0.07558185607 5.962428276e-39
-0.182043016 -0.3302818239 0.04219878837 5.962428276e-39
-0.1758647412 -0.3220639527 0.1123995632 5.962428276e-39
0.05052470788 -0.349704951 0.2117343545 5.962428276e-39
0.02848845348 -0.3969419301 -0.06204286963 5.962428276e-39
0.1536420286 -0.3161609173 0.04397840798 5.962428276e-39
0.07386226952 -0.3643213511 0.09765017778 5.962428276e-39
0.01971821114 -0.3926944137 -0.093851991 5.962428276e-39
0.1110165119 -0.3244384527 0.03294047713 5.962428276e-39
0.05507550016 -0.3923157454 0.1663009524 5.962428276e-39
0.1242925227 -0.3877530694 0.1251550317 5.962428276e-39
-0.0561786294 -0.3550147116 0.01777242497 5.962428276e-39
-0.1611418873 -0.3847278357 0.1077336073 5.962428276e-39
-0.005492478609 -0.3838174045 0.003231592476 5.962428276e-39
0.1525453627 -0.429156363 0.2073972523 5.962428276e-39
-0.09124983847 -0.4016847908 0.08237570524 5.962428276e-39
-0.1264545619 -0.3419082761 0.1817159355 5.962428276e-39
-0.07981663942 -0.3405435681 0.1630027592 5.962428276e-39
-0.1556109786 -0.3487221897 0.1360370517 5.962428276e-39
-0.005263794214 -0.3123311996 0.07710867375 5.962428276e-39
0.004160869867 -0.3245733976 0.02370959893 5.962428276e-39
0.09093901515 -0.3692581058 0.2462302148 5.962428276e-39
-0.1153268665 -0.3741555214 0.03623681515 5.962428276e-39
0.1220358759 -0.3845210373 0.2567451 5.962428276e-39
0.09719803929 -0.3362616897 0.04544880986 5.962428276e-39
0.1685453951 -0.3450815678 0.09800463915 5.962428276e-39
0.1152539849 -0.3316128254 0.04476933926 5.962428276e-39
0.07235978544 -0.4008176923 0.2039267719 5.962428276e-39
-0.1247616708 -0.3357932866 0.05314145237 5.962428276e-39
-0.1843632311 -0.3171675205 -0.005954913795 5.962428276e-39
-0.04783614725 -0.3977900147 0.04813801125 5.962428276e-39
0.08346615732 -0.3505234718 0.1154964864 5.962428276e-39
-0.0860049352 -0.3698693514 -0.04473854601 5.962428276e-39
-0.07441425323 -0.3668260574 0.01294751838 5.962428276e-39
-0.1536533833 -0.36439538 0.1578983516 5.962428276e-39
-0.09725762159 -0.3727045357 -0.01352076232 5.962428276e-39
-0.06818845868 -0.3366598189 0.1969760954 5.962428276e-39
-0.03244963288 -0.3862852156 -0.06517814845 5.962428276e-39
0.08837945759 -0.3392904699 -0.06985781342 5.962428276e-39
-0.1111821532 -0.387388289 0.1677756459 5.962428276e-39
-0.02742389962 -0.347952038 0.1581888199 5.962428276e-39
-0.096294716 -0.3030788302 0.1640878022 5.962428276e-39
-0.09027477354 -0.3057042956 0.1729916334 5.962428276e-39
-0.05820551887 -0.299951911 0.09936287999 5.962428276e-39
-0.1097291335 -0.3341542482 0.08756235242 5.962428276e-39
-0.007428146899 -0.3721183836 0.1907355189 5.962428276e-39
0.08543634415 -0.3048442006 -0.03266474605 5.962428276e-39
-0.1601973027 -0.3823585212 0.1208240837 5.962428276e-39
-0.1353250742 -0.3511300087 -0.006251230836 5.962428276e-39
-0.1844412982 -0.3698910177 0.1217352897 1.184631237e-38
0.001254983246 -0.3596003652 0.2301074564 1.184631237e-38
-0.2120506167 -0.3105564713 0.04225907475 1.184631237e-38
-0.05693846196 -0.455170989 0.06998344511 1.184631237e-38
0.1797593385 -0.3961111307 0.05530089885 1.184631237e-38
0.1336594075 -0.3781810403 -0.01057291031 1.184631237e-38
-0.09875701368 -0.4400380254 -0.05090289563 1.184631237e-38
-0.04860396311 -0.360794425 0.1712871939 1.184631237e-38
-0.01387227327 -0.3855351806 0.08988855779 1.184631237e-38
0.1178867668 -0.4210246801 0.04624291509 1.184631237e-38
0.07442823052 -0.4515682459 -0.02442518622 1.184631237e-38
0.02027029172 -0.2180660665 0.1761372983 1.184631237e-38
0.07529848814 -0.214345932 0.1221352145 1.184631237e-38
0.04346956685 -0.1966444999 -0.1009882018 1.184631237e-38
0.135634765 -0.4022840858 -0.08231990784 1.184631237e-38
0.1049618721 -0.4565571547 0.1441152096 1.184631237e-38
0.09393544495 -0.2113294601 0.08496965468 1.184631237e-38
-0.03699506819 -0.3524934947 0.2149618864 1.184631237e-38
-0.1146062016 -0.43999511 -0.01332259178 1.184631237e-38
-0.07740876079 -0.4542229772 0.07342906296 1.184631237e-38
-0.1599110812 -0.2326333523 -0.0300700292 1.184631237e-38
-0.1173923612 -0.1717960685 0.1177603006 1.184631237e-38
-0.04756716639 -0.3788189888 0.1359245479 1.184631237e-38
0.1344351918 -0.4599432945 0.1487697363 1.184631237e-38
-0.0392944254 -0.2121185809 -0.04526042193 1.184631237e-38
0.02872852609 -0.390326798 0.0304085426 1.184631237e-38
-0.1154403687 -0.3020456433 0.1956455112 1.184631237e-38
0.02364989743 -0.2427572608 -0.1130628064 1.184631237e-38
-0.09293603897 -0.4171569943 -0.09859444946 1.184631237e-38
0.01315205172 -0.3637417555 0.07672936469 1.184631237e-38
0.1017173529 -0.4495624304 0.2050674856 1.184631237e-38
-0.02423731238 -0.4490927458 -0.06070368737 1.184631237e-38
-0.1315809339 -0.2108484954 0.1677670479 1.184631237e-38
-0.1262238026 -0.1871781051 0.1437106729 1.184631237e-38
-0.1728804708 -0.4282870293 0.06426062435 1.184631237e-38
0.02044767514 -0.3653405309 0.05388540775 1.184631237e-38
-0.0007106997073 -0.3829630613 0.07195700705 1.184631237e-38
-0.1126153618 -0.2456289083 -0.04814124852 1.184631237e-38
0.09894497693 -0.4226825237 0.2239769995 1.184631237e-38
0.01206353679 -0.3894586861 0.0541340299 1.184631237e-38
0.05331967399 -0.2558020949 0.2072395086 1.184631237e-38
0.001763783395 -0.328363955 0.2359873652 1.184631237e-38
0.08747620881 -0.3916141987 -0.02650154382 1.184631237e-38
0.06459805369 -0.2026294172 0.1128359735 1.184631237e-38
0.1380928159 -0.3526396453 -0.06998854131 1.184631237e-38
-0.08580436558 -0.273604691 -0.08054450899 1.184631237e-38
-0.1734481454 -0.2650774419 0.09171031415 1.184631237e-38
0.1341332495 -0.4164184332 -0.09599424154 1.184631237e-38
0.1362559646 -0.2779511213 0.1528209895 1.184631237e-38
-0.01560977101 -0.3983861208 0.09380529076 1.184631237e-38
0.04513447359 -0.4420178533 0.01179414243 1.184631237e-38
-0.178358525 -0.4235622287 0.1051015854 1.184631237e-38
0.01651092246 -0.454759717 0.0404833965 1.184631237e-38
0.03521375731 -0.4317619801 0.1996264309 1.184631237e-38
-0.09475433826 -0.160564065 0.07441893965 1.184631237e-38
-0.01431548968 -0.2552477419 -0.09394716471 1.184631237e-38
0.1120216101 -0.454443872 0.1219667941 1.184631237e-38
-0.01163916662 -0.3120061159 0.2328377664 1.184631237e-38
-0.074292548 -0.1408393234 0.1232136488 1.184631237e-38
-0.1381850988 -0.4169684052 0.1910137534 1.184631237e-38
-0.03247439116 -0.4540439844 0.066374138 1.184631237e-38
0.08972582221 -0.2825720608 0.2228080332 1.184631237e-38
-0.1210209131 -0.4398744702 0.002764306962 1.184631237e-38
-0.1223379821 -0.4253083467 0.1938742101 1.184631237e-38
-0.02503602207 -0.3248975277 -0.1459459662 1.184631237e-38
-0.1140826344 -0.1648308933 0.1346134245 1.184631237e-38
0.1629863083 -0.2493315786 0.01982980967 1.184631237e-38
0.1284553558 -0.3775623441 -0.01752928644 1.184631237e-38
0.0537490733 -0.1824742705 0.07746559381 1.184631237e-38
-0.1083668768 -0.1904842556 0.1680091172 1.184631237e-38
-0.1535508782 -0.2619555891 0.1509751081 1.184631237e-38
-0.17379269 -0.3854485452 0.1482398212 1.184631237e-38
-0.1636376381 -0.2670468092 0.1263031662 1.184631237e-38
-0.0105917193 -0.1415125728 0.0335794948 1.184631237e-38
0.1129077375 -0.4523763657 -0.103914313 1.184631237e-38
-0.03690373152 -0.2533494234 0.2164900899 1.184631237e-38
0.04884077236 -0.4624414444 -0.02616740018 1.184631237e-38
0.185508728 -0.3079561591 0.1184890121 1.184631237e-38
-0.04561405256 -0.4437198639 0.1230110675 1.184631237e-38
-0.05181828514 -0.4223899245 0.1359935105 1.184631237e-38
-0.1305998266 -0.2072094977 0.1648059189 1.184631237e-38
-0.001422859728 -0.1460769475 0.03907097504 1.184631237e-38
-0.08557416499 -0.324863553 -0.150351733 1.184631237e-38
-0.1810697913 -0.3925727606 0.1270451248 1.184631237e-38
-0.2153043598 -0.3493484259 0.03999089077 1.184631237e-38
0.1403834671 -0.3435078561 -0.07007602602 1.184631237e-38
-0.1008483022 -0.3165072203 0.1967401505 1.184631237e-38
-0.09139280021 -0.2158028036 0.0040589571 1.184631237e-38
0.04917375371 -0.4405419827 0.2030367553 1.184631237e-38
0.1696779132 -0.2689864635 0.0564455986 1.184631237e-38
-0.03569100052 -0.1966902018 -0.04196219891 1.184631237e-38
-0.1385144144 -0.4034101367 0.196439147 1.184631237e-38
0.0754545778 -0.4520825148 0.1803698987 1.184631237e-38
0.0410890542 -0.4298068881 0.1664405167 1.184631237e-38
0.06574749947 -0.3258986473 0.2419002652 1.184631237e-38
-0.1720610857 -0.3609188199 -0.05169598013 1.184631237e-38
-0.05419526994 -0.4550386071 0.05992634594 1.184631237e-38
-0.1245049238 -0.3991619349 -0.08407152444 1.184631237e-38
-0.2127903402 -0.3917896152 0.03360128775 1.184631237e-38
0.1396362633 -0.3798710108 -0.08045118302 1.184631237e-38
-0.04617011547 -0.3618176281 0.1726126969 1.184631237e-38
0.05442373827 -0.4623849988 -0.03925137222 1.184631237e-38
-0.1782484353 -0.2489269376 0.04147409648 1.184631237e-38
-0.1609799266 -0.4257404804 0.02450788021 1.184631237e-38
0.1474105865 -0.2599892318 0.0864848569 1.184631237e-38
-0.01429335773 -0.4489061236 -0.07410997897 1.184631237e-38
-0.1195246801 -0.4454156756 0.05680195987 1.184631237e-38
0.04495150223 -0.4321148396 0.2123576403 1.184631237e-38
-0.2003598213 -0.2884190083 0.0444162935 1.184631237e-38
0.03525047377 -0.4483529329 -0.1187736318 1.184631237e-38
0.1042957008 -0.4509872198 0.1212905049 1.184631237e-38
-0.1936774105 -0.3291853666 0.09235326946 1.184631237e-38
0.00530032441 -0.400741756 0.174111858 1.184631237e-38
-0.08765915781 -0.3839405179 0.1837510467 1.184631237e-38
0.04258399829 -0.4512257576 -0.112726368 1.184631237e-38
-0.0276548937 -0.1809133291 -0.04297529906 1.184631237e-38
0.03103287891 -0.1921685338 0.1281827092 1.184631237e-38
0.1043379456 -0.4418700933 0.214653194 1.184631237e-38
-0.04623090848 -0.2248331457 0.1987542212 1.184631237e-38
-0.1030819565 -0.243273586 -0.04248739779 1.184631237e-38
0.05899688974 -0.4467453957 0.1762314141 1.184631237e-38
-0.1139028892 -0.1649649739 0.1246173233 1.184631237e-38
-0.05619738996 -0.2993714511 -0.1071686372 1.184631237e-38
-0.133780241 -0.2123949081 0.02698819712 1.184631237e-38
-0.06254396588 -0.4518936872 0.00347507745 1.184631237e-38
-0.03292246163 -0.2594883144 0.2197864652 1.184631237e-38
-8.903443813e-05 -0.3856974244 0.1525607556 1.184631237e-38
-0.0802000612 -0.4151470065 -0.1119642183 1.184631237e-38
-0.004745453596 -0.160701856 0.09555769712 1.184631237e-38
0.05610859022 -0.4460445642 0.0002209544182 1.184631237e-38
-0.1695752442 -0.4050447643 0.1548439264 1.184631237e-38
0.06602820754 -0.1895029843 -0.08743388206 1.184631237e-38
0.1846264899 -0.3156448007 0.1377630234 1.184631237e-38
-0.02655060962 -0.3306041956 0.2250768244 1.184631237e-38
0.1325078011 -0.4601657391 0.1323834211 1.184631237e-38
-0.08967459202 -0.4380593896 -0.07184516639 1.184631237e-38
-0.1528898478 -0.2372994423 -0.03949370235 1.184631237e-38
-0.1182495207 -0.2483658791 -0.05260685831 1.184631237e-38
0.1321816891 -0.2521380186 0.1021033823 1.184631237e-38
0.1685091406 -0.3856916428 0.03429118916 1.184631237e-38
0.04438215867 -0.4112088084 0.1207333356 1.184631237e-38
0.1725734323 -0.3476931453 -0.002492822707 1.184631237e-38
0.1273410022 -0.4127943814 -0.071901761 1.184631237e-38
0.1321746856 -0.2277518213 0.04063356295 1.184631237e-38
0.1605328023 -0.2483218163 0.02367227152 1.184631237e-38
-0.0794435069 -0.3727900684 0.1803758591 1.184631237e-38
0.1422281116 -0.4427002668 0.0717318356 1.184631237e-38
-0.03328853101 -0.3711377382 0.1843229979 1.184631237e-38
0.1435133219 -0.3377506733 -0.06133470684 1.184631237e-38
-0.03117901273 -0.1664789766 0.1410453022 1.184631237e-38
-0.005064159632 -0.3731499314 0.2236139774 1.184631237e-38
-0.1692619026 -0.3572933674 0.1599894315 1.184631237e-38
0.04719204828 -0.4403842092 0.009850755334 1.184631237e-38
-0.1599189192 -0.3871088326 -0.0370734334 1.184631237e-38
0.05666492507 -0.2948502302 0.2328273058 1.184631237e-38
-0.07945379615 -0.3140395284 0.2020896077 1.184631237e-38
0.1418076158 -0.2255640328 -0.00657248497 1.184631237e-38
-0.005180083215 -0.3200793266 0.2345509231 1.184631237e-38
-0.1079408079 -0.445027113 0.01679532975 1.184631237e-38
0.07823452353 -0.1786293387 0.001255787909 1.184631237e-38
-0.150559932 -0.2240629941 -0.01215517521 1.184631237e-38
0.1049161553 -0.2153190225 0.07190993428 1.184631237e-38
0.1274028569 -0.3645225763 -0.03971860558 1.184631237e-38
-0.09727001935 -0.2936486006 -0.1130980775 1.184631237e-38
-0.02698355168 -0.3714202046 0.1676411033 1.184631237e-38
-0.00496109575 -0.1918284297 -0.06847206503 1.184631237e-38
-0.09365618229 -0.171579957 0.06082916632 1.184631237e-38
-0.06550828367 -0.3850162327 0.1619013846 1.184631237e-38
-0.05071375519 -0.4523530006 0.002524264157 1.184631237e-38
0.03153965995 -0.2071595192 -0.1007651612 1.184631237e-38
-0.1237298548 -0.413438201 -0.06128314883 1.184631237e-38
-0.1869135201 -0.2719227672 0.05634722859 1.184631237e-38
0.06052437797 -0.4565008283 -0.1036949977 1.184631237e-38
-0.04176430032 -0.4509025812 -0.02235428989 1.184631237e-38
-0.002306263894 -0.4495642781 -0.07947004586 1.184631237e-38
-0.07447947562 -0.1604005247 0.04225856438 1.184631237e-38
-0.1329081953 -0.2433445752 -0.0464413166 1.184631237e-38
-0.1305729747 -0.2063741833 0.1636479199 1.184631237e-38
-0.1451224536 -0.3071191311 0.1898019016 1.184631237e-38
0.1096473932 -0.2323100567 0.1009593457 1.184631237e-38
0.1138217151 -0.4590088725 0.1502024084 1.184631237e-38
-0.07819569856 -0.425739944 0.1652145684 1.184631237e-38
-0.04929926619 -0.4460895061 0.1246939078 1.184631237e-38
0.09343066812 -0.1925810575 0.02433206514 1.184631237e-38
0.1173057705 -0.2524064183 0.1323481202 1.184631237e-38
-0.1856202185 -0.2925935388 0.09608694166 1.184631237e-38
-0.1198029667 -0.4090468287 0.1979383528 1.184631237e-38
0.01001931354 -0.2832491994 0.2300649583 1.184631237e-38
-0.05370239913 -0.3208591342 0.2151787877 1.184631237e-38
-0.02903939039 -0.3735969663 0.1791134775 1.184631237e-38
-0.09819726646 -0.3174052536 -0.1457607448 1.184631237e-38
-0.1248909086 -0.4343160391 -0.02399339527 1.184631237e-38
0.03402877972 -0.1939397603 0.1286994964 1.184631237e-38
0.005787629634 -0.4556028843 -0.008195243776 1.184631237e-38
0.05100880936 -0.1730476618 0.05261769146 1.184631237e-38
0.05939235911 -0.2113054395 -0.1175861284 1.184631237e-38
-0.1276994944 -0.19059138 0.1446250379 1.184631237e-38
-0.2179863304 -0.3110212088 0.03593405709 1.184631237e-38
-0.2094269395 -0.3880271912 0.04131857678 1.184631237e-38
-0.1830659658 -0.2556536198 0.03870832548 1.184631237e-38
-0.09926228225 -0.2625281215 -0.06804738194 1.184631237e-38
0.001612097025 -0.1555081755 -0.03894985467 1.184631237e-38
0.07772572339 -0.4524478912 0.1882112324 1.184631237e-38
0.00747352466 -0.4510293007 -0.07519508153 1.184631237e-38
-0.08297462761 -0.4543741345 0.08791676164 1.184631237e-38
-0.1069621742 -0.4011263251 -0.1072228774 1.184631237e-38
0.004241611809 -0.3626139462 0.06950054318 1.184631237e-38
-0.1723109931 -0.4248232841 0.1253620088 1.184631237e-38
-0.2026278675 -0.398653239 0.02376934513 1.184631237e-38
-0.1848860234 -0.2437734306 -0.04671670496 1.184631237e-38
0.08943679929 -0.210040912 0.09103501588 1.184631237e-38
-0.001729175448 -0.4541965723 -0.01684252918 1.184631237e-38
0.1607122868 -0.4105207622 0.04866197705 1.184631237e-38
0.02196067944 -0.4157322645 0.1743790805 1.184631237e-38
-0.002794012427 -0.44993788 -0.07474205643 1.184631237e-38
0.1098009795 -0.413927108 0.04049177095 1.184631237e-38
-0.02759791166 -0.25818187 0.2184016407 1.184631237e-38
0.06239598617 -0.4481421709 0.1897611618 1.184631237e-38
-0.01312786713 -0.3128810823 -0.1373047531 1.184631237e-38
-0.2092944086 -0.301477313 0.04348437116 1.184631237e-38
-0.04199938476 -0.4533165097 0.08805578947 1.184631237e-38
0.06958889961 -0.3176390529 0.2411668897 1.184631237e-38
-0.1655275375 -0.4239187241 0.149949044 1.184631237e-38
-0.1084633246 -0.1959326863 0.05667579919 1.184631237e-38
-0.1313765496 -0.2121932656 0.1689685881 1.184631237e-38
-0.168781504 -0.2289185375 -0.003929488361 1.184631237e-38
0.03537997231 -0.1826463789 -0.08549440652 1.184631237e-38
-0.028598601 -0.3800364137 0.1091139168 1.184631237e-38
0.1150572747 -0.2586119175 0.1514009833 1.184631237e-38
-0.1519689262 -0.4359527826 0.06109252572 1.184631237e-38
0.1255431026 -0.285812974 0.190879181 1.184631237e-38
0.07962201536 -0.410469234 0.06914388388 1.184631237e-38
0.1653792709 -0.4522771835 0.1024570465 1.184631237e-38
0.1091292948 -0.4224516749 0.05693869293 1.184631237e-38
0.02872681245 -0.2226923108 0.1773709059 1.184631237e-38
-0.1281423867 -0.2883781195 -0.1187594905 1.184631237e-38
-0.1964516044 -0.364646256 -0.01619348675 1.184631237e-38
-0.09746092558 -0.4510432482 0.1231348664 1.184631237e-38
0.1361583918 -0.2198787183 -0.01731032878 1.184631237e-38
-0.09459270537 -0.4426599741 -0.03831798583 1.184631237e-38
-0.05272237584 -0.3293501139 -0.1490569711 1.184631237e-38
-0.1577928364 -0.2268915921 0.0277162157 1.184631237e-38
-0.1103539616 -0.4420518279 -0.00647123903 1.184631237e-38
-0.05839254335 -0.1372727454 0.07914897054 1.184631237e-38
-0.05389352888 -0.4485519528 -0.04323077202 1.184631237e-38
0.1081411391 -0.4463983178 -0.06787542254 1.184631237e-38
-0.1548454165 -0.2740376294 0.1644090712 1.184631237e-38
-0.07966141403 -0.1998687088 0.1834816039 1.184631237e-38
-0.06897940487 -0.1813881695 0.01418030635 1.184631237e-38
-0.06826999784 -0.1657738686 0.02681078017 1.184631237e-38
-0.03106755763 -0.1987411529 -0.04934484512 1.184631237e-38
-0.0932508111 -0.2656679749 -0.07067049295 1.184631237e-38
-0.04569303244 -0.1717829555 0.159150809 1.184631237e-38
0.09943680465 -0.3940387964 -0.03776588291 1.184631237e-38
-0.1998115927 -0.2647433281 0.02332246304 1.184631237e-38
-0.145265162 -0.4267869592 -0.01115708798 1.184631237e-38
-0.1844412982 -0.3698910177 0.1217352897 1.771655483e-38
0.001254983246 -0.3596003652 0.2301074564 1.771655483e-38
-0.2120506167 -0.3105564713 0.04225907475 1.771655483e-38
-0.05693846196 -0.455170989 0.06998344511 1.771655483e-38
0.1797593385 -0.3961111307 0.05530089885 1.771655483e-38
0.1336594075 -0.3781810403 -0.01057291031 1.771655483e-38
-0.09875701368 -0.4400380254 -0.05090289563 1.771655483e-38
-0.04860396311 -0.360794425 0.1712871939 1.771655483e-38
-0.01387227327 -0.3855351806 0.08988855779 1.771655483e-38
0.1178867668 -0.4210246801 0.04624291509 1.771655483e-38
0.07442823052 -0.4515682459 -0.02442518622 1.771655483e-38
0.02027029172 -0.2180660665 0.1761372983 1.771655483e-38
0.07529848814 -0.214345932 0.1221352145 1.771655483e-38
0.04346956685 -0.1966444999 -0.1009882018 1.771655483e-38
0.135634765 -0.4022840858 -0.08231990784 1.771655483e-38
0.1049618721 -0.4565571547 0.1441152096 1.771655483e-38
0.09393544495 -0.2113294601 0.08496965468 1.771655483e-38
-0.03699506819 -0.3524934947 0.2149618864 1.771655483e-38
-0.1146062016 -0.43999511 -0.01332259178 1.771655483e-38
-0.07740876079 -0.4542229772 0.07342906296 1.771655483e-38
-0.1599110812 -0.2326333523 -0.0300700292 1.771655483e-38
-0.1173923612 -0.1717960685 0.1177603006 1.771655483e-38
-0.04756716639 -0.3788189888 0.1359245479 1.771655483e-38
0.1344351918 -0.4599432945 0.1487697363 1.771655483e-38
-0.0392944254 -0.2121185809 -0.04526042193 1.771655483e-38
0.02872852609 -0.390326798 0.0304085426 1.771655483e-38
-0.1154403687 -0.3020456433 0.1956455112 1.771655483e-38
0.02364989743 -0.2427572608 -0.1130628064 1.771655483e-38
-0.09293603897 -0.4171569943 -0.09859444946 1.771655483e-38
0.01315205172 -0.3637417555 0.07672936469 1.771655483e-38
0.1017173529 -0.4495624304 0.2050674856 1.771655483e-38
-0.02423731238 -0.4490927458 -0.06070368737 1.771655483e-38
-0.1315809339 -0.2108484954 0.1677670479 1.771655483e-38
-0.1262238026 -0.1871781051 0.1437106729 1.771655483e-38
-0.1728804708 -0.4282870293 0.06426062435 1.771655483e-38
0.02044767514 -0.3653405309 0.05388540775 1.771655483e-38
-0.0007106997073 -0.3829630613 0.07195700705 1.771655483e-38
-0.1126153618 -0.2456289083 -0.04814124852 1.771655483e-38
0.09894497693 -0.4226825237 0.2239769995 1.771655483e-38
0.01206353679 -0.3894586861 0.0541340299 1.771655483e-38
0.05331967399 -0.2558020949 0.2072395086 1.771655483e-38
0.001763783395 -0.328363955 0.2359873652 1.771655483e-38
0.08747620881 -0.3916141987 -0.02650154382 1.771655483e-38
0.06459805369 -0.2026294172 0.1128359735 1.771655483e-38
0.1380928159 -0.3526396453 -0.06998854131 1.771655483e-38
-0.08580436558 -0.273604691 -0.08054450899 1.771655483e-38
-0.1734481454 -0.2650774419 0.09171031415 1.771655483e-38
0.1341332495 -0.4164184332 -0.09599424154 1.771655483e-38
0.1362559646 -0.2779511213 0.1528209895 1.771655483e-38
-0.01560977101 -0.3983861208 0.09380529076 1.771655483e-38
0.04513447359 -0.4420178533 0.01179414243 1.771655483e-38
-0.178358525 -0.4235622287 0.1051015854 1.771655483e-38
0.01651092246 -0.454759717 0.0404833965 1.771655483e-38
0.03521375731 -0.4317619801 0.1996264309 1.771655483e-38
-0.09475433826 -0.160564065 0.07441893965 1.771655483e-38
-0.01431548968 -0.2552477419 -0.09394716471 1.771655483e-38
0.1120216101 -0.454443872 0.1219667941 1.771655483e-38
-0.01163916662 -0.3120061159 0.2328377664 1.771655483e-38
-0.074292548 -0.1408393234 0.1232136488 1.771655483e-38
-0.1381850988 -0.4169684052 0.1910137534 1.771655483e-38
-0.03247439116 -0.4540439844 0.066374138 1.771655483e-38
0.08972582221 -0.2825720608 0.2228080332 1.771655483e-38
-0.1210209131 -0.4398744702 0.002764306962 1.771655483e-38
-0.1223379821 -0.4253083467 0.1938742101 1.771655483e-38
-0.02503602207 -0.3248975277 -0.1459459662 1.771655483e-38
-0.1140826344 -0.1648308933 0.1346134245 1.771655483e-38
0.1629863083 -0.2493315786 0.01982980967 1.771655483e-38
0.1284553558 -0.3775623441 -0.01752928644 1.771655483e-38
0.0537490733 -0.1824742705 0.07746559381 1.771655483e-38
-0.1083668768 -0.1904842556 0.1680091172 1.771655483e-38
-0.1535508782 -0.2619555891 0.1509751081 1.771655483e-38
-0.17379269 -0.3854485452 0.1482398212 1.771655483e-38
-0.1636376381 -0.2670468092 0.1263031662 1.771655483e-38
-0.0105917193 -0.1415125728 0.0335794948 1.771655483e-38
0.1129077375 -0.4523763657 -0.103914313 1.771655483e-38
-0.03690373152 -0.2533494234 0.2164900899 1.771655483e-38
0.04884077236 -0.4624414444 -0.02616740018 1.771655483e-38
0.185508728 -0.3079561591 0.1184890121 1.771655483e-38
-0.04561405256 -0.4437198639 0.1230110675 1.771655483e-38
-0.05181828514 -0.4223899245 0.1359935105 1.771655483e-38
-0.1305998266 -0.2072094977 0.1648059189 1.771655483e-38
-0.001422859728 -0.1460769475 0.03907097504 1.771655483e-38
-0.08557416499 -0.324863553 -0.150351733 1.771655483e-38
-0.1810697913 -0.3925727606 0.1270451248 1.771655483e-38
-0.2153043598 -0.3493484259 0.03999089077 1.771655483e-38
0.1403834671 -0.3435078561 -0.07007602602 1.771655483e-38
-0.1008483022 -0.3165072203 0.1967401505 1.771655483e-38
-0.09139280021 -0.2158028036 0.0040589571 1.771655483e-38
0.04917375371 -0.4405419827 0.2030367553 1.771655483e-38
0.1696779132 -0.2689864635 0.0564455986 1.771655483e-38
-0.03569100052 -0.1966902018 -0.04196219891 1.771655483e-38
-0.1385144144 -0.4034101367 0.196439147 1.771655483e-38
0.0754545778 -0.4520825148 0.1803698987 1.771655483e-38
0.0410890542 -0.4298068881 0.1664405167 1.771655483e-38
0.06574749947 -0.3258986473 0.2419002652 1.771655483e-38
-0.1720610857 -0.3609188199 -0.05169598013 1.771655483e-38
-0.05419526994 -0.4550386071 0.05992634594 1.771655483e-38
-0.1245049238 -0.3991619349 -0.08407152444 1.771655483e-38
-0.2127903402 -0.3917896152 0.03360128775 1.771655483e-38
0.1396362633 -0.3798710108 -0.08045118302 1.771655483e-38
-0.04617011547 -0.3618176281 0.1726126969 1.771655483e-38
0.05442373827 -0.4623849988 -0.03925137222 1.771655483e-38
-0.1782484353 -0.2489269376 0.04147409648 1.771655483e-38
-0.1609799266 -0.4257404804 0.02450788021 1.771655483e-38
0.1474105865 -0.2599892318 0.0864848569 1.771655483e-38
-0.01429335773 -0.4489061236 -0.07410997897 1.771655483e-38
-0.1195246801 -0.4454156756 0.05680195987 1.771655483e-38
0.04495150223 -0.4321148396 0.2123576403 1.771655483e-38
-0.2003598213 -0.2884190083 0.0444162935 1.771655483e-38
0.03525047377 -0.4483529329 -0.1187736318 1.771655483e-38
0.1042957008 -0.4509872198 0.1212905049 1.771655483e-38
-0.1936774105 -0.3291853666 0.09235326946 1.771655483e-38
0.00530032441 -0.400741756 0.174111858 1.771655483e-38
-0.08765915781 -0.3839405179 0.1837510467 1.771655483e-38
0.04258399829 -0.4512257576 -0.112726368 1.771655483e-38
-0.0276548937 -0.1809133291 -0.04297529906 1.771655483e-38
0.03103287891 -0.1921685338 0.1281827092 1.771655483e-38
0.1043379456 -0.4418700933 0.214653194 1.771655483e-38
-0.04623090848 -0.2248331457 0.1987542212 1.771655483e-38
-0.1030819565 -0.243273586 -0.04248739779 1.771655483e-38
0.05899688974 -0.4467453957 0.1762314141 1.771655483e-38
-0.1139028892 -0.1649649739 0.1246173233 1.771655483e-38
-0.05619738996 -0.2993714511 -0.1071686372 1.771655483e-38
-0.133780241 -0.2123949081 0.02698819712 1.771655483e-38
-0.06254396588 -0.4518936872 0.00347507745 1.771655483e-38
-0.03292246163 -0.2594883144 0.2197864652 1.771655483e-38
-8.903443813e-05 -0.3856974244 0.1525607556 1.771655483e-38
-0.0802000612 -0.4151470065 -0.1119642183 1.771655483e-38
-0.004745453596 -0.160701856 0.09555769712 1.771655483e-38
0.05610859022 -0.4460445642 0.0002209544182 1.771655483e-38
-0.1695752442 -0.4050447643 0.1548439264 1.771655483e-38
0.06602820754 -0.1895029843 -0.08743388206 1.771655483e-38
0.1846264899 -0.3156448007 0.1377630234 1.771655483e-38
-0.02655060962 -0.3306041956 0.2250768244 1.771655483e-38
0.1325078011 -0.4601657391 0.1323834211 1.771655483e-38
-0.08967459202 -0.4380593896 -0.07184516639 1.771655483e-38
-0.1528898478 -0.2372994423 -0.03949370235 1.771655483e-38
-0.1182495207 -0.2483658791 -0.05260685831 1.771655483e-38
0.1321816891 -0.2521380186 0.1021033823 1.771655483e-38
0.1685091406 -0.3856916428 0.03429118916 1.771655483e-38
0.04438215867 -0.4112088084 0.1207333356 1.771655483e-38
0.1725734323 -0.3476931453 -0.002492822707 1.771655483e-38
0.1273410022 -0.4127943814 -0.071901761 1.771655483e-38
0.1321746856 -0.2277518213 0.04063356295 1.771655483e-38
0.1605328023 -0.2483218163 0.02367227152 1.771655483e-38
-0.0794435069 -0.3727900684 0.1803758591 1.771655483e-38
0.1422281116 -0.4427002668 0.0717318356 1.771655483e-38
-0.03328853101 -0.3711377382 0.1843229979 1.771655483e-38
0.1435133219 -0.3377506733 -0.06133470684 1.771655483e-38
-0.03117901273 -0.1664789766 0.1410453022 1.771655483e-38
-0.005064159632 -0.3731499314 0.2236139774 1.771655483e-38
-0.1692619026 -0.3572933674 0.1599894315 1.771655483e-38
0.04719204828 -0.4403842092 0.009850755334 1.771655483e-38
-0.1599189192 -0.3871088326 -0.0370734334 1.771655483e-38
0.05666492507 -0.2948502302 0.2328273058 1.771655483e-38
-0.07945379615 -0.3140395284 0.2020896077 1.771655483e-38
0.1418076158 -0.2255640328 -0.00657248497 1.771655483e-38
-0.005180083215 -0.3200793266 0.2345509231 1.771655483e-38
-0.1079408079 -0.445027113 0.01679532975 1.771655483e-38
0.07823452353 -0.1786293387 0.001255787909 1.771655483e-38
-0.150559932 -0.2240629941 -0.01215517521 1.771655483e-38
0.1049161553 -0.2153190225 0.07190993428 1.771655483e-38
0.1274028569 -0.3645225763 -0.03971860558 1.771655483e-38
-0.09727001935 -0.2936486006 -0.1130980775 1.771655483e-38
-0.02698355168 -0.3714202046 0.1676411033 1.771655483e-38
-0.00496109575 -0.1918284297 -0.06847206503 1.771655483e-38
-0.09365618229 -0.171579957 0.06082916632 1.771655483e-38
-0.06550828367 -0.3850162327 0.1619013846 1.771655483e-38
-0.05071375519 -0.4523530006 0.002524264157 1.771655483e-38
0.03153965995 -0.2071595192 -0.1007651612 1.771655483e-38
-0.1237298548 -0.413438201 -0.06128314883 1.771655483e-38
-0.1869135201 -0.2719227672 0.05634722859 1.771655483e-38
0.06052437797 -0.4565008283 -0.1036949977 1.771655483e-38
-0.04176430032 -0.4509025812 -0.02235428989 1.771655483e-38
-0.002306263894 -0.4495642781 -0.07947004586 1.771655483e-38
-0.07447947562 -0.1604005247 0.04225856438 1.771655483e-38
-0.1329081953 -0.2433445752 -0.0464413166 1.771655483e-38
-0.1305729747 -0.2063741833 0.1636479199 1.771655483e-38
-0.1451224536 -0.3071191311 0.1898019016 1.771655483e-38
0.1096473932 -0.2323100567 0.1009593457 1.771655483e-38
0.1138217151 -0.4590088725 0.1502024084 1.771655483e-38
-0.07819569856 -0.425739944 0.1652145684 1.771655483e-38
-0.04929926619 -0.4460895061 0.1246939078 1.771655483e-38
0.09343066812 -0.1925810575 0.02433206514 1.771655483e-38
