# .PCD v0.7 - Point Cloud Data file format
VERSION 0.7
FIELDS x y z rgb
SIZE 4 4 4 4
TYPE F F F F
COUNT 1 1 1 1
WIDTH 815
HEIGHT 1
VIEWPOINT 0 0 0 1 0 0 0
POINTS 815
DATA ascii
0.05479234457 -0.05103290454 0.07787965983 1.184631237e-38
0.05482568219 -0.05093447492 0.07792649418 1.184631237e-38
0.05482083932 -0.0510308668 0.07793492824 1.184631237e-38
0.05489679053 -0.05086104572 0.07800020278 1.184631237e-38
0.05484663695 -0.0510112308 0.0779844299 1.184631237e-38
0.05484773964 -0.05100256205 0.07796702534 1.184631237e-38
0.05486663431 -0.05085810646 0.07799044251 1.184631237e-38
0.05483505875 -0.05102078244 0.07794971019 1.184631237e-38
0.05478864908 -0.05095200241 0.07790350914 1.184631237e-38
0.05480644852 -0.0510421358 0.07790995389 1.184631237e-38
0.05488591641 -0.05090815201 0.07801793516 1.184631237e-38
0.05464308336 -0.05120609701 0.07760563493 1.184631237e-38
0.05482076481 -0.05100423098 0.07791992277 1.184631237e-38
0.05464080349 -0.05113538727 0.0776886642 1.184631237e-38
0.05487643555 -0.05086288229 0.0779863596 1.184631237e-38
0.0548677966 -0.05097964779 0.07803186774 1.184631237e-38
0.05480989069 -0.05105572939 0.07788708806 1.184631237e-38
0.05469049886 -0.05114010349 0.07773478329 1.184631237e-38
0.05473727733 -0.05109533295 0.07779308408 1.184631237e-38
0.05465866625 -0.05115402117 0.07767278701 1.184631237e-38
0.05493567139 -0.05089203268 0.07814773917 1.184631237e-38
0.05467355996 -0.05112421513 0.07772307843 1.184631237e-38
0.05486379564 -0.05091057718 0.07797402889 1.184631237e-38
0.05483775213 -0.05089539662 0.0779498294 1.184631237e-38
0.05484680459 -0.05100179464 0.07797516137 1.184631237e-38
0.05479966104 -0.05105822906 0.07788495719 1.184631237e-38
0.05473594368 -0.05100813881 0.07785654068 1.184631237e-38
0.05491918698 -0.05089392513 0.07813362777 1.184631237e-38
0.05485662818 -0.05098780617 0.07799538225 1.184631237e-38
0.05480253324 -0.05104594305 0.07790990174 1.184631237e-38
0.05489031225 -0.05094081163 0.0780697763 1.184631237e-38
0.05487696454 -0.0508921966 0.07798866928 1.184631237e-38
0.05466846749 -0.05107241496 0.07776997238 1.184631237e-38
0.05468882993 -0.051151786 0.07772295177 1.184631237e-38
0.05470784009 -0.05109985173 0.07777287066 1.184631237e-38
0.05478902161 -0.05104290694 0.07787934691 1.184631237e-38
0.05472518131 -0.05107565224 0.07780827582 1.184631237e-38
0.0548328869 -0.05099388957 0.07793577015 1.184631237e-38
0.05477530137 -0.0510674268 0.07786433399 1.184631237e-38
0.05472926423 -0.05114048719 0.07773284614 1.184631237e-38
0.05483963341 -0.05096563324 0.07794806361 1.184631237e-38
0.0547095798 -0.05107440054 0.07779891789 1.184631237e-38
0.05475410447 -0.05109808967 0.07780966908 1.184631237e-38
0.05487249792 -0.05098130181 0.07803459466 1.184631237e-38
0.0546229817 -0.05114777759 0.07765968889 1.184631237e-38
0.05471728742 -0.05116634071 0.07768688351 1.184631237e-38
0.05480746925 -0.05104197189 0.0779158473 1.184631237e-38
0.05491282418 -0.05090372264 0.07810150832 1.184631237e-38
0.05477310345 -0.0510808304 0.07783710212 1.184631237e-38
0.0548633635 -0.05091714114 0.0779748708 1.184631237e-38
0.05481687933 -0.05095703527 0.07791849226 1.184631237e-38
0.05465711281 -0.05125712976 0.07753589004 1.184631237e-38
0.0548911579 -0.05087186396 0.07799946517 1.184631237e-38
0.05484107509 -0.05087901652 0.07796506584 1.184631237e-38
0.05463848636 -0.05114065856 0.07768033445 1.184631237e-38
0.05471118167 -0.05112778395 0.07776478678 1.184631237e-38
0.05462984741 -0.05117085204 0.07763241231 1.184631237e-38
0.05463469028 -0.0511585921 0.07765074819 1.184631237e-38
0.05483977497 -0.05089426041 0.07795135677 1.184631237e-38
0.05490570143 -0.05092669278 0.07809912413 1.184631237e-38
0.05466629937 -0.05122556537 0.07758633792 1.184631237e-38
0.0548469834 -0.05091172084 0.07794445008 1.184631237e-38
0.05481348932 -0.05103836954 0.07792253792 1.184631237e-38
0.05469391495 -0.05123122409 0.07757914811 1.184631237e-38
0.05462864786 -0.05116156861 0.07764551789 1.184631237e-38
0.05474377424 -0.0510931015 0.07782119513 1.184631237e-38
0.05464448407 -0.05120845139 0.07761181891 1.184631237e-38
0.05480862409 -0.05102127418 0.07790496945 1.184631237e-38
0.05472016335 -0.05114458874 0.07772102207 1.184631237e-38
0.05470879376 -0.0511254631 0.07777069509 1.184631237e-38
0.05470356718 -0.05106439441 0.07780346274 1.184631237e-38
0.05477276072 -0.05102495849 0.07786814868 1.184631237e-38
0.05482498556 -0.05099148676 0.07792712748 1.184631237e-38
0.05468183011 -0.0511594899 0.07770567387 1.184631237e-38
0.05480870605 -0.05103140697 0.07791189849 1.184631237e-38
0.05471049249 -0.05113624036 0.07774236798 1.184631237e-38
0.05492879078 -0.05088467896 0.07812656462 1.184631237e-38
0.05465270579 -0.05113330111 0.07769833505 1.184631237e-38
0.05487504974 -0.05089002475 0.07798419148 1.184631237e-38
0.05490318313 -0.05092524737 0.07809221745 1.184631237e-38
0.0549271144 -0.0508973673 0.07813155651 1.184631237e-38
0.05490430072 -0.05088857189 0.07804616541 1.184631237e-38
0.05462933332 -0.05115349963 0.07765755057 1.184631237e-38
0.05489071831 -0.05086749792 0.07799464464 1.184631237e-38
0.05469281599 -0.05113084987 0.07772672921 1.184631237e-38
0.0549342446 -0.0508897081 0.07814563066 1.184631237e-38
0.05463831499 -0.05115406215 0.07765743881 1.184631237e-38
0.05490457639 -0.05091201141 0.07808537781 1.184631237e-38
0.05463947728 -0.05114016309 0.07768044621 1.184631237e-38
0.05466999859 -0.0512544997 0.07754446566 1.184631237e-38
0.05468509719 -0.0511462763 0.07772328705 1.184631237e-38
0.05463995785 -0.0512136519 0.07759613544 1.184631237e-38
0.05477704853 -0.05105695873 0.07785928994 1.184631237e-38
0.05483391136 -0.051021263 0.07796217501 1.184631237e-38
0.05485284328 -0.0509933047 0.07798952609 1.184631237e-38
0.05485745519 -0.0509003289 0.07795636356 1.184631237e-38
0.05463917181 -0.05114743114 0.07766909897 1.184631237e-38
0.05476943031 -0.05108397081 0.07783003151 1.184631237e-38
0.05462557822 -0.05115539953 0.07765134424 1.184631237e-38
0.05484410003 -0.05089177936 0.07795464993 1.184631237e-38
0.05487188324 -0.05093790218 0.07799614966 1.184631237e-38
0.05468243733 -0.05109848455 0.07776065916 1.184631237e-38
0.05485745519 -0.05093646795 0.07796824723 1.184631237e-38
0.05473159254 -0.05104909837 0.07782924175 1.184631237e-38
0.05486337095 -0.05089931935 0.07796511054 1.184631237e-38
0.05487128347 -0.0508626923 0.07798566669 1.184631237e-38
0.05475436524 -0.05098296702 0.07787908614 1.184631237e-38
0.05465913191 -0.05118124932 0.07764760405 1.184631237e-38
0.0547032021 -0.0510202013 0.07784012705 1.184631237e-38
0.05476787314 -0.05109251291 0.07781332731 1.184631237e-38
0.05467876419 -0.05111354962 0.07774029672 1.184631237e-38
0.05490915477 -0.05091920495 0.07810278982 1.184631237e-38
0.05465432256 -0.05118942633 0.07764333487 1.184631237e-38
0.05481066182 -0.05101069435 0.07790590078 1.184631237e-38
0.05465146899 -0.05122233555 0.0775879696 1.184631237e-38
0.05471371859 -0.05103844404 0.07782255858 1.184631237e-38
0.05487047508 -0.05096735433 0.0780229345 1.184631237e-38
0.05485732853 -0.05098512769 0.07801556587 1.184631237e-38
0.05481050536 -0.05091323331 0.07792912424 1.184631237e-38
0.05467895046 -0.05115713179 0.07768823206 1.184631237e-38
0.05470102653 -0.05110275373 0.07776582241 1.184631237e-38
0.05484560505 -0.05100358278 0.07798044384 1.184631237e-38
0.05467721075 -0.05112476274 0.0777246207 1.184631237e-38
0.0547821857 -0.05107032135 0.07786926627 1.184631237e-38
0.05463663861 -0.05122454837 0.07758476585 1.184631237e-38
0.05471903458 -0.05115038157 0.077711761 1.184631237e-38
0.05464727804 -0.05122139305 0.0775886029 1.184631237e-38
0.05475822091 -0.05109637231 0.07780642807 1.184631237e-38
0.05464029312 -0.05120348185 0.07760582864 1.184631237e-38
0.05469125882 -0.0511620976 0.07769168168 1.184631237e-38
0.05471290648 -0.05108759552 0.07778976113 1.184631237e-38
0.05466578901 -0.05107991025 0.07776127756 1.184631237e-38
0.05480000749 -0.05094148219 0.07791244239 1.184631237e-38
0.0546595715 -0.05117200688 0.07765571028 1.184631237e-38
0.054922916 -0.05089135841 0.07813841105 1.184631237e-38
0.05484392121 -0.05100281537 0.07798458636 1.184631237e-38
0.05492151529 -0.05089189485 0.07811348885 1.184631237e-38
0.0548035726 -0.05098409206 0.07790221274 1.184631237e-38
0.05478949845 -0.0510584861 0.0778844133 1.184631237e-38
0.05487684533 -0.0508778207 0.07797977328 1.184631237e-38
0.05474311486 -0.0510314256 0.07784354687 1.184631237e-38
0.05477119237 -0.05096985027 0.07789098471 1.184631237e-38
0.05465509742 -0.05121565983 0.0775995478 1.184631237e-38
0.05486925691 -0.05085624009 0.0779928118 1.184631237e-38
0.05484320223 -0.05100480095 0.07796249539 1.184631237e-38
0.05486894026 -0.05094055459 0.07798929513 1.184631237e-38
0.05471853167 -0.05116601661 0.07768812031 1.184631237e-38
0.05481017008 -0.05103894323 0.07792234421 1.184631237e-38
0.05478639156 -0.05107581615 0.07784354687 1.184631237e-38
0.05481736735 -0.05103227496 0.07793225348 1.184631237e-38
0.0546534881 -0.05114609748 0.07767792046 1.184631237e-38
0.0546874553 -0.05105099082 0.07780019939 1.184631237e-38
0.05486378446 -0.05098972842 0.07802034914 1.184631237e-38
0.05466917902 -0.05114664137 0.07769033313 1.184631237e-38
0.05487334728 -0.05089370906 0.07798299193 1.184631237e-38
0.05483447015 -0.05094198138 0.07793480158 1.184631237e-38
0.05475961417 -0.05098694563 0.07787887007 1.184631237e-38
0.05476190522 -0.05107015744 0.07783326507 1.184631237e-38
0.05465884879 -0.05108861625 0.07774865627 1.184631237e-38
0.05464076251 -0.05116144568 0.07764809579 1.184631237e-38
0.05478530377 -0.05101079121 0.07788144797 1.184631237e-38
0.05480925739 -0.05099928752 0.07790460438 1.184631237e-38
0.05479418114 -0.05105597526 0.07789317518 1.184631237e-38
0.05476984009 -0.0509625636 0.07789150625 1.184631237e-38
0.0548157841 -0.05100496486 0.07791317999 1.184631237e-38
0.0549300015 -0.05090591684 0.07813180983 1.184631237e-38
0.05464330316 -0.05122973025 0.07757861912 1.184631237e-38
0.05465628952 -0.05113090947 0.07770355791 1.184631237e-38
0.05474954098 -0.05111152679 0.07778029144 1.184631237e-38
0.0547844097 -0.05106224865 0.07787588239 1.184631237e-38
0.05471916497 -0.0511415489 0.07772574574 1.184631237e-38
0.05487945676 -0.05084391311 0.07800859213 1.184631237e-38
0.0546233952 -0.05117825791 0.07762069255 1.184631237e-38
0.0548305735 -0.05089544877 0.07794824988 1.184631237e-38
0.05463341251 -0.05123023689 0.07757690549 1.184631237e-38
0.05463752523 -0.05115168542 0.07766210288 1.184631237e-38
0.05479606241 -0.0510520488 0.07789458334 1.184631237e-38
0.0548379086 -0.05092758685 0.07793680578 1.184631237e-38
0.05479554087 -0.0510526076 0.07789316773 1.184631237e-38
0.05470202118 -0.05112911016 0.07775548846 1.184631237e-38
0.05469496921 -0.05108768865 0.07777906209 1.184631237e-38
0.05484622344 -0.05100468174 0.07796572149 1.184631237e-38
0.05464566872 -0.05121132359 0.07760677487 1.184631237e-38
0.0548305586 -0.05101944506 0.07796356827 1.184631237e-38
0.05476081744 -0.0510828793 0.07783970237 1.184631237e-38
0.05486183614 -0.05098176375 0.07801630348 1.184631237e-38
0.05469416454 -0.05119042844 0.07764537632 1.184631237e-38
0.0549101457 -0.05091740936 0.07810668647 1.184631237e-38
0.05471729115 -0.05113193765 0.07774952799 1.184631237e-38
0.05462159216 -0.0511710234 0.07762688398 1.184631237e-38
0.05469287559 -0.05105361715 0.07780181617 1.184631237e-38
0.05470333993 -0.05115323141 0.07770654559 1.184631237e-38
0.05468059704 -0.05105599016 0.07779224962 1.771655483e-38
0.05492039397 -0.0508650206 0.07807068527 1.771655483e-38
0.05461605266 -0.05117553845 0.07761158049 1.771655483e-38
0.05486616865 -0.05097249895 0.07802499831 1.771655483e-38
0.0547231026 -0.0511392653 0.07773055136 1.771655483e-38
0.05463028699 -0.05120405927 0.07759851962 1.771655483e-38
0.05490685254 -0.05084379762 0.07800748944 1.771655483e-38
0.05474849418 -0.05109067634 0.07781832665 1.771655483e-38
0.05469218642 -0.05114746094 0.07772494107 1.771655483e-38
0.05466057733 -0.05124361813 0.07755646855 1.771655483e-38
0.054669559 -0.05116098747 0.07769142836 1.771655483e-38
0.05483974889 -0.0510032624 0.07798331231 1.771655483e-38
0.05489515886 -0.0509352386 0.07807932794 1.771655483e-38
0.05468846112 -0.05116887018 0.07767836004 1.771655483e-38
0.05466219038 -0.05107727274 0.07776094228 1.771655483e-38
0.05488035455 -0.05090399459 0.07800538838 1.771655483e-38
0.05493401736 -0.05088451877 0.07814525068 1.771655483e-38
0.05469181761 -0.05113669485 0.0777194351 1.771655483e-38
0.05463595688 -0.05115107819 0.07766000926 1.771655483e-38
0.05477997288 -0.05100468546 0.07787876576 1.771655483e-38
0.05463808775 -0.05121986568 0.07758981735 1.771655483e-38
0.05490700901 -0.05092149973 0.07809840888 1.771655483e-38
0.05474395677 -0.05112460628 0.07775943726 1.771655483e-38
0.05468034372 -0.05109802634 0.07775890082 1.771655483e-38
0.05471887439 -0.05102545768 0.07783447951 1.771655483e-38
0.05485862494 -0.0509830974 0.07801886648 1.771655483e-38
0.05483476073 -0.05101566762 0.07796882838 1.771655483e-38
0.05469897762 -0.05112816766 0.0777476579 1.771655483e-38
0.05468133837 -0.05114741623 0.07771861553 1.771655483e-38
0.05489044264 -0.05091910437 0.07804733515 1.771655483e-38
0.05461671948 -0.05114311725 0.07766466588 1.771655483e-38
0.05485455692 -0.05098469928 0.07798048109 1.771655483e-38
0.05463278666 -0.05122770742 0.07757856697 1.771655483e-38
0.05488767475 -0.05094301328 0.07806685567 1.771655483e-38
0.05465989932 -0.05115366355 0.07767384499 1.771655483e-38
0.0548447147 -0.05092374608 0.077945292 1.771655483e-38
0.05486703664 -0.05096355081 0.07800353318 1.771655483e-38
0.05467073247 -0.05107821524 0.07776864618 1.771655483e-38
0.05467564985 -0.05108931288 0.07776547223 1.771655483e-38
0.05479965732 -0.05104633793 0.07789994031 1.771655483e-38
0.05488355458 -0.05095420033 0.07805557549 1.771655483e-38
0.05466149747 -0.0512134172 0.07760351151 1.771655483e-38
0.05481734127 -0.0509518832 0.07791993767 1.771655483e-38
0.05493248254 -0.05088381842 0.07815144211 1.771655483e-38
0.05468485877 -0.05114680529 0.07772747427 1.771655483e-38
0.05477277935 -0.05107022449 0.07785797119 1.771655483e-38
0.05491253361 -0.05092183128 0.07810260355 1.771655483e-38
0.05479914695 -0.05101116374 0.07789350301 1.771655483e-38
0.0547480844 -0.05110409483 0.07780010253 1.771655483e-38
0.05464723706 -0.05109108984 0.07774025202 1.771655483e-38
0.05490917712 -0.05086708069 0.07804062963 1.771655483e-38
0.05487058684 -0.05096521601 0.07802838832 1.771655483e-38
0.05486284196 -0.05088050663 0.07796756923 1.771655483e-38
0.05466921255 -0.05115318298 0.07768318057 1.771655483e-38
0.05484262854 -0.0510112457 0.07797373086 1.771655483e-38
0.05475608259 -0.0510728471 0.0778253898 1.771655483e-38
0.05469116196 -0.05114636198 0.0777316466 1.771655483e-38
0.05463214964 -0.05111486837 0.07771546394 1.771655483e-38
0.05476378649 -0.05109213665 0.07781083882 1.771655483e-38
0.05466825143 -0.05116173625 0.07767511159 1.771655483e-38
0.05489688367 -0.05093479156 0.07808259875 1.771655483e-38
0.05465513468 -0.05118151009 0.0776585862 1.771655483e-38
0.05468114465 -0.05125296861 0.07754687965 1.771655483e-38
0.05490713939 -0.05091139302 0.07810690999 1.771655483e-38
0.05479086936 -0.05103076994 0.07787938416 1.771655483e-38
0.05482389778 -0.05093177408 0.07792592794 1.771655483e-38
0.05482045561 -0.05102962628 0.0779350847 1.771655483e-38
0.05489592999 -0.05085879937 0.07799942046 1.771655483e-38
0.05484560132 -0.0510087721 0.07798457891 1.771655483e-38
0.05484718829 -0.05100123957 0.07796693593 1.771655483e-38
0.05486509204 -0.05085570365 0.0779896304 1.771655483e-38
0.05483460426 -0.05101946741 0.07794965804 1.771655483e-38
0.05478686467 -0.05094942823 0.07790328562 1.771655483e-38
0.05480529368 -0.05104006827 0.07791014016 1.771655483e-38
0.05488511547 -0.05090589449 0.07801722735 1.771655483e-38
0.05464154109 -0.05120429024 0.07760601491 1.771655483e-38
0.05481927469 -0.05100197345 0.07791986316 1.771655483e-38
0.05463949591 -0.05113345385 0.07768899947 1.771655483e-38
0.05487511307 -0.0508604832 0.07798547298 1.771655483e-38
0.05486650765 -0.05097758397 0.07803183794 1.771655483e-38
0.05480944365 -0.05105441436 0.07788711786 1.771655483e-38
0.05468911678 -0.05113856122 0.07773520052 1.771655483e-38
0.05473573133 -0.05109341815 0.0777926296 1.771655483e-38
0.05465689674 -0.05115218088 0.07767267525 1.771655483e-38
0.05493479967 -0.05089019239 0.07814688981 1.771655483e-38
0.05467195809 -0.05112227798 0.07772293687 1.771655483e-38
0.05486287922 -0.0509082526 0.0779735595 1.771655483e-38
0.05483582243 -0.05089272186 0.07794931531 1.771655483e-38
0.0548462607 -0.05100049824 0.07797486335 1.771655483e-38
0.05479916185 -0.0510568507 0.07788484544 1.771655483e-38
0.05473444238 -0.05100618675 0.07785638422 1.771655483e-38
0.05491810665 -0.0508923009 0.07813344896 1.771655483e-38
0.05485593528 -0.05098645762 0.07799481601 1.771655483e-38
0.05480170995 -0.05104429275 0.07791005075 1.771655483e-38
0.05488940701 -0.05093904585 0.07806956023 1.771655483e-38
0.05487593263 -0.05088987201 0.07798804343 1.771655483e-38
0.05466736108 -0.05107071251 0.07777050883 1.771655483e-38
0.0546874404 -0.05115031451 0.07772331685 1.771655483e-38
0.05470606312 -0.05109746382 0.07777266949 1.771655483e-38
0.05478737503 -0.05104039237 0.07787939161 1.771655483e-38
0.05472356081 -0.05107372627 0.07780804485 1.771655483e-38
0.05483174697 -0.05099163577 0.0779357627 1.771655483e-38
0.05477429181 -0.05106556788 0.0778644383 1.771655483e-38
0.05472833291 -0.05113942549 0.07773266733 1.771655483e-38
0.05483851954 -0.05096325278 0.07794772089 1.771655483e-38
0.05470793322 -0.05107226968 0.07779880613 1.771655483e-38
0.05475349352 -0.05109634623 0.07780995965 1.771655483e-38
0.05487127602 -0.05097933114 0.07803433388 1.771655483e-38
0.05462212488 -0.05114655942 0.07766027004 1.771655483e-38
0.05471640825 -0.05116514117 0.07768701017 1.771655483e-38
0.05480707064 -0.05104064196 0.07791589946 1.771655483e-38
0.05491182208 -0.05090134963 0.07810111344 1.771655483e-38
0.05477277562 -0.05107944086 0.07783720642 1.771655483e-38
0.05486243218 -0.0509147644 0.07797440886 1.771655483e-38
0.054815121 -0.05095440894 0.07791812718 1.771655483e-38
0.05465591699 -0.05125568807 0.07753652334 1.771655483e-38
0.05489027873 -0.05086962134 0.07799866796 1.771655483e-38
0.05483914912 -0.05087633431 0.07796455175 1.771655483e-38
0.0546370931 -0.05113862455 0.07768069208 1.771655483e-38
0.05470985919 -0.05112640187 0.07776495069 1.771655483e-38
0.05462871864 -0.05116916448 0.07763236016 1.771655483e-38
0.05463352054 -0.05115682259 0.07765068859 1.771655483e-38
0.05483786389 -0.0508915484 0.07795085013 1.771655483e-38
0.0549047105 -0.05092444643 0.07809856534 1.771655483e-38
0.05466517061 -0.05122411251 0.07758704573 1.771655483e-38
0.05484519526 -0.05090901628 0.07794387639 1.771655483e-38
0.05481232703 -0.05103651807 0.0779228285 1.771655483e-38
0.05469321087 -0.05122986808 0.0775796175 1.771655483e-38
0.05462771654 -0.05115994439 0.07764563709 1.771655483e-38
0.05474243313 -0.0510911718 0.07782132179 1.771655483e-38
0.05464312062 -0.05120697245 0.07761240005 1.771655483e-38
0.05480706692 -0.05101919547 0.07790510356 1.771655483e-38
0.05471939966 -0.05114354566 0.07772114128 1.771655483e-38
0.05470745638 -0.0511239022 0.07777097076 1.771655483e-38
0.05470202491 -0.05106221884 0.07780335844 1.771655483e-38
0.05477116629 -0.05102247 0.07786806673 1.771655483e-38
0.05482341349 -0.05098905414 0.0779267922 1.771655483e-38
0.0546804443 -0.05115801468 0.07770603895 1.771655483e-38
0.05480749905 -0.05102913454 0.07791193575 1.771655483e-38
0.0547096245 -0.05113502592 0.0777426362 1.771655483e-38
0.05492769554 -0.05088239163 0.07812583447 1.771655483e-38
0.0546512045 -0.05113144964 0.07769836485 1.771655483e-38
0.05487401038 -0.05088753998 0.07798348367 1.771655483e-38
0.05490227789 -0.05092351139 0.07809203863 1.771655483e-38
0.0549265407 -0.05089577287 0.07813098282 1.771655483e-38
0.05490355939 -0.05088634416 0.07804555446 1.771655483e-38
0.05462835357 -0.05115155503 0.07765796036 1.771655483e-38
0.05488981679 -0.05086520314 0.07799359411 1.771655483e-38
0.05469100922 -0.05112869292 0.0777264908 1.771655483e-38
0.05493343249 -0.05088824779 0.07814482599 1.771655483e-38
0.05463684723 -0.05115208775 0.07765737176 1.771655483e-38
0.05490355194 -0.05090961605 0.07808491588 1.771655483e-38
0.05463822559 -0.05113816634 0.07768059522 1.771655483e-38
0.05466910824 -0.0512531437 0.07754508406 1.771655483e-38
0.05468365923 -0.05114478618 0.07772357017 1.771655483e-38
0.05463850498 -0.05121180043 0.07759626955 1.771655483e-38
0.05477540195 -0.05105443671 0.077859357 1.771655483e-38
0.05483283848 -0.05101923645 0.07796247303 1.771655483e-38
0.05485215411 -0.05099195987 0.0779889524 1.771655483e-38
0.05485605821 -0.05089774355 0.07795584947 1.771655483e-38
0.05463799089 -0.05114562437 0.07766899467 1.771655483e-38
0.05476908013 -0.05108256638 0.07783010602 1.771655483e-38
0.05462459847 -0.05115345493 0.07765175402 1.771655483e-38
0.05484228581 -0.05088904127 0.07795397937 1.771655483e-38
0.05487089604 -0.05093551055 0.07799588144 1.771655483e-38
0.05468090251 -0.05109651014 0.07776078582 1.771655483e-38
0.05485649779 -0.05093410611 0.07796779275 1.771655483e-38
0.05473013222 -0.05104708299 0.07782905549 1.771655483e-38
0.054862082 -0.05089683458 0.0779645294 1.771655483e-38
0.05486990511 -0.05086034909 0.07798473537 1.771655483e-38
0.05475275964 -0.05098078772 0.07787895203 1.771655483e-38
0.05465759337 -0.05117949471 0.07764796913 1.771655483e-38
0.05470228195 -0.05101855472 0.07784039527 1.771655483e-38
0.05476753041 -0.05109117925 0.07781325281 1.771655483e-38
0.05467712134 -0.05111140013 0.07774034142 1.771655483e-38
0.05490825325 -0.05091746897 0.07810261101 1.771655483e-38
0.05465305597 -0.05118786544 0.07764384151 1.771655483e-38
0.05480913073 -0.05100833625 0.0779055953 1.771655483e-38
0.05465019494 -0.05122087896 0.0775886178 1.771655483e-38
0.05471236259 -0.05103652552 0.07782261074 1.771655483e-38
0.05486974493 -0.0509659946 0.07802250981 1.771655483e-38
0.05485634506 -0.05098343268 0.07801515609 1.771655483e-38
0.05480860546 -0.05091059208 0.07792871445 1.771655483e-38
0.05467739701 -0.05115523189 0.07768859714 1.771655483e-38
0.05469926447 -0.05110038817 0.07776562124 1.771655483e-38
0.05484492704 -0.0510022752 0.07797994465 1.771655483e-38
0.05467566103 -0.05112278461 0.07772441953 1.771655483e-38
0.05478163809 -0.05106855929 0.0778696239 1.771655483e-38
0.05463524908 -0.0512226671 0.07758500427 1.771655483e-38
0.05471816659 -0.05114926025 0.0777117908 1.771655483e-38
0.05464603752 -0.05121986941 0.077589266 1.771655483e-38
0.05475785211 -0.0510950163 0.07780634612 1.771655483e-38
0.05463884398 -0.05120170861 0.07760628313 1.771655483e-38
0.05469002575 -0.05116068572 0.07769196481 1.771655483e-38
0.05471121892 -0.05108548701 0.07778953016 1.771655483e-38
0.0546646826 -0.05107824877 0.07776179165 1.771655483e-38
0.05479816347 -0.05093885958 0.07791224867 1.771655483e-38
0.05465784669 -0.05117023736 0.07765612006 1.771655483e-38
0.05492185801 -0.05088955909 0.07813820988 1.771655483e-38
0.05484333634 -0.05100150406 0.07798418403 1.771655483e-38
0.05492046848 -0.05088958517 0.07811303437 1.771655483e-38
0.05480192602 -0.05098150298 0.07790195942 1.771655483e-38
0.05478873476 -0.05105676502 0.07788447291 1.771655483e-38
0.05487592891 -0.05087552965 0.07797892392 1.771655483e-38
0.05474156141 -0.05102932453 0.0778433606 1.771655483e-38
0.05476941913 -0.05096729472 0.07789075375 1.771655483e-38
0.05465392023 -0.05121415854 0.07760029286 1.771655483e-38
0.05486778542 -0.05085380748 0.07799186558 1.771655483e-38
0.05484198779 -0.05100251734 0.07796241343 1.771655483e-38
0.05486801639 -0.05093815923 0.07798904926 1.771655483e-38
0.05471761525 -0.05116476491 0.07768823206 1.771655483e-38
0.05480936915 -0.05103719234 0.07792242616 1.771655483e-38
0.05478597432 -0.05107435584 0.07784352452 1.771655483e-38
0.05481697619 -0.05103096738 0.07793229818 1.771655483e-38
0.05465192348 -0.05114428699 0.07767789066 1.771655483e-38
0.05468625575 -0.05104929581 0.0778003037 1.771655483e-38
0.05486245453 -0.05098761991 0.07802015543 1.771655483e-38
0.05466736108 -0.05114476755 0.07769028842 1.771655483e-38
0.05487225205 -0.0508913137 0.07798235863 1.771655483e-38
0.05483259633 -0.0509393625 0.07793419063 1.771655483e-38
0.05475795269 -0.05098441616 0.07787879556 1.771655483e-38
0.05476028472 -0.05106771737 0.07783307135 1.771655483e-38
0.05465774238 -0.05108695477 0.07774919271 1.771655483e-38
0.05463916063 -0.0511597693 0.07764828205 1.771655483e-38
0.05478366092 -0.05100822821 0.07788119465 1.771655483e-38
0.05480751395 -0.05099682882 0.07790426165 1.771655483e-38
0.05479343235 -0.0510542579 0.07789315283 1.771655483e-38
0.05476810411 -0.05096010491 0.07789132744 1.771655483e-38
0.054814253 -0.05100260302 0.07791287452 1.771655483e-38
0.05492889509 -0.05090383068 0.07813131064 1.771655483e-38
0.05464197695 -0.05122823268 0.07757905871 1.771655483e-38
0.05465471745 -0.05112914741 0.07770352811 1.771655483e-38
0.05474919081 -0.05111063272 0.07778006792 1.771655483e-38
0.05478349328 -0.05106031522 0.07787611336 1.771655483e-38
0.05471842363 -0.05114048347 0.07772576809 1.771655483e-38
0.0548780933 -0.05084152892 0.07800769061 1.771655483e-38
0.05462246016 -0.05117662624 0.07762090117 1.771655483e-38
0.05482866243 -0.05089277402 0.07794772834 1.771655483e-38
0.05463224277 -0.05122848228 0.07757733762 1.771655483e-38
0.05463634804 -0.05114989355 0.07766204327 1.771655483e-38
0.05479500443 -0.05105024204 0.07789471 1.771655483e-38
0.05483611301 -0.05092488229 0.07793625444 1.771655483e-38
0.05479447916 -0.05105080456 0.07789329439 1.771655483e-38
0.05470067263 -0.05112757161 0.07775587589 1.771655483e-38
0.05469331518 -0.05108553544 0.07777898014 1.771655483e-38
0.05484567583 -0.05100335926 0.07796563953 1.771655483e-38
0.05464440212 -0.0512098223 0.07760719955 1.771655483e-38
0.05482953042 -0.05101770535 0.07796350121 1.771655483e-38
0.05476005748 -0.05108099058 0.07784011215 1.771655483e-38
0.05486111343 -0.05098037794 0.07801581919 1.771655483e-38
0.05469314381 -0.05118911341 0.07764559239 1.771655483e-38
0.05490916222 -0.05091516674 0.07810611278 1.771655483e-38
0.05471645668 -0.0511306189 0.07774968445 1.771655483e-38
0.05462076142 -0.05116942897 0.07762697339 1.771655483e-38
0.05469137058 -0.05105160922 0.07780198753 1.771655483e-38
0.05470250547 -0.0511520654 0.07770672441 1.771655483e-38
0.05468034744 -0.05105593801 0.07779198885 2.348204041e-38
0.05492020026 -0.05086485296 0.0780704096 2.348204041e-38
0.054615926 -0.05117558315 0.07761129737 2.348204041e-38
0.05486603826 -0.05097241327 0.078024894 2.348204041e-38
0.05472297594 -0.05113921687 0.0777304545 2.348204041e-38
0.0546301268 -0.05120408908 0.0775982812 2.348204041e-38
0.05490664393 -0.05084361508 0.07800719142 2.348204041e-38
0.05474827066 -0.05109060928 0.07781814784 2.348204041e-38
0.0546919927 -0.05114746094 0.07772476971 2.348204041e-38
0.05466044322 -0.05124365166 0.07755631953 2.348204041e-38
0.05466931686 -0.05116095766 0.0776912123 2.348204041e-38
0.05483964458 -0.05100321397 0.07798324525 2.348204041e-38
0.05489508063 -0.05093514547 0.07807919383 2.348204041e-38
0.05468825996 -0.05116887391 0.07767818868 2.348204041e-38
0.05466194823 -0.05107722431 0.07776068896 2.348204041e-38
0.05488016084 -0.0509038195 0.07800512016 2.348204041e-38
0.0549338609 -0.05088434741 0.07814508677 2.348204041e-38
0.05469154194 -0.05113659427 0.07771920413 2.348204041e-38
0.05463579297 -0.05115107074 0.0776597634 2.348204041e-38
0.05477966368 -0.05100455508 0.07787847519 2.348204041e-38
0.05463789403 -0.05121990666 0.07758957893 2.348204041e-38
0.0549069345 -0.05092136934 0.07809825987 2.348204041e-38
0.05474389344 -0.0511245653 0.07775936276 2.348204041e-38
0.05468008667 -0.05109795183 0.0777586624 2.348204041e-38
0.05471859872 -0.0510253273 0.07783422619 2.348204041e-38
0.0548584871 -0.05098300055 0.07801877707 2.348204041e-38
0.05483464897 -0.05101558194 0.07796870917 2.348204041e-38
0.05469871685 -0.05112808198 0.07774744928 2.348204041e-38
0.05468111113 -0.05114741251 0.07771835476 2.348204041e-38
0.05489027128 -0.05091892928 0.07804712653 2.348204041e-38
0.05461653322 -0.05114311352 0.07766444981 2.348204041e-38
0.05485440046 -0.05098454654 0.07798028737 2.348204041e-38
0.05463266745 -0.0512277633 0.07757832855 2.348204041e-38
0.05488760024 -0.05094292387 0.07806673646 2.348204041e-38
0.05465964973 -0.05115358159 0.07767360657 2.348204041e-38
0.0548444204 -0.05092357472 0.07794499397 2.348204041e-38
0.05486687645 -0.05096336827 0.07800330967 2.348204041e-38
0.05467047915 -0.05107817054 0.07776840031 2.348204041e-38
0.05467539281 -0.05108926818 0.07776524127 2.348204041e-38
0.05479953438 -0.05104627833 0.0778997466 2.348204041e-38
0.05488340184 -0.05095401779 0.07805544138 2.348204041e-38
0.05466133729 -0.05121344328 0.0776033476 2.348204041e-38
0.05481701344 -0.05095171556 0.07791962475 2.348204041e-38
0.05493239686 -0.05088366196 0.078151308 2.348204041e-38
0.05468464643 -0.05114682019 0.07772730291 2.348204041e-38
0.05477265641 -0.05107014626 0.07785784453 2.348204041e-38
0.05491238832 -0.05092165619 0.07810247689 2.348204041e-38
0.05479885265 -0.05101105198 0.07789321989 2.348204041e-38
0.05474795029 -0.05110399053 0.07779999822 2.348204041e-38
0.05464699119 -0.05109105632 0.07774003595 2.348204041e-38
0.05490898713 -0.05086690933 0.07804036885 2.348204041e-38
0.05487046763 -0.05096513033 0.07802825421 2.348204041e-38
0.05486258492 -0.05088032782 0.07796726376 2.348204041e-38
0.05466894433 -0.05115308985 0.07768295705 2.348204041e-38
0.05484245718 -0.05101109296 0.07797355205 2.348204041e-38
0.05475583673 -0.05107272044 0.07782516629 2.348204041e-38
0.05469095334 -0.05114633963 0.07773146033 2.348204041e-38
0.05463195965 -0.05111488327 0.07771524042 2.348204041e-38
0.05476373434 -0.05109211802 0.07781075686 2.348204041e-38
0.05466799438 -0.05116168037 0.07767487317 2.348204041e-38
0.05489680544 -0.05093469843 0.07808247209 2.348204041e-38
0.05465491861 -0.05118151754 0.07765837014 2.348204041e-38
0.05468105152 -0.05125295743 0.07754676044 2.348204041e-38
0.05490704998 -0.05091128126 0.07810677588 2.348204041e-38
0.05479061604 -0.05103063583 0.07787916809 2.348204041e-38
0.05482356623 -0.05093160272 0.07792562991 2.348204041e-38
0.05482034758 -0.05102955922 0.07793500274 2.348204041e-38
0.05489572883 -0.05085862055 0.07799913734 2.348204041e-38
0.05484544486 -0.05100863799 0.07798441499 2.348204041e-38
0.05484709144 -0.05100117996 0.07796685398 2.348204041e-38
0.05486480147 -0.05085551739 0.07798932493 2.348204041e-38
0.05483449996 -0.05101940781 0.07794957608 2.348204041e-38
0.05478655174 -0.05094924569 0.07790293545 2.348204041e-38
0.05480514839 -0.05103999004 0.07790995389 2.348204041e-38
0.05488491431 -0.05090571567 0.07801693678 2.348204041e-38
0.05464134365 -0.05120431632 0.07760570943 2.348204041e-38
0.05481900647 -0.05100185424 0.0779196173 2.348204041e-38
0.05463930964 -0.05113343149 0.07768874615 2.348204041e-38
0.0548748523 -0.05086030439 0.07798517495 2.348204041e-38
0.05486637354 -0.05097746104 0.07803173363 2.348204041e-38
0.05480935052 -0.05105434358 0.07788704336 2.348204041e-38
0.05468887091 -0.05113848671 0.07773499191 2.348204041e-38
0.05473548174 -0.05109329522 0.07779239863 2.348204041e-38
0.05465661734 -0.05115209147 0.07767240703 2.348204041e-38
0.05493469536 -0.0508900322 0.07814670354 2.348204041e-38
0.05467168614 -0.05112221465 0.07772268355 2.348204041e-38
0.05486267805 -0.05090807006 0.07797326148 2.348204041e-38
0.05483550206 -0.0508925356 0.07794899493 2.348204041e-38
0.05484615639 -0.05100043491 0.07797478139 2.348204041e-38
0.05479906872 -0.05105677992 0.07788477093 2.348204041e-38
0.05473416671 -0.05100603774 0.07785608619 2.348204041e-38
0.05491802469 -0.05089217797 0.07813334465 2.348204041e-38
0.05485581607 -0.05098638684 0.0779947266 2.348204041e-38
0.05480158702 -0.05104423314 0.07790995389 2.348204041e-38
0.0548893325 -0.05093896389 0.07806942612 2.348204041e-38
0.05487571657 -0.05088969693 0.07798775285 2.348204041e-38
0.05466711521 -0.0510706678 0.07777025551 2.348204041e-38
0.0546872355 -0.05115031824 0.07772313058 2.348204041e-38
0.05470575392 -0.05109735578 0.07777243108 2.348204041e-38
0.05478712916 -0.05104026198 0.07787920535 2.348204041e-38
0.05472326279 -0.05107358843 0.07780779898 2.348204041e-38
0.0548315458 -0.05099151284 0.07793550193 2.348204041e-38
0.05477413535 -0.051065512 0.07786426693 2.348204041e-38
0.0547282137 -0.05113938078 0.07773252577 2.348204041e-38
0.05483829603 -0.05096309632 0.07794743776 2.348204041e-38
0.05470764637 -0.05107216164 0.07779853046 2.348204041e-38
0.05475338921 -0.05109624565 0.07780986279 2.348204041e-38
0.05487111956 -0.05097920075 0.07803421468 2.348204041e-38
0.05462194607 -0.05114656687 0.07766005397 2.348204041e-38
0.05471631885 -0.05116516352 0.07768688351 2.348204041e-38
0.05480695888 -0.05104058236 0.0779158026 2.348204041e-38
0.05491166934 -0.05090117082 0.07810094208 2.348204041e-38
0.05477268621 -0.05107935518 0.07783714682 2.348204041e-38
0.05486223102 -0.05091458187 0.07797411084 2.348204041e-38
0.05481480062 -0.05095424876 0.0779178068 2.348204041e-38
0.05465576425 -0.05125572905 0.07753635943 2.348204041e-38
0.05489006639 -0.05086944252 0.07799837738 2.348204041e-38
0.05483881384 -0.05087614805 0.07796425372 2.348204041e-38
0.05463690683 -0.05113860592 0.07768043876 2.348204041e-38
0.05470964685 -0.05112637579 0.07776474953 2.348204041e-38
0.05462857336 -0.05116919428 0.07763211429 2.348204041e-38
0.05463337526 -0.05115685612 0.07765045017 2.348204041e-38
0.05483754352 -0.05089135841 0.07795052975 2.348204041e-38
0.05490455404 -0.05092426389 0.07809840888 2.348204041e-38
0.0546650365 -0.05122414604 0.07758690417 2.348204041e-38
0.05484485999 -0.05090883747 0.07794357091 2.348204041e-38
0.05481221899 -0.05103645474 0.07792267203 2.348204041e-38
0.05469316244 -0.05122989416 0.07757948339 2.348204041e-38
0.0546275489 -0.05115993693 0.07764538378 2.348204041e-38
0.0547423102 -0.05109111965 0.07782114297 2.348204041e-38
0.05464291945 -0.05120701343 0.07761216909 2.348204041e-38
0.05480681732 -0.05101907626 0.07790490985 2.348204041e-38
0.05471929908 -0.05114351958 0.07772102952 2.348204041e-38
0.05470723286 -0.05112380907 0.0777707696 2.348204041e-38
0.05470171943 -0.05106211081 0.07780310512 2.348204041e-38
0.05477086455 -0.05102236196 0.07786780596 2.348204041e-38
0.05482311547 -0.0509888716 0.07792651653 2.348204041e-38
0.05468023568 -0.05115801841 0.07770585269 2.348204041e-38
0.05480734259 -0.05102903768 0.07791175693 2.348204041e-38
0.05470947176 -0.05113499612 0.07774249464 2.348204041e-38
0.05492753908 -0.05088220537 0.07812562585 2.348204041e-38
0.05465096235 -0.05113140121 0.07769811153 2.348204041e-38
0.05487379804 -0.05088734627 0.0779831633 2.348204041e-38
0.05490220338 -0.05092341453 0.07809188962 2.348204041e-38
0.05492647737 -0.05089563504 0.07813079655 2.348204041e-38
0.05490335822 -0.0508861728 0.07804530114 2.348204041e-38
0.05462817103 -0.05115151778 0.07765769958 2.348204041e-38
0.05488960445 -0.05086501315 0.07799327374 2.348204041e-38
0.05469073728 -0.05112859607 0.07772625238 2.348204041e-38
0.05493336916 -0.05088811368 0.07814463228 2.348204041e-38
0.05463663489 -0.05115206167 0.07765712589 2.348204041e-38
0.05490340292 -0.05090943724 0.07808475196 2.348204041e-38
0.05463806167 -0.05113814026 0.077680327 2.348204041e-38
0.05466897413 -0.0512531735 0.0775449276 2.348204041e-38
0.05468342826 -0.05114479363 0.07772333175 2.348204041e-38
0.05463831127 -0.0512118265 0.07759595662 2.348204041e-38
0.05477516353 -0.05105431378 0.07785916328 2.348204041e-38
0.05483270437 -0.05101913959 0.07796236128 2.348204041e-38
0.0548520349 -0.05099188909 0.07798886299 2.348204041e-38
0.05485580117 -0.05089757964 0.07795554399 2.348204041e-38
0.05463782325 -0.05114560574 0.07766872644 2.348204041e-38
0.05476899073 -0.0510824807 0.07783004642 2.348204041e-38
0.05462441593 -0.0511534214 0.0776514858 2.348204041e-38
0.05484195799 -0.05088885128 0.0779536739 2.348204041e-38
0.05487072468 -0.05093533173 0.07799562067 2.348204041e-38
0.05468066409 -0.05109644681 0.0777605623 2.348204041e-38
0.05485626683 -0.0509339124 0.07796750218 2.348204041e-38
0.05472984165 -0.05104695633 0.07782877982 2.348204041e-38
0.05486181378 -0.05089666322 0.07796422392 2.348204041e-38
0.05486964062 -0.050860174 0.07798442245 2.348204041e-38
0.05475248024 -0.05098058283 0.0778786391 2.348204041e-38
0.05465735495 -0.05117948726 0.07764774561 2.348204041e-38
0.05470209196 -0.05101846531 0.0778401792 2.348204041e-38
0.05476748198 -0.05109116435 0.07781317085 2.348204041e-38
0.05467684194 -0.05111131445 0.07774010301 2.348204041e-38
0.05490817502 -0.05091737211 0.07810246944 2.348204041e-38
0.05465285853 -0.05118790641 0.07764359564 2.348204041e-38
0.05480884016 -0.05100820959 0.07790533453 2.348204041e-38
0.05465003476 -0.05122093111 0.07758843154 2.348204041e-38
0.05471207574 -0.05103639141 0.07782234251 2.348204041e-38
0.05486962572 -0.05096592754 0.07802241296 2.348204041e-38
0.05485622957 -0.05098335072 0.07801506668 2.348204041e-38
0.05480829254 -0.05091040954 0.07792841643 2.348204041e-38
0.05467713252 -0.05115513131 0.07768836617 2.348204041e-38
0.05469895527 -0.05110028386 0.07776538283 2.348204041e-38
0.05484482646 -0.05100221187 0.07797989249 2.348204041e-38
0.05467539281 -0.05112271756 0.07772415876 2.348204041e-38
0.05478153005 -0.05106845871 0.07786951214 2.348204041e-38
0.05463508144 -0.05122269318 0.0775847137 2.348204041e-38
0.05471806228 -0.05114924163 0.07771170139 2.348204041e-38
0.05464587361 -0.05121992156 0.07758906484 2.348204041e-38
0.05475779623 -0.05109498277 0.07780626416 2.348204041e-38
0.0546387136 -0.05120176822 0.07760600746 2.348204041e-38
0.05468982086 -0.05116066337 0.07769181579 2.348204041e-38
0.05471091345 -0.05108537525 0.07778929174 2.348204041e-38
0.05466443673 -0.05107820034 0.07776153833 2.348204041e-38
0.05479783565 -0.05093868077 0.0779119283 2.348204041e-38
0.05465760455 -0.05117020756 0.077655904 2.348204041e-38
0.05492177978 -0.05088939518 0.07813809067 2.348204041e-38
0.05484322459 -0.05100144446 0.07798410952 2.348204041e-38
0.05492031202 -0.05088940263 0.078112863 2.348204041e-38
0.05480160564 -0.05098134652 0.07790164649 2.348204041e-38
0.05478860438 -0.05105669796 0.07788436115 2.348204041e-38
0.05487572402 -0.05087537691 0.07797861099 2.348204041e-38
0.05474125221 -0.05102919415 0.07784310728 2.348204041e-38
0.05476911366 -0.05096712336 0.07789041102 2.348204041e-38
0.05465374514 -0.05121420324 0.0776001066 2.348204041e-38
0.0548674874 -0.05085362867 0.077991575 2.348204041e-38
0.0548417978 -0.05100235716 0.07796221226 2.348204041e-38
0.05486783385 -0.05093798041 0.07798878103 2.348204041e-38
0.05471750721 -0.05116475746 0.07768809795 2.348204041e-38
0.05480920523 -0.05103711784 0.0779222995 2.348204041e-38
0.05478588864 -0.05107427761 0.07784345746 2.348204041e-38
0.05481686443 -0.05103091151 0.07793220878 2.348204041e-38
0.05465168878 -0.05114423856 0.07767764479 2.348204041e-38
0.05468599871 -0.05104923993 0.07780004293 2.348204041e-38
0.05486229435 -0.05098748952 0.07802005112 2.348204041e-38
0.05466709286 -0.0511446856 0.07769007236 2.348204041e-38
0.05487203598 -0.05089113116 0.07798205316 2.348204041e-38
0.05483226478 -0.05093919858 0.07793387771 2.348204041e-38
0.05475768074 -0.05098424852 0.07787847519 2.348204041e-38
0.0547600314 -0.05106759816 0.07783284783 2.348204041e-38
0.05465749651 -0.05108690634 0.07774892449 2.348204041e-38
0.05463895574 -0.05115979165 0.07764803618 2.348204041e-38
0.05478335544 -0.05100810155 0.07788090408 2.348204041e-38
0.05480719358 -0.05099671707 0.07790396363 2.348204041e-38
0.05479330197 -0.05105419084 0.07789301872 2.348204041e-38
0.05476780981 -0.050959941 0.07789099962 2.348204041e-38
0.0548139587 -0.05100248009 0.0779126063 2.348204041e-38
0.0549287498 -0.05090364814 0.07813116163 2.348204041e-38
0.05464180559 -0.05122828111 0.07757881284 2.348204041e-38
0.0546544753 -0.05112910643 0.07770328969 2.348204041e-38
0.05474912375 -0.05111059174 0.07777998596 2.348204041e-38
0.05478337035 -0.05106023699 0.0778759867 2.348204041e-38
0.05471832305 -0.05114046112 0.07772565633 2.348204041e-38
0.05487780645 -0.05084134638 0.07800740749 2.348204041e-38
0.05462232232 -0.05117668584 0.0776206255 2.348204041e-38
0.0548283495 -0.05089258775 0.07794740796 2.348204041e-38
0.05463211238 -0.05122853443 0.0775770992 2.348204041e-38
0.0546361804 -0.0511498861 0.0776617974 2.348204041e-38
0.05479484424 -0.05105017126 0.07789454609 2.348204041e-38
0.05483578891 -0.05092471093 0.07793594152 2.348204041e-38
0.05479431897 -0.05105073377 0.07789313048 2.348204041e-38
0.05470044538 -0.05112748593 0.07775568962 2.348204041e-38
0.05469302833 -0.05108543113 0.07777871937 2.348204041e-38
0.05484557524 -0.05100329965 0.07796555012 2.348204041e-38
0.05464421585 -0.0512098819 0.07760693878 2.348204041e-38
0.05482940748 -0.05101764575 0.07796343416 2.348204041e-38
0.05475993082 -0.05108093843 0.07783993334 2.348204041e-38
0.05486097932 -0.05098030716 0.07801574469 2.348204041e-38
0.05469306931 -0.05118916184 0.07764540613 2.348204041e-38
0.05490900576 -0.05091498047 0.07810595632 2.348204041e-38
0.05471630022 -0.0511305742 0.07774949819 2.348204041e-38
0.05462061986 -0.0511694476 0.07762671262 2.348204041e-38
0.05469108745 -0.05105152726 0.07780176401 2.348204041e-38
0.05470236763 -0.05115203559 0.07770657539 2.348204041e-38
0.0546814315 -0.0510584414 0.07779183239 2.345219836e-38
0.05492123216 -0.05086746067 0.07807097584 2.345219836e-38
0.0546169281 -0.05117818713 0.07761048526 2.345219836e-38
0.05486728624 -0.05097410828 0.07802610844 2.345219836e-38
0.05472411588 -0.05114077404 0.07773063332 2.345219836e-38
0.05463153496 -0.05120697618 0.07759718597 2.345219836e-38
0.05490763485 -0.05084629357 0.07800781727 2.345219836e-38
0.05474979058 -0.05109314248 0.07781800628 2.345219836e-38
0.054693304 -0.05114955455 0.07772438973 2.345219836e-38
0.05466184765 -0.051246088 0.07755547017 2.345219836e-38
0.05467042327 -0.05116331577 0.07769051194 2.345219836e-38
0.05484094843 -0.05100515112 0.07798399031 2.345219836e-38
0.05489667505 -0.05093720555 0.07808000594 2.345219836e-38
0.05468954891 -0.05117132515 0.07767762244 2.345219836e-38
0.05466282368 -0.05107964948 0.07776008546 2.345219836e-38
0.05488120019 -0.05090661719 0.07800538838 2.345219836e-38
0.05493547767 -0.05088708177 0.07814609259 2.345219836e-38
0.05469317362 -0.05113925785 0.07771924138 2.345219836e-38
0.05463692173 -0.05115364119 0.07765935361 2.345219836e-38
0.05478104576 -0.05100753903 0.07787840813 2.345219836e-38
0.0546393469 -0.05122242495 0.07758853585 2.345219836e-38
0.05490850285 -0.05092354864 0.07809906453 2.345219836e-38
0.05474470183 -0.05112593994 0.07776005566 2.345219836e-38
0.05468150973 -0.0511005111 0.07775811106 2.345219836e-38
0.05471978337 -0.05102773011 0.07783401757 2.345219836e-38
0.05486018956 -0.05098523572 0.07801961899 2.345219836e-38
0.0548364073 -0.05101808161 0.07796873152 2.345219836e-38
0.05470003188 -0.05113024637 0.07774693519 2.345219836e-38
0.0546824038 -0.05114983022 0.07771787047 2.345219836e-38
0.05489160493 -0.05092185363 0.07804732025 2.345219836e-38
0.05461718515 -0.05114507675 0.0776636675 2.345219836e-38
0.05485594273 -0.05098699778 0.0779806897 2.345219836e-38
0.05463412032 -0.05123067275 0.07757747918 2.345219836e-38
0.05488919094 -0.05094500631 0.07806760073 2.345219836e-38
0.05466146767 -0.05115608871 0.07767324895 2.345219836e-38
0.05484596267 -0.05092663318 0.07794519514 2.345219836e-38
0.05486819893 -0.05096617714 0.07800371945 2.345219836e-38
0.05467139184 -0.0510806106 0.07776784152 2.345219836e-38
0.05467666686 -0.05109204724 0.07776451111 2.345219836e-38
0.05480115116 -0.05104865879 0.07789955288 2.345219836e-38
0.05488498881 -0.05095680058 0.07805608213 2.345219836e-38
0.05466256663 -0.05121595412 0.07760223746 2.345219836e-38
0.05481863394 -0.05095476657 0.07791979611 2.345219836e-38
0.05493408442 -0.05088550597 0.07815244794 2.345219836e-38
0.05468595773 -0.05114920065 0.07772673666 2.345219836e-38
0.05477382615 -0.05107260868 0.07785781473 2.345219836e-38
0.05491414666 -0.05092412233 0.07810361683 2.345219836e-38
0.05480049923 -0.05101394653 0.07789331675 2.345219836e-38
0.05474894494 -0.05110589042 0.07779999822 2.345219836e-38
0.05464786291 -0.05109326169 0.0777393803 2.345219836e-38
0.05490994826 -0.05086954311 0.07804103196 2.345219836e-38
0.05487174168 -0.05096687004 0.07802930474 2.345219836e-38
0.05486389995 -0.05088328198 0.07796759158 2.345219836e-38
0.05467071012 -0.05115570128 0.07768268883 2.345219836e-38
0.05484397709 -0.05101384223 0.07797362655 2.345219836e-38
0.0547574684 -0.05107564479 0.07782485336 2.345219836e-38
0.05469226092 -0.05114841834 0.07773091644 2.345219836e-38
0.05463268608 -0.05111720413 0.07771442831 2.345219836e-38
0.05476454645 -0.05109386146 0.07781132311 2.345219836e-38
0.05466955155 -0.05116417632 0.07767421007 2.345219836e-38
0.05489866063 -0.0509369038 0.0780833289 2.345219836e-38
0.05465619639 -0.05118369684 0.07765766978 2.345219836e-38
0.05468270928 -0.05125526339 0.0775462836 2.345219836e-38
0.05490872636 -0.0509130843 0.07810758054 2.345219836e-38
0.05479216948 -0.05103318021 0.07787930965 2.345219836e-38
0.05482506752 -0.05093473941 0.07792592049 2.345219836e-38
0.05482115969 -0.05103107914 0.07793537527 2.345219836e-38
0.0548966676 -0.05086136237 0.07799974829 2.345219836e-38
0.05484703183 -0.05101144314 0.0779844597 2.345219836e-38
0.05484811962 -0.05100284144 0.07796744257 2.345219836e-38
0.05486624315 -0.05085834861 0.07798993587 2.345219836e-38
0.05483545363 -0.05102104321 0.07795016468 2.345219836e-38
0.05478806794 -0.05095230788 0.07790292799 2.345219836e-38
0.05480658635 -0.05104255676 0.07790976018 2.345219836e-38
0.05488594621 -0.05090839416 0.07801750302 2.345219836e-38
0.05464294553 -0.05120716244 0.07760466635 2.345219836e-38
0.05482055619 -0.05100456998 0.0779197365 2.345219836e-38
0.05464037508 -0.05113615841 0.07768806815 2.345219836e-38
0.05487615988 -0.05086313933 0.07798589766 2.345219836e-38
0.05486835539 -0.05097984523 0.07803230733 2.345219836e-38
0.05481028557 -0.05105598271 0.07788757235 2.345219836e-38
0.05469015986 -0.05114069581 0.07773438841 2.345219836e-38
0.05473707244 -0.05109576508 0.07779246569 2.345219836e-38
0.05465830117 -0.05115458742 0.07767199725 2.345219836e-38
0.05493615568 -0.05089220032 0.07814800739 2.345219836e-38
0.05467319489 -0.0511248894 0.07772228122 2.345219836e-38
0.05486371368 -0.0509109199 0.07797341794 2.345219836e-38
0.05483712628 -0.05089561269 0.07794932276 2.345219836e-38
0.05484721065 -0.05100205168 0.0779755339 2.345219836e-38
0.05480006337 -0.05105851963 0.07788545638 2.345219836e-38
0.05473537743 -0.05100850761 0.07785606384 2.345219836e-38
0.05491969734 -0.05089393631 0.07813427597 2.345219836e-38
0.05485706031 -0.05098806694 0.07799579203 2.345219836e-38
0.05480290577 -0.05104641244 0.07791020721 2.345219836e-38
0.05489088222 -0.05094096065 0.07807023823 2.345219836e-38
0.0548768416 -0.05089248344 0.07798805833 2.345219836e-38
0.05466799065 -0.05107309669 0.07776965201 2.345219836e-38
0.05468857288 -0.05115265027 0.07772254944 2.345219836e-38
0.05470737815 -0.05110041425 0.07777225226 2.345219836e-38
0.05478881672 -0.05104316399 0.07787905633 2.345219836e-38
0.05472471192 -0.0510760285 0.07780762762 2.345219836e-38
0.05483283103 -0.05099423602 0.07793550193 2.345219836e-38
0.05477537215 -0.05106792599 0.07786411792 2.345219836e-38
0.05472945049 -0.05114092678 0.07773293555 2.345219836e-38
0.05483948067 -0.05096595734 0.07794770598 2.345219836e-38
0.05470907688 -0.0510750562 0.07779829204 2.345219836e-38
0.05475451797 -0.05109839514 0.07780988514 2.345219836e-38
0.05487300828 -0.05098157376 0.07803495973 2.345219836e-38
0.0546226576 -0.0511485301 0.07765935361 2.345219836e-38
0.05471778661 -0.0511672534 0.07768672705 2.345219836e-38
0.05480775237 -0.05104233697 0.07791620493 2.345219836e-38
