# .PCD v0.7 - Point Cloud Data file format
VERSION 0.7
FIELDS x y z rgb
SIZE 4 4 4 4
TYPE F F F F
COUNT 1 1 1 1
WIDTH 840
HEIGHT 1
VIEWPOINT 0 0 0 1 0 0 0
POINTS 840
DATA ascii
0.2001354247 -0.4852561057 0.4814140201 3.015101038e-39
0.2542425692 -0.4848489463 -0.2734933794 3.015101038e-39
-0.2009244114 -0.4838548005 -0.1575126201 3.015101038e-39
-0.2334050238 -0.4854901433 -0.06877678633 3.015101038e-39
-0.1813483238 -0.4904360175 0.3702810109 3.015101038e-39
0.03558951244 -0.3960749507 -0.1738006771 3.015101038e-39
0.2880093753 -0.4775582552 -0.2852335572 3.015101038e-39
-0.2587853968 -0.4345284104 -0.2635093629 3.015101038e-39
0.2625559568 -0.4876641035 0.1032741666 3.015101038e-39
-0.2273120135 -0.3706422746 -0.2723962665 3.015101038e-39
-0.2129149586 -0.3628594577 -0.2598928809 3.015101038e-39
-0.201470077 -0.4748560488 0.04844078422 3.015101038e-39
0.2937740684 -0.4871845543 0.1002439186 3.015101038e-39
0.237928018 -0.3779667318 -0.1673780382 3.015101038e-39
-0.07555325329 -0.4827118516 0.4596527815 3.015101038e-39
-0.08823129535 -0.4851245284 0.4108323157 3.015101038e-39
0.1081624478 -0.4885935187 0.3425617218 3.015101038e-39
0.2093233764 -0.4921148419 -0.3176161349 3.015101038e-39
0.3028291166 -0.4742416739 -0.2420027554 3.015101038e-39
0.2971428037 -0.3651884198 -0.1753906608 3.015101038e-39
0.2985807359 -0.4027349651 -0.2660809755 3.015101038e-39
-0.160417676 -0.4869101942 0.0401311256 3.015101038e-39
-0.2268638611 -0.4490659833 -0.282935828 3.015101038e-39
0.2328350693 -0.487934649 0.106082499 3.015101038e-39
-0.130646348 -0.3488127887 -0.1549860835 3.015101038e-39
0.1438076347 -0.4868737459 -0.2815547884 3.015101038e-39
0.1780317277 -0.4881311059 0.3063040674 3.015101038e-39
0.2647738159 -0.4904206395 0.150846839 3.015101038e-39
0.2035480738 -0.4887403846 0.1742524952 3.015101038e-39
0.06578864157 -0.3991870582 -0.1942215264 3.015101038e-39
0.2980213463 -0.4870519042 -0.04742487893 3.015101038e-39
-0.2363218814 -0.4801371098 0.05053728446 3.015101038e-39
-0.03978653997 -0.4881840944 0.4575795233 3.015101038e-39
0.04249339923 -0.4870038927 -0.2566803396 3.015101038e-39
-0.1870781481 -0.4884741306 0.263784498 3.015101038e-39
0.03907240555 -0.4039133489 -0.1351464689 3.015101038e-39
0.1214429289 -0.4877486229 -0.2324191332 3.015101038e-39
0.03655632213 -0.4872437119 0.01552082412 3.015101038e-39
-0.1715830117 -0.4769502282 0.02822564542 3.015101038e-39
-0.2436864525 -0.3507732153 -0.1984743625 3.015101038e-39
0.2851670086 -0.4728119969 -0.2913504243 3.015101038e-39
0.2796431184 -0.4877240062 -0.1298105419 3.015101038e-39
0.2461908907 -0.4901899993 0.1381595731 3.015101038e-39
0.3084431887 -0.3169192374 -0.1949559599 3.015101038e-39
-0.2155163437 -0.4371287823 -0.1411987394 3.015101038e-39
-0.2587770522 -0.381793201 -0.2734469771 3.015101038e-39
0.01971103624 -0.3985199928 -0.199615404 3.015101038e-39
-0.220362559 -0.3513032198 -0.2382828295 3.015101038e-39
-0.08775182813 -0.350001961 -0.1615002453 3.015101038e-39
0.0549739562 -0.4893872142 0.1641722172 3.015101038e-39
0.04904674366 -0.4875231683 0.007036674768 3.015101038e-39
-0.06375019252 -0.4861790538 0.0766184181 3.015101038e-39
-0.2281808406 -0.4673990607 -0.086138919 3.015101038e-39
0.2917759418 -0.4889843464 0.2154068798 3.015101038e-39
-0.03754935414 -0.4459063113 -0.2817459106 3.015101038e-39
0.07202729583 -0.4882848263 0.05914191157 3.015101038e-39
-0.1757605076 -0.448626399 -0.2959024012 3.015101038e-39
-0.0596482195 -0.4056672752 -0.2307654023 3.015101038e-39
-0.06534337252 -0.4871875346 0.1399229467 3.015101038e-39
0.2840459049 -0.350423336 -0.2178193927 3.015101038e-39
-0.1448436826 -0.3538498282 -0.07142536342 3.015101038e-39
-0.1710361987 -0.362806648 -0.08792817593 3.015101038e-39
-0.1971352249 -0.4497216344 -0.2854723036 3.015101038e-39
-0.1884625256 -0.4841711223 -0.07560510933 3.015101038e-39
0.2463025302 -0.4837113917 -0.301148057 3.015101038e-39
-0.1148147434 -0.3831180632 0.07785415649 3.015101038e-39
0.2953839004 -0.4589616358 -0.01877383888 3.015101038e-39
0.1057089865 -0.4890517294 0.2327203602 3.015101038e-39
0.2271613926 -0.4898048639 0.407099992 3.015101038e-39
-0.133061409 -0.488412708 0.2638277709 3.015101038e-39
0.1637411416 -0.4848867655 0.502212286 3.015101038e-39
0.2918552458 -0.3770180047 -0.2940684557 3.015101038e-39
-0.206920132 -0.4901097715 0.3641148806 3.015101038e-39
-0.1434693485 -0.4853995442 -0.09049236774 3.015101038e-39
0.3007507026 -0.4887542725 0.1663840115 3.015101038e-39
0.2002085149 -0.3791048229 -0.1806677133 3.015101038e-39
-0.1123041809 -0.4101144969 -0.00977203995 3.015101038e-39
-0.07148493826 -0.485355258 -0.0330885388 3.015101038e-39
-0.01191657409 -0.4490357041 -0.283645004 3.015101038e-39
0.3006467819 -0.4253039956 -0.139778927 3.015101038e-39
-0.1897932142 -0.3866930902 -0.07338708639 3.015101038e-39
0.1362563074 -0.4889691472 0.2086371928 3.015101038e-39
0.2095417827 -0.4029088616 -0.1472441703 3.015101038e-39
0.2690214813 -0.4104788899 -0.1209303588 3.015101038e-39
0.169876799 -0.4025940895 -0.2324109674 3.015101038e-39
0.2904832959 -0.4844633937 -0.2666309178 3.015101038e-39
0.2292328626 -0.4826260805 -0.2802649438 3.015101038e-39
-0.1111567318 -0.388936609 0.02225290425 3.015101038e-39
0.0132483542 -0.4901508689 0.3804852068 3.015101038e-39
0.2141299695 -0.4886085391 -0.1498598754 3.015101038e-39
-0.03394063935 -0.41870597 0.04124432057 3.015101038e-39
0.1886371225 -0.4886796474 0.2130953372 3.015101038e-39
0.03017028421 -0.4893213212 0.1740678251 3.015101038e-39
-0.06699433923 -0.4854632616 0.01931597851 3.015101038e-39
0.2050058991 -0.4878819585 0.0316000469 3.015101038e-39
0.0433110334 -0.4845597744 0.4845342636 3.015101038e-39
0.2990604639 -0.4881398678 0.1492221802 3.015101038e-39
-0.1651861966 -0.3475047648 -0.09674488008 3.015101038e-39
0.2548221648 -0.4882041216 -0.1777732521 3.015101038e-39
-0.250323385 -0.4041444063 -0.282101512 3.015101038e-39
0.2619951665 -0.4874126315 -0.02902651206 3.015101038e-39
0.2844631672 -0.3104125559 -0.2589503825 3.015101038e-39
0.2915630341 -0.3361727297 -0.2331250906 3.015101038e-39
-0.1010342687 -0.4224624634 0.00940458104 3.015101038e-39
0.01962778717 -0.3968952 -0.1837336719 3.015101038e-39
-0.1043020189 -0.4869064987 0.1397022903 3.015101038e-39
-0.08394368738 -0.4835295081 0.4286592901 3.015101038e-39
-0.04485670477 -0.4403592348 -0.2771256566 3.015101038e-39
0.2581160665 -0.4859445691 -0.2709541321 3.015101038e-39
-0.1428029388 -0.3495750129 -0.197924912 3.015101038e-39
-0.1361185163 -0.4877604246 0.1961009055 3.015101038e-39
-0.1480515748 -0.4852098227 -0.1169012487 3.015101038e-39
0.1141511649 -0.4119657278 -0.1732094139 3.015101038e-39
0.3651322424 -0.485425204 0.08010929823 5.962428276e-39
0.2322318107 -0.4733563066 -0.2195284367 5.962428276e-39
-0.09960202873 -0.4895176291 0.3262189925 5.962428276e-39
-0.2374989837 -0.4870928228 -0.1068435013 5.962428276e-39
-0.09670822322 -0.4876485169 -0.06721323729 5.962428276e-39
0.1053272486 -0.4881266057 0.1945285052 5.962428276e-39
0.2443351001 -0.4861423373 -0.2258217633 5.962428276e-39
0.09674447775 -0.4330726266 -0.1752354205 5.962428276e-39
0.07321740687 -0.4888421893 -0.1229921132 5.962428276e-39
0.1366371512 -0.487926513 -0.1917872131 5.962428276e-39
0.2089703977 -0.4874659181 -0.05411169305 5.962428276e-39
-0.2196437865 -0.3731878996 -0.1439769268 5.962428276e-39
-0.0258511696 -0.4514257014 -0.2261206806 5.962428276e-39
0.179408893 -0.4170081615 -0.1068706959 5.962428276e-39
-0.0692718029 -0.4883656204 0.1790568531 5.962428276e-39
0.2889369726 -0.4823112488 0.4188121259 5.962428276e-39
0.3531259596 -0.4787239432 -0.1767747551 5.962428276e-39
-0.2276732326 -0.4875657558 -0.1213691384 5.962428276e-39
-0.2652809322 -0.487637341 -0.03296663985 5.962428276e-39
-0.1972616315 -0.4902465343 0.319581598 5.962428276e-39
-0.01334868744 -0.4500172734 -0.2011609972 5.962428276e-39
0.3729222119 -0.4499203861 -0.1915932894 5.962428276e-39
-0.240270704 -0.475667417 -0.2038480043 5.962428276e-39
0.3549920022 -0.4753589332 0.1132588387 5.962428276e-39
-0.2100340277 -0.4386794269 -0.2516746819 5.962428276e-39
-0.2016886026 -0.4266775548 -0.248182714 5.962428276e-39
-0.2945049405 -0.488314867 0.06573893875 5.962428276e-39
0.3546298742 -0.4459516704 0.08690845966 5.962428276e-39
0.3764772415 -0.1605059206 -0.1111944318 5.962428276e-39
-0.09631256759 -0.4912227094 0.422891736 5.962428276e-39
-0.05928112566 -0.4906937182 0.442050904 5.962428276e-39
0.2418263704 -0.4877722859 0.3347879946 5.962428276e-39
0.2671393752 -0.4876127839 -0.2561684549 5.962428276e-39
0.3721147776 -0.4075929224 -0.1577243507 5.962428276e-39
0.3772539496 -0.2001369745 -0.1139385253 5.962428276e-39
0.3760814369 -0.4671077728 -0.2010057867 5.962428276e-39
-0.1841308177 -0.4877176881 0.07693867385 5.962428276e-39
-0.1670351624 -0.4859241247 -0.2288753688 5.962428276e-39
0.3580670357 -0.4865778685 0.1283423454 5.962428276e-39
-0.03542017192 -0.41355443 -0.09478966892 5.962428276e-39
0.2328038067 -0.4863921404 -0.2199707329 5.962428276e-39
0.3076651692 -0.4882592857 0.2914016545 5.962428276e-39
0.2960382998 -0.3366552889 0.1238796413 5.962428276e-39
0.346612066 -0.488239944 0.1763324887 5.962428276e-39
0.01630527899 -0.452991277 -0.2178474367 5.962428276e-39
0.3651880026 -0.4361534715 -0.01306283846 5.962428276e-39
-0.2945138514 -0.4889434278 0.07425838709 5.962428276e-39
-0.03002165817 -0.4906316102 0.4076049626 5.962428276e-39
0.1334533542 -0.487606287 -0.2083508968 5.962428276e-39
-0.2202077359 -0.4893065691 0.2484908104 5.962428276e-39
0.09600497782 -0.4630149007 -0.05307237431 5.962428276e-39
0.2134572268 -0.4877245426 -0.1555794179 5.962428276e-39
0.09272997081 -0.4882414639 0.06106057018 5.962428276e-39
-0.2839901149 -0.483186692 0.03852822632 5.962428276e-39
-0.2322176248 -0.3861270547 -0.1559157223 5.962428276e-39
0.3621692955 -0.4547462761 -0.1997341067 5.962428276e-39
0.3742231727 -0.4580970705 -0.05131895468 5.962428276e-39
0.2887306213 -0.3052237332 0.1348707229 5.962428276e-39
0.4463099241 -0.2237583697 -0.08853882551 5.962428276e-39
-0.2781706154 -0.456187278 -0.0962574482 5.962428276e-39
-0.2343103737 -0.442836374 -0.2191153169 5.962428276e-39
-0.018017428 -0.4480725229 -0.2364067733 5.962428276e-39
-0.2126732469 -0.3917763531 -0.1976309121 5.962428276e-39
-0.04116298258 -0.4232405126 -0.1458803862 5.962428276e-39
0.1380094886 -0.4881997705 0.171770975 5.962428276e-39
0.1152741462 -0.4881578982 0.0543670021 5.962428276e-39
-0.05020843446 -0.4883036613 0.1060045809 5.962428276e-39
-0.2949085534 -0.4864641726 -0.0427585803 5.962428276e-39
0.3281984031 -0.4383773506 0.1541864723 5.962428276e-39
-0.009686399251 -0.4908418357 -0.3037310839 5.962428276e-39
0.1670693457 -0.4881587625 0.1009050161 5.962428276e-39
-0.1204311997 -0.4863576293 -0.2604611516 5.962428276e-39
-0.05552407354 -0.4568033218 -0.2768166959 5.962428276e-39
-0.04096432403 -0.4883064628 0.1483524293 5.962428276e-39
0.3801794946 -0.2789379656 -0.1532357037 5.962428276e-39
-0.139435187 -0.3612508178 -0.04395831749 5.962428276e-39
-0.1888751835 -0.3500734866 -0.07996413112 5.962428276e-39
-0.142424956 -0.486728549 -0.2358772755 5.962428276e-39
-0.2221398801 -0.4867272377 -0.03887159005 5.962428276e-39
0.3143288493 -0.4747058153 -0.2218420506 5.962428276e-39
-0.006949551404 -0.4471822679 0.1410510987 5.962428276e-39
0.3517173231 -0.3425157964 -0.02785905823 5.962428276e-39
0.2205132097 -0.4877038002 0.2326901704 5.962428276e-39
0.3045960069 -0.4873646796 0.3715518117 5.962428276e-39
-0.1195597947 -0.4889284968 0.2500939071 5.962428276e-39
0.2732670903 -0.4888330102 0.4476154149 5.962428276e-39
0.3580353558 -0.3148364127 -0.210562706 5.962428276e-39
-0.2374703139 -0.4909697175 0.3225055933 5.962428276e-39
-0.1700147688 -0.4858949482 -0.04467380419 5.962428276e-39
0.3484214246 -0.4340184331 0.1103350669 5.962428276e-39
0.3618108034 -0.1410368979 -0.1155844331 5.962428276e-39
-0.1953413486 -0.4136134982 -0.04348467663 5.962428276e-39
-0.06263907254 -0.4876263738 0.02296408452 5.962428276e-39
0.01287191734 -0.4918389022 -0.305295676 5.962428276e-39
0.3714961112 -0.3075359762 -0.09356103837 5.962428276e-39
-0.2341939062 -0.3971996009 -0.09791737795 5.962428276e-39
0.2656520009 -0.4878289402 0.216051206 5.962428276e-39
0.3599598408 -0.1845960319 -0.1010525674 5.962428276e-39
0.3634798229 -0.2495543808 -0.08361592889 5.962428276e-39
0.1328335106 -0.4595369697 -0.2235239148 5.962428276e-39
0.38222754 -0.4478121698 -0.1705365628 5.962428276e-39
0.3158662319 -0.4808732271 -0.1951301396 5.962428276e-39
0.001292526722 -0.4552836418 0.1311937124 5.962428276e-39
0.09326970577 -0.487978518 0.3472453952 5.962428276e-39
0.3228140473 -0.4868583381 -0.06117612496 5.962428276e-39
0.1747724414 -0.5272668004 0.2432114631 5.962428276e-39
0.3283064067 -0.4883801937 0.2201349288 5.962428276e-39
0.08585505188 -0.4884014428 0.183128953 5.962428276e-39
-0.05669656396 -0.4882052243 0.07532602549 5.962428276e-39
0.3519353569 -0.4869354367 0.07943657786 5.962428276e-39
0.1858795881 -0.4917885363 0.4812736809 5.962428276e-39
0.3502781093 -0.4356358945 0.105586037 5.962428276e-39
-0.1686947495 -0.3504408896 -0.07437576354 5.962428276e-39
0.36818555 -0.4818066955 -0.08865362406 5.962428276e-39
-0.2182306647 -0.4694910645 -0.2443929613 5.962428276e-39
0.3677820861 -0.4705530703 0.02298636176 5.962428276e-39
0.3625640273 -0.2149662673 -0.1709069312 5.962428276e-39
0.3657268882 -0.2200132608 -0.148873657 5.962428276e-39
-0.1884845644 -0.4267852902 -0.02244703099 5.962428276e-39
-0.02869110554 -0.4522063732 -0.2140384316 5.962428276e-39
-0.08184665442 -0.4881600738 0.142815873 5.962428276e-39
-0.0791516304 -0.4912434816 0.4452345669 5.962428276e-39
-0.01898645796 -0.4889595807 -0.3058577776 5.962428276e-39
0.3597900569 -0.4782081842 -0.1723736525 5.962428276e-39
-0.1304456294 -0.378075242 -0.1907249391 5.962428276e-39
-0.1289006025 -0.4885528684 0.1957291067 5.962428276e-39
-0.1644032449 -0.4860781729 -0.06513476372 5.962428276e-39
0.07396069169 -0.4387276471 -0.1777458042 5.962428276e-39
0.3663930893 -0.4027093053 0.02944421023 8.906165387e-39
0.3726948798 -0.4512955844 -0.1642347425 8.906165387e-39
-0.1384791285 -0.4902506471 0.3277940154 8.906165387e-39
-0.2560827434 -0.4876345992 -0.1251066327 8.906165387e-39
-0.0624185577 -0.4887701869 -0.0649831444 8.906165387e-39
0.1746241897 -0.488391012 0.1753871292 8.906165387e-39
0.3151960671 -0.4766039848 -0.2120994031 8.906165387e-39
0.3757498562 -0.3541141748 -0.09632234275 8.906165387e-39
0.2033255696 -0.4878677428 -0.1140594482 8.906165387e-39
0.2540150583 -0.4864837527 -0.1781072319 8.906165387e-39
0.3185844421 -0.4867691398 -0.04258188978 8.906165387e-39
-0.1735147089 -0.3741928041 -0.1017014831 8.906165387e-39
0.2711751163 -0.4054040015 -0.1276751757 8.906165387e-39
0.4131241739 -0.34417063 0.01339298487 8.906165387e-39
-0.08761790395 -0.4894560277 0.1705600172 8.906165387e-39
0.3474133015 -0.4829751551 0.3855320513 8.906165387e-39
0.377176851 -0.4375529587 -0.1659383774 8.906165387e-39
-0.2417824566 -0.4875999093 -0.1368693262 8.906165387e-39
-0.2905305922 -0.4884579182 -0.03903861716 8.906165387e-39
-0.2523733675 -0.4900700152 0.3195796311 8.906165387e-39
0.2917013466 -0.405801028 -0.08639468253 8.906165387e-39
0.3670573533 -0.4148836732 -0.181934908 8.906165387e-39
-0.2454034984 -0.4716978967 -0.1870526522 8.906165387e-39
0.3602938652 -0.3888542056 0.05115913227 8.906165387e-39
-0.1843194216 -0.4341369271 -0.211553216 8.906165387e-39
-0.1722014993 -0.4200237989 -0.2002067715 8.906165387e-39
-0.2887938619 -0.4807861149 0.05404237285 8.906165387e-39
0.3577456772 -0.3523226082 0.03041416779 8.906165387e-39
0.3838130832 -0.1193761528 -0.08799915016 8.906165387e-39
-0.1645438373 -0.4919864833 0.417126447 8.906165387e-39
-0.1367866099 -0.4921701252 0.4698824584 8.906165387e-39
0.3151610792 -0.4884462357 0.2963592708 8.906165387e-39
0.331905216 -0.4869279563 -0.2325819731 8.906165387e-39
0.3734654188 -0.3471500576 -0.1297055632 8.906165387e-39
0.3856179714 -0.1654730737 -0.08499422669 8.906165387e-39
0.3935508728 -0.4568868876 -0.168840453 8.906165387e-39
-0.2155193835 -0.4880157113 0.06867973506 8.906165387e-39
-0.1706024855 -0.4820995927 -0.2232883275 8.906165387e-39
0.3651337922 -0.424172461 0.06909486651 8.906165387e-39
0.1360349506 -0.487351656 0.09021960199 8.906165387e-39
0.3099533021 -0.4783837795 -0.2095716596 8.906165387e-39
0.3591244817 -0.4881696999 0.245636791 8.906165387e-39
0.3470162749 -0.2679299116 0.06772994995 8.906165387e-39
0.3649050593 -0.4558213353 0.1125914305 8.906165387e-39
0.3212818503 -0.3879458308 -0.1282697171 8.906165387e-39
0.3720914423 -0.355425179 -0.02869297192 8.906165387e-39
-0.3048081994 -0.4889328778 0.06807370484 8.906165387e-39
-0.07878717035 -0.4914557338 0.4030256271 8.906165387e-39
0.2524829209 -0.4863038659 -0.1957290024 8.906165387e-39
-0.2610589266 -0.4893740416 0.2468654215 8.906165387e-39
0.3034297228 -0.4526044726 0.1357748657 8.906165387e-39
0.3050471246 -0.4857372046 -0.1507091969 8.906165387e-39
0.173173666 -0.4887145162 0.04912088066 8.906165387e-39
-0.275634408 -0.4740697145 0.04002653435 8.906165387e-39
-0.1998330057 -0.3847672343 -0.1326996237 8.906165387e-39
0.3647386432 -0.4315724969 -0.1876730472 8.906165387e-39
0.3760568798 -0.3772257864 -0.05891792849 8.906165387e-39
0.3467004299 -0.2435553223 0.07653711736 8.906165387e-39
0.4318957627 -0.1087566018 -0.05162315443 8.906165387e-39
-0.2669878602 -0.4366238415 -0.08597160876 8.906165387e-39
-0.2249666601 -0.4379988015 -0.1859166324 8.906165387e-39
0.2709853947 -0.408331573 -0.1420231909 8.906165387e-39
-0.1706354469 -0.3958231509 -0.1514234096 8.906165387e-39
0.1383604854 -0.4788748026 0.03825642169 8.906165387e-39
0.2190084904 -0.4887525439 0.1505279988 8.906165387e-39
0.1999362856 -0.4883731604 0.04207547754 8.906165387e-39
-0.0378815271 -0.4895499349 0.08821217716 8.906165387e-39
-0.2885470986 -0.4768956304 -0.04638670012 8.906165387e-39
0.3468798995 -0.3380061388 0.07655789703 8.906165387e-39
0.1255789995 -0.4928235412 -0.291744858 8.906165387e-39
0.2700590789 -0.4884929955 0.08250230551 8.906165387e-39
-0.0464094989 -0.4852377176 -0.2679035366 8.906165387e-39
0.117892161 -0.4538060427 -0.213463366 8.906165387e-39
-0.04173659533 -0.4896332622 0.1328294426 8.906165387e-39
0.415391326 -0.2350127995 -0.121389389 8.906165387e-39
-0.06917923689 -0.4166404009 0.04743055254 8.906165387e-39
-0.1401002705 -0.3915775716 -0.01847241446 8.906165387e-39
-0.1207676679 -0.4830179811 -0.2491677105 8.906165387e-39
-0.2498549074 -0.487373054 -0.05309811607 8.906165387e-39
0.3617076278 -0.4689384997 -0.2006144077 8.906165387e-39
0.03043769673 -0.4798888862 0.2078745216 8.906165387e-39
0.3662779927 -0.2758007348 -0.02580453083 8.906165387e-39
0.3110634089 -0.4882413745 0.205587551 8.906165387e-39
0.362773627 -0.4811819792 0.3235096633 8.906165387e-39
-0.1446326673 -0.4891628325 0.2448337674 8.906165387e-39
0.3347482383 -0.4885567725 0.4285207093 8.906165387e-39
0.3527134359 -0.2947886586 -0.1937321573 8.906165387e-39
-0.2750098407 -0.489957273 0.3347211778 8.906165387e-39
-0.1739239544 -0.4860679507 -0.04666227475 8.906165387e-39
0.3522541523 -0.3415170312 0.04620010033 8.906165387e-39
0.3750326633 -0.09786391258 -0.09617906809 8.906165387e-39
-0.1651704609 -0.4159342051 0.008273888379 8.906165387e-39
-0.04337249696 -0.488735199 0.01528795995 8.906165387e-39
0.1499055475 -0.4944418967 -0.2932012379 8.906165387e-39
0.3783861101 -0.2482766211 -0.07468637824 8.906165387e-39
-0.2105654776 -0.3983423412 -0.06108522043 8.906165387e-39
0.358871907 -0.4881978631 0.1804168522 8.906165387e-39
0.3758104444 -0.1285042018 -0.06571207941 8.906165387e-39
0.379766643 -0.1865667999 -0.05795469508 8.906165387e-39
0.3465362787 -0.4256488085 -0.1679288596 8.906165387e-39
0.3718048334 -0.3951124251 -0.1545239538 8.906165387e-39
0.3679663539 -0.458912313 -0.1800860018 8.906165387e-39
0.0965526998 -0.4977078438 0.220556125 8.906165387e-39
0.1117737144 -0.4886551797 0.3266685605 8.906165387e-39
0.3810102046 -0.4460685253 -0.05262644961 8.906165387e-39
0.2552961111 -0.2648003995 0.2647601068 8.906165387e-39
0.3621203601 -0.4754027128 0.1599666625 8.906165387e-39
0.1541928649 -0.4887173772 0.1638952941 8.906165387e-39
-0.03980280459 -0.489353478 0.05917060748 8.906165387e-39
0.3715282381 -0.4426739216 0.04055612534 8.906165387e-39
0.1983244866 -0.4923194945 0.4865518808 8.906165387e-39
0.3536242545 -0.3449266553 0.04223455861 8.906165387e-39
-0.0975536406 -0.3958123624 0.009512268007 8.906165387e-39
0.3802331388 -0.4148417115 -0.08543132246 8.906165387e-39
-0.2211294025 -0.4652438164 -0.2214644849 8.906165387e-39
0.3699828684 -0.3847037554 -0.004575140774 8.906165387e-39
0.3750667572 -0.1906261444 -0.1485887319 8.906165387e-39
0.3816894591 -0.1897615343 -0.1188864708 8.906165387e-39
-0.1623637974 -0.4205254018 0.02906964719 8.906165387e-39
0.2694895864 -0.408678174 -0.1086733937 8.906165387e-39
-0.09814046323 -0.4892439842 0.1327450722 8.906165387e-39
-0.149507761 -0.4925511479 0.4610489309 8.906165387e-39
0.1130125821 -0.4906821847 -0.2931118011 8.906165387e-39
0.3789209425 -0.4316000342 -0.1607206911 8.906165387e-39
-0.008678210899 -0.4601015449 -0.07450377941 8.906165387e-39
-0.1568011343 -0.4891654253 0.1897810847 8.906165387e-39
-0.1627987027 -0.4862641692 -0.06152255461 8.906165387e-39
0.366094768 -0.362415731 -0.08964262903 8.906165387e-39
0.3664731383 -0.3792785406 0.06760875136 1.184631237e-38
0.3562216759 -0.482803762 -0.219375819 1.184631237e-38
-0.08587220311 -0.4916313291 0.3745026588 1.184631237e-38
-0.2015167028 -0.4869955182 0.01409808174 1.184631237e-38
0.05785140023 -0.4894299507 0.003458470106 1.184631237e-38
0.2770138085 -0.488042295 0.2281586975 1.184631237e-38
0.3632872105 -0.4839096069 -0.1354959309 1.184631237e-38
0.317945689 -0.4054674208 -0.1683523506 1.184631237e-38
0.258680135 -0.487787962 -0.02798702195 1.184631237e-38
0.3023939729 -0.4860278368 -0.1009685248 1.184631237e-38
0.381632328 -0.4858467579 0.02146167494 1.184631237e-38
-0.2334011942 -0.4109950364 -0.1348598003 1.184631237e-38
0.1963761002 -0.445725739 -0.2104945183 1.184631237e-38
0.404412955 -0.3543477356 -0.05018352345 1.184631237e-38
0.002759654075 -0.4893403351 0.2239581347 1.184631237e-38
0.3834201396 -0.4320706725 0.3622639477 1.184631237e-38
0.3813427687 -0.4126201868 -0.1071823239 1.184631237e-38
-0.171827659 -0.4868894517 -0.007901720703 1.184631237e-38
-0.2718884945 -0.4870317578 0.09025037289 1.184631237e-38
-0.2282561362 -0.4915816784 0.3771333098 1.184631237e-38
0.2236345261 -0.4191384017 -0.1745018959 1.184631237e-38
0.37222296 -0.3930106461 -0.121446088 1.184631237e-38
-0.1938546598 -0.4868911207 -0.1171680242 1.184631237e-38
0.3611231148 -0.3568525612 0.08394726366 1.184631237e-38
-0.142632857 -0.4752441645 -0.205854699 1.184631237e-38
-0.1344128996 -0.4686319828 -0.2113722563 1.184631237e-38
-0.2976743877 -0.4888082147 0.222172901 1.184631237e-38
0.3567862809 -0.3312672377 0.07473561168 1.184631237e-38
0.3740278482 -0.1183073968 -0.02795326337 1.184631237e-38
-0.1407481581 -0.4938678741 0.4651916623 1.184631237e-38
-0.1291346997 -0.4951172769 0.4878015816 1.184631237e-38
0.3738183975 -0.4898225069 0.3475987911 1.184631237e-38
0.3509652317 -0.4832185507 -0.1645499766 1.184631237e-38
0.3808490038 -0.3316167593 -0.07768160105 1.184631237e-38
0.3857086003 -0.15940319 -0.03643269464 1.184631237e-38
0.3933074176 -0.4679407477 -0.1635404229 1.184631237e-38
-0.1498212963 -0.4897259176 0.1446289271 1.184631237e-38
-0.06243543327 -0.486782372 -0.1358813494 1.184631237e-38
0.3629961908 -0.3836472034 0.09129146487 1.184631237e-38
0.0265846625 -0.4737607837 -0.01906230301 1.184631237e-38
0.3590918779 -0.4840789437 -0.1313103139 1.184631237e-38
0.3714859486 -0.4725548029 0.286642015 1.184631237e-38
0.3571328819 -0.2171197832 0.1246016175 1.184631237e-38
0.3647723198 -0.4135460854 0.1359264404 1.184631237e-38
0.2451540083 -0.4462808073 -0.211556077 1.184631237e-38
0.3670071661 -0.3349580169 0.02740163729 1.184631237e-38
-0.2939429581 -0.4884986281 0.2074625492 1.184631237e-38
-0.004476038739 -0.4921800494 0.4556263089 1.184631237e-38
0.3014584482 -0.4855901301 -0.1170250624 1.184631237e-38
-0.2261518091 -0.4901687205 0.2994360328 1.184631237e-38
0.2616434991 -0.4461111426 0.0450421758 1.184631237e-38
0.3742821813 -0.4857760072 -0.06654800475 1.184631237e-38
0.2746903598 -0.4886061549 0.09454075992 1.184631237e-38
-0.2995536029 -0.48883605 0.2049328387 1.184631237e-38
-0.2461565286 -0.4363021851 -0.1429814249 1.184631237e-38
0.3688013852 -0.4031431675 -0.1310909092 1.184631237e-38
0.3771169484 -0.3558411598 -0.00912738964 1.184631237e-38
0.3588258326 -0.1972841173 0.1280532926 1.184631237e-38
0.4325216711 -0.1517757326 -0.05354331806 1.184631237e-38
-0.2949672937 -0.4856797755 -0.006647113711 1.184631237e-38
-0.2068077624 -0.4817922115 -0.1679669619 1.184631237e-38
0.1999785304 -0.4549271464 -0.2222664952 1.184631237e-38
-0.216080308 -0.4510518312 -0.18739748 1.184631237e-38
0.05906073377 -0.4637673497 -0.05902036652 1.184631237e-38
0.3241376281 -0.4882121682 0.2017973363 1.184631237e-38
0.302881062 -0.4884415269 0.09194734693 1.184631237e-38
0.08719825745 -0.490028441 0.1464471668 1.184631237e-38
-0.2944692671 -0.4864496291 0.08190007508 1.184631237e-38
0.3490814865 -0.3004283607 0.1424628198 1.184631237e-38
0.1982186437 -0.4854379892 -0.2042273879 1.184631237e-38
0.3627600372 -0.4879494309 0.1262985468 1.184631237e-38
0.07100702822 -0.4867451787 -0.1712873578 1.184631237e-38
0.1049552858 -0.4799788594 -0.242731452 1.184631237e-38
0.06910245121 -0.4896989763 0.1911468804 1.184631237e-38
0.4156588316 -0.3260483444 -0.118401289 1.184631237e-38
-0.1282428056 -0.4183707833 -0.02581511065 1.184631237e-38
-0.1910627782 -0.3969334662 -0.0722501725 1.184631237e-38
0.00169243291 -0.4869267941 -0.1585750878 1.184631237e-38
-0.1960623264 -0.488629669 0.06838735938 1.184631237e-38
0.3670381904 -0.444268018 -0.1393905729 1.184631237e-38
0.01593516394 -0.4901266098 0.1533961743 1.184631237e-38
0.3643504381 -0.2538613677 0.03830757737 1.184631237e-38
0.3723374009 -0.4886949062 0.2561150193 1.184631237e-38
0.3768265843 -0.4378015399 0.3378881812 1.184631237e-38
-0.08681803197 -0.4898535013 0.2926359475 1.184631237e-38
0.3860107064 -0.4794518352 0.4282875061 1.184631237e-38
0.3636497855 -0.2714189291 -0.1458087862 1.184631237e-38
-0.2789127529 -0.4909942746 0.3878460228 1.184631237e-38
-0.07849811763 -0.4890476763 0.02789068595 1.184631237e-38
0.3518615365 -0.3086003959 0.1007751822 1.184631237e-38
0.3640962243 -0.1049513817 -0.03409266844 1.184631237e-38
-0.2446752936 -0.4312876761 0.01023459062 1.184631237e-38
0.08361743391 -0.4897326827 0.06942422688 1.184631237e-38
0.2167178988 -0.485314548 -0.2040582299 1.184631237e-38
0.3779195249 -0.2341255546 -0.01081749797 1.184631237e-38
-0.2484178692 -0.4167363048 -0.05137551203 1.184631237e-38
0.3731104732 -0.4866491556 0.219075352 1.184631237e-38
0.3627298176 -0.1399998665 0.003632895648 1.184631237e-38
0.374797821 -0.1780264974 0.01446158625 1.184631237e-38
0.2977364361 -0.4743790329 -0.2362620831 1.184631237e-38
0.3781655431 -0.3792284727 -0.09349398315 1.184631237e-38
0.3795053363 -0.437296927 -0.1207419336 1.184631237e-38
0.05644341931 -0.5045444965 0.158906281 1.184631237e-38
0.2263846844 -0.4907766581 0.3927075267 1.184631237e-38
0.3795863688 -0.4159285128 -0.005054119974 1.184631237e-38
0.2306830138 -0.4065483212 0.2139423937 1.184631237e-38
0.3666097224 -0.4363548458 0.1914135069 1.184631237e-38
0.2486422509 -0.4880774319 0.2147535384 1.184631237e-38
0.08404928446 -0.490028739 0.1173682511 1.184631237e-38
0.3701922894 -0.4143019319 0.07309817523 1.184631237e-38
0.3037037551 -0.4905942678 0.4823848307 1.184631237e-38
0.3524006605 -0.3138996363 0.09431992471 1.184631237e-38
-0.1582608074 -0.4072433114 -0.05339727923 1.184631237e-38
0.3796933889 -0.3876595795 -0.03012128547 1.184631237e-38
-0.158730194 -0.4864911437 -0.1612919718 1.184631237e-38
0.3682496548 -0.3668673635 0.04466953129 1.184631237e-38
0.3833500445 -0.1822050363 -0.1134423018 1.184631237e-38
0.3868603706 -0.1793690324 -0.09207798541 1.184631237e-38
-0.2489309162 -0.4441249371 0.05783128366 1.184631237e-38
0.1985453069 -0.4384491444 -0.1935054511 1.184631237e-38
-0.008467497304 -0.4899582863 0.1909831166 1.184631237e-38
-0.1371926665 -0.4956296384 0.4859037101 1.184631237e-38
0.1832121164 -0.4860420227 -0.2113178968 1.184631237e-38
0.3817048371 -0.4077572525 -0.1011046916 1.184631237e-38
-0.07168088108 -0.428665787 -0.1432233304 1.184631237e-38
-0.09530577064 -0.4897247553 0.2412942797 1.184631237e-38
-0.06094313413 -0.4890547097 0.01155764423 1.184631237e-38
0.3076787591 -0.4019964039 -0.1633856148 1.184631237e-38
0.3621953428 -0.3245693743 0.09234206378 1.478322936e-38
0.3737909794 -0.4829581082 -0.1724827737 1.478322936e-38
-0.008215567097 -0.4920932651 0.4341984391 1.478322936e-38
-0.1048344672 -0.4899566174 0.08407610655 1.478322936e-38
0.1911698133 -0.4892468154 0.05592934042 1.478322936e-38
0.3604305387 -0.4882336855 0.2821727097 1.478322936e-38
0.3896591663 -0.4376666546 -0.08979392052 1.478322936e-38
0.2484232932 -0.4773440361 -0.2292893231 1.478322936e-38
0.3716443479 -0.4869194031 0.02245501243 1.478322936e-38
0.3922493458 -0.483820498 -0.02795993909 1.478322936e-38
0.3840050697 -0.4321297407 0.04579188302 1.478322936e-38
-0.2750729918 -0.479434669 -0.1339699179 1.478322936e-38
0.1742717624 -0.4836902022 -0.226937741 1.478322936e-38
0.2961999178 -0.3880761266 -0.1342155039 1.478322936e-38
0.1009975821 -0.4889836609 0.2700872421 1.478322936e-38
0.3712503612 -0.324498117 0.3236740828 1.478322936e-38
0.3894196153 -0.3727967441 -0.06277450919 1.478322936e-38
-0.07171048969 -0.4898398519 0.06005800515 1.478322936e-38
-0.2185827792 -0.4891504347 0.1603042334 1.478322936e-38
-0.1998704374 -0.4926914871 0.4222623408 1.478322936e-38
0.1631450504 -0.4795518517 -0.2224452794 1.478322936e-38
0.3859865665 -0.3557999134 -0.08301511407 1.478322936e-38
-0.1047673225 -0.4881298542 -0.01947246492 1.478322936e-38
0.3591029346 -0.3037674427 0.1198467463 1.478322936e-38
-0.04764010385 -0.487056613 -0.1457230747 1.478322936e-38
-0.06195253134 -0.4873639643 -0.1640657485 1.478322936e-38
-0.3079498112 -0.4894040227 0.2965146899 1.478322936e-38
0.3618519008 -0.2742307484 0.1152865142 1.478322936e-38
0.3733920455 -0.113809526 0.003810103983 1.478322936e-38
-0.08359160274 -0.4947388768 0.478004545 1.478322936e-38
-0.06694376469 -0.4968351126 0.4823980927 1.478322936e-38
0.3813433051 -0.4807764888 0.3756869435 1.478322936e-38
0.3709112108 -0.4496072531 -0.1196712255 1.478322936e-38
0.3853876591 -0.2872736454 -0.0444640182 1.478322936e-38
0.3811525702 -0.1511407942 -0.01054573804 1.478322936e-38
0.3791135252 -0.4264374375 -0.154310286 1.478322936e-38
-0.05535713583 -0.4901360273 0.2072533667 1.478322936e-38
0.09495724738 -0.4891500473 -0.05472854897 1.478322936e-38
0.3569611609 -0.3269172907 0.125861913 1.478322936e-38
-0.05539954454 -0.4639110267 -0.06031953916 1.478322936e-38
0.3935292363 -0.4413281679 -0.08198350668 1.478322936e-38
0.3655550182 -0.3995598853 0.2925556302 1.478322936e-38
0.3615634441 -0.1628033668 0.1593990624 1.478322936e-38
0.3525128663 -0.3492806852 0.1753916293 1.478322936e-38
0.2209468931 -0.4835961461 -0.2281479836 1.478322936e-38
0.3671033382 -0.2857119441 0.05528869852 1.478322936e-38
-0.303566277 -0.4892906547 0.2681156397 1.478322936e-38
0.08788514137 -0.4934532344 0.4855972528 1.478322936e-38
0.3904887736 -0.4839115739 -0.0446193926 1.478322936e-38
-0.1870810986 -0.491312623 0.35295102 1.478322936e-38
0.1805226952 -0.4568437934 -0.04013210163 1.478322936e-38
0.4003481865 -0.4449231625 -0.01755430922 1.478322936e-38
0.3712418675 -0.4882815182 0.1506794244 1.478322936e-38
-0.3060645759 -0.4891097844 0.2964080274 1.478322936e-38
-0.2646199465 -0.4865693748 -0.129377678 1.478322936e-38
0.3806457222 -0.3668901026 -0.09393079579 1.478322936e-38
0.3732193708 -0.3150777817 0.02426562272 1.478322936e-38
0.3609839976 -0.1417598277 0.1611995399 1.478322936e-38
0.4238014221 -0.2627748251 -0.08249402046 1.478322936e-38
-0.2908834815 -0.4867761135 0.1012571156 1.478322936e-38
-0.1311571598 -0.4865267873 -0.08455397189 1.478322936e-38
0.1909903288 -0.4849298894 -0.2246096134 1.478322936e-38
-0.1920745224 -0.4871655107 -0.166019544 1.478322936e-38
-0.02378112637 -0.4649908841 -0.140107736 1.478322936e-38
0.3787178397 -0.4885228574 0.2477328032 1.478322936e-38
0.3838467002 -0.4881470501 0.1407665461 1.478322936e-38
0.1770958304 -0.4888224006 0.2056458443 1.478322936e-38
-0.2907975912 -0.4880568683 0.1752686203 1.478322936e-38
0.3573132157 -0.2332009375 0.1850544214 1.478322936e-38
0.2834147513 -0.4856828153 -0.1389375329 1.478322936e-38
0.3783878684 -0.4728930593 0.1558375955 1.478322936e-38
0.2201129049 -0.4874761105 -0.09728635848 1.478322936e-38
0.1771865189 -0.4873265028 -0.1993375421 1.478322936e-38
0.1580815464 -0.4887546599 0.2450066507 1.478322936e-38
0.3845629394 -0.4667353928 -0.1575337052 1.478322936e-38
-0.1753866076 -0.4276274443 -0.02496051416 1.478322936e-38
-0.2471041679 -0.411239475 -0.08419069648 1.478322936e-38
0.1686237305 -0.4887411594 -0.07079727948 1.478322936e-38
-0.1013221592 -0.4902942777 0.134319976 1.478322936e-38
0.3766390979 -0.395085603 -0.1017989367 1.478322936e-38
-0.07167749107 -0.4505585134 0.1672868133 1.478322936e-38
0.3706076443 -0.2054923922 0.07241007686 1.478322936e-38
0.3752944469 -0.4763368964 0.2831150889 1.478322936e-38
0.3709150851 -0.3249784112 0.3019301295 1.478322936e-38
-0.0001192167401 -0.4901153147 0.3361966014 1.478322936e-38
0.390191108 -0.4168038368 0.3680441082 1.478322936e-38
0.3722856343 -0.2443350554 -0.1199823767 1.478322936e-38
-0.2548227906 -0.4921109676 0.4297766387 1.478322936e-38
0.04342452809 -0.4903571606 0.09279228747 1.478322936e-38
0.3588249087 -0.2502234578 0.1486726254 1.478322936e-38
0.3639222383 -0.09693056345 -0.001604579389 1.478322936e-38
-0.2880136073 -0.4702813029 0.1226461083 1.478322936e-38
0.1930247098 -0.489452213 0.1366305649 1.478322936e-38
0.2939546108 -0.4853690863 -0.1381591707 1.478322936e-38
0.3771542609 -0.1932859421 0.03198970109 1.478322936e-38
-0.29639256 -0.4865060449 0.01355924644 1.478322936e-38
0.3654116094 -0.4278678596 0.241584301 1.478322936e-38
0.3622394204 -0.1161169112 0.03955917805 1.478322936e-38
0.3719084561 -0.1494602263 0.05540848896 1.478322936e-38
0.3138801455 -0.4850124121 -0.2039969414 1.478322936e-38
0.3880073428 -0.3381690681 -0.05917503312 1.478322936e-38
0.3905413747 -0.3916991949 -0.07160063088 1.478322936e-38
-0.01406172477 -0.4837204814 0.1405824423 1.478322936e-38
0.3187607229 -0.4924402833 0.4270079434 1.478322936e-38
0.378777504 -0.3726603091 0.02747595683 1.478322936e-38
0.1735708565 -0.5285851955 0.2207222581 1.478322936e-38
0.3515140116 -0.3704720736 0.2176353633 1.478322936e-38
0.3457044959 -0.4884960055 0.2747437358 1.478322936e-38
0.1836675256 -0.4891523719 0.1776365489 1.478322936e-38
0.3652217388 -0.3563732803 0.08952522278 1.478322936e-38
0.352512002 -0.4916084409 0.4190416038 1.478322936e-38
0.3592198789 -0.2572724819 0.1414043456 1.478322936e-38
-0.2145891488 -0.4075447619 -0.06560492516 1.478322936e-38
0.381375432 -0.3444015682 0.002530205995 1.478322936e-38
-0.03766320646 -0.488096267 -0.07802325487 1.478322936e-38
0.3662627041 -0.3189661205 0.06298534572 1.478322936e-38
0.3849211335 -0.1679887176 -0.1093455851 1.478322936e-38
0.3866099119 -0.1654020548 -0.07041813433 1.478322936e-38
-0.291166693 -0.4707908034 0.172016263 1.478322936e-38
0.1580488533 -0.4824075103 -0.2263054252 1.478322936e-38
0.09659124911 -0.489251256 0.2464490235 1.478322936e-38
-0.07662789524 -0.4970227778 0.481870681 1.478322936e-38
0.2720963657 -0.4857584536 -0.1458369344 1.478322936e-38
0.3895511627 -0.3678955138 -0.05830702558 1.478322936e-38
-0.1081351936 -0.4602865577 -0.2103912234 1.478322936e-38
-0.001889301464 -0.4896295071 0.282661289 1.478322936e-38
0.07024927437 -0.48990646 0.06643564999 1.478322936e-38
0.2335131913 -0.4764330089 -0.2267684639 1.478322936e-38
0.3751870394 -0.283479929 0.154783085 1.771655483e-38
0.3844686449 -0.4814225733 -0.1171845347 1.771655483e-38
0.08582955599 -0.4922779799 0.4620709717 1.771655483e-38
-0.01838770136 -0.4906809926 0.1278461069 1.771655483e-38
0.274302572 -0.488132745 0.1096742749 1.771655483e-38
0.3945263028 -0.4886822104 0.3136188984 1.771655483e-38
0.3985442221 -0.3943130672 -0.03454911336 1.771655483e-38
0.28693223 -0.4843267202 -0.1808719635 1.771655483e-38
0.4010760188 -0.451682061 0.06890062243 1.771655483e-38
0.4065972567 -0.4314693511 0.01716329902 1.771655483e-38
0.3847850263 -0.3936965466 0.08370007575 1.771655483e-38
-0.2593438327 -0.4909957647 -0.06819869578 1.771655483e-38
0.2339258343 -0.4883754253 -0.1621344984 1.771655483e-38
0.2566685677 -0.428766489 -0.1643614322 1.771655483e-38
0.1737828851 -0.4887815118 0.304263711 1.771655483e-38
0.3983788192 -0.2307709157 0.3453910053 1.771655483e-38
0.3919490278 -0.3362924159 -0.01959130913 1.771655483e-38
0.01720528677 -0.4907383323 0.1050731838 1.771655483e-38
-0.166839838 -0.4903330803 0.2114637345 1.771655483e-38
-0.1487285346 -0.4932797253 0.4319135249 1.771655483e-38
0.1957754195 -0.4862548709 -0.1828165501 1.771655483e-38
0.3947879374 -0.3111336529 -0.04619682953 1.771655483e-38
-0.00992509909 -0.4894568324 0.02760341763 1.771655483e-38
0.3762284815 -0.2608578205 0.1862893701 1.771655483e-38
0.06822061539 -0.4878173172 -0.06267909706 1.771655483e-38
0.05631515011 -0.4874654412 -0.08183096349 1.771655483e-38
-0.3173407614 -0.4904181361 0.3115030229 1.771655483e-38
0.3789555132 -0.2344804704 0.1805407405 1.771655483e-38
0.3835396767 -0.1032403857 0.04568487778 1.771655483e-38
0.01635305956 -0.4955937266 0.4674884975 1.771655483e-38
0.04267027602 -0.5014359951 0.4424171448 1.771655483e-38
0.3950001597 -0.4192604423 0.3710269928 1.771655483e-38
0.3751957119 -0.402729243 -0.07463210821 1.771655483e-38
0.3928027749 -0.2505476475 -0.0001052320004 1.771655483e-38
0.3883907199 -0.1465182155 0.03332920372 1.771655483e-38
0.3737110198 -0.3785402179 -0.1270302683 1.771655483e-38
0.01968545467 -0.4901974797 0.2474614531 1.771655483e-38
0.206567049 -0.4888298213 0.009486407042 1.771655483e-38
0.373618871 -0.2833682299 0.1909270734 1.771655483e-38
-0.1444098204 -0.4433303475 -0.1149969399 1.771655483e-38
0.4013452232 -0.3987308443 -0.02691603824 1.771655483e-38
0.3867611289 -0.3289451003 0.3141475916 1.771655483e-38
0.3859736621 -0.1202795506 0.213487938 1.771655483e-38
0.3739905357 -0.3062372804 0.2245073617 1.771655483e-38
0.2764728367 -0.4872286916 -0.1586310565 1.771655483e-38
0.3809885979 -0.2485717386 0.102982603 1.771655483e-38
-0.2913631797 -0.4901014268 0.2898643315 1.771655483e-38
0.1960112602 -0.4949662089 0.4695315063 1.771655483e-38
0.4078826904 -0.4325785637 0.003446906805 1.771655483e-38
-0.1403368562 -0.4920148849 0.3797231615 1.771655483e-38
0.07256753743 -0.4588754773 -0.1056499034 1.771655483e-38
0.3941994905 -0.403216213 0.02890825272 1.771655483e-38
0.3950654566 -0.4757249951 0.1900456995 1.771655483e-38
-0.3158411682 -0.4902526736 0.313922435 1.771655483e-38
-0.2267373502 -0.4874570072 -0.03469674662 1.771655483e-38
0.394325614 -0.3219629228 -0.05518924072 1.771655483e-38
0.3800747693 -0.2755414248 0.06633748114 1.771655483e-38
0.3884585202 -0.1043583602 0.2144820094 1.771655483e-38
0.4178859293 -0.3105576038 -0.09044229984 1.771655483e-38
-0.2818365693 -0.4884752333 0.1694027483 1.771655483e-38
-0.03018914908 -0.4885256886 -0.0158855617 1.771655483e-38
0.2557839751 -0.487750113 -0.1498857439 1.771655483e-38
-0.1203387529 -0.4881404638 -0.08588968217 1.771655483e-38
-0.08760814369 -0.4691374898 -0.1734748632 1.771655483e-38
0.3915655911 -0.4705394208 0.2739408016 1.771655483e-38
0.3906140029 -0.4550859928 0.174597159 1.771655483e-38
0.2560789287 -0.4876197278 0.2495180666 1.771655483e-38
-0.2690892518 -0.4894656837 0.2170689553 1.771655483e-38
0.3817517161 -0.1797012687 0.2272582054 1.771655483e-38
0.3634340465 -0.4841018021 -0.07209144533 1.771655483e-38
0.3814229667 -0.4172804952 0.1902192533 1.771655483e-38
0.3086290658 -0.4864596128 -0.02896491811 1.771655483e-38
0.2634812593 -0.4861778617 -0.1090874076 1.771655483e-38
0.2346483618 -0.4877804816 0.2820780277 1.771655483e-38
0.3916876316 -0.4744506776 -0.1446550488 1.771655483e-38
-0.2332626879 -0.4250507951 -0.05793811753 1.771655483e-38
-0.2894585729 -0.4652322233 -0.08096468449 1.771655483e-38
0.2703529298 -0.487831831 -0.00649080053 1.771655483e-38
-0.02232145518 -0.4905110002 0.1819065511 1.771655483e-38
0.3914332986 -0.3584521115 -0.05547599122 1.771655483e-38
-0.1302594543 -0.4568375051 0.135332182 1.771655483e-38
0.3854677975 -0.1762948781 0.1278098524 1.771655483e-38
0.3849924803 -0.4021496177 0.3016108572 1.771655483e-38
0.3957211077 -0.2536177635 0.3372445107 1.771655483e-38
0.07187457383 -0.4903499186 0.3808667362 1.771655483e-38
0.4079088867 -0.3236439824 0.3514415622 1.771655483e-38
0.3879418075 -0.2177221924 -0.09936207533 1.771655483e-38
-0.2261729091 -0.4935553074 0.4330531061 1.771655483e-38
0.1384305805 -0.4900760651 0.1448496282 1.771655483e-38
0.3803282976 -0.2010945678 0.2004114985 1.771655483e-38
0.378392905 -0.07857292891 0.03815032169 1.771655483e-38
-0.307053417 -0.4878884256 0.1917716563 1.771655483e-38
0.2774634957 -0.4876966178 0.1874437779 1.771655483e-38
0.370592922 -0.4840323329 -0.07223516703 1.771655483e-38
0.385003835 -0.1759113371 0.07512869686 1.771655483e-38
-0.3045535982 -0.4893219173 0.1054477096 1.771655483e-38
0.378885746 -0.3708262444 0.2646336854 1.771655483e-38
0.3794668317 -0.07863640785 0.06340068579 1.771655483e-38
0.3831204176 -0.1325482279 0.08188651502 1.771655483e-38
0.3662259281 -0.4840024412 -0.120862022 1.771655483e-38
0.3918346763 -0.298346132 -0.0154709816 1.771655483e-38
0.3950319886 -0.3579898179 -0.02881347761 1.771655483e-38
-0.08300569654 -0.4732526541 0.09918566793 1.771655483e-38
0.3796112537 -0.4913721085 0.4445075393 1.771655483e-38
0.3803437948 -0.3422474265 0.07128564268 1.771655483e-38
0.07819999754 -0.5011097193 0.1801819801 1.771655483e-38
0.3785008192 -0.3203498423 0.256323725 1.771655483e-38
0.3895163536 -0.4890309572 0.3057030141 1.771655483e-38
0.2652869821 -0.4875347614 0.2239008397 1.771655483e-38
0.3733883202 -0.3142661452 0.1481721699 1.771655483e-38
0.385702014 -0.487174809 0.3740979433 1.771655483e-38
0.3797067702 -0.2107527405 0.1960157752 1.771655483e-38
-0.2578242421 -0.4328627884 -0.1014074087 1.771655483e-38
0.382969141 -0.3075925708 0.05180664733 1.771655483e-38
0.07527880371 -0.489233911 -0.00847133249 1.771655483e-38
0.3781916201 -0.2780390382 0.1131333709 1.771655483e-38
0.3927604258 -0.1498013735 -0.08029037714 1.771655483e-38
0.3924304843 -0.1525552571 -0.03811788931 1.771655483e-38
-0.3062560558 -0.4867702127 0.2428499311 1.771655483e-38
0.204738915 -0.4877828956 -0.173287794 1.771655483e-38
0.1712602377 -0.4887347817 0.2806790769 1.771655483e-38
0.0311021395 -0.4983515441 0.4604365826 1.771655483e-38
0.3532785475 -0.4841274917 -0.07626333833 1.771655483e-38
0.3915009201 -0.3314813375 -0.0152390115 1.771655483e-38
-0.09500153363 -0.4828253984 -0.1839410216 1.771655483e-38
0.0636357218 -0.4896931052 0.3226193488 1.771655483e-38
0.1682546288 -0.4898928404 0.1187711656 1.771655483e-38
0.2683027983 -0.4843393564 -0.1827688366 1.771655483e-38
0.4121840894 -0.2531514466 0.2599653006 2.06466517e-38
0.3948259354 -0.4850181639 -0.08976238966 2.06466517e-38
0.1032687426 -0.4957643747 0.4414207637 2.06466517e-38
-0.08187153935 -0.4900171161 0.2218903005 2.06466517e-38
0.299464792 -0.4866659045 0.1878091991 2.06466517e-38
0.4140931666 -0.4435162544 0.3915703893 2.06466517e-38
0.419804424 -0.3978061378 0.01960461587 2.06466517e-38
0.2546750605 -0.484307766 -0.165183872 2.06466517e-38
0.4223944545 -0.4433863461 0.1226882786 2.06466517e-38
0.4255548418 -0.429605186 0.06666684896 2.06466517e-38
0.4187122285 -0.3902647197 0.1509266049 2.06466517e-38
-0.3502938449 -0.5047830343 -0.05906910822 2.06466517e-38
0.2241962701 -0.4832666516 -0.1537092179 2.06466517e-38
0.1884056777 -0.4590744376 -0.1509253234 2.06466517e-38
0.2179099768 -0.4891762435 0.3972391784 2.06466517e-38
0.425111711 -0.1620487422 0.4355392456 2.06466517e-38
0.4123154283 -0.338001579 0.0394804962 2.06466517e-38
-0.01293037459 -0.4903027415 0.2057606876 2.06466517e-38
-0.2714532018 -0.4878035784 0.2689332962 2.06466517e-38
-0.193595171 -0.4925619364 0.4461439848 2.06466517e-38
0.172929436 -0.4844790399 -0.1730259806 2.06466517e-38
0.412547946 -0.3036323786 0.007268384099 2.06466517e-38
-0.02761425823 -0.4895438552 0.1000751406 2.06466517e-38
0.4143226445 -0.2292850614 0.2754620314 2.06466517e-38
0.04944963381 -0.4887564182 -0.04049858823 2.06466517e-38
0.02764113992 -0.4887498021 -0.07214127481 2.06466517e-38
-0.3738528788 -0.486472249 0.3797367215 2.06466517e-38
0.415297091 -0.2033878565 0.268589735 2.06466517e-38
0.3984612226 -0.09833934903 0.08358328044 2.06466517e-38
0.03405544534 -0.4955360293 0.4019457996 2.06466517e-38
0.06716696918 -0.5065832138 0.2888875604 2.06466517e-38
0.4171122611 -0.3324129879 0.4187607169 2.06466517e-38
0.4105549753 -0.3900149167 -0.02960931137 2.06466517e-38
0.4108096957 -0.2506926656 0.06468892097 2.06466517e-38
0.4037283957 -0.1424829364 0.07177684456 2.06466517e-38
0.3944365084 -0.3889634013 -0.1033362746 2.06466517e-38
-0.03294048086 -0.4894142747 0.3093883991 2.06466517e-38
0.2021417171 -0.4885529876 0.06413450837 2.06466517e-38
0.4147801399 -0.2483651191 0.2833333015 2.06466517e-38
-0.1679573506 -0.3535398841 0.1107976288 2.06466517e-38
0.4208201766 -0.4018146992 0.02670999803 2.06466517e-38
0.4195040166 -0.261623323 0.3844452798 2.06466517e-38
0.4298864603 -0.08756580949 0.2864239812 2.06466517e-38
0.4166243374 -0.2607222199 0.314658463 2.06466517e-38
0.2641057074 -0.4837537408 -0.1496293545 2.06466517e-38
0.4073808193 -0.2339532971 0.2079618573 2.06466517e-38
-0.3622455299 -0.4875464439 0.3617361486 2.06466517e-38
0.2547640204 -0.4951419532 0.4117509127 2.06466517e-38
0.4225502908 -0.4313677847 0.05406950042 2.06466517e-38
-0.2049671561 -0.4901060462 0.4267544746 2.06466517e-38
0.09897300601 -0.4888545275 0.09820301831 2.06466517e-38
0.4229445755 -0.4032326043 0.07512612641 2.06466517e-38
0.4165159166 -0.4433118105 0.2800244093 2.06466517e-38
-0.3781137764 -0.4852018356 0.3809300363 2.06466517e-38
-0.3073448241 -0.5020979643 -0.0340439342 2.06466517e-38
0.41329813 -0.3123391271 -0.002143148333 2.06466517e-38
0.409188807 -0.2711434364 0.1400201172 2.06466517e-38
0.4308236837 -0.07190278172 0.2861334383 2.06466517e-38
0.4366368055 -0.3351546228 -0.1087892652 2.06466517e-38
-0.3658142388 -0.4896788001 0.2395688593 2.06466517e-38
-0.0601888299 -0.4905621707 0.01436636411 2.06466517e-38
0.2523398995 -0.4839815497 -0.1437528431 2.06466517e-38
-0.1531472355 -0.4973134398 -0.1012433469 2.06466517e-38
-0.1094255 -0.4789829254 -0.07663717866 2.06466517e-38
0.4121350944 -0.4091621637 0.3540303707 2.06466517e-38
0.41515854 -0.4267744422 0.2671364844 2.06466517e-38
0.280648917 -0.4879024625 0.3278441429 2.06466517e-38
-0.3537071347 -0.4858832359 0.2929582298 2.06466517e-38
0.4216938615 -0.1352955997 0.298851043 2.06466517e-38
0.3655518293 -0.4836862087 -0.01625906676 2.06466517e-38
0.4144793153 -0.3936658502 0.2896289527 2.06466517e-38
0.308445245 -0.485634923 0.02190900594 2.06466517e-38
0.2714981735 -0.4853312969 -0.08970695734 2.06466517e-38
0.2808726132 -0.488396585 0.3706362545 2.06466517e-38
0.4059738219 -0.4715442359 -0.1533859074 2.06466517e-38
-0.2998435199 -0.1554871649 0.2778784931 2.06466517e-38
-0.3190088272 -0.4729076326 0.1730305701 2.06466517e-38
0.2724999189 -0.487024039 0.04262068495 2.06466517e-38
-0.08375725895 -0.4897642434 0.2601275444 2.06466517e-38
0.412943989 -0.3517076075 -0.004262655973 2.06466517e-38
-0.3696810007 0.03779610991 0.4366918206 2.06466517e-38
0.4170312583 -0.1688418835 0.2203638405 2.06466517e-38
0.4169483483 -0.3519706726 0.3810089529 2.06466517e-38
0.4211638868 -0.1885976344 0.4104355872 2.06466517e-38
0.08857016265 -0.4917471409 0.4369743168 2.06466517e-38
0.4302161634 -0.2140172869 0.4326020479 2.06466517e-38
0.4194913805 -0.2087222934 -0.06840240955 2.06466517e-38
