# .PCD v0.7 - Point Cloud Data file format
VERSION 0.7
FIELDS x y z rgb
SIZE 4 4 4 4
TYPE F F F F
COUNT 1 1 1 1
WIDTH 833
HEIGHT 1
VIEWPOINT 0 0 0 1 0 0 0
POINTS 833
DATA ascii
-0.002024259418 -0.4721568823 -0.2687116265 1.184631237e-38
-0.09539283812 -0.3342045546 -0.2803328931 1.184631237e-38
0.4249027073 -0.344912082 -0.0006952136755 1.184631237e-38
-0.1702218652 -0.4786888659 0.02962996811 1.184631237e-38
0.2074930519 -0.3072350621 -0.2290665954 1.184631237e-38
0.01727263629 -0.4787549973 -0.2120570987 1.184631237e-38
0.1823141575 -0.4826512337 -0.07814639807 1.184631237e-38
0.123172611 -0.2062197775 -0.2577824891 1.184631237e-38
0.2943709493 -0.4658772051 0.1352526546 1.184631237e-38
0.1542931348 -0.3725695312 -0.2515203357 1.184631237e-38
0.1490659267 -0.2480910122 -0.2545130849 1.184631237e-38
-0.03171953931 -0.3783608675 -0.283397764 1.184631237e-38
0.06691487134 -0.3097087443 -0.2776821256 1.184631237e-38
0.2354084998 -0.4669525921 -0.1926092505 1.184631237e-38
-0.1895374656 -0.3419834971 0.3547358811 1.184631237e-38
-0.191694811 -0.3929334581 0.3355569839 1.184631237e-38
-0.177499935 -0.4636608362 0.005083728582 1.184631237e-38
0.05374443159 -0.2497752011 -0.2706466317 1.184631237e-38
-0.1377973557 -0.4811125398 0.08150845021 1.184631237e-38
0.09980346262 -0.3867688775 -0.2652162015 1.184631237e-38
0.2937504053 -0.3880183697 0.09003742784 1.184631237e-38
0.3290295899 -0.4738960266 -0.1094598323 1.184631237e-38
-0.1635082811 -0.3154699206 -0.08593915403 1.184631237e-38
0.4687025845 -0.3892908096 0.05270439386 1.184631237e-38
-0.06245353445 -0.4694918394 -0.2913410068 1.184631237e-38
-0.1700618118 -0.3940024376 -0.1580669433 1.184631237e-38
-0.1299661249 -0.4810376763 0.1430172771 1.184631237e-38
0.1423902214 -0.3552134037 -0.2534711659 1.184631237e-38
-0.1940983981 -0.2937854528 0.3419804275 1.184631237e-38
0.1627685279 -0.2893152237 -0.2474527657 1.184631237e-38
0.1238498986 -0.4811620116 -0.1375287473 1.184631237e-38
0.4105359018 -0.3459337354 0.05603356659 1.184631237e-38
-0.1871429831 -0.3963728547 0.3493942916 1.184631237e-38
0.3877859414 -0.3857248425 -0.1116295829 1.184631237e-38
0.3632108867 -0.342291832 0.04970806092 1.184631237e-38
0.1203812659 -0.4808718264 -0.1453157812 1.184631237e-38
0.2226444781 -0.3118283749 -0.1104504913 1.184631237e-38
-0.1787332743 -0.4717126489 0.2513668537 1.184631237e-38
0.4647318125 -0.4437835515 0.0562973991 1.184631237e-38
0.112509802 -0.4819137454 -0.0109727243 1.184631237e-38
0.08871392906 -0.4799405634 -0.1341947913 1.184631237e-38
0.08954806626 -0.4839976132 0.1636529714 1.184631237e-38
0.1531899422 -0.3503898382 -0.2485392094 1.184631237e-38
0.3276720643 -0.4822163582 -0.08867854625 1.184631237e-38
0.08856286108 -0.2728168964 -0.2720288038 1.184631237e-38
0.3401934505 -0.3930419385 -0.1534691602 1.184631237e-38
-0.05695227161 -0.40184623 0.2794815302 1.184631237e-38
0.3073017299 -0.3347845674 -0.02769483253 1.184631237e-38
0.02731959149 -0.4443106651 -0.2711915672 1.184631237e-38
0.0692961961 -0.4789763689 -0.1339946389 1.184631237e-38
-0.1305356771 -0.2964015007 0.2812145054 1.184631237e-38
0.04335568473 -0.2600185573 -0.2704045773 1.184631237e-38
0.05343943462 -0.2443701327 -0.2699461877 1.184631237e-38
-0.1673962772 -0.3218099475 -0.1100225747 1.184631237e-38
0.1012449265 -0.351267308 -0.265245378 1.184631237e-38
-0.03316228092 -0.4837122858 0.179187119 1.184631237e-38
0.1078090668 -0.4792655706 -0.2036543787 1.184631237e-38
0.2123209238 -0.3088247776 -0.2270334214 1.184631237e-38
-0.1789800227 -0.2662033141 0.3229411244 1.184631237e-38
0.01976329088 -0.4807363749 -0.05824387446 1.184631237e-38
0.3440469503 -0.3384786546 0.03351441771 1.184631237e-38
0.1861853302 -0.4647397399 0.1895867735 1.184631237e-38
0.4849844873 -0.3939982355 -0.009350050241 1.184631237e-38
-0.05602696538 -0.3970165551 -0.2930150628 1.184631237e-38
-0.09993548691 -0.4790757895 -0.2366965264 1.184631237e-38
0.1751626134 -0.4824994206 0.02108703554 1.184631237e-38
0.05253991857 -0.4814201593 0.2582950592 1.184631237e-38
0.09714028239 -0.4836652875 0.07632133365 1.184631237e-38
0.1365318298 -0.2557972074 -0.260982573 1.184631237e-38
0.3008910418 -0.351526469 -0.1833095253 1.184631237e-38
0.0141062513 -0.4821801186 -0.01276156586 1.184631237e-38
-0.0738863349 -0.4189849496 -0.3005880713 1.184631237e-38
-0.1516422331 -0.3812724054 -0.2695566714 1.184631237e-38
0.3344014883 -0.3293479383 -0.07877570391 1.184631237e-38
0.09632018209 -0.2137517184 -0.26377213 1.184631237e-38
-0.07346592844 -0.4828333557 0.1940495372 1.184631237e-38
0.1041456461 -0.3468571007 -0.2643689513 1.184631237e-38
0.1233147532 -0.4149424434 -0.255520165 1.184631237e-38
-0.09725652635 -0.4582440257 -0.3037721217 1.184631237e-38
-0.06268963963 -0.2619056702 -0.2663846314 1.184631237e-38
-0.06028888375 -0.47864151 -0.227475971 1.184631237e-38
-0.1610288173 -0.4613521695 0.3250330985 1.184631237e-38
-0.2070468813 -0.2701898217 0.2940369844 1.478322936e-38
0.3706157506 -0.4486322105 -0.08867906034 1.478322936e-38
0.459820807 -0.3678507805 0.02758742124 1.478322936e-38
0.4410763979 -0.4213567376 0.08537592739 1.478322936e-38
0.2478030473 -0.3419797421 -0.1969759315 1.478322936e-38
0.2588101327 -0.4781293273 0.1402197927 1.478322936e-38
-0.2099904269 -0.4202994108 0.3362832963 1.478322936e-38
-0.1875048876 -0.4750629365 0.1295293868 1.478322936e-38
0.0724029541 -0.4802186489 -0.2092856318 1.478322936e-38
0.1163184345 -0.4814231098 -0.01427926868 1.478322936e-38
-0.2075539976 -0.4078578055 0.2477317452 1.478322936e-38
-0.1633804739 -0.4324413538 -0.3074763417 1.478322936e-38
0.1615763456 -0.3926644921 -0.2405723184 1.478322936e-38
0.0329513289 -0.264290154 -0.2723406851 1.478322936e-38
0.1149258763 -0.4564844966 -0.2331762761 1.478322936e-38
0.2085574716 -0.4831108749 -0.1051374897 1.478322936e-38
-0.1697166264 -0.266233325 -0.2082295865 1.478322936e-38
0.235415414 -0.4831185937 -0.1271325052 1.478322936e-38
0.3032957613 -0.4377405047 0.072057724 1.478322936e-38
0.05264727399 -0.2110836655 -0.2644082904 1.478322936e-38
0.3044259548 -0.4322853684 -0.1636977196 1.478322936e-38
-0.2052137852 -0.2841425538 0.3280002177 1.478322936e-38
0.1809752733 -0.4829357266 -0.1058411896 1.478322936e-38
-0.2045615762 -0.4092160463 0.3443309367 1.478322936e-38
-0.1433591545 -0.4831594825 0.2308368087 1.478322936e-38
-0.03685443848 -0.34399423 -0.2746297419 1.478322936e-38
0.3982687294 -0.4419601858 -0.06761406362 1.478322936e-38
-0.1031156033 -0.3476901054 0.156336695 1.478322936e-38
-0.1189153194 -0.4848028123 0.2584370375 1.478322936e-38
0.1323700696 -0.4815459251 -0.0007813069969 1.478322936e-38
-0.177005291 -0.3881163001 -0.254578054 1.478322936e-38
0.4028319716 -0.3388594389 0.02496895939 1.478322936e-38
0.3888271749 -0.3347102404 -0.01096674986 1.478322936e-38
-0.07487033308 -0.2503897548 -0.2663583755 1.478322936e-38
-0.08843827248 -0.473923862 -0.2826265991 1.478322936e-38
-0.1635236591 -0.480055213 -0.1606751829 1.478322936e-38
-0.1854549497 -0.4786103964 0.1247312278 1.478322936e-38
-0.1016046852 -0.4863812923 0.2681105435 1.478322936e-38
0.09549190104 -0.4814395905 -0.007207626477 1.478322936e-38
0.3994477093 -0.4692456126 0.09603349119 1.478322936e-38
-0.02946091071 -0.3791760206 -0.2816050649 1.478322936e-38
0.3856136203 -0.4468782544 -0.07180599123 1.478322936e-38
-0.02430096082 -0.3307298422 -0.2735626698 1.478322936e-38
0.1223281771 -0.4808989763 -0.1674851775 1.478322936e-38
0.08513498306 -0.4854944944 0.1766708642 1.478322936e-38
0.06802520156 -0.240449056 -0.2682464123 1.478322936e-38
-0.03000745177 -0.4598947167 -0.2837676406 1.478322936e-38
-0.1138547659 -0.3208523989 -0.2850189209 1.478322936e-38
0.4245136976 -0.3411930799 0.02901483327 1.478322936e-38
-0.1830903441 -0.4698932767 -0.01431335509 1.478322936e-38
0.1804195791 -0.3128100634 -0.2277840525 1.478322936e-38
-0.012544089 -0.478346467 -0.2408738881 1.478322936e-38
0.1687892526 -0.4828240573 -0.08254171908 1.478322936e-38
0.09717856348 -0.2015035152 -0.2560540438 1.478322936e-38
0.3214120567 -0.4624347687 0.09876330942 1.478322936e-38
0.1199050248 -0.3633869588 -0.2508247495 1.478322936e-38
0.1184733212 -0.2420307994 -0.2509555221 1.478322936e-38
-0.04154410213 -0.3531218171 -0.2762410939 1.478322936e-38
0.04653658345 -0.2938142717 -0.2772814333 1.478322936e-38
0.2036456764 -0.4648750722 -0.1981357336 1.478322936e-38
-0.2118430734 -0.3537254333 0.3476095796 1.478322936e-38
-0.2134910673 -0.3785705864 0.3182117641 1.478322936e-38
-0.1894090176 -0.4507743418 -0.03429613635 1.478322936e-38
0.04187040403 -0.2306158692 -0.2687631845 1.478322936e-38
-0.1722711176 -0.4786719382 0.0373967737 1.478322936e-38
0.07157170773 -0.3720160425 -0.268671155 1.478322936e-38
0.3126608133 -0.3721419275 0.04095251858 1.478322936e-38
0.308434546 -0.4763430059 -0.1109597906 1.478322936e-38
-0.181027621 -0.3100737929 -0.09783165902 1.478322936e-38
0.4692058563 -0.3798550963 0.06597086042 1.478322936e-38
-0.08533971012 -0.4569189847 -0.3049813807 1.478322936e-38
-0.1819509864 -0.3752269149 -0.1681016237 1.478322936e-38
-0.1780693084 -0.4792075753 0.1008667201 1.478322936e-38
0.1139720231 -0.3469315767 -0.2523534298 1.478322936e-38
-0.2102719843 -0.2759463191 0.3285878599 1.478322936e-38
0.1330380738 -0.283412993 -0.249070704 1.478322936e-38
0.1083660424 -0.4810322523 -0.1446767747 1.478322936e-38
0.4145447314 -0.3422014713 0.06668940932 1.478322936e-38
-0.2108684331 -0.4071131349 0.3379412293 1.478322936e-38
0.3707451522 -0.3863497972 -0.1060262248 1.478322936e-38
0.3489873409 -0.3402436376 0.04371866584 1.478322936e-38
0.1040897369 -0.4807721674 -0.1527119726 1.478322936e-38
0.2158769965 -0.3189965785 -0.0897668153 1.478322936e-38
-0.199119851 -0.4631112814 0.2086235136 1.478322936e-38
0.465724498 -0.4361992478 0.06447900087 1.478322936e-38
0.09886838496 -0.4812341034 -0.02716098353 1.478322936e-38
0.07173039019 -0.4796014428 -0.1502212584 1.478322936e-38
0.09412038326 -0.4847254753 0.1323827803 1.478322936e-38
0.1215996742 -0.3446861804 -0.2495886832 1.478322936e-38
0.3127603233 -0.4819999933 -0.09015273303 1.478322936e-38
0.06743994355 -0.2557647526 -0.2704903483 1.478322936e-38
0.3198065758 -0.393743068 -0.1476006806 1.478322936e-38
-0.11722745 -0.429466933 0.2362396419 1.478322936e-38
0.3036233485 -0.3346675336 -0.01275157183 1.478322936e-38
0.00766974315 -0.4269478321 -0.2770116031 1.478322936e-38
0.04333275929 -0.4786350727 -0.1548824757 1.478322936e-38
-0.1759262532 -0.2969976962 0.22079283 1.478322936e-38
0.02734598517 -0.2390243411 -0.2689666748 1.478322936e-38
0.04206205532 -0.2258703858 -0.2682199478 1.478322936e-38
-0.1835470349 -0.3133280873 -0.1224992573 1.478322936e-38
0.07721050084 -0.3429585099 -0.2670519352 1.478322936e-38
-0.09081587195 -0.4821341336 0.1294427216 1.478322936e-38
0.08701881766 -0.4785921574 -0.2091242522 1.478322936e-38
0.1848893911 -0.3149596751 -0.2270938456 1.478322936e-38
-0.1947443187 -0.262154758 0.3002743721 1.478322936e-38
-0.02604245953 -0.4802258611 -0.08831920475 1.478322936e-38
0.3296216726 -0.3355042338 0.03544336557 1.478322936e-38
0.1950135082 -0.465967536 0.1531663835 1.478322936e-38
0.4912062585 -0.3913142681 0.02268603072 1.478322936e-38
-0.06093804911 -0.3734088838 -0.2861186862 1.478322936e-38
-0.1119401157 -0.475069344 -0.2722484469 1.478322936e-38
0.1704208255 -0.4821716845 0.003789654002 1.478322936e-38
0.03943927959 -0.4860236049 0.2352238894 1.478322936e-38
0.07411390543 -0.4830491841 0.03338577971 1.478322936e-38
0.1076583713 -0.2474125028 -0.2602673769 1.478322936e-38
0.2778408825 -0.3748779297 -0.1824834198 1.478322936e-38
-0.04072105512 -0.4807701111 -0.04488172755 1.478322936e-38
-0.0797714889 -0.3964120448 -0.2961108685 1.478322936e-38
-0.1634190232 -0.3668076098 -0.2686705291 1.478322936e-38
0.3452050686 -0.3309137225 -0.04769866168 1.478322936e-38
0.0753338486 -0.2072301507 -0.2619407177 1.478322936e-38
-0.1333098561 -0.4812862575 0.1460776031 1.478322936e-38
0.07940097153 -0.3393639922 -0.2660398483 1.478322936e-38
0.09251216054 -0.40130198 -0.2556236684 1.478322936e-38
-0.1079403609 -0.4408263564 -0.3102356195 1.478322936e-38
-0.07793868333 -0.24304609 -0.2653608024 1.478322936e-38
-0.08485282958 -0.4776284099 -0.2599805593 1.478322936e-38
-0.1933355629 -0.477535665 0.3012555838 1.478322936e-38
-0.2054266185 -0.2628944516 0.2841592729 1.771655483e-38
0.411052227 -0.448197335 -0.0652993992 1.771655483e-38
0.457300514 -0.3619688451 -0.02844962478 1.771655483e-38
0.4014626741 -0.4196410179 0.0361812152 1.771655483e-38
0.3055674434 -0.3727978468 -0.1802999377 1.771655483e-38
0.1176817715 -0.4528876841 0.1238625199 1.771655483e-38
-0.1920408159 -0.4146094322 0.323269546 1.771655483e-38
-0.199340716 -0.4625254273 0.1926153004 1.771655483e-38
0.06781034172 -0.4803552032 -0.1708625406 1.771655483e-38
0.05471056327 -0.4826102853 -0.001140382141 1.771655483e-38
-0.2102862448 -0.3805918992 0.2717360258 1.771655483e-38
-0.1584803462 -0.4508473873 -0.2651211023 1.771655483e-38
0.1704751104 -0.4433552623 -0.2292681634 1.771655483e-38
0.02572292835 -0.2888724804 -0.2755081058 1.771655483e-38
0.1156520844 -0.481123209 -0.2053346336 1.771655483e-38
0.2136792243 -0.4838270545 -0.07428593189 1.771655483e-38
-0.1377925724 -0.306878686 -0.1437467486 1.771655483e-38
0.2384507209 -0.4839490652 -0.08981768787 1.771655483e-38
0.1048232466 -0.380027473 0.07523632795 1.771655483e-38
0.04396963492 -0.2187108099 -0.2656417191 1.771655483e-38
0.3540790677 -0.4441946745 -0.1281891763 1.771655483e-38
-0.1815965921 -0.2648330033 0.3001532555 1.771655483e-38
0.1865671575 -0.4833495915 -0.07601433992 1.771655483e-38
-0.1751957834 -0.3451246917 0.3142062724 1.771655483e-38
-0.1747078151 -0.4802516103 0.2732841074 1.771655483e-38
-0.0566839613 -0.394987613 -0.2966004014 1.771655483e-38
0.444747299 -0.4397468269 -0.04747927934 1.771655483e-38
-0.1622121632 -0.2740941048 0.22084786 1.771655483e-38
-0.1662241668 -0.4733213782 0.2809082866 1.771655483e-38
0.06494733691 -0.4831329584 0.01680661365 1.771655483e-38
-0.1757308394 -0.4125729501 -0.2262281775 1.771655483e-38
0.4080411792 -0.3448425829 -0.02597567625 1.771655483e-38
0.41056934 -0.3351549208 -0.05252153054 1.771655483e-38
-0.0770310536 -0.2784482241 -0.2766128182 1.771655483e-38
-0.09303097427 -0.4785576463 -0.2294060737 1.771655483e-38
-0.1658386439 -0.4709005654 -0.1014295444 1.771655483e-38
-0.1972200572 -0.4702640772 0.1871640235 1.771655483e-38
-0.1599991769 -0.470646143 0.2788836956 1.771655483e-38
0.02821719274 -0.4830572009 0.01280452311 1.771655483e-38
0.3414487243 -0.4656852186 0.05551253259 1.771655483e-38
-0.04875483364 -0.4293402135 -0.2981337607 1.771655483e-38
0.4314671755 -0.4450321794 -0.05081390589 1.771655483e-38
-0.04281174392 -0.3826825023 -0.2905983031 1.771655483e-38
0.1217638403 -0.4821996093 -0.1240784675 1.771655483e-38
-0.05139940977 -0.481259048 0.2105061859 1.771655483e-38
0.05648954585 -0.2625938356 -0.2703435421 1.771655483e-38
-0.05123047531 -0.4784688056 -0.2495684773 1.771655483e-38
-0.1148451716 -0.3632995486 -0.3016325235 1.771655483e-38
0.4291196465 -0.3446370363 -0.02259332687 1.771655483e-38
-0.1950655282 -0.4530688524 0.07952459157 1.771655483e-38
0.1998645663 -0.3466686904 -0.2175815552 1.771655483e-38
-0.04386238009 -0.4781336784 -0.1910092831 1.771655483e-38
0.1659123152 -0.4828960299 -0.06028620899 1.771655483e-38
0.08023440838 -0.2065720409 -0.2582001686 1.771655483e-38
0.1937155128 -0.4344576299 0.08098544925 1.771655483e-38
0.1181727946 -0.4151002765 -0.2511658669 1.771655483e-38
0.1095902473 -0.275218308 -0.254976809 1.771655483e-38
-0.06126055866 -0.4030339718 -0.2988964915 1.771655483e-38
0.0346644409 -0.3192855716 -0.2751848996 1.771655483e-38
0.2104678005 -0.4825465679 -0.1527617425 1.771655483e-38
-0.1946065128 -0.3709635437 0.3295724094 1.771655483e-38
-0.2033572495 -0.3784080148 0.3157118559 1.771655483e-38
-0.1962596029 -0.4360675216 0.0746255815 1.771655483e-38
0.03304170445 -0.2551307082 -0.2701525092 1.771655483e-38
-0.1930492818 -0.4776755571 0.1213732511 1.771655483e-38
0.06274777651 -0.4322759509 -0.2661583722 1.771655483e-38
0.1162974536 -0.3768194616 0.02976145223 1.771655483e-38
0.3234088421 -0.4805439711 -0.0814518109 1.771655483e-38
-0.1254300177 -0.3309561312 0.04106123373 1.771655483e-38
0.4604889154 -0.3761844039 0.02698294446 1.771655483e-38
-0.08808876574 -0.4748622775 -0.2721937001 1.771655483e-38
-0.1651351154 -0.3912433386 -0.07114878297 1.771655483e-38
-0.1896557361 -0.4796133637 0.1670850068 1.771655483e-38
0.1102820486 -0.3919799924 -0.252530396 1.771655483e-38
-0.2042930871 -0.3048041463 0.3181908727 1.771655483e-38
0.1298403889 -0.3132318556 -0.2437880635 1.771655483e-38
0.1065863222 -0.4818536639 -0.1118244231 1.771655483e-38
0.3513765037 -0.3536556661 0.002755451947 1.771655483e-38
-0.1936299503 -0.4089116752 0.3240056932 1.771655483e-38
0.4452413023 -0.3895192146 -0.07605983317 1.771655483e-38
0.2590052783 -0.3588713706 -0.01508438773 1.771655483e-38
0.1019713134 -0.4816047549 -0.1192816049 1.771655483e-38
0.2204769701 -0.3364693522 -0.1257108152 1.771655483e-38
-0.1999427378 -0.4248436987 0.2570817769 1.771655483e-38
0.4563823938 -0.4334611595 0.03924340755 1.771655483e-38
0.0393989943 -0.4821608663 -0.01297999546 1.771655483e-38
0.04313359782 -0.4793789089 -0.1222718805 1.771655483e-38
-0.03816835582 -0.48538661 0.1724449396 1.771655483e-38
0.1169952154 -0.3879516423 -0.2493757308 1.771655483e-38
0.3205241263 -0.4823106527 -0.06710561365 1.771655483e-38
0.05829227343 -0.2820077538 -0.2695706189 1.771655483e-38
0.3822690248 -0.4036628306 -0.1173097715 1.771655483e-38
-0.1521811187 -0.323263824 0.2603979111 1.771655483e-38
0.2568148077 -0.3550715744 -0.0809661299 1.771655483e-38
-0.01846625656 -0.4699759185 -0.2730739117 1.771655483e-38
0.0003388654441 -0.4787840247 -0.1290186644 1.771655483e-38
-0.1600771695 -0.242024526 0.2550382614 1.771655483e-38
0.0190259181 -0.2641637027 -0.2726468146 1.771655483e-38
0.0332781896 -0.2500393987 -0.2695653737 1.771655483e-38
-0.1307600439 -0.338852644 0.01551448926 1.771655483e-38
0.07035340369 -0.3862743676 -0.2659327388 1.771655483e-38
-0.1565794349 -0.4822955728 0.1866093129 1.771655483e-38
0.08597259223 -0.4806868732 -0.1724796295 1.771655483e-38
0.2067675591 -0.3490077555 -0.2156929672 1.771655483e-38
-0.1720877439 -0.2419614196 0.2792382538 1.771655483e-38
-0.08190833032 -0.4805924892 -0.05528670549 1.771655483e-38
0.2480411381 -0.3572546244 -0.02372849546 1.771655483e-38
0.01391096413 -0.4244655073 0.1541559994 1.771655483e-38
0.4871543348 -0.3832244873 -0.002436568961 1.771655483e-38
-0.08473230898 -0.423209101 -0.3051215112 1.771655483e-38
-0.1245927364 -0.4802799225 -0.205534324 1.771655483e-38
0.1229019463 -0.482801497 0.01481657475 1.771655483e-38
-0.113286823 -0.4627376199 0.2312732041 1.771655483e-38
-0.0133732371 -0.4839783311 0.07224648446 1.771655483e-38
0.09654994309 -0.277767837 -0.2613728344 1.771655483e-38
0.3450212479 -0.3938489556 -0.1477784514 1.771655483e-38
-0.1017950177 -0.4807775617 -0.005998226814 1.771655483e-38
-0.1001179367 -0.4436764121 -0.3165938258 1.771655483e-38
-0.161085099 -0.3956861496 -0.2526580393 1.771655483e-38
0.374922961 -0.3324820399 -0.08141693473 1.771655483e-38
0.06125925109 -0.2114753723 -0.2631345689 1.771655483e-38
-0.1705357879 -0.4815581441 0.2014832199 1.771655483e-38
0.07308475673 -0.3786212504 -0.2651945055 1.771655483e-38
0.08958262205 -0.4594285488 -0.2520268559 1.771655483e-38
-0.1128907204 -0.4661982358 -0.3079017997 1.771655483e-38
-0.0780056119 -0.2712231874 -0.2744575739 1.771655483e-38
-0.09540642798 -0.4787378311 -0.2032396793 1.771655483e-38
-0.1858135909 -0.4510154724 0.3142454624 1.771655483e-38
-0.2035923004 -0.2814243138 0.2486810386 2.06466517e-38
0.380377233 -0.4648998082 -0.08135239035 2.06466517e-38
0.4657046795 -0.3686730564 0.005584185943 2.06466517e-38
0.4410330057 -0.4314602017 0.06546670198 2.06466517e-38
0.2806352973 -0.3842192888 -0.1855824441 2.06466517e-38
0.235302791 -0.4702011049 0.1000692919 2.06466517e-38
-0.1911851764 -0.4197232127 0.2865640819 2.06466517e-38
-0.1758994609 -0.4790534973 0.1258929521 2.06466517e-38
0.03912740946 -0.4806107283 -0.2101400048 2.06466517e-38
0.08857038617 -0.4818805456 -0.02379450016 2.06466517e-38
-0.205092743 -0.3992569447 0.2289659679 2.06466517e-38
-0.1113254875 -0.4375473857 -0.2975726128 2.06466517e-38
0.133874476 -0.4308032691 -0.2390517443 2.06466517e-38
0.02746082842 -0.265473336 -0.2761489451 2.06466517e-38
0.08592222631 -0.4782743454 -0.2338828295 2.06466517e-38
0.1954179108 -0.4837877154 -0.0918783769 2.06466517e-38
-0.08918589354 -0.3108708262 -0.1745075881 2.06466517e-38
0.2204327285 -0.4841194153 -0.1043155864 2.06466517e-38
0.2335009426 -0.4161499441 0.04971495271 2.06466517e-38
0.05110552534 -0.2117080688 -0.2667176723 2.06466517e-38
0.3316119909 -0.4605996609 -0.1475536823 2.06466517e-38
-0.1859991699 -0.2746171653 0.2669763267 2.06466517e-38
0.1670523882 -0.4834433496 -0.0965238139 2.06466517e-38
-0.1770695895 -0.3849448562 0.2839761674 2.06466517e-38
-0.1539115757 -0.4820229113 0.2172109336 2.06466517e-38
-0.03039159812 -0.3558101058 -0.2766576707 2.06466517e-38
0.4154596925 -0.4557175338 -0.06348375976 2.06466517e-38
-0.1569154859 -0.3063260317 0.159555316 2.06466517e-38
-0.1429987848 -0.484967649 0.2353900671 2.06466517e-38
0.1024386883 -0.4819956124 -0.008095804602 2.06466517e-38
-0.1171477884 -0.4046765864 -0.2547978759 2.06466517e-38
0.4173520803 -0.3522009254 -0.005486928858 2.06466517e-38
0.4147835672 -0.3439843059 -0.0393670015 2.06466517e-38
-0.05358017981 -0.2584643364 -0.2748092115 2.06466517e-38
-0.06680487096 -0.4747328758 -0.2713460326 2.06466517e-38
-0.1212141663 -0.4753993154 -0.1493708342 2.06466517e-38
-0.1706388146 -0.4794836342 0.1202988327 2.06466517e-38
-0.1285331249 -0.4805850387 0.2365156114 2.06466517e-38
0.06586582959 -0.4820334911 -0.01463132631 2.06466517e-38
0.3874000311 -0.4695577621 0.08534839749 2.06466517e-38
-0.02661042847 -0.3939718008 -0.2851569057 2.06466517e-38
0.4002986252 -0.4610838294 -0.06587679684 2.06466517e-38
-0.02155417018 -0.3406518996 -0.27562958 2.06466517e-38
0.09511314332 -0.4820172787 -0.1522832364 2.06466517e-38
0.05221762881 -0.4859915078 0.1603273898 2.06466517e-38
0.04653479531 -0.2449173033 -0.2741801739 2.06466517e-38
-0.03843279183 -0.463018477 -0.2757960856 2.06466517e-38
-0.07551929355 -0.3371787071 -0.2946921289 2.06466517e-38
0.4367064536 -0.3520419598 -0.001841651276 2.06466517e-38
-0.1501596719 -0.4660825133 -0.001815915108 2.06466517e-38
0.1732184142 -0.3418153822 -0.2226175815 2.06466517e-38
-0.04259898886 -0.4775337577 -0.234566465 2.06466517e-38
0.1449736953 -0.4829918742 -0.08193463087 2.06466517e-38
0.07550890744 -0.2013939321 -0.2614457607 2.06466517e-38
0.3012440801 -0.456674695 0.06739033759 2.06466517e-38
0.08922359347 -0.3935874403 -0.2554178238 2.06466517e-38
0.09412133694 -0.2618002594 -0.2600847483 2.06466517e-38
-0.03347356617 -0.3636647463 -0.2772219181 2.06466517e-38
0.03187092394 -0.2947916389 -0.276802659 2.06466517e-38
0.1870978177 -0.4824137688 -0.1727915108 2.06466517e-38
-0.1944415271 -0.3635728061 0.2937832177 2.06466517e-38
-0.1982481182 -0.3783771098 0.2740270197 2.06466517e-38
-0.1558625251 -0.4496255517 -0.01375848707 2.06466517e-38
0.03799490258 -0.2342921495 -0.2709381282 2.06466517e-38
-0.1466637701 -0.4792104363 0.03723005578 2.06466517e-38
0.0457536988 -0.4073045254 -0.2713274062 2.06466517e-38
0.2333018631 -0.3816059828 0.01579705626 2.06466517e-38
0.3066251576 -0.4850376248 -0.09450764954 2.06466517e-38
-0.09519021213 -0.3432831764 -0.01433922537 2.06466517e-38
0.4683797359 -0.3867182136 0.04905054718 2.06466517e-38
-0.06115393341 -0.4573397934 -0.2955214381 2.06466517e-38
-0.1339321136 -0.4046959281 -0.1373631358 2.06466517e-38
-0.1561468691 -0.4797250032 0.09411692619 2.06466517e-38
0.08185620606 -0.3741058111 -0.2568651438 2.06466517e-38
-0.2028678805 -0.2958064675 0.2839143872 2.06466517e-38
0.101115346 -0.3081454635 -0.2585161924 2.06466517e-38
0.08265173435 -0.4818297625 -0.139885515 2.06466517e-38
0.3930595815 -0.3603369594 0.02888204157 2.06466517e-38
-0.1928196102 -0.4116209745 0.2877085507 2.06466517e-38
0.4101893604 -0.4063357413 -0.08449688554 2.06466517e-38
0.2998161316 -0.3636703491 0.008162304759 2.06466517e-38
0.07778330147 -0.4815698266 -0.1468031555 2.06466517e-38
0.1983085573 -0.3363767862 -0.1428681016 2.06466517e-38
-0.1853878647 -0.4462890625 0.2014877498 2.06466517e-38
0.4748490453 -0.4448467195 0.05191960186 2.06466517e-38
0.06701734662 -0.4817126989 -0.03852229565 2.06466517e-38
0.02801716328 -0.4791807532 -0.1563385725 2.06466517e-38
0.06251727045 -0.4846771061 0.1101416796 2.06466517e-38
0.08742961287 -0.3717226982 -0.2540692687 2.06466517e-38
0.3034209907 -0.4850903749 -0.07856609672 2.06466517e-38
0.04537168518 -0.26214692 -0.2759384811 2.06466517e-38
0.3539688885 -0.4171160161 -0.1285814494 2.06466517e-38
-0.1439617574 -0.358274132 0.2047836035 2.06466517e-38
0.2628188431 -0.35906744 -0.06804906577 2.06466517e-38
-0.01940782182 -0.4430885911 -0.283111304 2.06466517e-38
-0.001293085515 -0.477663219 -0.1647901982 2.06466517e-38
-0.1663420051 -0.2565465868 0.2037681043 2.06466517e-38
0.02584448829 -0.2428167611 -0.2724946141 2.06466517e-38
0.03868667036 -0.2293139994 -0.2703785896 2.06466517e-38
-0.09750913084 -0.3502044976 -0.0409200713 2.06466517e-38
0.05040636286 -0.3662396669 -0.2676569819 2.06466517e-38
-0.1129901856 -0.4823310077 0.117427811 2.06466517e-38
0.05452452973 -0.4809394479 -0.2092048377 2.06466517e-38
0.1821538657 -0.3453040421 -0.2193628699 2.06466517e-38
-0.1783564538 -0.2499259412 0.2436569631 2.06466517e-38
-0.05714669451 -0.4787761569 -0.09935992956 2.06466517e-38
0.2816698253 -0.3611955345 -0.0008710734546 2.06466517e-38
0.1354721487 -0.453345418 0.1184142977 2.06466517e-38
0.485597223 -0.4035080969 0.01241390035 2.06466517e-38
-0.04909846187 -0.3863090873 -0.2855945528 2.06466517e-38
-0.08789288998 -0.4749302864 -0.2632875443 2.06466517e-38
0.1482474506 -0.4825617969 -0.003546101972 2.06466517e-38
0.003061816096 -0.4734346569 0.1975216419 2.06466517e-38
0.04736933485 -0.4835467339 0.02326962352 2.06466517e-38
0.08202826977 -0.2644740641 -0.2650692463 2.06466517e-38
0.3180266619 -0.4041096568 -0.1596234441 2.06466517e-38
-0.06781613827 -0.4798771143 -0.05631290004 2.06466517e-38
-0.06184846535 -0.4111860693 -0.2960578799 2.06466517e-38
-0.1079293042 -0.3853098154 -0.2720010579 2.06466517e-38
0.37567994 -0.339300096 -0.07433853298 2.06466517e-38
0.0648124665 -0.2059574425 -0.2655233741 2.06466517e-38
-0.1400157958 -0.4813693762 0.1344462335 2.06466517e-38
0.05150871351 -0.3618774116 -0.2672945261 2.06466517e-38
0.06281600893 -0.4385972619 -0.2632351816 2.06466517e-38
-0.08024702966 -0.4469665885 -0.3130004406 2.06466517e-38
-0.05544423684 -0.250707984 -0.273984611 2.06466517e-38
-0.06801787019 -0.4768480957 -0.2514814138 2.06466517e-38
-0.1784496456 -0.4649196863 0.2689255774 2.06466517e-38
-0.1992228627 -0.2216577083 0.2200951129 2.348204041e-38
0.1632845402 -0.459880352 -0.1073232815 2.348204041e-38
0.2929843068 -0.3488733768 -0.1117518544 2.348204041e-38
0.1466561258 -0.3995848894 0.00414773263 2.348204041e-38
0.1236689687 -0.382804364 -0.2170325518 2.348204041e-38
-0.1276410222 -0.447522819 0.1532911956 2.348204041e-38
-0.2101632655 -0.3778022528 0.2600893378 2.348204041e-38
-0.1961822063 -0.3652677238 0.1442871392 2.348204041e-38
-0.1335365027 -0.4450290799 -0.3021992743 2.348204041e-38
-0.1703139991 -0.4818882048 -0.05262485892 2.348204041e-38
-0.1984846145 -0.298977375 0.1935145855 2.348204041e-38
-0.1618395597 -0.3598608971 -0.238773942 2.348204041e-38
-0.04161409661 -0.4214692414 -0.2914551497 2.348204041e-38
-0.09786392748 -0.2511977851 -0.2926511467 2.348204041e-38
-0.09770019352 -0.4429757595 -0.3042666018 2.348204041e-38
-0.06132460758 -0.48138237 -0.1699824631 2.348204041e-38
-0.1551695168 -0.2536739111 -0.1362077296 2.348204041e-38
-0.03818148375 -0.4818015397 -0.1751325727 2.348204041e-38
-0.1427891999 -0.3746537268 0.1028386801 2.348204041e-38
-0.07230435312 -0.2083316296 -0.275500536 2.348204041e-38
0.101713255 -0.4641586244 -0.2115711868 2.348204041e-38
-0.2074180841 -0.2904026806 0.2454376519 2.348204041e-38
-0.08765076101 -0.4808593392 -0.1810100228 2.348204041e-38
-0.2011535764 -0.3975379467 0.2583157122 2.348204041e-38
-0.21904549 -0.4420660138 0.2351147532 2.348204041e-38
-0.1393612325 -0.3031055629 -0.3120182455 2.348204041e-38
0.2018249035 -0.4521503448 -0.08640046418 2.348204041e-38
-0.203812629 -0.2671254277 0.22194314 2.348204041e-38
-0.2191667706 -0.4680624306 0.2573438287 2.348204041e-38
-0.1675977409 -0.4821686149 -0.02352846414 2.348204041e-38
-0.1631259173 -0.3387052715 -0.1832680404 2.348204041e-38
0.2098307014 -0.3356108367 -0.09393532574 2.348204041e-38
0.2263078988 -0.326072067 -0.1198059842 2.348204041e-38
-0.1463965476 -0.2325105667 -0.2866612971 2.348204041e-38
-0.1581583321 -0.3927140236 -0.286034435 2.348204041e-38
-0.172290951 -0.388143301 -0.1131414771 2.348204041e-38
-0.1964866817 -0.3745868802 0.1406878382 2.348204041e-38
-0.2110833377 -0.4662368894 0.2606014311 2.348204041e-38
-0.179334864 -0.4775724709 -0.02124850079 2.348204041e-38
0.02845478058 -0.4518025815 0.06743431836 2.348204041e-38
-0.1363433152 -0.3283241093 -0.3144681752 2.348204041e-38
0.1847682446 -0.4569631219 -0.08943042904 2.348204041e-38
-0.1363840401 -0.294293642 -0.3123059869 2.348204041e-38
-0.1219844222 -0.4758948684 -0.2474595606 2.348204041e-38
-0.1824454665 -0.4788865447 0.2134182155 2.348204041e-38
-0.06517447531 -0.2409105301 -0.2774480283 2.348204041e-38
-0.1459825933 -0.3861235976 -0.3080197275 2.348204041e-38
-0.1455914825 -0.2848160267 -0.2642903328 2.348204041e-38
0.2406605929 -0.3374947608 -0.09013912082 2.348204041e-38
-0.1810091883 -0.3652198911 0.07087787986 2.348204041e-38
0.01408501714 -0.3548489213 -0.2457109839 2.348204041e-38
-0.1510774046 -0.4169829786 -0.3002893329 2.348204041e-38
-0.1093136966 -0.480946064 -0.1676015258 2.348204041e-38
-0.0268685706 -0.2026328444 -0.2655470669 2.348204041e-38
-0.1129396409 -0.4114736617 0.1029912233 2.348204041e-38
-0.05793909729 -0.379222542 -0.2891359031 2.348204041e-38
-0.01747838035 -0.2622564137 -0.2627162039 2.348204041e-38
-0.1405297965 -0.3087581992 -0.3121123612 2.348204041e-38
-0.09092798829 -0.2784318626 -0.2945043147 2.348204041e-38
-0.06012865901 -0.4807708859 -0.2607377768 2.348204041e-38
-0.2055758238 -0.3269642591 0.2762322724 2.348204041e-38
-0.2041947693 -0.3146745563 0.2386199832 2.348204041e-38
-0.1793288887 -0.3553944826 0.06843608618 2.348204041e-38
-0.08702801168 -0.2242963314 -0.2843521535 2.348204041e-38
-0.1874996722 -0.3878120482 0.0848280713 2.348204041e-38
-0.09117142856 -0.3568441868 -0.3020711243 2.348204041e-38
-0.1241673231 -0.3737074137 0.06753470004 2.348204041e-38
0.05926365778 -0.4833565354 -0.137678355 2.348204041e-38
-0.1633428186 -0.2734054327 0.01744924858 2.348204041e-38
0.2739032209 -0.3635172546 -0.01457899529 2.348204041e-38
-0.1470002979 -0.3709067702 -0.2956041098 2.348204041e-38
-0.1669492126 -0.33165133 -0.05614008382 2.348204041e-38
-0.1974696815 -0.3962245882 0.1271168888 2.348204041e-38
-0.06017623469 -0.3630223274 -0.2881500125 2.348204041e-38
-0.1991049796 -0.263997376 0.2496629357 2.348204041e-38
-0.01683655195 -0.3074488044 -0.266313374 2.348204041e-38
-0.1351871789 -0.4741672277 -0.2405718565 2.348204041e-38
0.1218372136 -0.3617269695 -0.06391081214 2.348204041e-38
-0.2094636858 -0.3665215373 0.2609921098 2.348204041e-38
0.2558341026 -0.4097133279 -0.1546030939 2.348204041e-38
-0.01009808388 -0.3709133863 -0.07533051074 2.348204041e-38
-0.1356749535 -0.4716037512 -0.2504143715 2.348204041e-38
0.04978680983 -0.3017087579 -0.2173306793 2.348204041e-38
-0.2021437585 -0.3502505124 0.1868902892 2.348204041e-38
0.2204371989 -0.4399732947 0.02643026039 2.348204041e-38
-0.171800077 -0.4752449095 -0.07345759124 2.348204041e-38
-0.1509786099 -0.46060583 -0.2602807879 2.348204041e-38
-0.187353909 -0.480928123 0.1730451882 2.348204041e-38
-0.05433537439 -0.364813596 -0.2856014073 2.348204041e-38
0.06096788868 -0.4847891331 -0.1152399108 2.348204041e-38
-0.06939733028 -0.2557826638 -0.2809378505 2.348204041e-38
0.1807425171 -0.4182239771 -0.1998387873 2.348204041e-38
-0.1869046688 -0.3353773654 0.2471053898 2.348204041e-38
0.05962282792 -0.3354659081 -0.1499350965 2.348204041e-38
-0.1299484521 -0.3725025952 -0.3125473261 2.348204041e-38
-0.1523382515 -0.4473236501 -0.2495200187 2.348204041e-38
-0.1988250911 -0.2347934842 0.2278400213 2.348204041e-38
-0.09977643192 -0.2290207595 -0.2897520661 2.348204041e-38
-0.08644932508 -0.2201628089 -0.2836416364 2.348204041e-38
-0.1630957723 -0.2856926918 -0.005023839884 2.348204041e-38
-0.08116295189 -0.3370381892 -0.2970493734 2.348204041e-38
-0.2084271908 -0.436721921 0.1523555368 2.348204041e-38
-0.1248149723 -0.4481295645 -0.2995519638 2.348204041e-38
0.02401155978 -0.3584672809 -0.2428207844 2.348204041e-38
-0.2041479349 -0.2429194152 0.2290417999 2.348204041e-38
-0.1746450067 -0.4316288531 -0.1181925759 2.348204041e-38
-0.001897146925 -0.3627819121 -0.08843429387 2.348204041e-38
-0.1587477326 -0.4233901203 0.1836312562 2.348204041e-38
0.3298406899 -0.3883858323 -0.06138452515 2.348204041e-38
-0.1435164809 -0.3221222758 -0.3017467856 2.348204041e-38
-0.1682801396 -0.40050596 -0.2649891973 2.348204041e-38
-0.1449860632 -0.482427001 -0.0369599387 2.348204041e-38
-0.192573905 -0.4646484852 0.2371997237 2.348204041e-38
-0.1889564395 -0.4773970246 0.05155177414 2.348204041e-38
-0.02822480537 -0.2627725005 -0.2708063722 2.348204041e-38
0.1473898739 -0.4047849476 -0.2136964649 2.348204041e-38
-0.1869966686 -0.4296342134 -0.03396566212 2.348204041e-38
-0.143480733 -0.3361316919 -0.2955335379 2.348204041e-38
-0.15990372 -0.3220886886 -0.2139115036 2.348204041e-38
0.1934578419 -0.3215757906 -0.1390272677 2.348204041e-38
-0.04623948038 -0.207164526 -0.2714698911 2.348204041e-38
-0.2097873539 -0.4268144369 0.1621821374 2.348204041e-38
-0.07936884463 -0.3351334035 -0.2959401011 2.348204041e-38
-0.08355721831 -0.3913378119 -0.2976677418 2.348204041e-38
-0.1479965895 -0.3610543013 -0.2840522528 2.348204041e-38
-0.1470511258 -0.2262408137 -0.2844692469 2.348204041e-38
-0.1635382622 -0.4049761891 -0.27892524 2.348204041e-38
-0.2157576233 -0.4258665442 0.2513763309 2.348204041e-38
-0.197172448 -0.2272873819 0.1946484596 2.346801622e-38
0.01036290824 -0.4802421927 -0.07471756637 2.346801622e-38
-0.006356937811 -0.3535722792 -0.1559222639 2.346801622e-38
-0.06375581771 -0.3863480687 0.09625470638 2.346801622e-38
0.004798075184 -0.3396156132 -0.2609989643 2.346801622e-38
-0.1550060809 -0.4241510928 0.1952218711 2.346801622e-38
-0.2082266957 -0.3287658393 0.2266402692 2.346801622e-38
-0.1973975897 -0.3322695196 0.1325163841 2.346801622e-38
-0.2115859091 -0.4390467405 -0.2759474814 2.346801622e-38
-0.21049577 -0.4564957619 0.02073526755 2.346801622e-38
-0.1972780526 -0.2831899524 0.1700430959 2.346801622e-38
-0.1901108474 -0.3247618079 -0.1777917445 2.346801622e-38
-0.1402825713 -0.453099817 -0.3006107807 2.346801622e-38
-0.186434716 -0.2591776252 -0.2922998369 2.346801622e-38
-0.202783972 -0.4669622779 -0.308283031 2.346801622e-38
-0.1724619269 -0.4824688733 -0.1299311668 2.346801622e-38
-0.1840479076 -0.2477029562 -0.08513540775 2.346801622e-38
-0.1493766457 -0.482845962 -0.1355584562 2.346801622e-38
-0.1464782208 -0.3605115712 0.1805777252 2.346801622e-38
-0.1680875123 -0.2017918229 -0.2815133929 2.346801622e-38
-0.01877381839 -0.4825049341 -0.1998895407 2.346801622e-38
-0.216599673 -0.3380414844 0.2024162263 2.346801622e-38
-0.1861105561 -0.4823370576 -0.142997697 2.346801622e-38
-0.2019074559 -0.3805076778 0.2252212018 2.346801622e-38
-0.2169758826 -0.4175142646 0.2038835883 2.346801622e-38
-0.1955229044 -0.3017994761 -0.2810642123 2.346801622e-38
0.02994635701 -0.4718366265 -0.04850287735 2.346801622e-38
-0.2090323269 -0.2946784198 0.2125094533 2.346801622e-38
-0.2192997187 -0.4432708621 0.2175538838 2.346801622e-38
-0.2121310681 -0.4689784646 0.04562025517 2.346801622e-38
-0.1855035871 -0.3095720112 -0.1291953325 2.346801622e-38
-0.06153970584 -0.3507589102 -0.1407269537 2.346801622e-38
-0.0257405322 -0.3424097598 -0.1791859269 2.346801622e-38
-0.188376829 -0.2228178978 -0.2641713619 2.346801622e-38
-0.1945975274 -0.3624463677 -0.2182015479 2.346801622e-38
-0.1901804209 -0.3544325233 -0.06571483612 2.346801622e-38
-0.1979391873 -0.3402605355 0.1301849931 2.346801622e-38
-0.2186222076 -0.456581682 0.2253263891 2.346801622e-38
-0.2108910978 -0.4487516284 0.03597650677 2.346801622e-38
-0.08993060887 -0.4243184328 0.1461423039 2.346801622e-38
-0.1976465732 -0.3290040791 -0.2833997905 2.346801622e-38
0.01992840692 -0.4758180976 -0.05139981583 2.346801622e-38
-0.1972389072 -0.2985788882 -0.287198633 2.346801622e-38
-0.2114658952 -0.4752429724 -0.2198839188 2.346801622e-38
-0.192587778 -0.4723754227 0.2319176495 2.346801622e-38
-0.1542930305 -0.248839587 -0.2829200327 2.346801622e-38
-0.1955038011 -0.369165957 -0.2547521591 2.346801622e-38
-0.1902559251 -0.2762597799 -0.2257541269 2.346801622e-38
-0.05265605077 -0.3501135111 -0.136492908 2.346801622e-38
-0.1920393258 -0.3395560086 0.07030329853 2.346801622e-38
-0.1063582897 -0.3651649356 -0.2676967978 2.346801622e-38
-0.194915846 -0.3828607798 -0.2274133414 2.346801622e-38
-0.1930446327 -0.4828206599 -0.1307732761 2.346801622e-38
-0.1250049025 -0.1941661537 -0.2662772238 2.346801622e-38
-0.1303018034 -0.3823183775 0.1752802432 2.346801622e-38
-0.1548237205 -0.4119926095 -0.3062120974 2.346801622e-38
-0.1215637475 -0.2705689073 -0.2669863105 2.346801622e-38
-0.1951467395 -0.3051616251 -0.2787300646 2.346801622e-38
-0.1814088672 -0.2915219963 -0.2959704697 2.346801622e-38
-0.1485350579 -0.4828214943 -0.2287751734 2.346801622e-38
-0.2060215473 -0.2905451655 0.2339739203 2.346801622e-38
-0.2061487734 -0.2961301506 0.2107295096 2.346801622e-38
-0.1909259558 -0.3334549665 0.06595056504 2.346801622e-38
-0.1810569167 -0.2317100763 -0.2888971567 2.346801622e-38
-0.1945543438 -0.3519450426 0.0909832865 2.346801622e-38
-0.1902468652 -0.3829439282 -0.304987818 2.346801622e-38
-0.157239005 -0.3571413159 0.1396654993 2.346801622e-38
-0.0893587321 -0.4859654903 -0.09898255765 2.346801622e-38
-0.1857158691 -0.2450925708 0.04037212953 2.346801622e-38
-0.0118893031 -0.3767605424 -0.01009800471 2.346801622e-38
-0.1942207962 -0.3522909582 -0.2380484343 2.346801622e-38
-0.1844094843 -0.3021218777 -0.01815775223 2.346801622e-38
-0.1994724423 -0.3594503701 0.1213077903 2.346801622e-38
-0.154166311 -0.396209985 -0.3067871928 2.346801622e-38
-0.2026079595 -0.252679348 0.2272941023 2.346801622e-38
-0.1196521968 -0.3210856915 -0.2752875686 2.346801622e-38
-0.2075328231 -0.4668625593 -0.2073623389 2.346801622e-38
-0.09795799851 -0.367587626 -0.0150292702 2.346801622e-38
-0.2077117562 -0.3185136318 0.2263168991 2.346801622e-38
0.0650101006 -0.4332229793 -0.2040114403 2.346801622e-38
-0.1435525268 -0.3455824256 8.326023817e-05 2.346801622e-38
-0.2087032199 -0.4638581872 -0.2182541788 2.346801622e-38
-0.09538121521 -0.2955980897 -0.2729886472 2.346801622e-38
-0.1988758445 -0.3252284825 0.1609491259 2.346801622e-38
-0.01744123176 -0.4354475737 0.09987529367 2.346801622e-38
-0.2101938277 -0.4465011358 -0.00383036118 2.346801622e-38
-0.2044439912 -0.4347974658 -0.2203895152 2.346801622e-38
-0.2065839022 -0.481741339 0.2042099983 2.346801622e-38
-0.1448642761 -0.3985859752 -0.304846108 2.346801622e-38
-0.09396092594 -0.4856309295 -0.07317599654 2.346801622e-38
-0.1588379294 -0.2653059065 -0.2878721654 2.346801622e-38
0.05504410341 -0.4423049986 -0.242184788 2.346801622e-38
-0.2081735283 -0.3530281782 0.2270503938 2.346801622e-38
-0.1084217131 -0.3072833121 -0.1761761755 2.346801622e-38
-0.1994348913 -0.3703636825 -0.2885341048 2.346801622e-38
-0.2003131956 -0.4175775051 -0.2075595558 2.346801622e-38
-0.2070262879 -0.2640241683 0.2070909292 2.346801622e-38
-0.1869895607 -0.2347491533 -0.2901482284 2.346801622e-38
-0.1804094315 -0.2271662056 -0.2881949544 2.346801622e-38
-0.1863316447 -0.2506994903 0.02271508053 2.346801622e-38
-0.1794522852 -0.3653739989 -0.3045195639 2.346801622e-38
-0.2121805698 -0.4201927781 0.1498451084 2.346801622e-38
-0.2187924981 -0.4526640773 -0.284368068 2.346801622e-38
-0.1029010117 -0.366117835 -0.2678025067 2.346801622e-38
-0.2142738253 -0.276635468 0.1997947693 2.346801622e-38
-0.2002992183 -0.4020992219 -0.07964102179 2.346801622e-38
-0.1434491128 -0.3375759125 -0.02272634208 2.346801622e-38
-0.1715947986 -0.4038637877 0.2139208913 2.346801622e-38
0.0204366073 -0.3881765604 -0.08219853044 2.346801622e-38
-0.1941414922 -0.3146353364 -0.2645063102 2.346801622e-38
-0.1925170124 -0.3588328362 -0.1919014305 2.346801622e-38
-0.2078192085 -0.4833866656 0.05004956573 2.346801622e-38
-0.1906202435 -0.4534332156 0.243275702 2.346801622e-38
-0.2125930339 -0.452393651 0.09387577325 2.346801622e-38
-0.1269191355 -0.2707952559 -0.276727587 2.346801622e-38
0.03697698936 -0.3863977194 -0.2635338902 2.346801622e-38
-0.2008427829 -0.39947927 -0.001036318019 2.346801622e-38
-0.1935256273 -0.3253107965 -0.2530589104 2.346801622e-38
-0.1861460209 -0.3000086248 -0.1658757776 2.346801622e-38
-0.01686978713 -0.339201659 -0.2136813104 2.346801622e-38
-0.1384136975 -0.1968911141 -0.2737855911 2.346801622e-38
-0.2096887082 -0.4023145139 0.1493314356 2.346801622e-38
-0.1765405834 -0.3622325361 -0.3039060533 2.346801622e-38
-0.1924346387 -0.4211831093 -0.3110662699 2.346801622e-38
-0.1935542226 -0.3385051191 -0.2301678509 2.346801622e-38
-0.1873075664 -0.2192358673 -0.2625208795 2.346801622e-38
-0.1936115772 -0.3686488867 -0.2081021518 2.346801622e-38
-0.2149527222 -0.3900173306 0.2201956958 2.346801622e-38
-0.1896672845 -0.2432059646 0.1591865867 2.345219836e-38
-0.04269987717 -0.4659051895 -0.00479840301 2.345219836e-38
-0.0842121616 -0.3633101583 -0.1267089248 2.345219836e-38
-0.1075785011 -0.3720084429 0.06784906983 2.345219836e-38
-0.05153086036 -0.3957447112 -0.2565974593 2.345219836e-38
-0.151869446 -0.40562886 0.1592729986 2.345219836e-38
-0.2045018226 -0.3575876355 0.183428213 2.345219836e-38
-0.188168183 -0.340738833 0.09215915203 2.345219836e-38
-0.2184521258 -0.4256511927 -0.2253685147 2.345219836e-38
-0.2075351179 -0.4513525665 -0.00167414546 2.345219836e-38
-0.1925182492 -0.2925546169 0.1358801126 2.345219836e-38
-0.1904629916 -0.3051745892 -0.1550730169 2.345219836e-38
-0.20509018 -0.4801247716 -0.3038316965 2.345219836e-38
-0.2169359624 -0.2690033317 -0.2900570631 2.345219836e-38
-0.2334769666 -0.4745292068 -0.2626545727 2.345219836e-38
-0.1947365105 -0.4829321802 -0.1071581468 2.345219836e-38
-0.1962664723 -0.2273980379 -0.05255449191 2.345219836e-38
-0.1835191846 -0.4829165041 -0.106194593 2.345219836e-38
-0.1690533012 -0.3557339907 0.1256270856 2.345219836e-38
-0.2107662261 -0.2073894292 -0.2820625901 2.345219836e-38
-0.06282626837 -0.4822666049 -0.1233712062 2.345219836e-38
-0.2199107707 -0.3505617082 0.1612633467 2.345219836e-38
-0.2043749094 -0.4829266667 -0.1209728718 2.345219836e-38
-0.2091985941 -0.3984422088 0.1801306456 2.345219836e-38
-0.2104275227 -0.4270585179 0.1646585166 2.345219836e-38
-0.2049291432 -0.3044243455 -0.247230649 2.345219836e-38
-0.0291861631 -0.4522130489 0.01527069137 2.345219836e-38
-0.2122590691 -0.2895867825 0.155422464 2.345219836e-38
-0.2106114179 -0.4555642307 0.1800510734 2.345219836e-38
-0.2076108158 -0.4612971246 0.03013367578 2.345219836e-38
-0.1935662478 -0.2831802368 -0.1068345979 2.345219836e-38
-0.1175132096 -0.3438625336 -0.1209188029 2.345219836e-38
-0.09775340557 -0.3495884538 -0.159655422 2.345219836e-38
-0.2026530355 -0.2202006578 -0.2333777994 2.345219836e-38
-0.1976169199 -0.3515198529 -0.188628301 2.345219836e-38
-0.1954131424 -0.3403737843 -0.05205435306 2.345219836e-38
-0.1885043383 -0.3477909267 0.08916786313 2.345219836e-38
-0.2088142335 -0.4592583179 0.1863502562 2.345219836e-38
-0.2077314109 -0.4473067522 0.01096339524 2.345219836e-38
-0.1169141233 -0.3845179677 0.1243243366 2.345219836e-38
-0.2057307959 -0.3298677802 -0.2493022382 2.345219836e-38
-0.03520860523 -0.4591957927 0.01598895714 2.345219836e-38
-0.2079787552 -0.3007242382 -0.2570008636 2.345219836e-38
-0.2215090245 -0.4729173779 -0.1810316443 2.345219836e-38
-0.190007776 -0.4683116674 0.2034058869 2.345219836e-38
-0.2042895257 -0.2560695112 -0.2862079144 2.345219836e-38
-0.2033765316 -0.3612287641 -0.2128869146 2.345219836e-38
-0.1976665407 -0.2554927766 -0.2025511563 2.345219836e-38
-0.1111941785 -0.3589525521 -0.1191374585 2.345219836e-38
-0.1947448403 -0.3306445777 0.04274447635 2.345219836e-38
-0.1719008088 -0.4011321962 -0.2707350552 2.345219836e-38
-0.2007012814 -0.3739511371 -0.1948983371 2.345219836e-38
-0.2110033631 -0.4790983498 -0.09789762646 2.345219836e-38
-0.1892623752 -0.1939162463 -0.2690744996 2.345219836e-38
-0.1446684003 -0.3623654544 0.1400029212 2.345219836e-38
-0.2132383734 -0.4378348291 -0.3083937466 2.345219836e-38
-0.1852709055 -0.2892415822 -0.2716065049 2.345219836e-38
-0.2037945092 -0.3073395789 -0.2438959479 2.345219836e-38
-0.2173664868 -0.3021906316 -0.2936247587 2.345219836e-38
-0.1907852292 -0.4826282859 -0.1830611974 2.345219836e-38
-0.2016257197 -0.3098819554 0.1945905685 2.345219836e-38
-0.20130606 -0.3029043078 0.1745721549 2.345219836e-38
-0.1949188709 -0.317804426 0.04166401923 2.345219836e-38
-0.2127783149 -0.2415059507 -0.2866048813 2.345219836e-38
-0.1914239526 -0.3512173593 0.048722215 2.345219836e-38
-0.2246962637 -0.3937768042 -0.2958537042 2.345219836e-38
-0.175206244 -0.3379121721 0.08992623538 2.345219836e-38
-0.1265909225 -0.4841018915 -0.04748798907 2.345219836e-38
-0.1975930631 -0.226323694 0.04480119795 2.345219836e-38
-0.08055818081 -0.3701499403 0.004200303927 2.345219836e-38
-0.1988051385 -0.3426625729 -0.2030131817 2.345219836e-38
-0.1969422102 -0.2725830674 -0.002544822171 2.345219836e-38
-0.1893621087 -0.3636861145 0.07702664286 2.345219836e-38
-0.2106613666 -0.4149628282 -0.3043520451 2.345219836e-38
-0.1989274174 -0.258638978 0.191102773 2.345219836e-38
-0.1849202365 -0.3404384553 -0.2820662856 2.345219836e-38
-0.2168499678 -0.4606012106 -0.1780264229 2.345219836e-38
-0.1405664235 -0.3419781923 -0.01242082473 2.345219836e-38
-0.2045348883 -0.3456549942 0.1844617724 2.345219836e-38
-0.02340207063 -0.4273431003 -0.1320368052 2.345219836e-38
-0.1732641459 -0.3104629219 -0.01060619205 2.345219836e-38
-0.2172961086 -0.458709836 -0.1851204038 2.345219836e-38
-0.1450233459 -0.2942777574 -0.2754853666 2.345219836e-38
-0.193468824 -0.333812505 0.1270309389 2.345219836e-38
-0.08171285689 -0.400819242 0.06094896793 2.345219836e-38
-0.2070887834 -0.437548995 -0.02735073492 2.345219836e-38
-0.20625633 -0.4148244858 -0.1794333309 2.345219836e-38
-0.202594474 -0.4805566967 0.1806111038 2.345219836e-38
-0.2045046985 -0.4175240695 -0.3048979938 2.345219836e-38
-0.1270997673 -0.483379662 -0.02797538042 2.345219836e-38
-0.2048028558 -0.2738606036 -0.2881115079 2.345219836e-38
-0.0218566861 -0.4541125298 -0.1665280908 2.345219836e-38
-0.2107813656 -0.3554305732 0.1823771149 2.345219836e-38
-0.1604503989 -0.3057179153 -0.1492099911 2.345219836e-38
-0.2101659328 -0.3659783006 -0.2484160066 2.345219836e-38
-0.2014572024 -0.3982513547 -0.1714347452 2.345219836e-38
-0.2071042061 -0.2632943392 0.1525789499 2.345219836e-38
-0.2172300518 -0.2468718886 -0.2875356972 2.345219836e-38
-0.2127475888 -0.2368631363 -0.2861754894 2.345219836e-38
-0.1983919144 -0.2314332128 0.03322022408 2.345219836e-38
-0.222467199 -0.3802008033 -0.298327297 2.345219836e-38
-0.204811275 -0.4232433438 0.1026358008 2.345219836e-38
-0.223708719 -0.4451683164 -0.2316298485 2.345219836e-38
-0.1690419912 -0.4014510512 -0.2698435187 2.345219836e-38
-0.2117471248 -0.2875473797 0.1580563486 2.345219836e-38
-0.1982450038 -0.3821635246 -0.06732011586 2.345219836e-38
-0.1718960702 -0.3017091751 -0.03098110482 2.345219836e-38
-0.1740259528 -0.3851356208 0.1691764891 2.345219836e-38
-0.05741646141 -0.3855698705 -0.04468591511 2.345219836e-38
-0.2004679739 -0.3117419481 -0.2311362177 2.345219836e-38
-0.1931526363 -0.3449962139 -0.1634676307 2.345219836e-38
