# .PCD v0.7 - Point Cloud Data file format
VERSION 0.7
FIELDS x y z rgb
SIZE 4 4 4 4
TYPE F F F F
COUNT 1 1 1 1
WIDTH 833
HEIGHT 1
VIEWPOINT 0 0 0 1 0 0 0
POINTS 833
DATA ascii
-0.06660398841 -0.09419728816 0.2526546121 1.184631237e-38
-0.007527807727 -0.1228412539 0.2925017178 1.184631237e-38
-0.00952719152 -0.4797378182 0.2687192559 1.184631237e-38
-0.4004772007 0.06367766857 0.1493681967 1.184631237e-38
-0.388033241 -0.05094046891 0.1951153576 1.184631237e-38
-0.3392501175 0.07844129205 -0.2999948263 1.184631237e-38
-0.08196941763 -0.483343184 0.1520781517 1.184631237e-38
-0.2537897527 0.08058816195 -0.225620687 1.184631237e-38
0.01148878783 -0.05146218836 0.2958126962 1.184631237e-38
-0.2301964462 -0.1761785299 0.184261024 1.184631237e-38
-0.0808396861 0.01835677028 0.2190589309 1.184631237e-38
-0.09262228012 0.009589970112 0.2129770517 1.184631237e-38
-0.4586850107 0.04805916548 0.1166660264 1.184631237e-38
-0.3187619448 0.08233487606 -0.1521992683 1.184631237e-38
-0.09317425638 -0.09013678133 0.2245043814 1.184631237e-38
-0.04518117383 -0.1965840161 0.2844891846 1.184631237e-38
-0.235910207 0.07886716723 -0.06726427376 1.184631237e-38
-0.03047065809 0.08229860663 0.1016527489 1.184631237e-38
-0.106059812 0.08293262124 -0.007851956412 1.184631237e-38
0.00850655511 -0.3082557619 0.2819481492 1.184631237e-38
-0.00296006538 -0.01622885466 0.2902573347 1.184631237e-38
-0.4683961272 -0.2711569071 0.168499738 1.184631237e-38
-0.1177698001 -0.2581447959 0.2255906761 1.184631237e-38
-0.04139797017 -0.4834871292 0.2822369933 1.184631237e-38
-0.1464992464 -0.485162735 0.2155581713 1.184631237e-38
-0.4483684301 -0.2860989273 -0.04888726771 1.184631237e-38
-0.3529675305 0.07748568058 -0.2778873742 1.184631237e-38
-0.2791358232 -0.08457876742 0.1623434424 1.184631237e-38
-0.03554090858 0.07954770327 0.1794570982 1.184631237e-38
-0.2414025664 -0.1514740139 0.1777116656 1.184631237e-38
-0.07154303789 -0.3305076659 0.2487570047 1.184631237e-38
-0.1606352031 -0.4851416647 0.1604907513 1.184631237e-38
-0.3773059845 -0.4852617383 -0.360276103 1.184631237e-38
-0.02239220217 0.07684591413 0.2105866075 1.184631237e-38
-0.338371098 0.08220666647 0.04473815113 1.184631237e-38
0.002662543207 -0.0515203476 0.2917073965 1.184631237e-38
-0.1390610635 -0.293762356 0.2182997465 1.184631237e-38
-0.2022964954 -0.06987267733 0.1761280298 1.184631237e-38
0.06353475899 -0.2847497761 0.2675538063 1.184631237e-38
-0.23827824 0.07655274868 0.06009283662 1.184631237e-38
-0.07633678615 -0.2053982317 0.2555147409 1.184631237e-38
-0.1843734384 0.07415118814 0.1363603771 1.184631237e-38
-0.1813156009 -0.4870723784 -0.3524875343 1.184631237e-38
-0.4315364957 -0.1033453792 -0.1230808869 1.184631237e-38
-0.3175479472 -0.04891200364 0.1688595414 1.184631237e-38
-0.1390039027 -0.1199359 0.1979938447 1.184631237e-38
-0.4709212184 0.07334509492 0.04062587023 1.184631237e-38
-0.02266296372 0.08394530416 -0.02264329977 1.184631237e-38
-0.05400829017 -0.4097860754 0.2961862385 1.184631237e-38
-0.3629693985 -0.4864614606 -0.01004122943 1.184631237e-38
-0.07674833387 -0.3458278775 0.2450986803 1.184631237e-38
-0.3612590134 0.06221655011 0.1554748714 1.184631237e-38
-0.07543084025 -0.1618189067 0.2538436949 1.184631237e-38
0.00509717688 -0.3937877119 0.2865502834 1.184631237e-38
-0.071616292 -0.1295152009 0.2553555667 1.184631237e-38
-0.09355259687 -0.3241850436 0.2338092923 1.184631237e-38
-0.1831114888 0.07882583141 0.0683510527 1.184631237e-38
-0.194557786 0.07968771458 -0.185459882 1.184631237e-38
-0.2420245409 -0.09182436764 0.1655382216 1.184631237e-38
0.02266845852 0.07170811296 0.2329300344 1.184631237e-38
-0.01085243467 -0.4644697905 0.3090920746 1.184631237e-38
-0.01794870384 -0.4763266444 -0.1558087468 1.184631237e-38
-0.4623128772 0.06796991825 0.09681522101 1.184631237e-38
-0.09220244735 0.07969930768 0.1597993672 1.184631237e-38
-0.06479624659 -0.2135121077 0.2686131895 1.184631237e-38
0.002371539362 0.08015009761 0.124007456 1.184631237e-38
-0.06574819982 -0.03421494365 0.2453743815 1.184631237e-38
-0.03641089052 -0.008940070868 0.2691480517 1.184631237e-38
-0.02242797613 -0.1437299848 0.2888688445 1.184631237e-38
-0.1196736172 0.07898181677 -0.383434087 1.184631237e-38
-0.1524572074 -0.4855387211 -0.2981580794 1.184631237e-38
-0.3687783182 -0.4883580506 -0.3459116518 1.184631237e-38
-0.3470419347 -0.4879158139 -0.3763118982 1.184631237e-38
-0.1698289216 0.06887340546 0.1502562165 1.184631237e-38
-0.06614120305 0.08157923818 -0.3115708232 1.184631237e-38
-0.200163275 0.08082360029 -0.322034955 1.184631237e-38
0.004322685301 0.005459994078 0.2924221754 1.184631237e-38
-0.1830498874 -0.1975738108 0.1957506239 1.184631237e-38
-0.2357212901 -0.05090709031 0.1627213359 1.184631237e-38
-0.1878094673 0.08085247874 -0.03928599507 1.184631237e-38
-0.2015494108 0.05990681052 0.1630140841 1.184631237e-38
-0.1327616572 -0.4847820401 -0.1571136266 1.184631237e-38
-0.06124158949 -0.1639955789 0.2766020298 1.184631237e-38
-0.01365041547 -0.1236721128 0.2904673517 1.184631237e-38
-0.07509334385 0.08154812455 0.1589768827 1.184631237e-38
-0.05966151878 -0.4786818326 0.2894769013 1.184631237e-38
0.04849781469 0.0690625608 0.197879225 1.184631237e-38
-0.04094783962 -0.4842774272 -0.02550537884 1.184631237e-38
-0.3195031583 0.08015719056 0.05893660337 1.184631237e-38
-0.2354362309 0.07831448317 -0.01061528735 1.184631237e-38
0.068515338 -0.2855052948 0.274489671 1.184631237e-38
-0.2371213734 0.07937830687 -0.1066444516 1.184631237e-38
-0.1095566675 -0.4205719233 0.2560805976 1.184631237e-38
-0.1488304734 0.0803873539 0.09982322901 1.184631237e-38
-0.4000553489 -0.08329355717 0.2020349205 1.184631237e-38
-0.272449255 -0.4247591496 0.2601542175 1.184631237e-38
-0.3837822378 -0.488255322 -0.3683746457 1.184631237e-38
-0.05754851177 -0.1941031218 0.2811542153 1.184631237e-38
-0.04048346728 -0.1274722964 0.2810973227 1.184631237e-38
-0.3222695887 -0.1574913263 0.183585912 1.184631237e-38
-0.1461599171 -0.159732908 0.2008127272 1.184631237e-38
-0.2464339733 -0.1177787334 0.1693916321 1.184631237e-38
-0.2233152092 0.079344064 -0.1527458429 1.184631237e-38
-0.02641932666 0.07556322217 0.2236753106 1.184631237e-38
-0.4557079077 0.06974056363 0.1186074093 1.184631237e-38
-0.02177572623 -0.1215846241 0.2870390117 1.184631237e-38
-0.1850016117 0.0775628686 0.08249448985 1.184631237e-38
-0.07620690018 -0.1099061817 0.2452121079 1.184631237e-38
-0.007073829416 -0.2505514026 0.281814158 1.184631237e-38
-0.05999423191 0.06138947606 0.2186062634 1.184631237e-38
0.01763192751 -0.3491987586 0.2012362778 1.184631237e-38
-0.1956837177 0.08094877005 0.009133215994 1.184631237e-38
-0.002367634326 -0.3661303222 0.290748626 1.184631237e-38
-0.1727465391 -0.4833514392 0.2440989912 1.184631237e-38
-0.2837447822 -0.4877943993 -0.346624881 1.184631237e-38
-0.3632871807 0.07197883725 0.1355370283 1.184631237e-38
-0.05712454021 -0.4845127463 -0.2006979883 1.184631237e-38
0.004723137245 -0.4221585989 0.2334249318 1.184631237e-38
-0.09066320211 0.08080372214 0.154481411 1.184631237e-38
-0.1228288189 0.02791169286 0.1869806945 1.184631237e-38
-0.1392969489 0.07063341141 0.1557079852 1.184631237e-38
-0.02249764279 -0.2310633361 0.2856551707 1.184631237e-38
-0.05059009418 0.08228415251 -0.2130558193 1.478322936e-38
-0.05945875496 0.08163875341 -0.06755568832 1.478322936e-38
-0.4218108952 -0.4560365975 -0.2861437201 1.478322936e-38
-0.1390706897 -0.4841438532 0.2539222836 1.478322936e-38
-0.06414307654 -0.4851136208 -0.2073071897 1.478322936e-38
-0.3501053154 -0.4765925407 0.2182143927 1.478322936e-38
-0.06841178983 -0.109125644 0.2911939323 1.478322936e-38
-0.006524203811 -0.1407368034 0.3241482377 1.478322936e-38
0.01854856685 -0.4810417891 0.2506959438 1.478322936e-38
-0.4045719802 0.04780849814 0.148026973 1.478322936e-38
-0.3876949549 -0.09964001179 0.2024078071 1.478322936e-38
-0.3269409835 0.07731929421 -0.2816041112 1.478322936e-38
-0.04454277083 -0.482471019 0.08719996363 1.478322936e-38
-0.2402537763 0.08027493954 -0.2078540325 1.478322936e-38
0.01104714535 -0.06039255857 0.3215745389 1.478322936e-38
-0.2439797819 -0.2234638929 0.2066686153 1.478322936e-38
-0.07228232175 -0.00170314312 0.2557031512 1.478322936e-38
-0.08395156264 -0.01572853327 0.2496699393 1.478322936e-38
-0.4589057863 0.01426339149 0.136400342 1.478322936e-38
-0.3117236197 0.0820223093 -0.1086081117 1.478322936e-38
-0.08891658485 -0.1167221963 0.2618216574 1.478322936e-38
-0.04505249113 -0.2268101871 0.3241282105 1.478322936e-38
-0.2300567925 0.07738521695 -0.03476128727 1.478322936e-38
-0.02560975961 0.08154940605 0.1343932748 1.478322936e-38
-0.1059479639 0.08391454816 0.02805096656 1.478322936e-38
0.0357365869 -0.3511041403 0.3205122948 1.478322936e-38
0.0002554347739 -0.02520510554 0.3131290972 1.478322936e-38
-0.4677524567 -0.3838585913 0.1778143346 1.478322936e-38
-0.1414370239 -0.3590671122 0.2894003689 1.478322936e-38
-0.02410929278 -0.4830087721 0.2984635532 1.478322936e-38
-0.1215384528 -0.4835107327 0.1514312625 1.478322936e-38
-0.4586858153 -0.3774136603 -0.02625496686 1.478322936e-38
-0.3437562287 0.0772279501 -0.2523887157 1.478322936e-38
-0.2739126086 -0.1289536804 0.1783052981 1.478322936e-38
-0.02945668995 0.07955446839 0.2203690708 1.478322936e-38
-0.2499965131 -0.1961030066 0.1975001991 1.478322936e-38
-0.1021743193 -0.412017405 0.3426979482 1.478322936e-38
-0.1345231831 -0.4833870828 0.06791000813 1.478322936e-38
-0.3091848195 -0.4845232964 -0.3576435745 1.478322936e-38
-0.01695050113 0.07670176029 0.248717159 1.478322936e-38
-0.3357909918 0.0777182579 0.08079325408 1.478322936e-38
0.003552665934 -0.06147064269 0.3176830411 1.478322936e-38
-0.1668765247 -0.3828821182 0.2937410772 1.478322936e-38
-0.1914906502 -0.1053361446 0.1952808201 1.478322936e-38
0.07776479423 -0.2834990621 0.2387129068 1.478322936e-38
-0.24516958 0.07508131862 0.09711857885 1.478322936e-38
-0.08139961958 -0.230048418 0.305464685 1.478322936e-38
-0.1773007512 0.06511479616 0.1551897824 1.478322936e-38
-0.1156818494 -0.4863556623 -0.3563461006 1.478322936e-38
-0.4343325794 -0.2184181213 -0.06662570685 1.478322936e-38
-0.3096036911 -0.0912784934 0.1722011268 1.478322936e-38
-0.141531229 -0.1442379057 0.2292940915 1.478322936e-38
-0.4615414143 0.0605763793 0.06901630759 1.478322936e-38
-0.005119292066 0.08580797911 0.01767537743 1.478322936e-38
-0.03401876613 -0.4649887681 0.3497649431 1.478322936e-38
-0.3109001815 -0.4857814312 -0.1058633402 1.478322936e-38
-0.1089524254 -0.4265045226 0.3445462286 1.478322936e-38
-0.3680674732 0.04316952825 0.1558986604 1.478322936e-38
-0.08160731196 -0.1837204099 0.2998884022 1.478322936e-38
0.04548080266 -0.4062402546 0.3225764036 1.478322936e-38
-0.07283303142 -0.1500297487 0.2959116995 1.478322936e-38
-0.1285153329 -0.41557464 0.3293822706 1.478322936e-38
-0.1913722157 0.07585096359 0.1033758596 1.478322936e-38
-0.1930016577 0.08055597544 -0.1554919332 1.478322936e-38
-0.2365090847 -0.1275590658 0.1839885712 1.478322936e-38
0.02632744238 0.07075193524 0.2697252631 1.478322936e-38
0.01773783937 -0.4727418721 0.3229068816 1.478322936e-38
-0.006693725474 -0.4630280137 -0.1752929688 1.478322936e-38
-0.4562682211 0.05094775558 0.1124232635 1.478322936e-38
-0.07858518511 0.07129749656 0.2008336186 1.478322936e-38
-0.07098186016 -0.2409051359 0.3122160435 1.478322936e-38
0.009683392942 0.07883924246 0.1602872312 1.478322936e-38
-0.06636978686 -0.05435660481 0.2749423087 1.478322936e-38
-0.03170185536 -0.02259159088 0.2958436608 1.478322936e-38
-0.02003232017 -0.1645215601 0.3224089146 1.478322936e-38
-0.1123137996 0.08160588145 -0.3865098357 1.478322936e-38
-0.1035796851 -0.4858434796 -0.3359449804 1.478322936e-38
-0.3115516305 -0.4888321161 -0.3737234771 1.478322936e-38
-0.2842420936 -0.4878327847 -0.3826949 1.478322936e-38
-0.158143729 0.05924254656 0.1643874347 1.478322936e-38
-0.06686478853 0.08348530531 -0.3130611777 1.478322936e-38
-0.1920889616 0.0824315846 -0.3202419281 1.478322936e-38
0.006397733465 -0.004920214415 0.3162491024 1.478322936e-38
-0.1976525187 -0.2322793603 0.2240640819 1.478322936e-38
-0.2270132303 -0.08996111155 0.1808534861 1.478322936e-38
-0.1836272478 0.07998895645 -0.009865229949 1.478322936e-38
-0.1953057051 0.04198113084 0.1796159148 1.478322936e-38
-0.1030752137 -0.485098362 -0.2058475018 1.478322936e-38
-0.06307570636 -0.184383601 0.3089773059 1.478322936e-38
-0.01139035448 -0.1409358531 0.3226482272 1.478322936e-38
-0.06367848814 0.07945737243 0.2015461028 1.478322936e-38
-0.03643987328 -0.4834758043 0.3197292686 1.478322936e-38
0.05401674658 0.06780311465 0.2416776121 1.478322936e-38
-0.005904530175 -0.4854833186 -0.08257335424 1.478322936e-38
-0.3201646209 0.0767698288 0.09327485412 1.478322936e-38
-0.2335289717 0.07651615143 0.01851649955 1.478322936e-38
0.07547621429 -0.2818847895 0.2475578487 1.478322936e-38
-0.2311441302 0.07794085145 -0.0715892911 1.478322936e-38
-0.1392248571 -0.4722826183 0.3413998485 1.478322936e-38
-0.1460171938 0.07512420416 0.1329732239 1.478322936e-38
-0.4016207457 -0.1430912465 0.2161101997 1.478322936e-38
-0.2760171294 -0.477725774 0.2636820376 1.478322936e-38
-0.315487057 -0.488661021 -0.3942736685 1.478322936e-38
-0.05878284574 -0.2199579775 0.3164550364 1.478322936e-38
-0.03258089349 -0.1472406983 0.3157516122 1.478322936e-38
-0.332575202 -0.2287492305 0.2233846784 1.478322936e-38
-0.1553106904 -0.1880957037 0.2355070412 1.478322936e-38
-0.2469780743 -0.1573508978 0.1898176372 1.478322936e-38
-0.2173701227 0.07961556315 -0.1186049357 1.478322936e-38
-0.02244006842 0.0739197135 0.2597921193 1.478322936e-38
-0.4493253827 0.05615353584 0.1225157455 1.478322936e-38
-0.01775420085 -0.1388139874 0.3199829459 1.478322936e-38
-0.1902203858 0.07437744737 0.1168156788 1.478322936e-38
-0.07527668774 -0.127154395 0.2840770781 1.478322936e-38
0.01637665927 -0.2994979024 0.3240195215 1.478322936e-38
-0.0532566309 0.04731169343 0.25098598 1.478322936e-38
0.04361331835 -0.3519775867 0.1603120565 1.478322936e-38
-0.1968646348 0.07908752561 0.04110779613 1.478322936e-38
0.02989716083 -0.4010126889 0.3304484785 1.478322936e-38
-0.1613468528 -0.4842012823 0.2134807408 1.478322936e-38
-0.215198487 -0.4880011678 -0.3773158193 1.478322936e-38
-0.3772693872 0.06193119287 0.1385066807 1.478322936e-38
-0.03534568101 -0.4798511267 -0.2162466347 1.478322936e-38
0.04005211964 -0.4345164895 0.1902703345 1.478322936e-38
-0.07634006441 0.07731455564 0.1952822804 1.478322936e-38
-0.1188606247 0.005006074905 0.2180677354 1.478322936e-38
-0.1295785755 0.05880245566 0.1760254204 1.478322936e-38
-0.005512906238 -0.2751126587 0.3300248682 1.478322936e-38
-0.02470601723 0.07857146859 -0.2839718461 1.771655483e-38
-0.04669817537 0.07868307829 -0.1413430125 1.771655483e-38
-0.3339230418 -0.3763086796 -0.2269396782 1.771655483e-38
-0.1296202242 -0.485085845 0.1808693707 1.771655483e-38
-0.03347028792 -0.4835634232 -0.2336170077 1.771655483e-38
-0.3116572797 -0.4739420414 0.1804505289 1.771655483e-38
-0.07657989115 -0.07752341032 0.3060000539 1.771655483e-38
-0.008616741747 -0.1306646019 0.3322994411 1.771655483e-38
0.001741459593 -0.4819571972 0.1619887352 1.771655483e-38
-0.4321013987 0.06901538372 0.1155064031 1.771655483e-38
-0.4197258055 -0.03853972256 0.2093249261 1.771655483e-38
-0.3141858578 0.06901264191 -0.3417676389 1.771655483e-38
-0.04156196862 -0.4834457636 -0.02776496857 1.771655483e-38
-0.2258450985 0.07331168652 -0.280464977 1.771655483e-38
0.01326592267 -0.04305116832 0.3283936083 1.771655483e-38
-0.2639788687 -0.187661916 0.2060200572 1.771655483e-38
-0.1006598026 0.04914855957 0.2557228804 1.771655483e-38
-0.1173373535 0.04112291336 0.2525572479 1.771655483e-38
-0.4627260864 0.03615322709 0.07126115263 1.771655483e-38
-0.3040983379 0.07344716787 -0.2043687403 1.771655483e-38
-0.1181825697 -0.0737477988 0.2731293738 1.771655483e-38
-0.05297893658 -0.222215414 0.3294309378 1.771655483e-38
-0.229267776 0.07424071431 -0.1212700158 1.771655483e-38
-0.005369329825 0.08285176754 0.06883020699 1.771655483e-38
-0.1013080478 0.08029094338 -0.04401747882 1.771655483e-38
0.007033703849 -0.357327044 0.3363130689 1.771655483e-38
0.0006304876879 0.002380460501 0.3263197541 1.771655483e-38
-0.4042028487 -0.2477993369 0.1371509135 1.771655483e-38
-0.1536608934 -0.3817746043 0.3008600473 1.771655483e-38
-0.0364132598 -0.4832776785 0.2337507308 1.771655483e-38
-0.1067776904 -0.4843561351 0.05725900084 1.771655483e-38
-0.3787484467 -0.2495678067 -0.04044938087 1.771655483e-38
-0.3302055001 0.06910574436 -0.3201565146 1.771655483e-38
-0.3320920169 -0.06392814219 0.2022996545 1.771655483e-38
-0.02988793142 0.08268532157 0.1749405265 1.771655483e-38
-0.2771900594 -0.143022716 0.1958901286 1.771655483e-38
-0.1101104766 -0.4166007042 0.3466596603 1.771655483e-38
-0.1057013571 -0.483831495 -0.02448025346 1.771655483e-38
-0.1784112155 -0.4659613669 -0.2794128358 1.771655483e-38
-0.01490259543 0.08103731275 0.2109469771 1.771655483e-38
-0.3502902389 0.08043083549 -0.0002339445055 1.771655483e-38
0.005214555189 -0.04213455319 0.329470396 1.771655483e-38
-0.1854343414 -0.4114749134 0.3060103655 1.771655483e-38
-0.2430421114 -0.05905859172 0.1963301897 1.771655483e-38
0.05041142553 -0.3514415026 0.1704987586 1.771655483e-38
-0.2600256205 0.08000794053 0.05160773546 1.771655483e-38
-0.08363941312 -0.2134128213 0.3115415871 1.771655483e-38
-0.212394923 0.07966729999 0.13112396 1.771655483e-38
-0.04328835756 -0.4774897993 -0.3209747076 1.771655483e-38
-0.3889866471 -0.1162831187 -0.1037423834 1.771655483e-38
-0.3684318364 -0.02925276756 0.1980971396 1.771655483e-38
-0.1731266975 -0.1115247905 0.2281149626 1.771655483e-38
-0.4591831267 0.07193061709 -0.02036388591 1.771655483e-38
0.02387549728 0.08213055134 -0.05664595217 1.771655483e-38
-0.04287184775 -0.4559516907 0.3504256308 1.771655483e-38
-0.2177672982 -0.4828355312 -0.1287673116 1.771655483e-38
-0.1188422441 -0.4333057106 0.3478220999 1.771655483e-38
-0.404351294 0.06912723184 0.1419741213 1.771655483e-38
-0.08422087133 -0.1548873484 0.3129071295 1.771655483e-38
0.01899085194 -0.4430501461 0.3340496421 1.771655483e-38
-0.07889109105 -0.1230612248 0.3105951846 1.771655483e-38
-0.1359478831 -0.424461782 0.3393811882 1.771655483e-38
-0.2072006166 0.08094072342 0.05474238843 1.771655483e-38
-0.1754471064 0.07570007443 -0.2429309487 1.771655483e-38
-0.291574657 -0.07207335532 0.1985942125 1.771655483e-38
0.02296045795 0.07475554943 0.2423782647 1.771655483e-38
-0.01145627722 -0.4760620892 0.3080248833 1.771655483e-38
-0.01061075833 -0.4503571689 -0.2058834434 1.771655483e-38
-0.4609028697 0.0669375062 0.03602469712 1.771655483e-38
-0.09111554176 0.08481487632 0.145028919 1.771655483e-38
-0.06428088993 -0.230367288 0.3192142844 1.771655483e-38
0.0236547403 0.0814884305 0.1053986773 1.771655483e-38
-0.07835166901 -0.001570343971 0.2881417572 1.771655483e-38
-0.03108635359 0.01538169384 0.308655411 1.771655483e-38
-0.02561084554 -0.1598145664 0.3308688104 1.771655483e-38
-0.07192831486 0.0561452806 -0.4250434935 1.771655483e-38
-0.03380059823 -0.4862058163 -0.3320829272 1.771655483e-38
-0.1653766334 -0.4849834144 -0.3591673076 1.771655483e-38
-0.1336108148 -0.4833687544 -0.3311097026 1.771655483e-38
-0.1958326697 0.07845771313 0.1578016877 1.771655483e-38
-0.02509571053 0.07197067142 -0.3684556186 1.771655483e-38
-0.1545825899 0.07344296575 -0.3683936596 1.771655483e-38
0.00553027913 0.02504497766 0.326515913 1.771655483e-38
-0.2180778086 -0.2173717618 0.2185926735 1.771655483e-38
-0.2840075493 -0.03127029538 0.1953168213 1.771655483e-38
-0.1842631996 0.0754866302 -0.08031700552 1.771655483e-38
-0.2457082868 0.07154464722 0.1817157269 1.771655483e-38
-0.04612996802 -0.4829750061 -0.2368182242 1.771655483e-38
-0.06761103868 -0.159306556 0.3211452365 1.771655483e-38
-0.01379361469 -0.1305361688 0.3312444389 1.771655483e-38
-0.0728084594 0.0855256319 0.1372826993 1.771655483e-38
-0.05439477786 -0.4837677777 0.2795832753 1.771655483e-38
0.05339243263 0.0634958446 0.2093724906 1.771655483e-38
-0.01253841631 -0.4834493399 -0.1488594264 1.771655483e-38
-0.3385171592 0.07987898588 0.0231304802 1.771655483e-38
-0.2469113469 0.07655125856 -0.03684502095 1.771655483e-38
0.04839404672 -0.3498847187 0.1803435981 1.771655483e-38
-0.2295885086 0.07427424192 -0.1610399187 1.771655483e-38
-0.1510162354 -0.4751758873 0.3142515421 1.771655483e-38
-0.1622883976 0.08285087347 0.08737609535 1.771655483e-38
-0.420392096 -0.07820209861 0.2188249528 1.771655483e-38
-0.2362109721 -0.4790810049 0.2198425829 1.771655483e-38
-0.1691785455 -0.4828230441 -0.3339136541 1.771655483e-38
-0.06368666887 -0.2070278525 0.325514704 1.771655483e-38
-0.03574480489 -0.1320412904 0.3273989558 1.771655483e-38
-0.3520804644 -0.1617253721 0.2365130186 1.771655483e-38
-0.1773412824 -0.1605671942 0.2317016721 1.771655483e-38
-0.2928987443 -0.1006158739 0.196770221 1.771655483e-38
-0.21069628 0.0745473206 -0.2088726759 1.771655483e-38
-0.02030372992 0.08150076866 0.2272356153 1.771655483e-38
-0.4565657079 0.07004243135 0.05061769485 1.771655483e-38
-0.01998601481 -0.1269489378 0.3302778006 1.771655483e-38
-0.2108031511 0.08142754436 0.07368128747 1.771655483e-38
-0.08953583241 -0.09810970724 0.3021322191 1.771655483e-38
-0.0095522888 -0.291505307 0.3382186592 1.771655483e-38
-0.06258548796 0.08136042953 0.2260612249 1.771655483e-38
0.02902105823 -0.4069269001 0.06002649665 1.771655483e-38
-0.2022631764 0.07627126575 -0.01760675758 1.771655483e-38
-0.002025480382 -0.4174036384 0.3506533206 1.771655483e-38
-0.1358345449 -0.4847252369 0.1319576204 1.771655483e-38
-0.08011448383 -0.4865470529 -0.3502262831 1.771655483e-38
-0.4063511789 0.07335159183 0.1079603508 1.771655483e-38
-0.02197940648 -0.4793506861 -0.2402662337 1.771655483e-38
0.02729425579 -0.4745862782 0.09976049513 1.771655483e-38
-0.08827629685 0.0852240026 0.1355127692 1.771655483e-38
-0.1545110345 0.05591514707 0.2158843577 1.771655483e-38
-0.1548080742 0.08020043373 0.1590553224 1.771655483e-38
-0.02320813388 -0.2628652751 0.3357411623 1.771655483e-38
-0.03596160561 0.07747447491 -0.2184944451 2.06466517e-38
-0.02427747101 0.08155679703 -0.07259950042 2.06466517e-38
-0.3431666195 -0.370724082 -0.2980574071 2.06466517e-38
-0.07994072139 -0.4861895442 0.194139421 2.06466517e-38
0.001990582794 -0.4822431803 -0.2351591885 2.06466517e-38
-0.2657037079 -0.5037953258 0.1311579943 2.06466517e-38
-0.0590194501 -0.1038133204 0.3528273702 2.06466517e-38
0.01622753777 -0.1529332101 0.3593450785 2.06466517e-38
0.0542742759 -0.4839029312 0.1990089118 2.06466517e-38
-0.4498739541 0.06398671865 0.1677089036 2.06466517e-38
-0.3976350427 -0.0241471231 0.197697401 2.06466517e-38
-0.3325559497 0.05971243978 -0.2906722426 2.06466517e-38
-0.0007774317637 -0.4838539362 0.003676988184 2.06466517e-38
-0.2521583736 0.06642258167 -0.216439724 2.06466517e-38
0.02954576164 -0.06942252815 0.3552420437 2.06466517e-38
-0.2312427163 -0.231851697 0.2484466136 2.06466517e-38
-0.1065884754 0.04243668914 0.3238574862 2.06466517e-38
-0.1230078489 0.02962467074 0.3224327564 2.06466517e-38
-0.478187561 0.04966571927 0.04407578707 2.06466517e-38
-0.3259194493 0.07014548779 -0.129963845 2.06466517e-38
-0.1049301624 -0.09843689203 0.3320239782 2.06466517e-38
-0.02092905715 -0.2566158473 0.3579027355 2.06466517e-38
-0.2499814034 0.07488614321 -0.02499533072 2.06466517e-38
0.01760959253 0.08547830582 0.1426233649 2.06466517e-38
-0.07956248522 0.08170580864 0.02236742154 2.06466517e-38
0.05155935138 -0.3650351167 0.3632955551 2.06466517e-38
0.007957678288 -0.02404591441 0.3551377058 2.06466517e-38
-0.3925080001 -0.2936002314 0.02770364285 2.06466517e-38
-0.1126453653 -0.400870204 0.366415441 2.06466517e-38
0.01515750214 -0.4839999974 0.2579064667 2.06466517e-38
-0.05958370864 -0.484533608 0.06531333923 2.06466517e-38
-0.3700115085 -0.2916471064 -0.1860241592 2.06466517e-38
-0.3482484519 0.05926501751 -0.2713688612 2.06466517e-38
-0.3110529184 -0.0513227731 0.2223511338 2.06466517e-38
-0.02304334007 0.08391782641 0.2446089089 2.06466517e-38
-0.2517514229 -0.1713143885 0.2207766473 2.06466517e-38
-0.07509050518 -0.427449882 0.3845214248 2.06466517e-38
-0.06496948004 -0.4846194685 -0.01457872055 2.06466517e-38
-0.1794868708 -0.4478620291 -0.275909096 2.06466517e-38
-0.008528867736 0.08025750518 0.2777760923 2.06466517e-38
-0.3692370057 0.07761225104 0.0789809078 2.06466517e-38
0.0151560232 -0.06920136511 0.3564505875 2.06466517e-38
-0.1278376281 -0.4279533029 0.3684820831 2.06466517e-38
-0.2373289764 -0.06784634292 0.2458513975 2.06466517e-38
0.1020003855 -0.3604761362 0.1705405712 2.06466517e-38
-0.2605281472 0.08212843537 0.1310462356 2.06466517e-38
-0.04391783103 -0.2756424248 0.3367475271 2.06466517e-38
-0.2346531153 0.08228382468 0.2014479041 2.06466517e-38
-0.04178468883 -0.44690907 -0.3174101412 2.06466517e-38
-0.3959088326 -0.1126009524 -0.2252719104 2.06466517e-38
-0.354760468 -0.0131213367 0.2165785134 2.06466517e-38
-0.1539134383 -0.137677446 0.2957524657 2.06466517e-38
-0.4903972745 0.06610375643 -0.01442639343 2.06466517e-38
0.02975044399 0.08409044147 0.008181061596 2.06466517e-38
0.005610924214 -0.4737693965 0.3832799494 2.06466517e-38
-0.1756871343 -0.4871495068 -0.1889375448 2.06466517e-38
-0.08118933439 -0.4392107129 0.3829526007 2.06466517e-38
-0.4185883999 0.06305012107 0.1862747073 2.06466517e-38
-0.05295623466 -0.1946867406 0.348149091 2.06466517e-38
0.06440763921 -0.4548637271 0.3724185228 2.06466517e-38
-0.05334369093 -0.1509784311 0.3515195251 2.06466517e-38
-0.09763458371 -0.4330302775 0.380202949 2.06466517e-38
-0.2015477121 0.08451926708 0.1373446286 2.06466517e-38
-0.1980340183 0.06953403354 -0.1620590687 2.06466517e-38
-0.2743536234 -0.07100553811 0.2289592624 2.06466517e-38
0.02350278571 0.07314684987 0.2948063314 2.06466517e-38
0.03804308176 -0.4834148884 0.33289361 2.06466517e-38
0.05063901842 -0.4476568699 -0.2345615029 2.06466517e-38
-0.485057354 0.06176325679 0.04259540141 2.06466517e-38
-0.1103799865 0.08492136002 0.2354521155 2.06466517e-38
-0.03193168342 -0.2771894038 0.345895648 2.06466517e-38
0.04058258981 0.08255526423 0.1763842404 2.06466517e-38
-0.07251951098 -0.01968058944 0.3432682753 2.06466517e-38
-0.01973692328 -0.01380497217 0.3536128402 2.06466517e-38
-0.0001281425357 -0.1858839989 0.3607159555 2.06466517e-38
-0.09235129505 0.03025427461 -0.3694658875 2.06466517e-38
-0.02288072184 -0.482896626 -0.348942697 2.06466517e-38
-0.1357936412 -0.4842993021 -0.3601343334 2.06466517e-38
-0.1331767142 -0.4890142381 -0.3270673752 2.06466517e-38
-0.2242771089 0.07988113165 0.2222161591 2.06466517e-38
-0.047610946 0.0562287569 -0.3105809391 2.06466517e-38
-0.1837560236 0.06641936302 -0.3148360848 2.06466517e-38
0.01353314891 0.002637684345 0.3531308174 2.06466517e-38
-0.1613306999 -0.2895702124 0.2806980014 2.06466517e-38
-0.279055953 -0.03433647752 0.2328091264 2.06466517e-38
-0.1869256198 0.07537534833 0.003109425306 2.06466517e-38
-0.2620928586 0.07089132071 0.2326025963 2.06466517e-38
-0.02800746635 -0.4815562367 -0.2383165359 2.06466517e-38
-0.0370401144 -0.1928793192 0.3561398089 2.06466517e-38
0.007637154311 -0.1533263773 0.3592398465 2.06466517e-38
-0.07781922817 0.08493942022 0.2171782553 2.06466517e-38
-0.005912695546 -0.4845639467 0.3060734272 2.06466517e-38
0.06254939735 0.06874164939 0.262681663 2.06466517e-38
0.03636636585 -0.4829428792 -0.148719281 2.06466517e-38
-0.3567260802 0.07775500417 0.1084187403 2.06466517e-38
-0.2456304133 0.07901483774 0.05082223564 2.06466517e-38
0.102764532 -0.3628003001 0.1825987995 2.06466517e-38
-0.2517703474 0.07268673182 -0.06973939389 2.06466517e-38
-0.09436430037 -0.4732297957 0.3444516063 2.06466517e-38
-0.1709278226 0.08591723442 0.1651781201 2.06466517e-38
-0.3937373161 -0.07136702538 0.1978412867 2.06466517e-38
-0.1879335642 -0.4904142022 0.2058015466 2.06466517e-38
-0.1628839076 -0.487229526 -0.3364246786 2.06466517e-38
-0.0302479919 -0.2439341396 0.3544267416 2.06466517e-38
-0.02273755334 -0.1587929875 0.3587805033 2.06466517e-38
-0.3206744492 -0.1927859485 0.2350644171 2.06466517e-38
-0.131501928 -0.2230662107 0.2890437543 2.06466517e-38
-0.267083317 -0.1055977196 0.2189174891 2.06466517e-38
-0.2310596406 0.06957036257 -0.1271057725 2.06466517e-38
-0.01214318257 0.07972592115 0.2946348786 2.06466517e-38
-0.4823702872 0.06624016166 0.0828044787 2.06466517e-38
-0.004569074139 -0.1538239419 0.3589254022 2.06466517e-38
-0.2119067609 0.08503693342 0.1528718174 2.06466517e-38
-0.0675984174 -0.1272243559 0.3485184312 2.06466517e-38
0.02601452172 -0.3122410774 0.3656257689 2.06466517e-38
-0.0660392046 0.07860374451 0.3081358671 2.06466517e-38
0.0965968594 -0.4122660756 0.05533593148 2.06466517e-38
-0.1923134327 0.07995295525 0.06761354208 2.06466517e-38
0.04902552441 -0.4273715615 0.3791390657 2.06466517e-38
-0.08781500906 -0.4856655598 0.135368675 2.06466517e-38
-0.06803138554 -0.479870677 -0.3522112966 2.06466517e-38
-0.4286580384 0.07160058618 0.1697564423 2.06466517e-38
0.02450132743 -0.4713511467 -0.2549751997 2.06466517e-38
0.1018032432 -0.4636048079 0.127083987 2.06466517e-38
-0.1042951941 0.08482760191 0.2228670418 2.06466517e-38
-0.1721818149 0.05084049702 0.2876645625 2.06466517e-38
-0.1873275042 0.08192557096 0.2348090112 2.06466517e-38
0.01141453162 -0.2926068008 0.3653361797 2.06466517e-38
0.03883708268 0.07897856832 0.03297181427 2.348204041e-38
0.0580631271 0.08044019341 0.1499997973 2.348204041e-38
-0.2167450786 -0.454262495 -0.3252899945 2.348204041e-38
0.04416147619 -0.4840258062 -0.04315022379 2.348204041e-38
0.1181565002 -0.4382892847 -0.2950983047 2.348204041e-38
-0.101241976 -0.4851647019 -0.1528124511 2.348204041e-38
-0.03938736394 -0.1657564044 0.3870642483 2.348204041e-38
0.03503466025 -0.1996861994 0.3940980136 2.348204041e-38
0.1818944514 -0.4261758327 -0.05903741717 2.348204041e-38
-0.3023298383 -0.1668963581 0.2703382671 2.348204041e-38
-0.2832465172 -0.4882003665 0.2266221344 2.348204041e-38
-0.343229264 0.08237326145 0.06416033208 2.348204041e-38
0.1636389196 -0.4760969281 -0.1813026071 2.348204041e-38
-0.2525835335 0.08614358306 0.1559800208 2.348204041e-38
0.04827447236 -0.1088087112 0.3806765079 2.348204041e-38
-0.1231347919 -0.4741399288 0.3311656117 2.348204041e-38
-0.04524255544 -0.0375764817 0.3789148033 2.348204041e-38
-0.053648673 -0.05998082459 0.3785307407 2.348204041e-38
-0.3649408221 -0.4319726825 0.1432539523 2.348204041e-38
-0.384525001 0.07350894809 0.2003824413 2.348204041e-38
-0.0498981066 -0.1893340945 0.3808356822 2.348204041e-38
0.01319140196 -0.3585425913 0.4109307826 2.348204041e-38
-0.249071449 0.07799121737 0.259804219 2.348204041e-38
0.05877757818 0.07772025466 0.2958744466 2.348204041e-38
-0.02455256507 0.08132106066 0.2807681262 2.348204041e-38
0.06992468983 -0.3802665174 0.3887086809 2.348204041e-38
0.02310582995 -0.06473237276 0.3824483752 2.348204041e-38
-0.2237392366 -0.4827710688 -0.268584609 2.348204041e-38
-0.02366602793 -0.4816191792 0.3316785097 2.348204041e-38
0.145853579 -0.47198385 0.03296718001 2.348204041e-38
0.06084809452 -0.4840530455 -0.1250371933 2.348204041e-38
-0.2628100216 -0.4764939547 -0.3361468315 2.348204041e-38
-0.3762027025 0.0820068717 0.08593799174 2.348204041e-38
-0.1899582148 -0.4380784631 0.3860008121 2.348204041e-38
-0.004218020476 0.06713122129 0.3562437296 2.348204041e-38
-0.1422525048 -0.4679877758 0.3590678871 2.348204041e-38
0.02508987114 -0.4848492444 0.339307934 2.348204041e-38
0.0510802865 -0.4831848145 -0.1696396768 2.348204041e-38
-0.05960042402 -0.3789208531 -0.2531112731 2.348204041e-38
0.004327455536 0.06215557456 0.360801369 2.348204041e-38
-0.3526929915 0.02810454369 0.2637700438 2.348204041e-38
0.03370281681 -0.1078809202 0.3838986754 2.348204041e-38
-0.03244232014 -0.4859073162 0.2654213011 2.348204041e-38
-0.1101728976 -0.3080889583 0.3596304357 2.348204041e-38
0.1269603372 -0.2557537556 0.01673720777 2.348204041e-38
-0.2374658287 0.04460719228 0.3334333003 2.348204041e-38
-0.01627871767 -0.3803286552 0.415915668 2.348204041e-38
-0.1487498879 -0.004354089499 0.3550451994 2.348204041e-38
0.009849462658 -0.346709609 -0.288764298 2.348204041e-38
-0.3093330562 -0.465945363 -0.3042332828 2.348204041e-38
-0.2213915884 -0.4239455462 0.358626008 2.348204041e-38
-0.0764939487 -0.3324321508 0.3772394061 2.348204041e-38
-0.3704517484 -0.2820245624 0.1228381023 2.348204041e-38
0.1185920015 0.08024895191 0.1942584515 2.348204041e-38
0.07872633636 -0.474065274 0.3034527302 2.348204041e-38
-0.03906162083 -0.4854434431 -0.3487538695 2.348204041e-38
0.02843746543 -0.4854311049 0.315504998 2.348204041e-38
-0.2715040743 -0.1414140016 0.2824468315 2.348204041e-38
-0.02604268119 -0.297665745 0.3916507065 2.348204041e-38
0.108799845 -0.4159154594 0.2407285273 2.348204041e-38
-0.03407627344 -0.2326997817 0.3862324059 2.348204041e-38
0.006521204486 -0.48586604 0.307993561 2.348204041e-38
-0.1832654774 0.05654072762 0.3511449099 2.348204041e-38
-0.1537469923 0.08291703463 0.1675360203 2.348204041e-38
-0.1488623023 -0.3976629376 0.3911943436 2.348204041e-38
0.03861768544 0.05901661515 0.3505832553 2.348204041e-38
0.1390814781 -0.4504135549 0.1378579736 2.348204041e-38
0.1258921027 -0.3318702579 -0.2039876282 2.348204041e-38
-0.3611114025 -0.3093135059 0.1945728064 2.348204041e-38
-0.04672558233 0.04750415683 0.3669784665 2.348204041e-38
-0.005645724479 -0.3959793448 0.4189546108 2.348204041e-38
0.07300645858 0.07572138309 0.2834484875 2.348204041e-38
-0.04043252766 -0.09657493234 0.3843666911 2.348204041e-38
-0.01286732871 -0.05786330998 0.3837342262 2.348204041e-38
0.01828248426 -0.2707957923 0.3897895217 2.348204041e-38
-0.006637726445 0.0482339561 -0.1940726042 2.348204041e-38
0.04321265966 -0.3949831128 -0.3196015358 2.348204041e-38
-0.05518592522 -0.4061294496 -0.3363683224 2.348204041e-38
-0.05426576734 -0.3780969381 -0.2991552353 2.348204041e-38
-0.1245416179 -0.02122458816 0.3581745028 2.348204041e-38
0.02864911407 0.07993838191 -0.09615622461 2.348204041e-38
-0.1350075752 0.0821031034 -0.04579205066 2.348204041e-38
0.02853893489 -0.04175488651 0.379620105 2.348204041e-38
-0.09652192891 -0.4586048126 0.3688800633 2.348204041e-38
-0.1340482831 -0.3017933667 0.357270807 2.348204041e-38
-0.1705697179 0.08174324036 0.2823594511 2.348204041e-38
-0.1461508572 -0.07736304402 0.3454447091 2.348204041e-38
0.09932403266 -0.4602127373 -0.3233792782 2.348204041e-38
-0.01755506359 -0.2934262156 0.3876305819 2.348204041e-38
0.02602142096 -0.2024636865 0.3953717649 2.348204041e-38
-0.0311375875 0.06367263198 0.3589369655 2.348204041e-38
0.1159793511 -0.4793846905 0.09124591202 2.348204041e-38
0.07821676135 0.06184381247 0.3058695793 2.348204041e-38
0.183309108 -0.4269364476 -0.2200539708 2.348204041e-38
-0.3304547668 0.02501147985 0.2786722481 2.348204041e-38
-0.2629639208 0.07268321514 0.3071396053 2.348204041e-38
0.1271533966 -0.2623184621 0.02206829563 2.348204041e-38
-0.2468573451 0.08015179634 0.2374435961 2.348204041e-38
0.0290276967 -0.485262841 0.1565723717 2.348204041e-38
-0.1293647438 0.04727476835 0.363817364 2.348204041e-38
-0.2741017342 -0.4955070019 0.1223629043 2.348204041e-38
-0.05267427489 -0.4850878417 -0.07111943513 2.348204041e-38
-0.07685370743 -0.3927304447 -0.3099330068 2.348204041e-38
-0.001508581452 -0.3536996245 0.4081489444 2.348204041e-38
-0.007997601293 -0.212683171 0.3981403708 2.348204041e-38
-0.2003394961 -0.4866276383 0.1451428533 2.348204041e-38
-0.08325655758 -0.3978512883 0.4017883539 2.348204041e-38
-0.1575708091 -0.4466227889 0.3996270299 2.348204041e-38
-0.2111543119 0.08387747407 0.2090400755 2.348204041e-38
0.001046268269 0.0582242012 0.3646841347 2.348204041e-38
-0.3473004401 -0.2343261242 0.2323445082 2.348204041e-38
0.01385713369 -0.2002606094 0.3977548182 2.348204041e-38
-0.178172648 0.04263961315 0.3525039256 2.348204041e-38
-0.03953448683 -0.198643446 0.3857401907 2.348204041e-38
0.05023646355 -0.3861086667 0.4051570296 2.348204041e-38
-0.02861204371 0.02265009284 0.373547256 2.348204041e-38
0.1276847124 -0.2868984938 -0.04049250111 2.348204041e-38
-0.2054352462 0.07617935538 0.3276593089 2.348204041e-38
0.07464348525 -0.4123440683 0.3673021793 2.348204041e-38
0.02824803814 -0.4843599498 -0.08786003292 2.348204041e-38
-0.02335117012 -0.392606169 -0.3263622224 2.348204041e-38
-0.3019329906 -0.0785382688 0.2687035501 2.348204041e-38
0.1140478626 -0.3841357231 -0.2556265295 2.348204041e-38
0.154748112 -0.3798523545 -0.06052905694 2.348204041e-38
-0.04494343325 0.0547400713 0.3656826317 2.348204041e-38
-0.07721048594 -0.06477020681 0.3709286451 2.348204041e-38
-0.0945821926 -0.007301867008 0.3639449477 2.348204041e-38
0.03711902723 -0.3717646301 0.4117719233 2.348204041e-38
0.1136811301 0.07791003585 0.09911570698 2.346801622e-38
0.107371226 0.08010590076 0.2535336912 2.346801622e-38
-0.2108526826 -0.3640595376 -0.3390910327 2.346801622e-38
0.08569761366 -0.4840709567 0.06536869705 2.346801622e-38
0.2029018104 -0.443713516 -0.3182111084 2.346801622e-38
-0.05383725092 -0.4854364395 -0.1990935802 2.346801622e-38
-0.01556090638 -0.1609932035 0.3859008551 2.346801622e-38
0.03458913788 -0.1823964119 0.3967989385 2.346801622e-38
0.2003073394 -0.4299519062 0.01813278347 2.346801622e-38
-0.003114278428 -0.3707388639 0.3407374918 2.346801622e-38
-0.08992574364 -0.4605765343 0.1881797016 2.346801622e-38
0.04726784304 -0.1169788539 -0.09650245309 2.346801622e-38
0.2074158788 -0.469026804 -0.1402228773 2.346801622e-38
0.05076882243 0.06679165363 0.178262651 2.346801622e-38
0.05907357484 -0.07139776647 0.3861669898 2.346801622e-38
-0.03298218176 -0.4719198346 0.3761993349 2.346801622e-38
-0.0224057287 -0.05049309134 0.3816233575 2.346801622e-38
-0.02811392397 -0.0748397857 0.3804469407 2.346801622e-38
-0.1382300854 -0.437500596 -0.08895222098 2.346801622e-38
0.0759947598 -0.1794754118 0.1839500368 2.346801622e-38
-0.02730819583 -0.221596241 0.3826886117 2.346801622e-38
0.01274834387 -0.3368394673 0.4130128324 2.346801622e-38
-0.004606411792 0.02784776688 0.4209095538 2.346801622e-38
0.08786252886 0.07153502107 0.3207660615 2.346801622e-38
0.02837816253 0.07320031524 0.3416889012 2.346801622e-38
0.07456637919 -0.4125498533 0.3793027103 2.346801622e-38
0.04481612891 -0.03199636936 0.3907160461 2.346801622e-38
-0.172385782 -0.4652364254 -0.3608443141 2.346801622e-38
-0.002027018927 -0.4869736135 0.3807240129 2.346801622e-38
0.154799819 -0.4590553939 0.1259117723 2.346801622e-38
0.117949523 -0.4837803245 -0.05716791749 2.346801622e-38
-0.2128235698 -0.4106096029 -0.3955327272 2.346801622e-38
0.06423287094 -0.2289790213 -0.09253121912 2.346801622e-38
-0.03953008354 -0.4374393523 0.4105660319 2.346801622e-38
0.03634257242 0.06247988343 0.371481061 2.346801622e-38
-0.03557574749 -0.4637758732 0.3929710388 2.346801622e-38
0.01295026392 -0.485163331 0.3847750723 2.346801622e-38
0.1213668063 -0.4838884473 -0.1382777393 2.346801622e-38
-0.1085126996 -0.3551755548 -0.2578289509 2.346801622e-38
0.04006912559 0.06062692404 0.3729374409 2.346801622e-38
0.04228562117 -0.2670737505 0.3432554305 2.346801622e-38
0.04742434993 -0.07073579729 0.3905049562 2.346801622e-38
0.004003766924 -0.4878612757 0.3355032504 2.346801622e-38
-0.0184715502 -0.3154583573 0.416431725 2.346801622e-38
0.1234645918 -0.3063487411 0.04938089848 2.346801622e-38
-0.0269765649 -0.05644626915 0.390093267 2.346801622e-38
-0.01284073573 -0.3615877032 0.4276546836 2.346801622e-38
-0.03231430426 -0.07805372775 0.3799229264 2.346801622e-38
0.006283663213 -0.3825783432 -0.3096708357 2.346801622e-38
-0.2383104563 -0.3947113454 -0.3665414751 2.346801622e-38
-0.04529013857 -0.4292387366 0.4020215571 2.346801622e-38
-0.02134684101 -0.3153909445 0.4147227108 2.346801622e-38
-0.1067328751 -0.4453518391 -0.0726942867 2.346801622e-38
0.1405172944 0.07765376568 0.2612181306 2.346801622e-38
0.0759332329 -0.4634101391 0.3587759435 2.346801622e-38
-0.06307516992 -0.4804514647 -0.3962929547 2.346801622e-38
0.01676021889 -0.4863085151 0.3686416149 2.346801622e-38
-0.001051890664 -0.3375892639 0.3814225495 2.346801622e-38
-0.02003061213 -0.2770239711 0.3974677026 2.346801622e-38
0.1204200462 -0.4274793863 0.2782388031 2.346801622e-38
-0.01853721216 -0.245234102 0.389000535 2.346801622e-38
0.009331667796 -0.4871805906 0.3668117225 2.346801622e-38
-0.03590980917 -0.01867347956 0.3806136847 2.346801622e-38
0.01677141152 0.07515189052 0.2704725266 2.346801622e-38
-0.02655209601 -0.396969378 0.4348810315 2.346801622e-38
0.07241116464 0.0599001646 0.3483228087 2.346801622e-38
0.1361689568 -0.4487521648 0.1916607618 2.346801622e-38
0.1745900512 -0.3701885939 -0.2074256241 2.346801622e-38
-0.09015668929 -0.433688581 0.0120411627 2.346801622e-38
-0.01614181325 0.03587862849 0.3808536828 2.346801622e-38
-0.00831464678 -0.3705222607 0.4281500578 2.346801622e-38
0.1214227751 0.06999731064 0.3010188639 2.346801622e-38
-0.01663906313 -0.08648984134 0.3843660951 2.346801622e-38
0.01873752847 -0.0372543335 0.3887285888 2.346801622e-38
0.02252317965 -0.2482446134 0.3955771625 2.346801622e-38
0.1045201942 -0.002965241671 -0.185769558 2.346801622e-38
0.07664981484 -0.4243333936 -0.3526849449 2.346801622e-38
-0.1131058037 -0.3801873326 -0.3532561958 2.346801622e-38
-0.1027588844 -0.3752475977 -0.3048959076 2.346801622e-38
-0.03210509568 -0.08601129055 0.3791359961 2.346801622e-38
0.1214948967 0.07246699929 -0.1008515432 2.346801622e-38
0.0544661358 0.07208511233 -0.07188875973 2.346801622e-38
0.0511347875 -0.01066198945 0.3898856342 2.346801622e-38
-0.02135726064 -0.4702347219 0.4095277786 2.346801622e-38
-0.01712729037 -0.3283651769 0.423881501 2.346801622e-38
-0.03247784078 0.0627848804 0.3911058009 2.346801622e-38
-0.0238770768 -0.1598503143 0.3864311576 2.346801622e-38
0.1758326888 -0.4598236382 -0.3435336649 2.346801622e-38
-0.01009653974 -0.2634702921 0.3984899223 2.346801622e-38
0.02890164033 -0.1835947633 0.4007203281 2.346801622e-38
-0.005801013205 0.05424645543 0.3778675199 2.346801622e-38
0.1262934804 -0.4695744514 0.1893051267 2.346801622e-38
0.114569284 0.06345662475 0.3080227971 2.346801622e-38
0.2483536005 -0.4396262467 -0.234062314 2.346801622e-38
0.02542784438 -0.2366762757 0.3615951836 2.346801622e-38
-0.02327309549 -0.002138435841 0.4168778658 2.346801622e-38
0.1229166761 -0.3106719851 0.05569087714 2.346801622e-38
0.01022277959 0.04082155228 0.3932833374 2.346801622e-38
0.04144314677 -0.4858506024 0.2614233792 2.346801622e-38
-0.03200232983 -0.009287923574 0.3764409423 2.346801622e-38
-0.09774514288 -0.4718476534 0.005499813706 2.346801622e-38
0.009694311768 -0.4853970408 -0.01112312824 2.346801622e-38
-0.1308269501 -0.3752527833 -0.3200259209 2.346801622e-38
-0.001427724957 -0.3217108846 0.4121111929 2.346801622e-38
0.007489737123 -0.2029435784 0.3986177444 2.346801622e-38
-0.07120209187 -0.4821902514 0.1528599262 2.346801622e-38
-0.0145314103 -0.3968041837 0.4368432164 2.346801622e-38
-0.0333673954 -0.4412515163 0.4173894227 2.346801622e-38
0.01783485897 0.06065565348 0.3451706171 2.346801622e-38
0.03265712783 0.05754774809 0.3783768415 2.346801622e-38
-0.05728147551 -0.4264244437 0.1087973192 2.346801622e-38
0.02218342945 -0.183535248 0.4011743665 2.346801622e-38
-0.03489685804 -0.03390699625 0.3784969747 2.346801622e-38
-0.02263681218 -0.2184304297 0.3846758604 2.346801622e-38
0.04964428395 -0.3899893463 0.3969380558 2.346801622e-38
-0.003855636343 0.02580997348 0.3843691647 2.346801622e-38
0.1298657954 -0.3455705047 -0.02399677224 2.346801622e-38
-0.04103079438 0.02773660421 0.3943880796 2.346801622e-38
0.07900332659 -0.434939146 0.3763565421 2.346801622e-38
0.08106631041 -0.4842678308 -0.001734808087 2.346801622e-38
-0.06513698399 -0.3934458196 -0.3429926336 2.346801622e-38
0.01647784375 -0.3358629346 0.3589685261 2.346801622e-38
0.1920149028 -0.4066930711 -0.2701687217 2.346801622e-38
0.167345494 -0.3991536498 -0.04413599148 2.346801622e-38
-0.01437443215 0.04270732403 0.380053252 2.346801622e-38
-0.03090393357 -0.09661260247 0.3765963912 2.346801622e-38
-0.03248137236 -0.05076679587 0.3783716261 2.346801622e-38
0.03485234827 -0.3717757463 0.408665359 2.346801622e-38
0.06364478171 0.08160841465 0.2155209482 2.345219836e-38
0.1023946106 0.08116149902 0.3060642779 2.345219836e-38
-0.1803060472 -0.331037432 -0.3497202098 2.345219836e-38
0.04078261554 -0.4846263528 0.3243739903 2.345219836e-38
0.1763010323 -0.4746533036 -0.254317224 2.345219836e-38
-0.04340834916 -0.4886330068 0.02510715276 2.345219836e-38
0.01292056963 -0.1151740104 0.3840758204 2.345219836e-38
0.08968336135 -0.145326376 0.3639431596 2.345219836e-38
0.1257652938 -0.4577775598 0.3001683652 2.345219836e-38
-0.008934007026 -0.3493628204 0.4156912863 2.345219836e-38
-0.06654325128 -0.4448112845 0.3848382235 2.345219836e-38
0.05397761613 -0.1575949341 0.05419245362 2.345219836e-38
0.1350643337 -0.476337254 0.159943372 2.345219836e-38
0.03641468287 0.05286151171 0.3754529059 2.345219836e-38
0.1114140004 -0.02716559172 0.3574224412 2.345219836e-38
-0.02798323147 -0.4427329302 0.4447131157 2.345219836e-38
0.005574274808 -0.02957451344 0.3867840469 2.345219836e-38
-0.003070873208 -0.05574756861 0.3834779263 2.345219836e-38
-0.1081101447 -0.4202671647 0.07143203169 2.345219836e-38
0.07597285509 -0.1979084313 0.3538862169 2.345219836e-38
-0.01035844255 -0.1829878986 0.3777367771 2.345219836e-38
0.04386723042 -0.2660932839 0.3883280754 2.345219836e-38
-0.009761629626 0.02867645025 0.4428350329 2.345219836e-38
0.1252428889 0.07164430618 0.3374623656 2.345219836e-38
0.05424463004 0.07439044118 0.3718489707 2.345219836e-38
0.0934548825 -0.3434619904 0.340601027 2.345219836e-38
0.09693080187 0.01602336764 0.3785315454 2.345219836e-38
-0.129430905 -0.448249042 -0.2943056226 2.345219836e-38
-0.008836619556 -0.4592027664 0.4309377968 2.345219836e-38
0.09486549348 -0.4655709863 0.3664527237 2.345219836e-38
0.07158172131 -0.4843859673 0.2361015081 2.345219836e-38
-0.1705781817 -0.3841451406 -0.3796471953 2.345219836e-38
0.06522426009 -0.2650875151 0.07067094743 2.345219836e-38
-0.02773815766 -0.3799890876 0.4431320131 2.345219836e-38
0.08378877491 0.06381040812 0.3762075901 2.345219836e-38
-0.02871219628 -0.42514956 0.4458324015 2.345219836e-38
0.01263049059 -0.4580279291 0.4190774262 2.345219836e-38
0.0820980221 -0.4843682647 0.1414975524 2.345219836e-38
-0.1345697045 -0.3417224586 -0.3120584786 2.345219836e-38
0.08621452749 0.06218490005 0.3730725944 2.345219836e-38
0.02657476813 -0.2755207717 0.4024514854 2.345219836e-38
0.1022269279 -0.02659699321 0.3668732345 2.345219836e-38
-0.005959006958 -0.4761989713 0.432192415 2.345219836e-38
-0.01053893752 -0.3014787138 0.3854244351 2.345219836e-38
0.152690053 -0.3620353937 0.2223119438 2.345219836e-38
-0.01263124216 -0.05222228169 0.3787702322 2.345219836e-38
0.005623651668 -0.2896567881 0.3839398921 2.345219836e-38
-0.02123121545 -0.07046966255 0.3802575469 2.345219836e-38
-0.02307131886 -0.399173975 -0.3650988042 2.345219836e-38
-0.1958362758 -0.3707417846 -0.3551090658 2.345219836e-38
-0.03192875534 -0.37546134 0.4443522394 2.345219836e-38
-0.01439872757 -0.2876925468 0.3844348192 2.345219836e-38
-0.06960197538 -0.4392365515 0.06704375148 2.345219836e-38
0.1441316903 0.07819336653 0.3000422716 2.345219836e-38
0.06403511018 -0.4564527273 0.4169426858 2.345219836e-38
-0.04205862805 -0.4771094024 -0.332906127 2.345219836e-38
0.01687891781 -0.4648596644 0.4217526317 2.345219836e-38
-0.007847539149 -0.3196695447 0.4158855677 2.345219836e-38
0.005997071043 -0.2426994145 0.3815774918 2.345219836e-38
0.1009228155 -0.4486001134 0.3625167608 2.345219836e-38
0.009732883424 -0.1737349629 0.3811386824 2.345219836e-38
0.001276368275 -0.4697446227 0.4235514104 2.345219836e-38
-0.01769710891 -0.01835885644 0.379339546 2.345219836e-38
-0.004215245135 0.07036149502 0.4207732975 2.345219836e-38
-0.01272003911 -0.3472340703 0.4301434457 2.345219836e-38
0.1188261285 0.0641631484 0.3544040322 2.345219836e-38
0.09413780272 -0.4553166032 0.3850194514 2.345219836e-38
0.1966424882 -0.4783030748 -0.2623916566 2.345219836e-38
-0.0621570386 -0.424777776 0.1787587106 2.345219836e-38
0.009800268337 0.04702603817 0.3871024251 2.345219836e-38
0.01480110548 -0.2914259434 0.3872151971 2.345219836e-38
