# .PCD v0.7 - Point Cloud Data file format
VERSION 0.7
FIELDS x y z rgb
SIZE 4 4 4 4
TYPE F F F F
COUNT 1 1 1 1
WIDTH 832
HEIGHT 1
VIEWPOINT 0 0 0 1 0 0 0
POINTS 832
DATA ascii
-0.0524617061 -0.3690814078 0.2274207771 5.962428276e-39
-0.05422276258 -0.4541405439 0.2075018883 5.962428276e-39
0.06522551924 -0.3445717692 -0.2020339817 5.962428276e-39
-0.03769090772 -0.3802270293 0.2799067199 5.962428276e-39
0.01194295287 -0.3856711686 0.3039143384 5.962428276e-39
-0.2025516629 -0.4523677528 -0.0313179791 5.962428276e-39
-0.2590617836 -0.4394913018 0.005836782977 5.962428276e-39
0.03351676464 -0.3530424535 -0.1342817098 5.962428276e-39
-0.1200893968 -0.3546412289 -0.1098474488 5.962428276e-39
0.1542575508 -0.448215276 -0.06972612441 5.962428276e-39
-0.2569075227 -0.4469716251 -0.09709029645 5.962428276e-39
0.05615787208 -0.4554269016 0.1627092808 5.962428276e-39
0.09614682198 -0.4564250708 0.08174735308 5.962428276e-39
0.07044173032 -0.3829781711 0.118227683 5.962428276e-39
0.06059776619 -0.3682014644 0.2015737295 5.962428276e-39
-0.158673659 -0.3695948124 0.03975902498 5.962428276e-39
-0.08120377362 -0.4482321739 0.2080393136 5.962428276e-39
-0.1271056384 -0.3686903119 0.1826116741 5.962428276e-39
-0.169128865 -0.45340994 -0.03823623806 5.962428276e-39
-0.03301297873 -0.3764675856 0.2697796822 5.962428276e-39
0.1396663487 -0.3918774724 0.05901680142 5.962428276e-39
-0.1275312603 -0.3664658368 -0.1695407778 5.962428276e-39
0.06892053783 -0.3825002015 0.307328999 5.962428276e-39
-0.06168039143 -0.3755997717 0.1542655081 5.962428276e-39
-0.1789086163 -0.4491303265 -0.1155264899 5.962428276e-39
0.01321525872 -0.4546356201 0.1522378922 5.962428276e-39
0.0009443238378 -0.450101465 -0.06071025878 5.962428276e-39
0.05274601281 -0.4482080936 0.2261595726 5.962428276e-39
0.1679739207 -0.4115414321 0.2171812505 5.962428276e-39
-0.05403074622 -0.3758988678 0.07698938251 5.962428276e-39
-0.06701046228 -0.4536091089 -0.01015283354 5.962428276e-39
0.02948362753 -0.3822625875 0.2974202633 5.962428276e-39
-0.1847759783 -0.445610255 0.1367407888 5.962428276e-39
-0.05352911353 -0.4519894719 0.09826267511 5.962428276e-39
-0.1126688272 -0.4494778812 -0.1213720515 5.962428276e-39
0.009121850133 -0.375960499 0.09165989608 5.962428276e-39
0.1658677161 -0.3844837248 -0.08064142615 5.962428276e-39
0.1225323826 -0.446375221 0.2461186647 5.962428276e-39
-0.04853831977 -0.386942476 0.04161473736 5.962428276e-39
0.08068914711 -0.4453468323 0.2762352526 5.962428276e-39
0.01254238933 -0.3645565212 -0.06821183115 5.962428276e-39
-0.1758247763 -0.3610749841 0.1747663915 5.962428276e-39
-0.05759370327 -0.446071595 0.2362675071 5.962428276e-39
-0.1621274501 -0.3694972694 0.04813453555 5.962428276e-39
-0.2238660753 -0.368673712 -0.001181464642 5.962428276e-39
-0.20805794 -0.4404993951 0.1380146146 5.962428276e-39
-0.03661576658 -0.445497483 0.2645543814 5.962428276e-39
0.08887778223 -0.4437386394 0.2702592313 5.962428276e-39
0.0606091395 -0.3727828562 0.1541369557 5.962428276e-39
0.009275451303 -0.4529928863 0.09356214106 5.962428276e-39
0.03775659204 -0.4461975098 0.2469514757 5.962428276e-39
0.22186023 -0.3913534284 0.07783000171 5.962428276e-39
0.03065121546 -0.3994698226 0.0302388519 5.962428276e-39
-0.1042237878 -0.3669447899 -0.1791486293 5.962428276e-39
0.07089682668 -0.4539556205 0.1343292892 5.962428276e-39
0.127555564 -0.3723449707 -0.0227908548 5.962428276e-39
0.1063224226 -0.4600195289 0.06113449484 5.962428276e-39
0.1968619823 -0.3909804821 0.02099145018 5.962428276e-39
0.06603663415 -0.4596207142 0.05841831118 5.962428276e-39
-0.1495267749 -0.3859981 0.2713423669 5.962428276e-39
0.007830277085 -0.4577288032 0.07505477965 5.962428276e-39
-0.1360491663 -0.3707467616 -0.182122305 5.962428276e-39
0.01749479026 -0.3612011969 -0.09153432399 5.962428276e-39
0.109109655 -0.3713565171 -0.05903421342 5.962428276e-39
-0.08606849611 -0.4520371854 0.1861996651 5.962428276e-39
-0.1944170892 -0.3633721471 0.1911342442 5.962428276e-39
-0.008480094373 -0.4525599182 0.09783047438 5.962428276e-39
-0.1340147108 -0.3652651012 0.1570986211 5.962428276e-39
-0.1379604191 -0.4264600277 0.2742443085 5.962428276e-39
-0.04318727553 -0.3722384572 0.09039711207 5.962428276e-39
0.1937923133 -0.3778821528 0.09822816402 5.962428276e-39
0.02816181257 -0.4498610795 -0.03793311119 5.962428276e-39
-0.1689780951 -0.4316303134 0.2455888391 5.962428276e-39
-0.0362302959 -0.3757867515 0.04852356017 5.962428276e-39
-0.05311153829 -0.3765789866 0.1549103558 5.962428276e-39
-0.04004989564 -0.3700399399 0.2492787093 5.962428276e-39
-0.2657960653 -0.3761760592 0.06347981095 5.962428276e-39
0.01420398429 -0.3837734461 0.2988572419 5.962428276e-39
0.09973054379 -0.4464475513 0.2552522421 5.962428276e-39
-0.021221295 -0.4556172788 0.08519184589 5.962428276e-39
0.1128707528 -0.3906746507 0.07210471481 5.962428276e-39
-0.2682496011 -0.4418282509 0.09803184122 5.962428276e-39
0.1839754283 -0.3790801167 0.1707648933 5.962428276e-39
0.05169534311 -0.3461433053 -0.1736415923 5.962428276e-39
-0.1156937331 -0.4468300641 0.01069334242 5.962428276e-39
0.05737707391 -0.3768038154 0.2882258594 5.962428276e-39
-0.1435691714 -0.3618168533 -0.08614078909 5.962428276e-39
-0.01967097074 -0.4493474662 -0.05370007455 5.962428276e-39
-0.1783886552 -0.4464523494 0.1332282126 5.962428276e-39
-0.2103763819 -0.4414967895 0.1302674264 5.962428276e-39
0.06349455565 -0.369281441 -0.03449642658 5.962428276e-39
0.09886721522 -0.3744139075 0.2941260934 5.962428276e-39
-0.3469882309 -0.4377522469 0.02928076871 1.184631237e-38
0.0690407902 -0.3877122104 0.2571239471 1.184631237e-38
-0.1272042245 -0.4426730871 -0.2474994361 1.184631237e-38
-0.3548023999 -0.4388225973 0.03594766557 1.184631237e-38
-0.2796432078 -0.4235357046 -0.05827339739 1.184631237e-38
0.1025884524 -0.3651923239 -0.1720761657 1.184631237e-38
-0.311273694 -0.4327865839 -0.009557744488 1.184631237e-38
0.1692473888 -0.4628956616 0.1974202991 1.184631237e-38
-0.2777765095 -0.4325336814 0.1163175255 1.184631237e-38
0.2377115339 -0.4132840931 0.1501285136 1.184631237e-38
-0.1851147711 -0.3949174881 0.1712857932 1.184631237e-38
0.1409754753 -0.3469626904 -0.1232751831 1.184631237e-38
0.1243086383 -0.4575066268 0.06244594604 1.184631237e-38
0.2066699564 -0.4618772864 0.05740907043 1.184631237e-38
0.1528989971 -0.3479055464 0.0119731389 1.184631237e-38
-0.004257038236 -0.4662872553 -0.07179998606 1.184631237e-38
0.1190182418 -0.4617417455 -0.1412005424 1.184631237e-38
0.05571505055 -0.3836612999 -0.175036788 1.184631237e-38
0.1310307682 -0.4531636834 0.3029569983 1.184631237e-38
-0.1461769193 -0.4444771707 -0.2377636433 1.184631237e-38
-0.0736309737 -0.4680243134 -0.02242478915 1.184631237e-38
0.02827269584 -0.4188776016 0.3257712126 1.184631237e-38
-0.2803976536 -0.4188628495 0.01877542958 1.184631237e-38
0.1100770235 -0.4540638328 0.2998849154 1.184631237e-38
-0.2176944017 -0.4407853186 0.3158830702 1.184631237e-38
0.01619125158 -0.4071272016 0.275914073 1.184631237e-38
0.2126173973 -0.4567061961 0.1674467325 1.184631237e-38
-0.113139689 -0.4459836483 -0.1958943009 1.184631237e-38
0.1481314898 -0.4635786116 0.198271066 1.184631237e-38
-0.1711502671 -0.4485707581 -0.20105654 1.184631237e-38
-0.3281029165 -0.4358034432 0.008147226647 1.184631237e-38
-0.2338195741 -0.4394318461 0.3018246889 1.184631237e-38
0.1288926899 -0.3467907608 -0.03460046649 1.184631237e-38
0.1911468357 -0.3538943827 0.2145716995 1.184631237e-38
-0.02050570399 -0.465259105 -0.1625583619 1.184631237e-38
-0.1815529764 -0.387596786 -0.00702300109 1.184631237e-38
-0.2860070169 -0.4216805398 0.03654786199 1.184631237e-38
-0.1327749044 -0.433144927 0.3359032571 1.184631237e-38
-0.2007192671 -0.4362029135 0.2774830461 1.184631237e-38
-0.1207698584 -0.4473472238 -0.2032023221 1.184631237e-38
-0.02107936144 -0.4009768069 -0.1585780233 1.184631237e-38
-0.09981690347 -0.4417126179 -0.2387543917 1.184631237e-38
-0.1614816636 -0.4458778203 -0.2278494537 1.184631237e-38
-0.2155783772 -0.405334115 0.1325364113 1.184631237e-38
0.1408155262 -0.4537048042 0.2731583118 1.184631237e-38
0.1664051414 -0.4587192833 0.1309467703 1.184631237e-38
-0.278414607 -0.4378351271 0.1408675462 1.184631237e-38
-0.2386325896 -0.4264815152 -0.1152250096 1.184631237e-38
-0.266500175 -0.4148465097 -0.00701010786 1.184631237e-38
-0.03074581921 -0.4521987438 0.06724432111 1.184631237e-38
-0.2823849618 -0.4355271757 0.1194022149 1.184631237e-38
-0.2575838864 -0.4265043139 0.2362791449 1.184631237e-38
0.02754177898 -0.3875772953 0.2268382758 1.184631237e-38
-0.1715702266 -0.4486654699 -0.1993116587 1.184631237e-38
0.04278832674 -0.4596186876 0.003964658827 1.184631237e-38
-0.2353156209 -0.4156886339 0.1392541528 1.184631237e-38
0.1445913017 -0.464453876 -0.2227575332 1.184631237e-38
-0.2917157114 -0.4276076257 0.2349912375 1.184631237e-38
-0.2029775977 -0.3964723349 -0.06827256083 1.184631237e-38
0.2458211333 -0.426502049 0.1177114919 1.184631237e-38
-0.256164968 -0.4148007035 -0.06718980521 1.184631237e-38
-0.2416188419 -0.43108657 0.2535835803 1.184631237e-38
0.185172379 -0.3518049419 -0.1352985054 1.184631237e-38
-0.006688348949 -0.4519988298 0.2009285837 1.184631237e-38
-0.05209361762 -0.3814835846 -0.1016691849 1.184631237e-38
0.03750346228 -0.3913903236 0.2439399064 1.184631237e-38
-0.1326763779 -0.46353966 -0.007395135239 1.184631237e-38
-0.290704757 -0.4377210438 0.1610799134 1.184631237e-38
-0.154847905 -0.4459538758 -0.2260066569 1.184631237e-38
0.005371689796 -0.4574769437 0.01822116971 1.184631237e-38
0.2488559633 -0.3542449176 -0.008799972013 1.184631237e-38
0.1677577198 -0.3542773426 0.2062143087 1.184631237e-38
-0.2948686779 -0.4284900427 0.05442513525 1.184631237e-38
0.06241562963 -0.4130939543 0.3271878362 1.184631237e-38
0.1611629277 -0.3410953581 0.05486235023 1.184631237e-38
-0.06488989294 -0.3704931438 -0.06445479393 1.184631237e-38
0.0598844178 -0.3813864887 -0.1727683097 1.184631237e-38
-0.3232752085 -0.4356743395 -0.0003782566637 1.184631237e-38
0.2302684337 -0.3568522334 -0.04271271825 1.184631237e-38
0.0846350044 -0.3638474047 -0.1442504525 1.184631237e-38
-0.0794389993 -0.4338030815 0.3169368804 1.184631237e-38
-0.1856928468 -0.4484746754 -0.1947066933 1.184631237e-38
0.1342039108 -0.3914941251 -0.2492318451 1.184631237e-38
0.08195401728 -0.4616119266 -0.00764692761 1.184631237e-38
0.2291507423 -0.4663600326 -0.03195042908 1.184631237e-38
0.07243964821 -0.4592498243 0.2558303773 1.184631237e-38
-0.30696401 -0.4399158061 0.1531083584 1.184631237e-38
0.04704611003 -0.3695884943 0.1755835116 1.184631237e-38
0.1115651429 -0.3680773675 0.2341371179 1.184631237e-38
-0.1329651624 -0.4480642676 -0.1940126419 1.184631237e-38
-0.2562330067 -0.4114340246 0.05633183569 1.184631237e-38
-0.1455240697 -0.458502084 -0.1400239617 1.184631237e-38
0.08388429135 -0.4644351006 -0.1688735634 1.184631237e-38
0.07461683452 -0.3609163165 0.1382070184 1.184631237e-38
-0.1650851816 -0.4007602036 0.204518348 1.184631237e-38
-0.3078943789 -0.4328831732 -0.03447210789 1.184631237e-38
0.157563895 -0.3551075757 0.2127935886 1.184631237e-38
-0.2078538835 -0.4124549329 0.2082078755 1.184631237e-38
-0.2800180018 -0.434961915 0.1739348024 1.184631237e-38
-0.02667219192 -0.4309151471 0.3225716352 1.184631237e-38
-0.1292454451 -0.4635226429 -0.006775071844 1.184631237e-38
-0.1015278697 -0.4671348631 -0.04981154948 1.184631237e-38
-0.2250592113 -0.4243851006 0.223159492 1.184631237e-38
0.2553268075 -0.4041980803 0.09972197562 1.184631237e-38
0.1999572664 -0.449452877 0.2107542306 1.184631237e-38
0.09428882599 -0.3456126153 -0.04802239686 1.184631237e-38
-0.2628488839 -0.4160171151 -0.04812232405 1.184631237e-38
0.211868301 -0.3685992658 0.2123598009 1.184631237e-38
0.2427874804 -0.4538443983 0.04285824299 1.184631237e-38
-0.008882299066 -0.4057397544 0.2608784437 1.184631237e-38
0.1604030132 -0.367782712 0.2848095 1.184631237e-38
0.1148940176 -0.3763973713 -0.227719605 1.184631237e-38
-0.2954663336 -0.4253968894 0.02061382495 1.184631237e-38
-0.09227904677 -0.4337491393 0.3115749061 1.184631237e-38
-0.02693745494 -0.4649446607 -0.1379989088 1.184631237e-38
-0.07221725583 -0.3888762295 0.1984316409 1.184631237e-38
0.03662909567 -0.3917043209 -0.1797283441 1.184631237e-38
0.1674771607 -0.3475280106 -0.11036437 1.184631237e-38
-0.264023602 -0.4258140922 0.2262933701 1.184631237e-38
0.1536005437 -0.3738886118 0.2987240255 1.184631237e-38
-0.2451534569 -0.4161171019 -0.09610532969 1.184631237e-38
-0.1601037532 -0.4564650953 -0.1293434501 1.184631237e-38
-0.137144953 -0.4465350509 -0.2193007469 1.184631237e-38
-0.09521652758 -0.4058595002 0.2296001762 1.184631237e-38
0.06418286264 -0.3498735726 -0.09770740569 1.184631237e-38
-0.3170070052 -0.4412678182 0.1542121023 1.184631237e-38
-0.02559068799 -0.4682348967 -0.03769216686 1.184631237e-38
-0.1951527894 -0.3933047652 -0.04320708662 1.184631237e-38
-0.04891070724 -0.4360834956 -0.2272013724 1.184631237e-38
-0.2098977864 -0.4475677013 -0.1947291642 1.184631237e-38
-0.146425426 -0.4576353729 -0.09169133753 1.184631237e-38
-0.03950469941 -0.4334722459 -0.2423552275 1.184631237e-38
-0.127321437 -0.4659918249 -0.02280624397 1.184631237e-38
-0.02916241437 -0.4297671616 0.3362278342 1.184631237e-38
-0.0939360708 -0.4396961033 -0.2465433478 1.184631237e-38
-0.1357440799 -0.4441896081 -0.2383367121 1.184631237e-38
0.2616274059 -0.4154218137 0.06114964932 1.184631237e-38
-0.2325332761 -0.4507265091 -0.2268590331 1.184631237e-38
-0.3313391507 -0.4392198026 0.08935432136 1.184631237e-38
0.142676726 -0.4646630883 -0.1949608475 1.184631237e-38
-0.2481540442 -0.4250054359 0.2153989524 1.184631237e-38
-0.2098474205 -0.4298603535 0.2438157797 1.184631237e-38
0.06401981413 -0.4489869475 0.3074816763 1.184631237e-38
0.1795957685 -0.46535483 -0.1099918112 1.184631237e-38
0.009399347007 -0.4183354378 -0.233309418 1.184631237e-38
-0.146901831 -0.4310494959 0.2711631656 1.184631237e-38
-0.08980607986 -0.4473994076 0.08907793462 1.184631237e-38
0.1843170822 -0.4591731131 -0.1335379779 1.184631237e-38
-0.1325386167 -0.4646501243 -0.04251813889 1.184631237e-38
0.2581451833 -0.3757384419 -0.07200584561 1.184631237e-38
-0.2491155565 -0.44256109 -0.1610390693 1.184631237e-38
-0.04022864997 -0.4133481383 0.2625810206 1.184631237e-38
0.2063820362 -0.461871326 0.1197662205 1.184631237e-38
0.03866799548 -0.4053671658 -0.2493587434 1.184631237e-38
-0.07053886354 -0.43160519 0.285792917 1.184631237e-38
-0.2241713405 -0.4324352443 0.2545297146 1.184631237e-38
-0.3236961961 -0.4350363612 -0.01661821641 1.184631237e-38
0.1948175281 -0.4481160939 -0.1527323723 1.184631237e-38
-0.1229784042 -0.3956901431 -0.1015088186 1.184631237e-38
-0.2423222959 -0.4060076475 0.05460747331 1.184631237e-38
0.151590541 -0.3643242717 -0.1961714774 1.184631237e-38
-0.07124610245 -0.4351436198 0.2463727444 1.184631237e-38
-0.03301405162 -0.421300292 0.2805184126 1.184631237e-38
-0.2642887533 -0.4496970177 -0.2034048438 1.184631237e-38
-0.1939288378 -0.4315565526 0.2531714737 1.184631237e-38
0.1445100754 -0.4606480002 0.2365072072 1.184631237e-38
-0.04267120361 -0.4339412749 -0.2505734861 1.184631237e-38
-0.1601014882 -0.4360753298 0.3032035828 1.184631237e-38
-0.1039434075 -0.4308930337 0.3339575529 1.184631237e-38
-0.08606079221 -0.4615286291 -0.09909266233 1.184631237e-38
-0.1550971121 -0.4612462223 -0.03664951771 1.184631237e-38
-0.08557537198 -0.4379903078 -0.1938226074 1.184631237e-38
-0.2214640379 -0.4452420175 -0.162932843 1.184631237e-38
0.06224326044 -0.3683652878 -0.1379546076 1.184631237e-38
-0.1801863313 -0.4544657469 -0.158220008 1.184631237e-38
0.1997767687 -0.3550994396 0.2051317841 1.184631237e-38
0.2245272547 -0.3506520092 0.1081194729 1.184631237e-38
-0.1475145072 -0.387517333 0.1747622341 1.184631237e-38
-0.107163325 -0.4223532677 0.2566531301 1.184631237e-38
-0.310059309 -0.4321624637 -0.001673880965 1.184631237e-38
0.101739496 -0.4615373015 0.240922451 1.184631237e-38
-0.263073355 -0.4295810759 0.193434611 1.184631237e-38
-0.03152859211 -0.4641914368 -0.1139174029 1.184631237e-38
-0.1591477394 -0.4353896379 0.293936938 1.184631237e-38
-0.08958628774 -0.3735993803 0.06349809468 1.184631237e-38
-0.2139545977 -0.4484134614 -0.2157289535 1.184631237e-38
-0.04312478751 -0.4295441508 0.3481294811 1.184631237e-38
-0.2355744243 -0.4180989265 0.1754704565 1.184631237e-38
-0.08563807607 -0.4632751346 -0.1789185703 1.184631237e-38
0.2275225371 -0.4024915695 0.1794303656 1.184631237e-38
0.1966770887 -0.4114614129 -0.1639169604 1.184631237e-38
0.160217613 -0.361415416 0.271648854 1.184631237e-38
0.02032408863 -0.4152761996 0.2953669131 1.184631237e-38
-0.2595253885 -0.410823226 0.03902291879 1.184631237e-38
0.1581980884 -0.4652363956 -0.114816539 1.184631237e-38
-0.0872733742 -0.4325717092 0.3312338889 1.184631237e-38
-0.0003385767341 -0.446362704 0.1332542747 1.184631237e-38
0.200735569 -0.4612156749 0.08615367115 1.184631237e-38
0.030967623 -0.4654471874 -0.1992901564 1.184631237e-38
-0.2134153545 -0.3990511 0.08497354388 1.184631237e-38
-0.01197784394 -0.3910706639 -0.1422554404 1.184631237e-38
0.07089726627 -0.404712826 0.3121398091 1.184631237e-38
0.2131651044 -0.4661611617 -0.04723077267 1.184631237e-38
0.1224214435 -0.3953031003 0.3242322505 1.184631237e-38
-0.1379043758 -0.4172649086 -0.1371582896 1.184631237e-38
-0.2973028421 -0.4384403825 0.1588619202 1.184631237e-38
0.1162935868 -0.4570673406 0.270399332 1.184631237e-38
-0.3124564886 -0.4334261715 0.007277166471 1.184631237e-38
-0.332120657 -0.4336708784 -0.04061694443 1.184631237e-38
-0.03594458103 -0.4466262162 0.1374856979 1.184631237e-38
0.121944204 -0.454102844 0.298138231 1.184631237e-38
0.1089871004 -0.3987337649 0.3222304583 1.184631237e-38
-0.1359159648 -0.4009918571 0.2103883475 1.184631237e-38
0.250623554 -0.4300530553 0.0956403017 1.184631237e-38
0.1669853777 -0.3688755929 0.2851322889 1.184631237e-38
-0.001596428454 -0.3630883694 0.1451586783 1.184631237e-38
0.2636412084 -0.4266564548 -0.05692807585 1.184631237e-38
-0.1916694343 -0.4472303987 -0.2255390882 1.184631237e-38
0.2003202289 -0.3554236591 0.1781644374 1.184631237e-38
-0.06916812062 -0.3751621246 -0.07981396466 1.184631237e-38
0.2338583022 -0.349945873 0.07778411359 1.184631237e-38
-0.02894213051 -0.3620899618 0.002279141918 1.184631237e-38
0.2682813406 -0.3737976551 0.05595798045 1.184631237e-38
-0.2549464107 -0.4371806979 0.2866791487 1.184631237e-38
0.2543859482 -0.4415607154 0.06332153082 1.184631237e-38
-0.2196134925 -0.4497684836 -0.2258893549 1.184631237e-38
-0.1201695055 -0.4259756505 -0.1581716686 1.184631237e-38
-0.06459261477 -0.3962743282 -0.1261805296 1.184631237e-38
0.112366274 -0.4641957879 0.2118712962 1.184631237e-38
-0.3029294908 -0.4364903271 0.18164213 1.184631237e-38
0.2418509126 -0.4505387843 0.09697160125 1.184631237e-38
-0.2812284231 -0.438781172 0.1470342427 1.184631237e-38
-0.00713506341 -0.4344001114 0.3134540915 1.184631237e-38
-0.2510626614 -0.4105827212 0.06463835388 1.184631237e-38
-0.03361026943 -0.3737049699 0.1697111726 1.184631237e-38
0.2131226212 -0.3786707819 -0.1421271712 1.184631237e-38
-0.03444205225 -0.4337082207 0.2788229287 1.184631237e-38
-0.2437579632 -0.4052959979 0.005307774991 1.184631237e-38
-0.2293426991 -0.4150914848 0.180284217 1.184631237e-38
-0.1726163626 -0.4339243174 0.2739304006 1.184631237e-38
-0.1073285937 -0.4542062879 0.01765373535 1.184631237e-38
-0.1033625901 -0.4318546653 0.3293677568 1.184631237e-38
0.09181866795 -0.4000762105 0.3138958812 1.184631237e-38
0.2341456115 -0.4566115439 0.07149025053 1.184631237e-38
-0.1179239154 -0.3802427351 0.08855626732 1.184631237e-38
-0.1019137651 -0.4473970532 0.08112303168 1.184631237e-38
-0.01852039248 -0.4060433507 0.2573758066 1.184631237e-38
-0.05778820813 -0.4377075732 -0.2266949117 1.184631237e-38
0.09191256016 -0.465760529 -0.0703003332 1.184631237e-38
-0.060253039 -0.4329153299 0.3289020061 1.184631237e-38
-0.2512204647 -0.4399252236 -0.1362100989 1.184631237e-38
0.1936820149 -0.445353508 -0.1577063948 1.184631237e-38
0.01067294925 -0.4466895759 0.1285205334 1.184631237e-38
-0.03406129777 -0.4466387928 0.127962172 1.184631237e-38
-0.1200584918 -0.3933758438 -0.09756617248 1.184631237e-38
-0.01460753381 -0.4272284508 0.3417634368 1.184631237e-38
-0.3454255164 -0.3608486056 0.01033981331 1.771655483e-38
0.1869441122 -0.2965068221 0.2010686249 1.771655483e-38
-0.08018858731 -0.3541653752 -0.2733727992 1.771655483e-38
-0.3545866907 -0.3654303849 0.018180741 1.771655483e-38
-0.2562336028 -0.2973425686 -0.09410848469 1.771655483e-38
0.1629537493 -0.3822330534 -0.1789328009 1.771655483e-38
-0.2990686595 -0.3185353875 -0.03840889037 1.771655483e-38
-0.01053351909 -0.4478445649 0.1755001992 1.771655483e-38
-0.2536487281 -0.3072890937 0.1125964522 1.771655483e-38
0.08989131451 -0.442750901 0.1202044636 1.771655483e-38
-0.1135596633 -0.2348331511 0.1633144915 1.771655483e-38
0.198616907 -0.3741590083 -0.1262814105 1.771655483e-38
-0.1020201147 -0.454376936 0.05519165844 1.771655483e-38
-0.02437462658 -0.4594109952 0.04789248854 1.771655483e-38
0.258513391 -0.2764926553 -0.03342924267 1.771655483e-38
-0.170498684 -0.4466114938 -0.0321733132 1.771655483e-38
-0.07481080294 -0.4540870786 -0.09844949841 1.771655483e-38
0.1588270962 -0.3234302998 -0.1922719926 1.771655483e-38
0.01609786227 -0.4432385266 0.2857633531 1.771655483e-38
-0.1001873016 -0.3540636599 -0.2651473582 1.771655483e-38
-0.2281774879 -0.4118616581 0.01088852528 1.771655483e-38
0.09675832838 -0.3365421295 0.2960107327 1.771655483e-38
-0.2490916252 -0.283901751 -0.004782924429 1.771655483e-38
-0.004093006253 -0.4429004192 0.2807484567 1.771655483e-38
-0.1709936261 -0.3716126084 0.312923193 1.771655483e-38
0.117074877 -0.2837333679 0.2340282202 1.771655483e-38
0.03068208322 -0.4489018917 0.1439788342 1.771655483e-38
-0.04566714913 -0.3162674308 -0.225368008 1.771655483e-38
-0.03233671188 -0.4464037716 0.1739062965 1.771655483e-38
-0.1264020205 -0.3432328105 -0.2307631075 1.771655483e-38
-0.3209101558 -0.3375124037 -0.01628127508 1.771655483e-38
-0.189702034 -0.3671903908 0.3008829057 1.771655483e-38
0.2450382262 -0.2744858861 -0.06472169608 1.771655483e-38
0.1637503505 -0.4240360558 0.1724878699 1.771655483e-38
-0.1517503113 -0.4561868608 -0.142303586 1.771655483e-38
-0.08512169123 -0.2104850262 -0.04444232583 1.771655483e-38
-0.2572714984 -0.29164657 0.01925660484 1.771655483e-38
-0.07614298165 -0.3663484156 0.3284054697 1.771655483e-38
-0.1505136788 -0.3455210626 0.2764844596 1.771655483e-38
-0.05914461613 -0.3264254332 -0.2308787704 1.771655483e-38
0.09153436124 -0.2630600333 -0.1855876893 1.771655483e-38
-0.04539876431 -0.3419116437 -0.2633585036 1.771655483e-38
-0.1176467836 -0.3544080555 -0.2568495572 1.771655483e-38
-0.1548145264 -0.2362314761 0.1220029518 1.771655483e-38
0.007473506033 -0.4483330548 0.2562954426 1.771655483e-38
-0.04517126083 -0.4551001191 0.1083745211 1.771655483e-38
-0.2565875351 -0.3156671524 0.1409475207 1.771655483e-38
-0.1970686316 -0.3051837087 -0.1535511613 1.771655483e-38
-0.2283578813 -0.270663321 -0.03391005844 1.771655483e-38
-0.2224574387 -0.424382776 0.08356166631 1.771655483e-38
-0.2606395185 -0.3138920665 0.1161549911 1.771655483e-38
-0.2202005386 -0.3355373144 0.2403570265 1.771655483e-38
0.1599465013 -0.2633447647 0.1745633036 1.771655483e-38
-0.1267516166 -0.3424387276 -0.2290227115 1.771655483e-38
-0.1725329608 -0.2956989706 0.08004201949 1.771655483e-38
-0.1887636483 -0.2618089318 0.1342570931 1.771655483e-38
-0.01833555847 -0.4655698538 -0.1993233263 1.771655483e-38
-0.2635969818 -0.3488948643 0.2387608737 1.771655483e-38
-0.1338795722 -0.2431157678 -0.1078103259 1.771655483e-38
0.08109939098 -0.4473940134 0.08246209472 1.771655483e-38
-0.2168471813 -0.2815327048 -0.1051283404 1.771655483e-38
-0.1998217404 -0.3416454196 0.2571865916 1.771655483e-38
0.1628201902 -0.3987490237 -0.125330165 1.771655483e-38
-0.167075783 -0.4432139993 0.1779507101 1.771655483e-38
0.06690357625 -0.2158330679 -0.1257334799 1.771655483e-38
0.1658619642 -0.2715232372 0.1905431747 1.771655483e-38
-0.2719765902 -0.4061089158 0.01625869796 1.771655483e-38
-0.2718070149 -0.3340414166 0.1697416753 1.771655483e-38
-0.1093724817 -0.3507759869 -0.2540490329 1.771655483e-38
-0.1972509623 -0.3164901733 0.08954170346 1.771655483e-38
0.2185449153 -0.3071931899 -0.01303739287 1.771655483e-38
0.1961708218 -0.411965996 0.1541676521 1.771655483e-38
-0.2719603479 -0.3071863055 0.04125838727 1.771655483e-38
0.1401409656 -0.3314913511 0.2907012701 1.771655483e-38
0.2685183883 -0.3396421671 0.000934286043 1.771655483e-38
0.06043368205 -0.2056878954 -0.09817431867 1.771655483e-38
0.1617095917 -0.3258647323 -0.189139083 1.771655483e-38
-0.3147358894 -0.3317020535 -0.02679671906 1.771655483e-38
0.2223950475 -0.3156490326 -0.03756663203 1.771655483e-38
0.1837575883 -0.327703476 -0.1568493247 1.771655483e-38
-0.01712247729 -0.3458451629 0.306546092 1.771655483e-38
-0.1445549577 -0.3454251885 -0.2257449031 1.771655483e-38
0.03712796047 -0.4631499052 -0.238720715 1.771655483e-38
-0.141441986 -0.2936848104 0.07129039615 1.771655483e-38
-0.006599456072 -0.2915389538 0.0538078472 1.771655483e-38
-0.06476192176 -0.4431237578 0.2289630324 1.771655483e-38
-0.2926277816 -0.3481383026 0.1571027488 1.771655483e-38
0.1959486455 -0.2668785453 0.1213243455 1.771655483e-38
0.2005623579 -0.3465716243 0.1768179536 1.771655483e-38
-0.0725940764 -0.3212580085 -0.2228951156 1.771655483e-38
-0.2085354328 -0.2636619508 0.04026937857 1.771655483e-38
-0.2443473339 -0.4500518143 -0.1234947219 1.771655483e-38
-0.08678755164 -0.4586091936 -0.1376266629 1.771655483e-38
0.2310077399 -0.2820068002 0.08077134937 1.771655483e-38
-0.09226059914 -0.2526509762 0.1973255426 1.771655483e-38
-0.2959744632 -0.3153858781 -0.0661912784 1.771655483e-38
0.1980873495 -0.4045161903 0.1595238 1.771655483e-38
-0.1556998789 -0.2861962318 0.2093476802 1.771655483e-38
-0.2579951584 -0.3267348409 0.185452193 1.771655483e-38
0.03482976556 -0.3440597355 0.3034439683 1.771655483e-38
-0.2702556252 -0.403992027 0.01766410843 1.771655483e-38
-0.2343230546 -0.4423394799 -0.02470134385 1.771655483e-38
-0.1795096993 -0.3105960488 0.2258879393 1.771655483e-38
0.1120708585 -0.4462023973 0.06035857648 1.771655483e-38
0.03876933455 -0.44568187 0.1924186051 1.771655483e-38
0.2277536839 -0.2593931556 -0.07507730275 1.771655483e-38
-0.226041913 -0.2797460556 -0.08147677779 1.771655483e-38
0.10478504 -0.4370322824 0.1853787154 1.771655483e-38
0.03543258458 -0.4419168532 0.03558609262 1.771655483e-38
0.09244395792 -0.2709230185 0.2221430242 1.771655483e-38
0.11904338 -0.4234483838 0.2522570789 1.771655483e-38
0.1042461842 -0.4508129656 -0.2287782133 1.771655483e-38
-0.2748661935 -0.3017444611 -0.002755945548 1.771655483e-38
-0.0296689868 -0.3437671065 0.3029651642 1.771655483e-38
-0.1630824655 -0.4547734261 -0.1138826385 1.771655483e-38
0.04463860765 -0.2323320359 0.1679145694 1.771655483e-38
0.1479440331 -0.3063922524 -0.2002518773 1.771655483e-38
0.2033163309 -0.3765867949 -0.1105920896 1.771655483e-38
-0.22983253 -0.3362817168 0.2311189473 1.771655483e-38
0.1221507639 -0.423954308 0.2661859095 1.771655483e-38
-0.2023422718 -0.2911571264 -0.1344029456 1.771655483e-38
-0.2582328916 -0.4493385851 -0.1119406596 1.771655483e-38
-0.08752667904 -0.3417807817 -0.2454425097 1.771655483e-38
-0.002600923181 -0.2592402697 0.2095234692 1.771655483e-38
0.1989646852 -0.2730543613 -0.115629144 1.771655483e-38
-0.304569453 -0.3541488647 0.1567874104 1.771655483e-38
-0.192203939 -0.4192468822 0.003091005608 1.771655483e-38
-0.1163069755 -0.2292438596 -0.081339553 1.771655483e-38
0.02598945424 -0.3204426765 -0.2511190474 1.771655483e-38
-0.1755832434 -0.3552959859 -0.2280902863 1.771655483e-38
-0.2522929013 -0.4484112859 -0.0730297938 1.771655483e-38
0.03452115506 -0.3227843046 -0.2658933997 1.771655483e-38
-0.2610019445 -0.4261764884 0.001110002398 1.771655483e-38
0.03310227767 -0.3520130515 0.3175862134 1.771655483e-38
-0.04072001576 -0.3437357545 -0.2709959447 1.771655483e-38
-0.08871932328 -0.3517599404 -0.2646405697 1.771655483e-38
0.1032656059 -0.4500516057 0.03272306919 1.771655483e-38
-0.2024563253 -0.3745999038 -0.2607721686 1.771655483e-38
-0.32333529 -0.3568205237 0.08525601774 1.771655483e-38
-0.03603637218 -0.4627662897 -0.1640451998 1.771655483e-38
-0.2120785117 -0.3226224482 0.2194145918 1.771655483e-38
-0.160522908 -0.3259162307 0.2452950627 1.771655483e-38
-0.03830955923 -0.4350099266 0.2861798108 1.771655483e-38
-0.03829422593 -0.4235846102 -0.05328832567 1.771655483e-38
0.09654463083 -0.3240442872 -0.2535283864 1.771655483e-38
-0.08672855794 -0.3259721398 0.2671159804 1.771655483e-38
-0.2643594444 -0.4424479902 0.09086824954 1.771655483e-38
-0.01829195768 -0.4397768974 -0.08719224483 1.771655483e-38
-0.255789578 -0.4390766323 -0.0215243008 1.771655483e-38
0.1431778073 -0.3416367173 -0.03637470305 1.771655483e-38
-0.2201564908 -0.3553268313 -0.1968200356 1.771655483e-38
0.04581518844 -0.2823833227 0.2351065129 1.771655483e-38
-0.003774240613 -0.4554677904 0.09585808218 1.771655483e-38
0.09466812015 -0.3707819283 -0.2647659779 1.771655483e-38
-0.003672629595 -0.3174558878 0.2720340788 1.771655483e-38
-0.1786013842 -0.3381484747 0.2569357753 1.771655483e-38
-0.3160769939 -0.3317491412 -0.04585720599 1.771655483e-38
0.01631141081 -0.4418493211 -0.1146438345 1.771655483e-38
-0.01911523938 -0.2254354656 -0.1316574514 1.771655483e-38
-0.1869146824 -0.2482838035 0.03582466394 1.771655483e-38
0.1168925166 -0.4341499209 -0.1897848397 1.771655483e-38
-0.195913583 -0.4257510304 0.2218588591 1.771655483e-38
0.03899430111 -0.300861001 0.2567013204 1.771655483e-38
-0.2411756516 -0.3770372868 -0.2390675545 1.771655483e-38
-0.1418017149 -0.327933073 0.2526431978 1.771655483e-38
-0.01485584676 -0.4443962872 0.2180734575 1.771655483e-38
0.02751408517 -0.3270989656 -0.2737028897 1.771655483e-38
-0.1040660888 -0.3520279825 0.2989472747 1.771655483e-38
-0.04544723779 -0.3590926528 0.3247257769 1.771655483e-38
-0.21077618 -0.4510482848 -0.07491206378 1.771655483e-38
-0.2712646723 -0.4364808202 -0.0185087081 1.771655483e-38
-0.009772859514 -0.3029991388 -0.2219145596 1.771655483e-38
-0.1854528189 -0.337878257 -0.1968999952 1.771655483e-38
0.1825670004 -0.2953478396 -0.1542542577 1.771655483e-38
-0.2702141702 -0.4493519664 -0.1431368291 1.771655483e-38
0.1616253853 -0.4256175458 0.164237529 1.771655483e-38
0.2239993811 -0.4253891706 0.05270431191 1.771655483e-38
-0.05397897959 -0.2169684768 0.1576409489 1.771655483e-38
-0.03538571298 -0.2936679125 0.2462140471 1.771655483e-38
-0.2971673012 -0.3175774217 -0.02941873483 1.771655483e-38
-0.05034463108 -0.4452744424 0.218164444 1.771655483e-38
-0.2348668277 -0.3232054114 0.2038458735 1.771655483e-38
-0.1731973439 -0.4526850283 -0.08534673601 1.771655483e-38
-0.1028566808 -0.3461256921 0.2899717689 1.771655483e-38
0.03482206911 -0.1899823993 0.0211973954 1.771655483e-38
-0.1814773083 -0.3659788072 -0.2495653033 1.771655483e-38
0.01827298477 -0.3595146239 0.3314182162 1.771655483e-38
-0.1955258846 -0.2854109704 0.1812257618 1.771655483e-38
-0.1890220642 -0.4538547397 -0.1664449424 1.771655483e-38
0.09106701612 -0.4424651861 0.152589649 1.771655483e-38
0.05491641164 -0.4372664094 -0.1346327513 1.771655483e-38
0.1346209645 -0.4173267186 0.233755663 1.771655483e-38
0.103543222 -0.3035750389 0.2596108913 1.771655483e-38
-0.2125909626 -0.2636101246 0.02039332874 1.771655483e-38
-0.05455571413 -0.4332798719 -0.06157693267 1.771655483e-38
-0.02784387767 -0.354118526 0.3206314445 1.771655483e-38
-0.1900701821 -0.4532094598 0.1160398275 1.771655483e-38
-0.02316247672 -0.4591882229 0.06676938385 1.771655483e-38
-0.1111777127 -0.4584528804 -0.1784294099 1.771655483e-38
-0.1456964165 -0.2240611315 0.06613281369 1.771655483e-38
0.1066934988 -0.2544856966 -0.1673008204 1.771655483e-38
0.1567934155 -0.3244419098 0.2677936256 1.771655483e-38
-0.02242954075 -0.3113597631 0.0337295942 1.771655483e-38
0.1515123248 -0.3936515749 0.2850903571 1.771655483e-38
-0.0631480068 -0.2638629973 -0.1668553203 1.771655483e-38
-0.2802728415 -0.3401128054 0.1662208736 1.771655483e-38
-0.01820658147 -0.4475885034 0.2504915595 1.771655483e-38
-0.3000278473 -0.3206644058 -0.01866743155 1.771655483e-38
-0.3283299804 -0.3413636088 -0.07332558185 1.771655483e-38
-0.2167050838 -0.4517872632 0.1184425876 1.771655483e-38
0.005025319755 -0.4439660907 0.2797861397 1.771655483e-38
0.1559158862 -0.3722015321 0.2809191644 1.771655483e-38
-0.05481101573 -0.2482709736 0.1975407004 1.771655483e-38
0.0802982673 -0.4506065547 0.06221411377 1.771655483e-38
0.1060904413 -0.4293177724 0.2567874193 1.771655483e-38
0.1502797902 -0.2373531312 0.1021591797 1.771655483e-38
0.08414471149 -0.3071111441 0.00880561024 1.771655483e-38
-0.1541596055 -0.3631320298 -0.257596612 1.771655483e-38
0.1904137433 -0.4210141301 0.1295142472 1.771655483e-38
0.05343130231 -0.2092055976 -0.1078673825 1.771655483e-38
0.229326725 -0.4246504009 0.02385565452 1.771655483e-38
0.1127158254 -0.2079327852 -0.04481586814 1.771655483e-38
0.160858959 -0.4357611239 0.01708560809 1.771655483e-38
-0.2152091861 -0.363619417 0.2880868614 1.771655483e-38
0.07044294477 -0.4551170766 0.03983172029 1.771655483e-38
-0.1876471937 -0.3711586297 -0.2594944239 1.771655483e-38
-0.0435429588 -0.2767564654 -0.1875485778 1.771655483e-38
0.04781571031 -0.2335990667 -0.1532312632 1.771655483e-38
-0.06107233465 -0.443348825 0.1857269555 1.771655483e-38
-0.2848176956 -0.3460316658 0.1935266852 1.771655483e-38
0.05300715938 -0.4537452459 0.06792389601 1.771655483e-38
-0.2608938515 -0.3204073608 0.1482443213 1.771655483e-38
-0.1054826081 -0.4221439958 0.2859947383 1.771655483e-38
-0.2014080882 -0.2598548234 0.04889610782 1.771655483e-38
0.09985225648 -0.2256205827 0.1330211312 1.771655483e-38
0.1002085805 -0.4145799875 -0.1150352284 1.771655483e-38
-0.1466155201 -0.4234082997 0.2450137734 1.771655483e-38
-0.1917340159 -0.2485383153 -0.02123506181 1.771655483e-38
-0.1864706874 -0.2832583785 0.1853704154 1.771655483e-38
-0.1173956543 -0.3366553783 0.2715739012 1.771655483e-38
-0.269174397 -0.3467415571 0.05804350227 1.771655483e-38
-0.04427085072 -0.3562301099 0.3205039203 1.771655483e-38
0.1609550416 -0.3431770802 0.2689674795 1.771655483e-38
0.02693488821 -0.4595831931 0.05124939233 1.771655483e-38
-0.000915184617 -0.1892892122 0.05243177712 1.771655483e-38
-0.2735847831 -0.4294558465 0.09290906787 1.771655483e-38
0.08221296221 -0.2695581317 0.2204005867 1.771655483e-38
0.01485027745 -0.3232401609 -0.2509135604 1.771655483e-38
-0.1140658706 -0.4120553434 -0.01443902962 1.771655483e-38
0.001254461706 -0.3508168757 0.3153234422 1.771655483e-38
-0.2204631567 -0.3331791162 -0.1734383106 1.771655483e-38
0.01967248693 -0.4432565868 -0.1215081885 1.771655483e-38
-0.1829769313 -0.4544166625 0.1114800423 1.771655483e-38
-0.2188020349 -0.4538607597 0.1078055128 1.771655483e-38
-0.01176458597 -0.2209104598 -0.1281008273 1.771655483e-38
0.04735798389 -0.35295856 0.3207103014 1.771655483e-38
-0.3454255164 -0.3608486056 0.01033981331 2.348204041e-38
0.1869441122 -0.2965068221 0.2010686249 2.348204041e-38
-0.08018858731 -0.3541653752 -0.2733727992 2.348204041e-38
-0.3545866907 -0.3654303849 0.018180741 2.348204041e-38
-0.2562336028 -0.2973425686 -0.09410848469 2.348204041e-38
0.1629537493 -0.3822330534 -0.1789328009 2.348204041e-38
-0.2990686595 -0.3185353875 -0.03840889037 2.348204041e-38
-0.01053351909 -0.4478445649 0.1755001992 2.348204041e-38
-0.2536487281 -0.3072890937 0.1125964522 2.348204041e-38
0.08989131451 -0.442750901 0.1202044636 2.348204041e-38
-0.1135596633 -0.2348331511 0.1633144915 2.348204041e-38
0.198616907 -0.3741590083 -0.1262814105 2.348204041e-38
-0.1020201147 -0.454376936 0.05519165844 2.348204041e-38
-0.02437462658 -0.4594109952 0.04789248854 2.348204041e-38
0.258513391 -0.2764926553 -0.03342924267 2.348204041e-38
-0.170498684 -0.4466114938 -0.0321733132 2.348204041e-38
-0.07481080294 -0.4540870786 -0.09844949841 2.348204041e-38
0.1588270962 -0.3234302998 -0.1922719926 2.348204041e-38
0.01609786227 -0.4432385266 0.2857633531 2.348204041e-38
-0.1001873016 -0.3540636599 -0.2651473582 2.348204041e-38
-0.2281774879 -0.4118616581 0.01088852528 2.348204041e-38
0.09675832838 -0.3365421295 0.2960107327 2.348204041e-38
-0.2490916252 -0.283901751 -0.004782924429 2.348204041e-38
-0.004093006253 -0.4429004192 0.2807484567 2.348204041e-38
-0.1709936261 -0.3716126084 0.312923193 2.348204041e-38
0.117074877 -0.2837333679 0.2340282202 2.348204041e-38
0.03068208322 -0.4489018917 0.1439788342 2.348204041e-38
-0.04566714913 -0.3162674308 -0.225368008 2.348204041e-38
-0.03233671188 -0.4464037716 0.1739062965 2.348204041e-38
-0.1264020205 -0.3432328105 -0.2307631075 2.348204041e-38
-0.3209101558 -0.3375124037 -0.01628127508 2.348204041e-38
-0.189702034 -0.3671903908 0.3008829057 2.348204041e-38
0.2450382262 -0.2744858861 -0.06472169608 2.348204041e-38
0.1637503505 -0.4240360558 0.1724878699 2.348204041e-38
-0.1517503113 -0.4561868608 -0.142303586 2.348204041e-38
-0.08512169123 -0.2104850262 -0.04444232583 2.348204041e-38
-0.2572714984 -0.29164657 0.01925660484 2.348204041e-38
-0.07614298165 -0.3663484156 0.3284054697 2.348204041e-38
-0.1505136788 -0.3455210626 0.2764844596 2.348204041e-38
-0.05914461613 -0.3264254332 -0.2308787704 2.348204041e-38
0.09153436124 -0.2630600333 -0.1855876893 2.348204041e-38
-0.04539876431 -0.3419116437 -0.2633585036 2.348204041e-38
-0.1176467836 -0.3544080555 -0.2568495572 2.348204041e-38
-0.1548145264 -0.2362314761 0.1220029518 2.348204041e-38
0.007473506033 -0.4483330548 0.2562954426 2.348204041e-38
-0.04517126083 -0.4551001191 0.1083745211 2.348204041e-38
-0.2565875351 -0.3156671524 0.1409475207 2.348204041e-38
-0.1970686316 -0.3051837087 -0.1535511613 2.348204041e-38
-0.2283578813 -0.270663321 -0.03391005844 2.348204041e-38
-0.2224574387 -0.424382776 0.08356166631 2.348204041e-38
-0.2606395185 -0.3138920665 0.1161549911 2.348204041e-38
-0.2202005386 -0.3355373144 0.2403570265 2.348204041e-38
0.1599465013 -0.2633447647 0.1745633036 2.348204041e-38
-0.1267516166 -0.3424387276 -0.2290227115 2.348204041e-38
-0.1725329608 -0.2956989706 0.08004201949 2.348204041e-38
-0.1887636483 -0.2618089318 0.1342570931 2.348204041e-38
-0.01833555847 -0.4655698538 -0.1993233263 2.348204041e-38
-0.2635969818 -0.3488948643 0.2387608737 2.348204041e-38
-0.1338795722 -0.2431157678 -0.1078103259 2.348204041e-38
0.08109939098 -0.4473940134 0.08246209472 2.348204041e-38
-0.2168471813 -0.2815327048 -0.1051283404 2.348204041e-38
-0.1998217404 -0.3416454196 0.2571865916 2.348204041e-38
0.1628201902 -0.3987490237 -0.125330165 2.348204041e-38
-0.167075783 -0.4432139993 0.1779507101 2.348204041e-38
0.06690357625 -0.2158330679 -0.1257334799 2.348204041e-38
0.1658619642 -0.2715232372 0.1905431747 2.348204041e-38
-0.2719765902 -0.4061089158 0.01625869796 2.348204041e-38
-0.2718070149 -0.3340414166 0.1697416753 2.348204041e-38
-0.1093724817 -0.3507759869 -0.2540490329 2.348204041e-38
-0.1972509623 -0.3164901733 0.08954170346 2.348204041e-38
0.2185449153 -0.3071931899 -0.01303739287 2.348204041e-38
0.1961708218 -0.411965996 0.1541676521 2.348204041e-38
-0.2719603479 -0.3071863055 0.04125838727 2.348204041e-38
0.1401409656 -0.3314913511 0.2907012701 2.348204041e-38
0.2685183883 -0.3396421671 0.000934286043 2.348204041e-38
0.06043368205 -0.2056878954 -0.09817431867 2.348204041e-38
0.1617095917 -0.3258647323 -0.189139083 2.348204041e-38
-0.3147358894 -0.3317020535 -0.02679671906 2.348204041e-38
0.2223950475 -0.3156490326 -0.03756663203 2.348204041e-38
0.1837575883 -0.327703476 -0.1568493247 2.348204041e-38
-0.01712247729 -0.3458451629 0.306546092 2.348204041e-38
-0.1445549577 -0.3454251885 -0.2257449031 2.348204041e-38
0.03712796047 -0.4631499052 -0.238720715 2.348204041e-38
-0.141441986 -0.2936848104 0.07129039615 2.348204041e-38
-0.006599456072 -0.2915389538 0.0538078472 2.348204041e-38
-0.06476192176 -0.4431237578 0.2289630324 2.348204041e-38
-0.2926277816 -0.3481383026 0.1571027488 2.348204041e-38
0.1959486455 -0.2668785453 0.1213243455 2.348204041e-38
0.2005623579 -0.3465716243 0.1768179536 2.348204041e-38
-0.0725940764 -0.3212580085 -0.2228951156 2.348204041e-38
-0.2085354328 -0.2636619508 0.04026937857 2.348204041e-38
-0.2443473339 -0.4500518143 -0.1234947219 2.348204041e-38
-0.08678755164 -0.4586091936 -0.1376266629 2.348204041e-38
0.2310077399 -0.2820068002 0.08077134937 2.348204041e-38
-0.09226059914 -0.2526509762 0.1973255426 2.348204041e-38
-0.2959744632 -0.3153858781 -0.0661912784 2.348204041e-38
0.1980873495 -0.4045161903 0.1595238 2.348204041e-38
-0.1556998789 -0.2861962318 0.2093476802 2.348204041e-38
-0.2579951584 -0.3267348409 0.185452193 2.348204041e-38
0.03482976556 -0.3440597355 0.3034439683 2.348204041e-38
-0.2702556252 -0.403992027 0.01766410843 2.348204041e-38
-0.2343230546 -0.4423394799 -0.02470134385 2.348204041e-38
-0.1795096993 -0.3105960488 0.2258879393 2.348204041e-38
0.1120708585 -0.4462023973 0.06035857648 2.348204041e-38
0.03876933455 -0.44568187 0.1924186051 2.348204041e-38
0.2277536839 -0.2593931556 -0.07507730275 2.348204041e-38
-0.226041913 -0.2797460556 -0.08147677779 2.348204041e-38
0.10478504 -0.4370322824 0.1853787154 2.348204041e-38
0.03543258458 -0.4419168532 0.03558609262 2.348204041e-38
0.09244395792 -0.2709230185 0.2221430242 2.348204041e-38
0.11904338 -0.4234483838 0.2522570789 2.348204041e-38
0.1042461842 -0.4508129656 -0.2287782133 2.348204041e-38
-0.2748661935 -0.3017444611 -0.002755945548 2.348204041e-38
-0.0296689868 -0.3437671065 0.3029651642 2.348204041e-38
-0.1630824655 -0.4547734261 -0.1138826385 2.348204041e-38
0.04463860765 -0.2323320359 0.1679145694 2.348204041e-38
0.1479440331 -0.3063922524 -0.2002518773 2.348204041e-38
0.2033163309 -0.3765867949 -0.1105920896 2.348204041e-38
-0.22983253 -0.3362817168 0.2311189473 2.348204041e-38
0.1221507639 -0.423954308 0.2661859095 2.348204041e-38
-0.2023422718 -0.2911571264 -0.1344029456 2.348204041e-38
-0.2582328916 -0.4493385851 -0.1119406596 2.348204041e-38
-0.08752667904 -0.3417807817 -0.2454425097 2.348204041e-38
-0.002600923181 -0.2592402697 0.2095234692 2.348204041e-38
0.1989646852 -0.2730543613 -0.115629144 2.348204041e-38
-0.304569453 -0.3541488647 0.1567874104 2.348204041e-38
-0.192203939 -0.4192468822 0.003091005608 2.348204041e-38
-0.1163069755 -0.2292438596 -0.081339553 2.348204041e-38
0.02598945424 -0.3204426765 -0.2511190474 2.348204041e-38
-0.1755832434 -0.3552959859 -0.2280902863 2.348204041e-38
-0.2522929013 -0.4484112859 -0.0730297938 2.348204041e-38
0.03452115506 -0.3227843046 -0.2658933997 2.348204041e-38
-0.2610019445 -0.4261764884 0.001110002398 2.348204041e-38
0.03310227767 -0.3520130515 0.3175862134 2.348204041e-38
-0.04072001576 -0.3437357545 -0.2709959447 2.348204041e-38
-0.08871932328 -0.3517599404 -0.2646405697 2.348204041e-38
0.1032656059 -0.4500516057 0.03272306919 2.348204041e-38
-0.2024563253 -0.3745999038 -0.2607721686 2.348204041e-38
-0.32333529 -0.3568205237 0.08525601774 2.348204041e-38
-0.03603637218 -0.4627662897 -0.1640451998 2.348204041e-38
-0.2120785117 -0.3226224482 0.2194145918 2.348204041e-38
-0.160522908 -0.3259162307 0.2452950627 2.348204041e-38
-0.03830955923 -0.4350099266 0.2861798108 2.348204041e-38
-0.03829422593 -0.4235846102 -0.05328832567 2.348204041e-38
0.09654463083 -0.3240442872 -0.2535283864 2.348204041e-38
-0.08672855794 -0.3259721398 0.2671159804 2.348204041e-38
-0.2643594444 -0.4424479902 0.09086824954 2.348204041e-38
-0.01829195768 -0.4397768974 -0.08719224483 2.348204041e-38
-0.255789578 -0.4390766323 -0.0215243008 2.348204041e-38
0.1431778073 -0.3416367173 -0.03637470305 2.348204041e-38
-0.2201564908 -0.3553268313 -0.1968200356 2.348204041e-38
0.04581518844 -0.2823833227 0.2351065129 2.348204041e-38
-0.003774240613 -0.4554677904 0.09585808218 2.348204041e-38
0.09466812015 -0.3707819283 -0.2647659779 2.348204041e-38
-0.003672629595 -0.3174558878 0.2720340788 2.348204041e-38
-0.1786013842 -0.3381484747 0.2569357753 2.348204041e-38
-0.3160769939 -0.3317491412 -0.04585720599 2.348204041e-38
0.01631141081 -0.4418493211 -0.1146438345 2.348204041e-38
-0.01911523938 -0.2254354656 -0.1316574514 2.348204041e-38
-0.1869146824 -0.2482838035 0.03582466394 2.348204041e-38
0.1168925166 -0.4341499209 -0.1897848397 2.348204041e-38
-0.195913583 -0.4257510304 0.2218588591 2.348204041e-38
0.03899430111 -0.300861001 0.2567013204 2.348204041e-38
-0.2411756516 -0.3770372868 -0.2390675545 2.348204041e-38
-0.1418017149 -0.327933073 0.2526431978 2.348204041e-38
-0.01485584676 -0.4443962872 0.2180734575 2.348204041e-38
0.02751408517 -0.3270989656 -0.2737028897 2.348204041e-38
-0.1040660888 -0.3520279825 0.2989472747 2.348204041e-38
-0.04544723779 -0.3590926528 0.3247257769 2.348204041e-38
-0.21077618 -0.4510482848 -0.07491206378 2.348204041e-38
-0.2712646723 -0.4364808202 -0.0185087081 2.348204041e-38
-0.009772859514 -0.3029991388 -0.2219145596 2.348204041e-38
-0.1854528189 -0.337878257 -0.1968999952 2.348204041e-38
0.1825670004 -0.2953478396 -0.1542542577 2.348204041e-38
-0.2702141702 -0.4493519664 -0.1431368291 2.348204041e-38
0.1616253853 -0.4256175458 0.164237529 2.348204041e-38
0.2239993811 -0.4253891706 0.05270431191 2.348204041e-38
-0.05397897959 -0.2169684768 0.1576409489 2.348204041e-38
-0.03538571298 -0.2936679125 0.2462140471 2.348204041e-38
-0.2971673012 -0.3175774217 -0.02941873483 2.348204041e-38
-0.05034463108 -0.4452744424 0.218164444 2.348204041e-38
-0.2348668277 -0.3232054114 0.2038458735 2.348204041e-38
-0.1731973439 -0.4526850283 -0.08534673601 2.348204041e-38
-0.1028566808 -0.3461256921 0.2899717689 2.348204041e-38
0.03482206911 -0.1899823993 0.0211973954 2.348204041e-38
-0.1814773083 -0.3659788072 -0.2495653033 2.348204041e-38
0.01827298477 -0.3595146239 0.3314182162 2.348204041e-38
-0.1955258846 -0.2854109704 0.1812257618 2.348204041e-38
-0.1890220642 -0.4538547397 -0.1664449424 2.348204041e-38
0.09106701612 -0.4424651861 0.152589649 2.348204041e-38
0.05491641164 -0.4372664094 -0.1346327513 2.348204041e-38
0.1346209645 -0.4173267186 0.233755663 2.348204041e-38
0.103543222 -0.3035750389 0.2596108913 2.348204041e-38
-0.2125909626 -0.2636101246 0.02039332874 2.348204041e-38
-0.05455571413 -0.4332798719 -0.06157693267 2.348204041e-38
-0.02784387767 -0.354118526 0.3206314445 2.348204041e-38
-0.1900701821 -0.4532094598 0.1160398275 2.348204041e-38
-0.02316247672 -0.4591882229 0.06676938385 2.348204041e-38
-0.1111777127 -0.4584528804 -0.1784294099 2.348204041e-38
-0.1456964165 -0.2240611315 0.06613281369 2.348204041e-38
0.1066934988 -0.2544856966 -0.1673008204 2.348204041e-38
0.1567934155 -0.3244419098 0.2677936256 2.348204041e-38
-0.02242954075 -0.3113597631 0.0337295942 2.348204041e-38
0.1515123248 -0.3936515749 0.2850903571 2.348204041e-38
-0.0631480068 -0.2638629973 -0.1668553203 2.348204041e-38
-0.2802728415 -0.3401128054 0.1662208736 2.348204041e-38
-0.01820658147 -0.4475885034 0.2504915595 2.348204041e-38
-0.3000278473 -0.3206644058 -0.01866743155 2.348204041e-38
-0.3283299804 -0.3413636088 -0.07332558185 2.348204041e-38
-0.2167050838 -0.4517872632 0.1184425876 2.348204041e-38
0.005025319755 -0.4439660907 0.2797861397 2.348204041e-38
0.1559158862 -0.3722015321 0.2809191644 2.348204041e-38
-0.05481101573 -0.2482709736 0.1975407004 2.348204041e-38
0.0802982673 -0.4506065547 0.06221411377 2.348204041e-38
0.1060904413 -0.4293177724 0.2567874193 2.348204041e-38
0.1502797902 -0.2373531312 0.1021591797 2.348204041e-38
0.08414471149 -0.3071111441 0.00880561024 2.348204041e-38
-0.1541596055 -0.3631320298 -0.257596612 2.348204041e-38
0.1904137433 -0.4210141301 0.1295142472 2.348204041e-38
0.05343130231 -0.2092055976 -0.1078673825 2.348204041e-38
0.229326725 -0.4246504009 0.02385565452 2.348204041e-38
0.1127158254 -0.2079327852 -0.04481586814 2.348204041e-38
0.160858959 -0.4357611239 0.01708560809 2.348204041e-38
-0.2152091861 -0.363619417 0.2880868614 2.348204041e-38
0.07044294477 -0.4551170766 0.03983172029 2.348204041e-38
-0.1876471937 -0.3711586297 -0.2594944239 2.348204041e-38
-0.0435429588 -0.2767564654 -0.1875485778 2.348204041e-38
0.04781571031 -0.2335990667 -0.1532312632 2.348204041e-38
