# .PCD v0.7 - Point Cloud Data file format
VERSION 0.7
FIELDS x y z rgb
SIZE 4 4 4 4
TYPE F F F F
COUNT 1 1 1 1
WIDTH 831
HEIGHT 1
VIEWPOINT 0 0 0 1 0 0 0
POINTS 831
DATA ascii
-0.1504159272 -0.4626981616 0.1395400167 6.490113838e-41
-0.114075385 -0.4530498981 -0.03207629919 6.490113838e-41
0.2376848459 -0.4241458774 0.001127161086 6.490113838e-41
0.2087330222 -0.358507812 0.002064019442 6.490113838e-41
-0.1283954382 -0.4496733546 -0.1511405855 6.490113838e-41
0.1173374131 -0.4622353315 -0.06901319325 6.490113838e-41
-0.08442744613 -0.4566690922 -0.1309036911 6.490113838e-41
0.05483283475 -0.4544346333 0.05141980574 6.490113838e-41
-0.03329179063 -0.4567686915 0.1502441764 6.490113838e-41
-0.06670809537 -0.4614552259 0.2853542268 6.490113838e-41
-0.1367524862 -0.3658748269 0.03750397265 6.490113838e-41
0.08154296875 -0.414398551 0.2889332175 6.490113838e-41
-0.1040174738 -0.3726620376 0.1461009532 6.490113838e-41
-0.04841604829 -0.4581274986 0.03074486554 6.490113838e-41
0.09341365844 -0.3571204543 -0.1362523288 6.490113838e-41
-0.2501859963 -0.4371269941 -0.1516878754 6.490113838e-41
-0.2446171939 -0.3515123725 -0.02992445976 6.490113838e-41
-0.1120106503 -0.3681381643 -0.1006271988 6.490113838e-41
-0.02958311513 -0.4584307671 -0.1044613421 6.490113838e-41
-0.02722324431 -0.4542461038 -0.1332049668 6.490113838e-41
-0.1151165292 -0.4532012343 0.03057713434 6.490113838e-41
-0.001147378236 -0.4561117291 -0.1264161617 6.490113838e-41
-0.1928651035 -0.3678433299 -0.08792483807 6.490113838e-41
-0.03178960085 -0.4242194891 0.03502139822 6.490113838e-41
-0.1952287257 -0.3673026562 -0.06999070942 6.490113838e-41
0.0471467413 -0.3748860061 0.2645406723 6.490113838e-41
0.01636997238 -0.415162921 0.03942339122 6.490113838e-41
-0.2641529441 -0.4156253338 0.0967438519 6.490113838e-41
0.06588222831 -0.4570354223 0.1859391928 6.490113838e-41
0.2251686156 -0.3803213835 -0.1038049012 6.490113838e-41
-0.131758064 -0.4506019354 0.03136158735 6.490113838e-41
0.2352619469 -0.4395222068 0.015267957 6.490113838e-41
0.1655263603 -0.4593871832 0.1581839621 6.490113838e-41
0.0005739815533 -0.4086568356 0.02517976984 6.490113838e-41
0.1879398525 -0.4320853353 0.1982788444 6.490113838e-41
0.09621173888 -0.377712667 0.2763836384 6.490113838e-41
0.06231905892 -0.3729560375 -0.04259219021 6.490113838e-41
0.02050371468 -0.4427441359 0.08041527122 6.490113838e-41
0.01590306312 -0.3763967156 0.2472261488 6.490113838e-41
0.1957227886 -0.4410855174 0.1715949476 6.490113838e-41
0.06658157706 -0.3831956983 0.04056586325 6.490113838e-41
0.1659669578 -0.3763943315 0.198707372 6.490113838e-41
0.05055852607 -0.429371953 0.1103194579 6.490113838e-41
-0.2490186691 -0.3616283536 -0.1129008085 6.490113838e-41
0.07678312063 -0.3688062429 0.1708846092 6.490113838e-41
0.1616010666 -0.4574753642 0.1908471286 6.490113838e-41
0.1338013262 -0.4629356265 -0.05095592886 6.490113838e-41
0.2211330831 -0.3640571833 0.09373003244 6.490113838e-41
-0.1109344587 -0.389950335 0.2440079004 6.490113838e-41
-0.2673642337 -0.3789365292 -0.00015091151 6.490113838e-41
0.1510400474 -0.4599856138 0.1967677921 6.490113838e-41
-0.2269080877 -0.3573480844 0.1430232376 6.490113838e-41
-0.1638248563 -0.462636292 0.164880693 6.490113838e-41
0.02806792967 -0.3752111197 -0.0591359362 6.490113838e-41
-0.268676728 -0.3993738294 0.05066634715 6.490113838e-41
-0.2691945136 -0.4034281373 -0.0255639255 6.490113838e-41
-0.1123155728 -0.3682205677 0.09132791311 6.490113838e-41
-0.214802444 -0.4444103837 -0.1350502968 6.490113838e-41
-0.2404370904 -0.438149631 -0.06329865754 6.490113838e-41
-0.1377699673 -0.4549586177 -0.06605263054 6.490113838e-41
0.1182873771 -0.3765385151 0.1066383123 6.490113838e-41
-0.146283865 -0.4544035792 -0.1097653657 6.490113838e-41
0.132009387 -0.4630328417 -0.05052448064 6.490113838e-41
0.2292441428 -0.4179525375 0.1063243002 6.490113838e-41
0.2081047297 -0.3609873652 -0.06657716632 6.490113838e-41
0.1555991471 -0.4592623711 0.1937068552 6.490113838e-41
-0.2233494222 -0.3522068262 0.003804612905 6.490113838e-41
-0.2010920048 -0.447956562 -0.08535853028 6.490113838e-41
-0.06065974385 -0.4588398337 -0.1199465841 6.490113838e-41
0.1905379593 -0.4248155951 0.203550756 6.490113838e-41
-0.06072959304 -0.3560544848 -0.1727204174 6.490113838e-41
-0.09012760967 -0.4596589804 0.1147340387 6.490113838e-41
-0.02061676607 -0.3735958934 0.2390753776 6.490113838e-41
-0.03634043038 -0.4576588273 0.09610593319 6.490113838e-41
-0.1210712269 -0.3758050799 0.1977866143 6.490113838e-41
0.239286989 -0.3954212666 0.06659334898 6.490113838e-41
-0.2033132911 -0.4314522147 0.1522210836 5.962428276e-39
-0.1812790334 -0.4134303927 -0.1806865931 5.962428276e-39
-0.1548098624 -0.3995742798 -0.02863865346 5.962428276e-39
-0.2074651122 -0.4029557705 -0.0361192897 5.962428276e-39
-0.02173052728 -0.3851770163 0.2978879809 5.962428276e-39
-0.146138519 -0.3934492469 -0.06174480915 5.962428276e-39
0.193683356 -0.4586503506 -0.09469765425 5.962428276e-39
-0.1800122559 -0.3983624578 -0.0415103361 5.962428276e-39
-0.0733461529 -0.4273680449 0.1369853914 5.962428276e-39
-0.08415995538 -0.3908082843 0.1487518549 5.962428276e-39
-0.133795619 -0.4286246896 -0.2020855397 5.962428276e-39
0.1269987822 -0.4528803825 -0.1940655261 5.962428276e-39
0.1857116222 -0.4318634272 0.06395179778 5.962428276e-39
0.03890719637 -0.3628973663 -0.1464031637 5.962428276e-39
-0.1683166027 -0.476568222 -0.2071635574 5.962428276e-39
0.08329146355 -0.4354056716 -0.07719029486 5.962428276e-39
-0.1963563859 -0.3745295107 -0.1627780199 5.962428276e-39
0.06768666208 -0.4338035583 0.2150422335 5.962428276e-39
-0.004375673831 -0.4154701829 -0.1613485664 5.962428276e-39
-0.2366194427 -0.4433826208 -0.1274803728 5.962428276e-39
-0.2208086848 -0.4211962223 0.01963662356 5.962428276e-39
0.1733310819 -0.4442541003 -0.01418092102 5.962428276e-39
0.2334647775 -0.4354757071 -0.1163309664 5.962428276e-39
-0.2185024917 -0.4236509204 0.2249724269 5.962428276e-39
-0.07347575575 -0.3675395846 0.2411126643 5.962428276e-39
0.2340348065 -0.4293357134 -0.09865644574 5.962428276e-39
0.09735757113 -0.3854305744 0.2468433529 5.962428276e-39
-0.01387771964 -0.4081886411 0.03126651421 5.962428276e-39
-0.2030776441 -0.4529417157 -0.1761300564 5.962428276e-39
-0.1381646991 -0.3899083734 0.3075146079 5.962428276e-39
-0.001350764185 -0.4660378098 -0.2500751019 5.962428276e-39
-0.190033406 -0.3918362856 0.0910647884 5.962428276e-39
-0.09682013839 -0.3843131661 -0.06933818758 5.962428276e-39
-0.1387722194 -0.3832829595 -0.1393925995 5.962428276e-39
-0.238065958 -0.3912440538 0.09809009731 5.962428276e-39
-0.1315853596 -0.4246615767 0.07614119351 5.962428276e-39
0.05135644972 -0.4019434452 0.1682905257 5.962428276e-39
0.06531316787 -0.4515057802 -0.2130064815 5.962428276e-39
-0.280128181 -0.4376261234 0.232366696 5.962428276e-39
0.1311089396 -0.4410718679 -0.1880926341 5.962428276e-39
-0.2016426027 -0.4278899431 0.1831915677 5.962428276e-39
-0.02720651776 -0.4051640034 -0.06292568147 5.962428276e-39
-0.05785135925 -0.4012200832 0.299880147 5.962428276e-39
0.04833576828 -0.4194614887 -0.01964618266 5.962428276e-39
-0.1848751009 -0.4088952541 0.3134610057 5.962428276e-39
0.1966257095 -0.4311686158 0.06673748046 5.962428276e-39
-0.005851935595 -0.4206053019 0.2862857282 5.962428276e-39
-0.2488203347 -0.4697833657 -0.07269230485 5.962428276e-39
-0.1689559519 -0.3870730996 -0.09807427227 5.962428276e-39
0.0172541365 -0.4675680399 -0.241775617 5.962428276e-39
-0.1946688592 -0.4284905195 0.1913139522 5.962428276e-39
0.1395764947 -0.4194881916 -0.1751352698 5.962428276e-39
0.232807219 -0.4268314242 0.01666495949 5.962428276e-39
-0.009452093393 -0.3810181618 0.2090988457 5.962428276e-39
-0.1715493798 -0.4322214723 0.2217146158 5.962428276e-39
-0.04478685558 -0.4321101308 0.1901286542 5.962428276e-39
-0.22570467 -0.461144805 -0.1466132849 5.962428276e-39
0.1398623884 -0.3852033615 0.1384675503 5.962428276e-39
0.07138970494 -0.382632494 0.2769280672 5.962428276e-39
0.136776492 -0.4489431381 -0.08620223403 5.962428276e-39
0.1185348183 -0.389134407 0.03475432843 5.962428276e-39
0.1200627834 -0.4149110317 -0.182866022 5.962428276e-39
-0.2034217119 -0.4168238044 -0.0009738355875 5.962428276e-39
-0.2624856234 -0.4540615082 -0.05641125888 5.962428276e-39
-0.04368387163 -0.3889950514 0.1857143044 5.962428276e-39
-0.06783684343 -0.4052783251 0.1216300875 5.962428276e-39
-0.2381547987 -0.4161422849 0.2016144246 5.962428276e-39
-0.1723979115 -0.3911437988 0.1383001804 5.962428276e-39
-0.1934747398 -0.4552415609 -0.1845272481 5.962428276e-39
-0.2060748637 -0.4169160724 -0.001958206296 5.962428276e-39
-0.2358799577 -0.4762924314 -0.109983325 5.962428276e-39
0.07516323775 -0.3613370061 -0.167253077 5.962428276e-39
0.06894635409 -0.4558036327 -0.2130893022 5.962428276e-39
-0.2731835246 -0.466663301 0.1694628596 5.962428276e-39
-0.1060037389 -0.4537030458 -0.2126925141 5.962428276e-39
-0.08519610018 -0.4026494026 0.009181685746 5.962428276e-39
-0.2730113566 -0.4666727185 0.07285361737 5.962428276e-39
0.05354069173 -0.4228000641 -0.207923308 5.962428276e-39
0.001761447638 -0.4345926642 0.2355562299 5.962428276e-39
0.2333323956 -0.4347594976 -0.1186437458 5.962428276e-39
0.1392730922 -0.4398139119 -0.02535725385 5.962428276e-39
-0.2706674337 -0.3953024149 0.2503532767 5.962428276e-39
-0.200212419 -0.3908014894 0.3092811108 5.962428276e-39
-0.2420881689 -0.4024333358 -0.1118649542 5.962428276e-39
-0.2799518108 -0.4327175617 0.2418237925 5.962428276e-39
0.2213821411 -0.3821995854 0.07641781121 5.962428276e-39
0.08622701466 -0.3698395491 -0.1761233807 5.962428276e-39
-0.2829478681 -0.450505197 0.1372044086 5.962428276e-39
-0.2160606086 -0.4244653583 0.03890651837 5.962428276e-39
-0.19132635 -0.4128556848 0.3154416084 5.962428276e-39
-0.09160705656 -0.387406528 -0.1596841961 5.962428276e-39
0.02156732045 -0.420114994 -0.2099205703 5.962428276e-39
-0.005770090967 -0.4592779279 -0.2227036804 5.962428276e-39
-0.1425547004 -0.4320662618 0.1986127198 5.962428276e-39
-0.04438155144 -0.3993628621 -0.1689148545 5.962428276e-39
-0.2314791977 -0.4276152253 0.1242524832 5.962428276e-39
-0.272716254 -0.4593339562 0.2153663933 5.962428276e-39
-0.08491943777 -0.3976348639 -0.2009227127 5.962428276e-39
-0.104816176 -0.3847661614 0.3044823408 5.962428276e-39
0.1537290365 -0.4269658923 0.08582213521 5.962428276e-39
-0.2391631603 -0.4250212312 0.06168578938 5.962428276e-39
-0.2677861452 -0.3926429749 0.2685241103 5.962428276e-39
0.1621652544 -0.4292765856 0.1109272167 5.962428276e-39
-0.1181482449 -0.409121871 0.3092827201 5.962428276e-39
-0.02816656977 -0.4046069384 -0.1524112225 5.962428276e-39
-0.268471539 -0.3914166093 0.2487878352 5.962428276e-39
-0.2711401284 -0.4702305198 0.1081131101 5.962428276e-39
-0.2058142722 -0.3609541655 0.2765627503 5.962428276e-39
-0.2485997081 -0.3892965913 0.03832564503 5.962428276e-39
-0.1049068198 -0.3840040565 -0.1104767472 5.962428276e-39
-0.1893618405 -0.4286278486 0.1990314424 5.962428276e-39
0.04214226454 -0.4147863984 0.1222025007 5.962428276e-39
-0.2872567475 -0.3883357048 0.06256241351 5.962428276e-39
-0.1912113428 -0.4096776247 -0.01233877987 5.962428276e-39
0.162623316 -0.3859458566 0.1086617261 5.962428276e-39
-0.2561475635 -0.3739433289 0.1727190912 5.962428276e-39
0.06628249586 -0.4666571021 -0.2290698737 5.962428276e-39
-0.2885138094 -0.422048986 0.202053085 5.962428276e-39
-0.07938724011 -0.4726833105 -0.2400286347 5.962428276e-39
-0.2470290363 -0.4786419868 -0.07286053896 5.962428276e-39
-0.01881206408 -0.4431875348 -0.217966333 5.962428276e-39
-0.2703538537 -0.4645020366 0.05262655392 5.962428276e-39
0.1878280342 -0.4492901564 -0.04073760659 5.962428276e-39
0.1325172186 -0.3827237487 -0.1444765031 5.962428276e-39
-0.1307016611 -0.4224287868 0.3092567325 5.962428276e-39
-0.2775346637 -0.4541098475 0.02897181362 5.962428276e-39
-0.2606095374 -0.4705219865 -0.02364659309 5.962428276e-39
0.004561509937 -0.4097421765 0.03482934088 5.962428276e-39
-0.04997029901 -0.4325261712 0.2631328702 5.962428276e-39
-0.269838661 -0.4722208381 0.09885392338 5.962428276e-39
0.2064957917 -0.4067938328 0.1517275274 5.962428276e-39
0.1159879044 -0.3905856609 0.2270193398 5.962428276e-39
-0.2742573917 -0.4508581758 0.2343544215 5.962428276e-39
0.08256226033 -0.4304358363 -0.05111986399 5.962428276e-39
0.08646639436 -0.4279664755 0.1577179581 5.962428276e-39
-0.06200923771 -0.3783255219 0.2858584523 5.962428276e-39
-0.09865442663 -0.3765997291 0.2252892107 5.962428276e-39
0.0807659626 -0.4304962158 0.1669820994 5.962428276e-39
0.05577570572 -0.4482043386 -0.2144964486 5.962428276e-39
-0.09756355733 -0.3851473331 -0.1733492762 5.962428276e-39
-0.2382400036 -0.4235295653 0.1480069607 5.962428276e-39
0.2190324962 -0.447981596 -0.06083969772 5.962428276e-39
0.2279613912 -0.4160804152 0.04873589426 5.962428276e-39
0.2058787346 -0.4048275352 0.1557494998 5.962428276e-39
0.2150427103 -0.4477654099 -0.05458087474 5.962428276e-39
-0.1477651298 -0.4163668156 0.3106738627 5.962428276e-39
-0.09817060083 -0.3913769126 -0.1977850348 5.962428276e-39
-0.2846663892 -0.4333503842 0.2088876963 5.962428276e-39
0.1798780859 -0.4015937448 -0.1220283061 5.962428276e-39
-0.02717462182 -0.4079348445 0.1516859978 5.962428276e-39
-0.2422545552 -0.4315190315 -0.1168795377 5.962428276e-39
-0.1122907773 -0.420157671 0.06785401702 5.962428276e-39
0.2314868867 -0.4221087098 -0.0585905686 5.962428276e-39
-0.03399562836 -0.4351463914 -0.2152046114 5.962428276e-39
0.01446855627 -0.3664452434 -0.1276334375 5.962428276e-39
-0.1459154785 -0.4767625332 -0.227295801 5.962428276e-39
0.1835759878 -0.4477663636 -0.03001386672 5.962428276e-39
-0.1260174215 -0.4012451172 0.309967041 5.962428276e-39
-0.1516411006 -0.4363953471 0.2595970631 5.962428276e-39
0.1837656796 -0.4097920656 -0.1351695061 5.962428276e-39
0.06402766705 -0.4157044888 0.05426776409 5.962428276e-39
0.0150392428 -0.4255269766 -0.1608864814 5.962428276e-39
0.2024390399 -0.3906724453 0.1536675692 5.962428276e-39
-0.2087675035 -0.457318604 0.2930794358 5.962428276e-39
-0.2855521441 -0.4271972775 0.2144257873 5.962428276e-39
0.05771844834 -0.3785557151 0.2619520426 5.962428276e-39
-0.1392506361 -0.4149914384 0.03468322754 5.962428276e-39
-0.2054828107 -0.4315160513 0.1457580924 5.962428276e-39
0.05675296485 -0.4289179444 0.1540634036 5.962428276e-39
-0.237147063 -0.3912909627 -0.1164768636 5.962428276e-39
-0.2207169235 -0.4122640491 0.3213461041 5.962428276e-39
-0.2578987777 -0.4169612527 0.1545304954 5.962428276e-39
0.003270162269 -0.410202086 -0.03457761556 5.962428276e-39
-0.2338373959 -0.4237127304 0.2362122834 5.962428276e-39
-0.02490580827 -0.3722841144 0.2251306772 5.962428276e-39
-0.2919874787 -0.4318756461 0.1094654948 5.962428276e-39
0.08444297314 -0.4213683009 0.09324035794 5.962428276e-39
0.1641655862 -0.3825088143 0.1590261161 5.962428276e-39
-0.2919902802 -0.4264691472 0.06351772696 5.962428276e-39
-0.0731420964 -0.3870235085 -0.198219642 5.962428276e-39
-0.1703687012 -0.4316377044 0.1886324883 5.962428276e-39
-0.0722906515 -0.4001169205 -0.009847909212 5.962428276e-39
0.1742064059 -0.4169680476 -0.1554006487 5.962428276e-39
0.09711387008 -0.3945226669 -0.1843000501 5.962428276e-39
-0.08058581501 -0.3898157477 -0.1623900831 5.962428276e-39
0.2256278396 -0.4512493014 -0.08209596574 5.962428276e-39
-0.02765073255 -0.4040268064 -0.1410915405 5.962428276e-39
0.1522357762 -0.4268977046 0.06906340271 5.962428276e-39
-0.02067525685 -0.433585763 0.2083653361 5.962428276e-39
-0.1668169498 -0.4388216138 0.3131754398 5.962428276e-39
-0.2907930315 -0.405266583 0.05455599353 5.962428276e-39
-0.05122219026 -0.3771592975 0.2825710773 5.962428276e-39
-0.2750779092 -0.3906161785 0.1880517304 5.962428276e-39
0.004593549296 -0.4130836129 0.06850104779 5.962428276e-39
0.04424007237 -0.4482637048 -0.2166501731 5.962428276e-39
-0.2180640697 -0.3743801713 -0.1504730582 5.962428276e-39
-0.2780430317 -0.4585235715 0.06014168635 5.962428276e-39
-0.2219140828 -0.4339784384 -0.1533224434 5.962428276e-39
0.04469389468 -0.4289066195 -0.113775596 5.962428276e-39
0.05123276263 -0.435236454 -0.1403525025 5.962428276e-39
-0.08571215719 -0.4192793369 0.08404155076 5.962428276e-39
0.08481206 -0.4446487427 -0.131517902 5.962428276e-39
-0.2574980855 -0.4558283687 -0.07030825317 5.962428276e-39
-0.236936003 -0.3783713579 -0.04862520844 5.962428276e-39
-0.2659775913 -0.4513046145 -0.04932033271 5.962428276e-39
-0.1415859163 -0.3704374433 0.2535345554 5.962428276e-39
-0.1430706382 -0.3859789371 -0.1065012366 5.962428276e-39
-0.274548471 -0.4634469748 0.1878669262 5.962428276e-39
0.09650206566 -0.4243942499 0.2517897189 5.962428276e-39
0.1618588269 -0.4610394835 -0.2025239915 5.962428276e-39
-0.1091791615 -0.4234400988 0.08479977399 5.962428276e-39
0.1801446676 -0.4103215337 -0.1414913833 5.962428276e-39
0.2161954343 -0.390296936 0.1229869574 5.962428276e-39
-0.1656474173 -0.3845604658 -0.126488775 5.962428276e-39
0.1622999907 -0.3844934106 0.1191722304 5.962428276e-39
-0.07565839589 -0.3674947619 0.2421156615 5.962428276e-39
-0.04290876538 -0.4033648372 -0.205053553 5.962428276e-39
-0.1654939651 -0.3846472502 -0.004791982472 5.962428276e-39
-0.1826560199 -0.3726963401 0.2502269447 5.962428276e-39
0.1882986426 -0.376713872 0.07262513787 5.962428276e-39
-0.06542347372 -0.3705628812 -0.1553449631 5.962428276e-39
0.03373399749 -0.4169559479 0.1067816392 5.962428276e-39
-0.130515933 -0.3882753253 0.02063051611 5.962428276e-39
-0.2523470521 -0.4774501324 -0.04252494127 5.962428276e-39
-0.1168433949 -0.3916376829 0.1300394684 5.962428276e-39
0.1881090701 -0.388246119 0.1632692963 5.962428276e-39
0.2324833572 -0.4465370178 -0.07457388937 5.962428276e-39
0.09604754299 -0.3680570722 -0.1342708915 5.962428276e-39
-0.252825886 -0.3814893961 0.285487175 5.962428276e-39
-0.2712394893 -0.4706665874 0.1096061543 5.962428276e-39
0.1760180295 -0.3916825652 0.1939562112 5.962428276e-39
-0.2792109549 -0.430731833 0.2479336411 5.962428276e-39
-0.1873652041 -0.43076998 0.2172841728 5.962428276e-39
-0.08223555982 -0.4143406153 -0.2060267776 5.962428276e-39
-0.2724143565 -0.4683827162 0.1535166502 5.962428276e-39
-0.268655777 -0.469315052 0.06772153825 5.962428276e-39
-0.289507091 -0.3964463472 0.120981887 5.962428276e-39
-0.1797033846 -0.3807512522 -0.1359823793 5.962428276e-39
-0.2100606263 -0.4114507437 -0.02040192485 5.962428276e-39
-0.09577289969 -0.3966952562 -0.0569614172 5.962428276e-39
-0.008065491915 -0.385596931 -0.06962175667 5.962428276e-39
-0.1051187888 -0.3898912072 -0.1137018949 5.962428276e-39
0.2325384319 -0.4469375014 -0.07259185612 5.962428276e-39
0.1578704417 -0.3842605352 -0.09233747423 5.962428276e-39
0.1323365867 -0.4426552653 -0.1881847829 5.962428276e-39
0.1831284463 -0.390326798 0.1795496047 5.962428276e-39
-0.286234796 -0.4460565448 0.08327777684 5.962428276e-39
-0.1663253605 -0.3929643035 -0.0606597662 5.962428276e-39
0.003182103857 -0.4160280824 -0.1301475167 5.962428276e-39
0.1467339098 -0.3887028694 0.1189577878 5.962428276e-39
-0.1200295612 -0.4647858739 -0.2145080715 5.962428276e-39
-0.08738030493 -0.4299668074 0.1706461757 5.962428276e-39
-0.2148985565 -0.3642789125 0.2546488643 5.962428276e-39
0.003076311201 -0.4275071621 0.169347465 5.962428276e-39
-0.2648827732 -0.3896427751 0.25007236 5.962428276e-39
0.1322324872 -0.3854865432 -0.1489376277 5.962428276e-39
-0.1207143292 -0.4616693854 0.2073875666 1.184631237e-38
-0.1856289506 -0.3232749701 -0.2378161401 1.184631237e-38
-0.1204607114 -0.4544180632 -0.01997217536 1.184631237e-38
-0.1785556972 -0.4507092237 -0.03039249778 1.184631237e-38
0.06188615412 -0.3009269238 0.281904012 1.184631237e-38
-0.1190294251 -0.4536809921 -0.06078860164 1.184631237e-38
0.2296583354 -0.4269713163 -0.04211317003 1.184631237e-38
-0.1476110518 -0.4525085092 -0.03638780117 1.184631237e-38
0.01384387817 -0.4518232942 0.1857176274 1.184631237e-38
-0.004287522286 -0.2778324485 0.09508892149 1.184631237e-38
-0.1434026062 -0.3387935162 -0.2497953922 1.184631237e-38
0.1136835888 -0.3566402197 -0.23699449 1.184631237e-38
0.2297717035 -0.4288251996 0.1324236542 1.184631237e-38
0.03995494545 -0.2284592986 -0.1323990226 1.184631237e-38
-0.1769376993 -0.431388557 -0.2519289851 1.184631237e-38
0.1132674441 -0.458263278 -0.02869460732 1.184631237e-38
-0.1763848364 -0.4483170509 -0.1546209902 1.184631237e-38
0.1638370156 -0.429001987 0.2522428036 1.184631237e-38
0.003858227283 -0.4591753483 -0.1408753097 1.184631237e-38
-0.2564070821 -0.3768818974 -0.2081696242 1.184631237e-38
-0.1835533082 -0.4561424255 0.03398032114 1.184631237e-38
0.2243172824 -0.4471251369 0.05991794541 1.184631237e-38
0.2402740419 -0.3755590022 -0.09709765017 1.184631237e-38
-0.1352922022 -0.4533829093 0.2759417892 1.184631237e-38
0.0170603171 -0.2405216396 0.2023792118 1.184631237e-38
0.2374297976 -0.3455823064 -0.08738550544 1.184631237e-38
0.1541449726 -0.285012126 0.2127602845 1.184631237e-38
0.038094908 -0.4555003643 0.06861083955 1.184631237e-38
-0.2146469653 -0.3945189714 -0.2372438461 1.184631237e-38
-0.03959921747 -0.2925507724 0.2838067412 1.184631237e-38
-0.003994725645 -0.4366063476 -0.2749095559 1.184631237e-38
-0.1246577427 -0.252533555 0.005863185972 1.184631237e-38
-0.06096296012 -0.2549116015 -0.07687179744 1.184631237e-38
-0.1168616191 -0.4566404223 -0.1268856227 1.184631237e-38
-0.1867654324 -0.2532224059 0.00463822484 1.184631237e-38
-0.07084427774 -0.4518722892 0.1042064577 1.184631237e-38
0.1027230546 -0.274561584 0.1366603374 1.184631237e-38
0.0392283462 -0.3578159809 -0.2593239546 1.184631237e-38
-0.3092201054 -0.3865061402 0.1380856037 1.184631237e-38
0.1195504889 -0.3359664083 -0.229120627 1.184631237e-38
-0.1168365553 -0.4580861926 0.2421200275 1.184631237e-38
-0.002674292773 -0.4585350156 -0.04354885221 1.184631237e-38
0.03934643045 -0.3253151774 0.3033950925 1.184631237e-38
0.08694370836 -0.4572283626 0.02469311655 1.184631237e-38
-0.09784714133 -0.3334659636 0.3034548163 1.184631237e-38
0.2350588739 -0.4175228477 0.1300324053 1.184631237e-38
0.08822405338 -0.3442312777 0.3030669093 1.184631237e-38
-0.2890414894 -0.4188456535 -0.1662234664 1.184631237e-38
-0.1468695998 -0.4549908042 -0.09690494835 1.184631237e-38
0.008796179667 -0.419260025 -0.2732592821 1.184631237e-38
-0.1064687595 -0.4569093585 0.252838403 1.184631237e-38
0.1376777887 -0.3028343022 -0.1948204488 1.184631237e-38
0.25254637 -0.3614856303 0.06344473362 1.184631237e-38
0.06380186975 -0.2596155405 0.1632145941 1.184631237e-38
-0.06701652706 -0.4510113001 0.2891344428 1.184631237e-38
0.0635054037 -0.4502280951 0.2584558725 1.184631237e-38
-0.2451645136 -0.4054543376 -0.2209176272 1.184631237e-38
0.1632119417 -0.2554576993 0.1405951977 1.184631237e-38
0.130365923 -0.2857490182 0.2379879206 1.184631237e-38
0.1794007421 -0.4559639096 -0.02343471348 1.184631237e-38
0.1330231875 -0.2366434187 0.05183643475 1.184631237e-38
0.1133237481 -0.3019327521 -0.2100824863 1.184631237e-38
-0.1738014221 -0.4517678618 0.007378667593 1.184631237e-38
-0.2915760875 -0.3906444311 -0.1560523212 1.184631237e-38
0.03456294537 -0.2660397291 0.1354937404 1.184631237e-38
0.002404114231 -0.29333359 0.0746230036 1.184631237e-38
-0.1707160473 -0.4563444257 0.2483459264 1.184631237e-38
-0.1030521318 -0.2400594056 0.05747451633 1.184631237e-38
-0.2039186656 -0.3952968121 -0.2411844283 1.184631237e-38
-0.1763613522 -0.4519169927 0.00623196736 1.184631237e-38
-0.277405858 -0.4345044494 -0.1906527728 1.184631237e-38
0.07319527864 -0.2353192121 -0.1659732014 1.184631237e-38
0.04375000671 -0.3645280898 -0.2596465945 1.184631237e-38
-0.3073481023 -0.4502180219 0.09145238996 1.184631237e-38
-0.1191054955 -0.3716413975 -0.2576475143 1.184631237e-38
-0.03980085254 -0.4571128488 0.03246004134 1.184631237e-38
-0.3166301548 -0.4223689437 -0.02680126578 1.184631237e-38
0.02474038303 -0.3151897788 -0.2514641285 1.184631237e-38
0.1017965525 -0.4141513109 0.2890268564 1.184631237e-38
0.2398857176 -0.3769150376 -0.09954121709 1.184631237e-38
0.1840246916 -0.4521356821 0.04125343263 1.184631237e-38
-0.2737172842 -0.3347758651 0.161793828 1.184631237e-38
-0.122812368 -0.3129464388 0.2899050713 1.184631237e-38
-0.2475259602 -0.3202745914 -0.2013578266 1.184631237e-38
-0.3059054613 -0.3798494935 0.1480571032 1.184631237e-38
0.2297367156 -0.3074250817 0.1087937504 1.184631237e-38
0.08208353817 -0.2514416575 -0.1775255501 1.184631237e-38
-0.3192490637 -0.3983381987 0.03594611585 1.184631237e-38
-0.1742665172 -0.4581606984 0.05668104813 1.184631237e-38
-0.1085411385 -0.3423752487 0.3046934009 1.184631237e-38
-0.07451955974 -0.4552795887 -0.1441717893 1.184631237e-38
-0.007518067956 -0.3114208877 -0.252618432 1.184631237e-38
-0.02993516624 -0.3713285923 -0.2666304111 1.184631237e-38
-0.03398752213 -0.4554446936 0.2716496587 1.184631237e-38
-0.0332336165 -0.4540403485 -0.1515006572 1.184631237e-38
-0.1649926901 -0.4630842805 0.1676530242 1.184631237e-38
-0.3107580245 -0.4176588655 0.124597013 1.184631237e-38
-0.08739590645 -0.2834006846 -0.2364981025 1.184631237e-38
-0.01153900847 -0.2821034789 0.2712182403 1.184631237e-38
0.2125068009 -0.449591279 0.1602927893 1.184631237e-38
-0.1925007701 -0.4616152048 0.08513982594 1.184631237e-38
-0.2683860958 -0.334076643 0.1835127771 1.184631237e-38
0.214774251 -0.4348239303 0.1742803752 1.184631237e-38
-0.01951519772 -0.3297528028 0.3049462438 1.184631237e-38
-0.01669651642 -0.4572265744 -0.1332476735 1.184631237e-38
-0.2677894235 -0.3312478364 0.1636983752 1.184631237e-38
-0.3091685772 -0.4513668418 0.02674445882 1.184631237e-38
-0.1530056 -0.2606166005 0.2145438641 1.184631237e-38
-0.20669204 -0.2611454129 -0.05066119879 1.184631237e-38
-0.07863775641 -0.2454875708 -0.1231893301 1.184631237e-38
-0.09850668162 -0.455771029 0.2627654672 1.184631237e-38
0.08440375328 -0.2714668512 0.09703543782 1.184631237e-38
-0.2814134657 -0.3022699952 -0.04080533981 1.184631237e-38
-0.1615415215 -0.4518927336 -0.005655072629 1.184631237e-38
0.1768313944 -0.25514853 0.1230942309 1.184631237e-38
-0.2244458497 -0.2727966011 0.07847267389 1.184631237e-38
0.05520643294 -0.4066354036 -0.2648703456 1.184631237e-38
-0.3043783605 -0.3583937585 0.1018636152 1.184631237e-38
-0.08456094563 -0.4387731552 -0.2675946951 1.184631237e-38
-0.2835427821 -0.4765000939 -0.1435991824 1.184631237e-38
-0.04278353602 -0.3468912542 -0.2608587742 1.184631237e-38
-0.296842128 -0.4818062782 -0.0210300833 1.184631237e-38
0.2369480431 -0.4391795397 0.02930609137 1.184631237e-38
0.1423288882 -0.2497307062 -0.1308399886 1.184631237e-38
-0.03258875385 -0.3459030092 0.3072585464 1.184631237e-38
-0.3137487471 -0.4029003978 -0.07862833142 1.184631237e-38
-0.2998982072 -0.4272890687 -0.1255265176 1.184631237e-38
0.05715319887 -0.4555394053 0.07595006377 1.184631237e-38
0.05037782714 -0.3995491266 0.3040398955 1.184631237e-38
-0.3133180737 -0.4372823238 0.006355069578 1.184631237e-38
0.2273756862 -0.3493206203 0.1872362196 1.184631237e-38
0.1691661775 -0.2834258974 0.1985695511 1.184631237e-38
-0.3104042709 -0.4073644876 0.1446709484 1.184631237e-38
0.1177576184 -0.456222415 -0.0003672912717 1.184631237e-38
0.1745002866 -0.4550272822 0.213499561 1.184631237e-38
0.03050484136 -0.2724966407 0.256914109 1.184631237e-38
-0.009135723114 -0.2344091535 0.1749308109 1.184631237e-38
0.1727049947 -0.4562355876 0.2208280861 1.184631237e-38
0.02855197527 -0.3530432582 -0.2603575587 1.184631237e-38
-0.08165005594 -0.4521226287 -0.1582449228 1.184631237e-38
-0.1730136573 -0.4617722034 0.1924399585 1.184631237e-38
0.2477767766 -0.3883700371 -0.0174138844 1.184631237e-38
0.250405848 -0.3615222275 0.1044023186 1.184631237e-38
0.224917531 -0.3446494937 0.1876698732 1.184631237e-38
0.2480944097 -0.3978385329 -0.005209796131 1.184631237e-38
-0.04827290773 -0.3329226971 0.3046233952 1.184631237e-38
-0.09507098049 -0.2742109895 -0.2312557548 1.184631237e-38
-0.3114824295 -0.3775316477 0.1104773059 1.184631237e-38
0.1936751008 -0.2846628428 -0.1098980755 1.184631237e-38
0.03768974543 -0.2879680991 0.1071609408 1.184631237e-38
-0.2600390315 -0.359682858 -0.2018191069 1.184631237e-38
-0.04835019261 -0.4566616416 0.0900592804 1.184631237e-38
0.2411689758 -0.3255956173 -0.03844514489 1.184631237e-38
-0.05519531667 -0.3361874819 -0.2578456998 1.184631237e-38
0.01942689344 -0.2331261784 -0.1151483804 1.184631237e-38
-0.1499919891 -0.4534109235 -0.2587343454 1.184631237e-38
0.2329058051 -0.4408586025 0.04034291208 1.184631237e-38
-0.02513252944 -0.3182503581 0.3007328808 1.184631237e-38
-0.0467011705 -0.4221782088 0.3092043996 1.184631237e-38
0.1919302344 -0.3018907905 -0.1303923428 1.184631237e-38
0.1210758686 -0.4551621675 0.109593153 1.184631237e-38
0.02279419638 -0.461681664 -0.1403825581 1.184631237e-38
0.2130549848 -0.3124742508 0.17311652 1.184631237e-38
-0.1276931167 -0.4372112751 0.3104771078 1.184631237e-38
-0.3070135713 -0.3679642081 0.1156210303 1.184631237e-38
0.1172676906 -0.2750791907 0.2199837118 1.184631237e-38
-0.09236623347 -0.4575134516 0.04708688706 1.184631237e-38
-0.1244490221 -0.4621058106 0.199295789 1.184631237e-38
0.1463339031 -0.4577548504 0.2037506402 1.184631237e-38
-0.2324242592 -0.3052909374 -0.1975435168 1.184631237e-38
-0.1552037597 -0.3512085378 0.3057640195 1.184631237e-38
-0.2004402876 -0.4602153301 0.1943152398 1.184631237e-38
0.03532834351 -0.4562938809 -0.005272358656 1.184631237e-38
-0.1533793509 -0.4509709477 0.2785433531 1.184631237e-38
0.04748412594 -0.2451267242 0.18366234 1.184631237e-38
-0.3173196018 -0.3668473959 0.002951011062 1.184631237e-38
0.1518261731 -0.4539515972 0.152735725 1.184631237e-38
0.1901489198 -0.2742827535 0.1657800823 1.184631237e-38
-0.3110943437 -0.3512174785 -0.04484517872 1.184631237e-38
-0.06980915368 -0.2630835176 -0.2272235006 1.184631237e-38
-0.07119467854 -0.4574938416 0.2563888729 1.184631237e-38
-0.03397417814 -0.4573939443 0.007422294468 1.184631237e-38
0.1775363684 -0.3099685311 -0.1602583975 1.184631237e-38
0.09046093374 -0.280122906 -0.2020722479 1.184631237e-38
-0.06545002759 -0.4554696679 -0.1462992281 1.184631237e-38
0.2472548187 -0.3862425685 -0.04732456803 1.184631237e-38
-0.01403880119 -0.4591693282 -0.1212614328 1.184631237e-38
0.2116764486 -0.4538627863 0.1477919221 1.184631237e-38
0.09188140184 -0.4450950623 0.2798020244 1.184631237e-38
-0.07369213551 -0.3655314147 0.3088586032 1.184631237e-38
-0.2998935878 -0.3224807978 -0.05650483817 1.184631237e-38
0.03888422623 -0.2718347907 0.2549915612 1.184631237e-38
-0.2641437948 -0.3125997186 0.0959495604 1.184631237e-38
0.06453543156 -0.4547479153 0.1072370782 1.184631237e-38
0.01625574753 -0.3534671068 -0.2625025511 1.184631237e-38
-0.1980393827 -0.4474559426 -0.1463922709 1.184631237e-38
-0.3187577724 -0.4094918966 -0.04232194275 1.184631237e-38
-0.2305593193 -0.3706922233 -0.2266240269 1.184631237e-38
0.06008151546 -0.4609007239 -0.0808108598 1.184631237e-38
0.06246855482 -0.463613987 -0.1107076406 1.184631237e-38
-0.0144071579 -0.4575344324 0.1094756424 1.184631237e-38
0.1042686701 -0.4623237848 -0.0928748399 1.184631237e-38
-0.2876262069 -0.3914883733 -0.1671239287 1.184631237e-38
-0.1910456419 -0.2629176378 -0.1195399016 1.184631237e-38
-0.2933101654 -0.3864139318 -0.1498515755 1.184631237e-38
-0.05570523441 -0.2233456373 0.1914588958 1.184631237e-38
-0.1093471721 -0.2495431304 -0.1320480406 1.184631237e-38
-0.3029133379 -0.4628686309 0.1217254475 1.184631237e-38
0.1735545993 -0.3676269054 0.2653771341 1.184631237e-38
0.1673921943 -0.3958894014 -0.2201244682 1.184631237e-38
-0.04008667171 -0.4544587135 0.1125867516 1.184631237e-38
0.1876948476 -0.3030871153 -0.1382292509 1.184631237e-38
0.2239786685 -0.3154881597 0.1456250846 1.184631237e-38
-0.1297020614 -0.2487820685 -0.1585161388 1.184631237e-38
0.1782027781 -0.2572992444 0.133148104 1.184631237e-38
0.01527792122 -0.2404851913 0.2031409144 1.184631237e-38
-0.05443691462 -0.2889741063 -0.241134271 1.184631237e-38
-0.1073786989 -0.2693996429 -0.0549928695 1.184631237e-38
-0.1155238077 -0.2386181056 0.1805776954 1.184631237e-38
0.1986702681 -0.2578847706 0.09809148312 1.184631237e-38
-0.05276045948 -0.2375291735 -0.1613806039 1.184631237e-38
0.07452769578 -0.2709488273 0.08319295198 1.184631237e-38
-0.06749849021 -0.2824080586 -0.0162910372 1.184631237e-38
-0.2940286994 -0.4448571205 -0.136544764 1.184631237e-38
-0.03588775545 -0.2766388655 0.07202764601 1.184631237e-38
0.204616189 -0.3010825515 0.177792415 1.184631237e-38
0.2452929616 -0.3602893949 -0.04952139407 1.184631237e-38
0.09913091362 -0.2236778736 -0.121227026 1.184631237e-38
-0.2339667082 -0.3173059821 0.2204651237 1.184631237e-38
-0.3142188489 -0.4329143167 0.01574202254 1.184631237e-38
0.2034226358 -0.3105751872 0.1925846487 1.184631237e-38
-0.3040445149 -0.3777551651 0.1545450389 1.184631237e-38
-0.09085614979 -0.4521980286 0.280465275 1.184631237e-38
-0.09536578506 -0.3110051751 -0.2490540296 1.184631237e-38
-0.3088324666 -0.4461716413 0.07118649036 1.184631237e-38
-0.3057875931 -0.4570372701 -0.0187876299 1.184631237e-38
-0.2809854448 -0.3119412959 0.02094561979 1.184631237e-38
-0.1592664421 -0.4524661303 -0.1299527884 1.184631237e-38
-0.1878447831 -0.4484138489 -0.01414585859 1.184631237e-38
-0.06845936924 -0.4560484886 -0.05028286576 1.184631237e-38
0.01066601463 -0.2430506349 -0.0622511059 1.184631237e-38
-0.08098354191 -0.4589160681 -0.09962429106 1.184631237e-38
0.2457320392 -0.3619426787 -0.04686623067 1.184631237e-38
0.1676002741 -0.2362166345 -0.06682729721 1.184631237e-38
0.1206678823 -0.3380748928 -0.2292282432 1.184631237e-38
0.2044964731 -0.3070165515 0.1865212619 1.184631237e-38
-0.3205766082 -0.3887899518 -0.02017109096 1.184631237e-38
-0.1411751509 -0.4511233568 -0.05976694822 1.184631237e-38
0.01454440225 -0.4594110847 -0.1065547317 1.184631237e-38
0.1638538241 -0.2521262169 0.1291616112 1.184631237e-38
-0.1325155199 -0.3951206207 -0.2587450147 1.184631237e-38
0.01735035144 -0.4550225139 0.2350568175 1.184631237e-38
-0.1690272987 -0.2617640793 0.1843855381 1.184631237e-38
0.1048879251 -0.4571394324 0.2162006348 1.184631237e-38
-0.2607138753 -0.3272583187 0.1664326936 1.184631237e-38
0.1425634176 -0.2552697659 -0.1369159967 1.184631237e-38
-0.1207143292 -0.4616693854 0.2073875666 1.771655483e-38
-0.1856289506 -0.3232749701 -0.2378161401 1.771655483e-38
-0.1204607114 -0.4544180632 -0.01997217536 1.771655483e-38
-0.1785556972 -0.4507092237 -0.03039249778 1.771655483e-38
0.06188615412 -0.3009269238 0.281904012 1.771655483e-38
-0.1190294251 -0.4536809921 -0.06078860164 1.771655483e-38
0.2296583354 -0.4269713163 -0.04211317003 1.771655483e-38
-0.1476110518 -0.4525085092 -0.03638780117 1.771655483e-38
0.01384387817 -0.4518232942 0.1857176274 1.771655483e-38
-0.004287522286 -0.2778324485 0.09508892149 1.771655483e-38
-0.1434026062 -0.3387935162 -0.2497953922 1.771655483e-38
0.1136835888 -0.3566402197 -0.23699449 1.771655483e-38
0.2297717035 -0.4288251996 0.1324236542 1.771655483e-38
0.03995494545 -0.2284592986 -0.1323990226 1.771655483e-38
-0.1769376993 -0.431388557 -0.2519289851 1.771655483e-38
0.1132674441 -0.458263278 -0.02869460732 1.771655483e-38
-0.1763848364 -0.4483170509 -0.1546209902 1.771655483e-38
0.1638370156 -0.429001987 0.2522428036 1.771655483e-38
0.003858227283 -0.4591753483 -0.1408753097 1.771655483e-38
-0.2564070821 -0.3768818974 -0.2081696242 1.771655483e-38
-0.1835533082 -0.4561424255 0.03398032114 1.771655483e-38
0.2243172824 -0.4471251369 0.05991794541 1.771655483e-38
0.2402740419 -0.3755590022 -0.09709765017 1.771655483e-38
-0.1352922022 -0.4533829093 0.2759417892 1.771655483e-38
0.0170603171 -0.2405216396 0.2023792118 1.771655483e-38
0.2374297976 -0.3455823064 -0.08738550544 1.771655483e-38
0.1541449726 -0.285012126 0.2127602845 1.771655483e-38
0.038094908 -0.4555003643 0.06861083955 1.771655483e-38
-0.2146469653 -0.3945189714 -0.2372438461 1.771655483e-38
-0.03959921747 -0.2925507724 0.2838067412 1.771655483e-38
-0.003994725645 -0.4366063476 -0.2749095559 1.771655483e-38
-0.1246577427 -0.252533555 0.005863185972 1.771655483e-38
-0.06096296012 -0.2549116015 -0.07687179744 1.771655483e-38
-0.1168616191 -0.4566404223 -0.1268856227 1.771655483e-38
-0.1867654324 -0.2532224059 0.00463822484 1.771655483e-38
-0.07084427774 -0.4518722892 0.1042064577 1.771655483e-38
0.1027230546 -0.274561584 0.1366603374 1.771655483e-38
0.0392283462 -0.3578159809 -0.2593239546 1.771655483e-38
-0.3092201054 -0.3865061402 0.1380856037 1.771655483e-38
0.1195504889 -0.3359664083 -0.229120627 1.771655483e-38
-0.1168365553 -0.4580861926 0.2421200275 1.771655483e-38
-0.002674292773 -0.4585350156 -0.04354885221 1.771655483e-38
0.03934643045 -0.3253151774 0.3033950925 1.771655483e-38
0.08694370836 -0.4572283626 0.02469311655 1.771655483e-38
-0.09784714133 -0.3334659636 0.3034548163 1.771655483e-38
0.2350588739 -0.4175228477 0.1300324053 1.771655483e-38
0.08822405338 -0.3442312777 0.3030669093 1.771655483e-38
-0.2890414894 -0.4188456535 -0.1662234664 1.771655483e-38
-0.1468695998 -0.4549908042 -0.09690494835 1.771655483e-38
0.008796179667 -0.419260025 -0.2732592821 1.771655483e-38
-0.1064687595 -0.4569093585 0.252838403 1.771655483e-38
0.1376777887 -0.3028343022 -0.1948204488 1.771655483e-38
0.25254637 -0.3614856303 0.06344473362 1.771655483e-38
0.06380186975 -0.2596155405 0.1632145941 1.771655483e-38
-0.06701652706 -0.4510113001 0.2891344428 1.771655483e-38
0.0635054037 -0.4502280951 0.2584558725 1.771655483e-38
-0.2451645136 -0.4054543376 -0.2209176272 1.771655483e-38
0.1632119417 -0.2554576993 0.1405951977 1.771655483e-38
0.130365923 -0.2857490182 0.2379879206 1.771655483e-38
0.1794007421 -0.4559639096 -0.02343471348 1.771655483e-38
0.1330231875 -0.2366434187 0.05183643475 1.771655483e-38
0.1133237481 -0.3019327521 -0.2100824863 1.771655483e-38
-0.1738014221 -0.4517678618 0.007378667593 1.771655483e-38
-0.2915760875 -0.3906444311 -0.1560523212 1.771655483e-38
0.03456294537 -0.2660397291 0.1354937404 1.771655483e-38
0.002404114231 -0.29333359 0.0746230036 1.771655483e-38
-0.1707160473 -0.4563444257 0.2483459264 1.771655483e-38
-0.1030521318 -0.2400594056 0.05747451633 1.771655483e-38
-0.2039186656 -0.3952968121 -0.2411844283 1.771655483e-38
-0.1763613522 -0.4519169927 0.00623196736 1.771655483e-38
-0.277405858 -0.4345044494 -0.1906527728 1.771655483e-38
0.07319527864 -0.2353192121 -0.1659732014 1.771655483e-38
0.04375000671 -0.3645280898 -0.2596465945 1.771655483e-38
-0.3073481023 -0.4502180219 0.09145238996 1.771655483e-38
-0.1191054955 -0.3716413975 -0.2576475143 1.771655483e-38
-0.03980085254 -0.4571128488 0.03246004134 1.771655483e-38
-0.3166301548 -0.4223689437 -0.02680126578 1.771655483e-38
0.02474038303 -0.3151897788 -0.2514641285 1.771655483e-38
0.1017965525 -0.4141513109 0.2890268564 1.771655483e-38
0.2398857176 -0.3769150376 -0.09954121709 1.771655483e-38
0.1840246916 -0.4521356821 0.04125343263 1.771655483e-38
-0.2737172842 -0.3347758651 0.161793828 1.771655483e-38
-0.122812368 -0.3129464388 0.2899050713 1.771655483e-38
-0.2475259602 -0.3202745914 -0.2013578266 1.771655483e-38
-0.3059054613 -0.3798494935 0.1480571032 1.771655483e-38
0.2297367156 -0.3074250817 0.1087937504 1.771655483e-38
0.08208353817 -0.2514416575 -0.1775255501 1.771655483e-38
-0.3192490637 -0.3983381987 0.03594611585 1.771655483e-38
-0.1742665172 -0.4581606984 0.05668104813 1.771655483e-38
-0.1085411385 -0.3423752487 0.3046934009 1.771655483e-38
-0.07451955974 -0.4552795887 -0.1441717893 1.771655483e-38
-0.007518067956 -0.3114208877 -0.252618432 1.771655483e-38
-0.02993516624 -0.3713285923 -0.2666304111 1.771655483e-38
-0.03398752213 -0.4554446936 0.2716496587 1.771655483e-38
-0.0332336165 -0.4540403485 -0.1515006572 1.771655483e-38
-0.1649926901 -0.4630842805 0.1676530242 1.771655483e-38
-0.3107580245 -0.4176588655 0.124597013 1.771655483e-38
-0.08739590645 -0.2834006846 -0.2364981025 1.771655483e-38
-0.01153900847 -0.2821034789 0.2712182403 1.771655483e-38
0.2125068009 -0.449591279 0.1602927893 1.771655483e-38
-0.1925007701 -0.4616152048 0.08513982594 1.771655483e-38
-0.2683860958 -0.334076643 0.1835127771 1.771655483e-38
0.214774251 -0.4348239303 0.1742803752 1.771655483e-38
-0.01951519772 -0.3297528028 0.3049462438 1.771655483e-38
-0.01669651642 -0.4572265744 -0.1332476735 1.771655483e-38
-0.2677894235 -0.3312478364 0.1636983752 1.771655483e-38
-0.3091685772 -0.4513668418 0.02674445882 1.771655483e-38
-0.1530056 -0.2606166005 0.2145438641 1.771655483e-38
-0.20669204 -0.2611454129 -0.05066119879 1.771655483e-38
-0.07863775641 -0.2454875708 -0.1231893301 1.771655483e-38
-0.09850668162 -0.455771029 0.2627654672 1.771655483e-38
0.08440375328 -0.2714668512 0.09703543782 1.771655483e-38
-0.2814134657 -0.3022699952 -0.04080533981 1.771655483e-38
-0.1615415215 -0.4518927336 -0.005655072629 1.771655483e-38
0.1768313944 -0.25514853 0.1230942309 1.771655483e-38
-0.2244458497 -0.2727966011 0.07847267389 1.771655483e-38
0.05520643294 -0.4066354036 -0.2648703456 1.771655483e-38
-0.3043783605 -0.3583937585 0.1018636152 1.771655483e-38
-0.08456094563 -0.4387731552 -0.2675946951 1.771655483e-38
-0.2835427821 -0.4765000939 -0.1435991824 1.771655483e-38
-0.04278353602 -0.3468912542 -0.2608587742 1.771655483e-38
-0.296842128 -0.4818062782 -0.0210300833 1.771655483e-38
0.2369480431 -0.4391795397 0.02930609137 1.771655483e-38
0.1423288882 -0.2497307062 -0.1308399886 1.771655483e-38
-0.03258875385 -0.3459030092 0.3072585464 1.771655483e-38
-0.3137487471 -0.4029003978 -0.07862833142 1.771655483e-38
-0.2998982072 -0.4272890687 -0.1255265176 1.771655483e-38
0.05715319887 -0.4555394053 0.07595006377 1.771655483e-38
0.05037782714 -0.3995491266 0.3040398955 1.771655483e-38
-0.3133180737 -0.4372823238 0.006355069578 1.771655483e-38
0.2273756862 -0.3493206203 0.1872362196 1.771655483e-38
0.1691661775 -0.2834258974 0.1985695511 1.771655483e-38
-0.3104042709 -0.4073644876 0.1446709484 1.771655483e-38
0.1177576184 -0.456222415 -0.0003672912717 1.771655483e-38
0.1745002866 -0.4550272822 0.213499561 1.771655483e-38
0.03050484136 -0.2724966407 0.256914109 1.771655483e-38
-0.009135723114 -0.2344091535 0.1749308109 1.771655483e-38
0.1727049947 -0.4562355876 0.2208280861 1.771655483e-38
0.02855197527 -0.3530432582 -0.2603575587 1.771655483e-38
-0.08165005594 -0.4521226287 -0.1582449228 1.771655483e-38
-0.1730136573 -0.4617722034 0.1924399585 1.771655483e-38
0.2477767766 -0.3883700371 -0.0174138844 1.771655483e-38
0.250405848 -0.3615222275 0.1044023186 1.771655483e-38
0.224917531 -0.3446494937 0.1876698732 1.771655483e-38
0.2480944097 -0.3978385329 -0.005209796131 1.771655483e-38
-0.04827290773 -0.3329226971 0.3046233952 1.771655483e-38
-0.09507098049 -0.2742109895 -0.2312557548 1.771655483e-38
-0.3114824295 -0.3775316477 0.1104773059 1.771655483e-38
0.1936751008 -0.2846628428 -0.1098980755 1.771655483e-38
0.03768974543 -0.2879680991 0.1071609408 1.771655483e-38
-0.2600390315 -0.359682858 -0.2018191069 1.771655483e-38
-0.04835019261 -0.4566616416 0.0900592804 1.771655483e-38
0.2411689758 -0.3255956173 -0.03844514489 1.771655483e-38
-0.05519531667 -0.3361874819 -0.2578456998 1.771655483e-38
0.01942689344 -0.2331261784 -0.1151483804 1.771655483e-38
-0.1499919891 -0.4534109235 -0.2587343454 1.771655483e-38
0.2329058051 -0.4408586025 0.04034291208 1.771655483e-38
-0.02513252944 -0.3182503581 0.3007328808 1.771655483e-38
-0.0467011705 -0.4221782088 0.3092043996 1.771655483e-38
0.1919302344 -0.3018907905 -0.1303923428 1.771655483e-38
0.1210758686 -0.4551621675 0.109593153 1.771655483e-38
0.02279419638 -0.461681664 -0.1403825581 1.771655483e-38
0.2130549848 -0.3124742508 0.17311652 1.771655483e-38
-0.1276931167 -0.4372112751 0.3104771078 1.771655483e-38
-0.3070135713 -0.3679642081 0.1156210303 1.771655483e-38
0.1172676906 -0.2750791907 0.2199837118 1.771655483e-38
-0.09236623347 -0.4575134516 0.04708688706 1.771655483e-38
-0.1244490221 -0.4621058106 0.199295789 1.771655483e-38
0.1463339031 -0.4577548504 0.2037506402 1.771655483e-38
-0.2324242592 -0.3052909374 -0.1975435168 1.771655483e-38
-0.1552037597 -0.3512085378 0.3057640195 1.771655483e-38
-0.2004402876 -0.4602153301 0.1943152398 1.771655483e-38
0.03532834351 -0.4562938809 -0.005272358656 1.771655483e-38
-0.1533793509 -0.4509709477 0.2785433531 1.771655483e-38
0.04748412594 -0.2451267242 0.18366234 1.771655483e-38
-0.3173196018 -0.3668473959 0.002951011062 1.771655483e-38
0.1518261731 -0.4539515972 0.152735725 1.771655483e-38
0.1901489198 -0.2742827535 0.1657800823 1.771655483e-38
-0.3110943437 -0.3512174785 -0.04484517872 1.771655483e-38
-0.06980915368 -0.2630835176 -0.2272235006 1.771655483e-38
-0.07119467854 -0.4574938416 0.2563888729 1.771655483e-38
-0.03397417814 -0.4573939443 0.007422294468 1.771655483e-38
0.1775363684 -0.3099685311 -0.1602583975 1.771655483e-38
0.09046093374 -0.280122906 -0.2020722479 1.771655483e-38
-0.06545002759 -0.4554696679 -0.1462992281 1.771655483e-38
0.2472548187 -0.3862425685 -0.04732456803 1.771655483e-38
-0.01403880119 -0.4591693282 -0.1212614328 1.771655483e-38
0.2116764486 -0.4538627863 0.1477919221 1.771655483e-38
0.09188140184 -0.4450950623 0.2798020244 1.771655483e-38
-0.07369213551 -0.3655314147 0.3088586032 1.771655483e-38
-0.2998935878 -0.3224807978 -0.05650483817 1.771655483e-38
0.03888422623 -0.2718347907 0.2549915612 1.771655483e-38
-0.2641437948 -0.3125997186 0.0959495604 1.771655483e-38
0.06453543156 -0.4547479153 0.1072370782 1.771655483e-38
0.01625574753 -0.3534671068 -0.2625025511 1.771655483e-38
-0.1980393827 -0.4474559426 -0.1463922709 1.771655483e-38
-0.3187577724 -0.4094918966 -0.04232194275 1.771655483e-38
-0.2305593193 -0.3706922233 -0.2266240269 1.771655483e-38
0.06008151546 -0.4609007239 -0.0808108598 1.771655483e-38
0.06246855482 -0.463613987 -0.1107076406 1.771655483e-38
-0.0144071579 -0.4575344324 0.1094756424 1.771655483e-38
0.1042686701 -0.4623237848 -0.0928748399 1.771655483e-38
-0.2876262069 -0.3914883733 -0.1671239287 1.771655483e-38
-0.1910456419 -0.2629176378 -0.1195399016 1.771655483e-38
-0.2933101654 -0.3864139318 -0.1498515755 1.771655483e-38
-0.05570523441 -0.2233456373 0.1914588958 1.771655483e-38
-0.1093471721 -0.2495431304 -0.1320480406 1.771655483e-38
-0.3029133379 -0.4628686309 0.1217254475 1.771655483e-38
0.1735545993 -0.3676269054 0.2653771341 1.771655483e-38
0.1673921943 -0.3958894014 -0.2201244682 1.771655483e-38
-0.04008667171 -0.4544587135 0.1125867516 1.771655483e-38
0.1876948476 -0.3030871153 -0.1382292509 1.771655483e-38
0.2239786685 -0.3154881597 0.1456250846 1.771655483e-38
-0.1297020614 -0.2487820685 -0.1585161388 1.771655483e-38
0.1782027781 -0.2572992444 0.133148104 1.771655483e-38
0.01527792122 -0.2404851913 0.2031409144 1.771655483e-38
-0.05443691462 -0.2889741063 -0.241134271 1.771655483e-38
-0.1073786989 -0.2693996429 -0.0549928695 1.771655483e-38
-0.1155238077 -0.2386181056 0.1805776954 1.771655483e-38
0.1986702681 -0.2578847706 0.09809148312 1.771655483e-38
-0.05276045948 -0.2375291735 -0.1613806039 1.771655483e-38
0.07452769578 -0.2709488273 0.08319295198 1.771655483e-38
-0.06749849021 -0.2824080586 -0.0162910372 1.771655483e-38
-0.2940286994 -0.4448571205 -0.136544764 1.771655483e-38
-0.03588775545 -0.2766388655 0.07202764601 1.771655483e-38
0.204616189 -0.3010825515 0.177792415 1.771655483e-38
0.2452929616 -0.3602893949 -0.04952139407 1.771655483e-38
0.09913091362 -0.2236778736 -0.121227026 1.771655483e-38
-0.2339667082 -0.3173059821 0.2204651237 1.771655483e-38
-0.3142188489 -0.4329143167 0.01574202254 1.771655483e-38
0.2034226358 -0.3105751872 0.1925846487 1.771655483e-38
-0.3040445149 -0.3777551651 0.1545450389 1.771655483e-38
-0.09085614979 -0.4521980286 0.280465275 1.771655483e-38
-0.09536578506 -0.3110051751 -0.2490540296 1.771655483e-38
-0.3088324666 -0.4461716413 0.07118649036 1.771655483e-38
-0.3057875931 -0.4570372701 -0.0187876299 1.771655483e-38
-0.2809854448 -0.3119412959 0.02094561979 1.771655483e-38
-0.1592664421 -0.4524661303 -0.1299527884 1.771655483e-38
-0.1878447831 -0.4484138489 -0.01414585859 1.771655483e-38
-0.06845936924 -0.4560484886 -0.05028286576 1.771655483e-38
0.01066601463 -0.2430506349 -0.0622511059 1.771655483e-38
-0.08098354191 -0.4589160681 -0.09962429106 1.771655483e-38
0.2457320392 -0.3619426787 -0.04686623067 1.771655483e-38
