# .PCD v0.7 - Point Cloud Data file format
VERSION 0.7
FIELDS x y z rgb
SIZE 4 4 4 4
TYPE F F F F
COUNT 1 1 1 1
WIDTH 801
HEIGHT 1
VIEWPOINT 0 0 0 1 0 0 0
POINTS 801
DATA ascii
0.04223931208 -0.03862981871 -0.07910453528 1.184631237e-38
0.04210011661 -0.03825924918 -0.0785484165 1.184631237e-38
0.04199234396 -0.03862144798 -0.07893121243 1.184631237e-38
0.04210200161 -0.03828312457 -0.07857311517 1.184631237e-38
0.04214137793 -0.03875729814 -0.07917646319 1.184631237e-38
0.04203450307 -0.03821519762 -0.07848251611 1.184631237e-38
0.04195290059 -0.03867267817 -0.07900542021 1.184631237e-38
0.04226050898 -0.03862698376 -0.07914604247 1.184631237e-38
0.04207645357 -0.03833958134 -0.07863485813 1.184631237e-38
0.04193931073 -0.03863715008 -0.07896197587 1.184631237e-38
0.04209038243 -0.0382595472 -0.07854517549 1.184631237e-38
0.04217097163 -0.03856010735 -0.07893224806 1.184631237e-38
0.04206277803 -0.0387785919 -0.0791426599 1.184631237e-38
0.0420502834 -0.03851985931 -0.07882670313 1.184631237e-38
0.04220008105 -0.03863615543 -0.07905861735 1.184631237e-38
0.0421221219 -0.03832065314 -0.07863034308 1.184631237e-38
0.04218243435 -0.03879103437 -0.07925767452 1.184631237e-38
0.04202512652 -0.03849941865 -0.0787993148 1.184631237e-38
0.0420066379 -0.03839189932 -0.07867498696 1.184631237e-38
0.04223076254 -0.03865545243 -0.0791201815 1.184631237e-38
0.04193624109 -0.03863225132 -0.07895683497 1.184631237e-38
0.04211546108 -0.03830027953 -0.07860197127 1.184631237e-38
0.04220589623 -0.03870888799 -0.07916333526 1.184631237e-38
0.04202174395 -0.03828264028 -0.07855641842 1.184631237e-38
0.04211098701 -0.03857456893 -0.07891591638 1.184631237e-38
0.04223882779 -0.0387528874 -0.07926195115 1.184631237e-38
0.04209045693 -0.03827515617 -0.07855929434 1.184631237e-38
0.04206760228 -0.03838665783 -0.07868218422 1.184631237e-38
0.04204360396 -0.03865981102 -0.07898715883 1.184631237e-38
0.04215585068 -0.0387102887 -0.07912072539 1.184631237e-38
0.04197192192 -0.03834970295 -0.07862280309 1.184631237e-38
0.04216055572 -0.03850730136 -0.07886014134 1.184631237e-38
0.04197890684 -0.03871735185 -0.07905732095 1.184631237e-38
0.04209458828 -0.03835204244 -0.07865722477 1.184631237e-38
0.04215101525 -0.03840984404 -0.07875048369 1.184631237e-38
0.04212488234 -0.03844810277 -0.07877798378 1.184631237e-38
0.04216767475 -0.03858580813 -0.07896155119 1.184631237e-38
0.04192251712 -0.0384676978 -0.0787634328 1.184631237e-38
0.0418868959 -0.03821480274 -0.07847255468 1.184631237e-38
0.04217232019 -0.03844472766 -0.07881020755 1.184631237e-38
0.04190087691 -0.03834764659 -0.07864303142 1.184631237e-38
0.04211970791 -0.0387917906 -0.07920183986 1.184631237e-38
0.04195770994 -0.0383497104 -0.07862303406 1.184631237e-38
0.04180531576 -0.03813160211 -0.07841727883 1.184631237e-38
0.04184833542 -0.03823627159 -0.07851117104 1.184631237e-38
0.04218636081 -0.03847665712 -0.07886058837 1.771655483e-38
0.04198368266 -0.0385181196 -0.07881326973 1.771655483e-38
0.04186344519 -0.03818225116 -0.07844050229 1.771655483e-38
0.04195145145 -0.03868310153 -0.07902164012 1.771655483e-38
0.0421223864 -0.03832709789 -0.07863595337 1.771655483e-38
0.04192852601 -0.03821082786 -0.07846663892 1.771655483e-38
0.04193521664 -0.03816375881 -0.07841193676 1.771655483e-38
0.04196269438 -0.03828496113 -0.078549698 1.771655483e-38
0.04202375561 -0.03821416944 -0.07848096639 1.771655483e-38
0.04223346338 -0.0387564078 -0.07926046848 1.771655483e-38
0.042091351 -0.03828972578 -0.07857655734 1.771655483e-38
0.04203680158 -0.03814860806 -0.07841911912 1.771655483e-38
0.04218456149 -0.03871461004 -0.0791497156 1.771655483e-38
0.0422039032 -0.03879468888 -0.07928144932 1.771655483e-38
0.04196929932 -0.03866560385 -0.07898945361 1.771655483e-38
0.04179567099 -0.03812244162 -0.07841332257 1.771655483e-38
0.04188280925 -0.03818943724 -0.07844460011 1.771655483e-38
0.04203502461 -0.03862329945 -0.07894288003 1.771655483e-38
0.04197689146 -0.03829535097 -0.07856222987 1.771655483e-38
0.04192657024 -0.03863125667 -0.07896476239 1.771655483e-38
0.04216012731 -0.03845818713 -0.07881063223 1.771655483e-38
0.0418965295 -0.03828556463 -0.07855395973 1.771655483e-38
0.04182383046 -0.03821980581 -0.07852113247 1.771655483e-38
0.04220420122 -0.03874054551 -0.07920274884 1.771655483e-38
0.04203489795 -0.03822540864 -0.07849407941 1.771655483e-38
0.0422267057 -0.03856403008 -0.07901268452 1.771655483e-38
0.04202830046 -0.03818494827 -0.07844882458 1.771655483e-38
0.04202686995 -0.03861884773 -0.0789353922 1.771655483e-38
0.04212464765 -0.03851078078 -0.07884214073 1.771655483e-38
0.04203772545 -0.03818627074 -0.07845468074 1.771655483e-38
0.04218861833 -0.0385206975 -0.07890836895 1.771655483e-38
0.04220224917 -0.03865280375 -0.07908362895 1.771655483e-38
0.04216322675 -0.03843409941 -0.07878950238 1.771655483e-38
0.04191160575 -0.03859401122 -0.07891587913 1.771655483e-38
0.04218203947 -0.03847819939 -0.07885628194 1.771655483e-38
0.04213834554 -0.03851152211 -0.07884828001 1.771655483e-38
0.04212228954 -0.03832935542 -0.07863818854 1.771655483e-38
0.04199937731 -0.03862051666 -0.07893083245 1.771655483e-38
0.04219898209 -0.03852615133 -0.07892891765 1.771655483e-38
0.04208610952 -0.0385643132 -0.07889310271 1.771655483e-38
0.04203187674 -0.03814598918 -0.07841148973 1.771655483e-38
0.04222419485 -0.03858026117 -0.07902561873 1.771655483e-38
0.04219285026 -0.03864257038 -0.07905847579 1.771655483e-38
0.04200958461 -0.03823066875 -0.07849953324 1.771655483e-38
0.04207133874 -0.03824755177 -0.07852619141 1.771655483e-38
0.04208612815 -0.03840781376 -0.07871509343 1.771655483e-38
0.04221777618 -0.03857487068 -0.07900856435 1.771655483e-38
0.04197145998 -0.03819282353 -0.07844915986 1.771655483e-38
0.04212566838 -0.03878736496 -0.07920151204 1.771655483e-38
0.04204218462 -0.03839718178 -0.07868641615 1.771655483e-38
0.04192370176 -0.0385957025 -0.07891114801 1.771655483e-38
0.04219574481 -0.03862064332 -0.07903444767 1.771655483e-38
0.04212275892 -0.03853860125 -0.07887391746 1.771655483e-38
0.04203749076 -0.03860100359 -0.07892070711 1.771655483e-38
0.04190760106 -0.03826291859 -0.07852379978 1.771655483e-38
0.04205588996 -0.03877125308 -0.07913159579 1.771655483e-38
0.04203488678 -0.03815430403 -0.07842136174 1.771655483e-38
0.04188563675 -0.03833444789 -0.0786319375 1.771655483e-38
0.04198545218 -0.0382694006 -0.07853524387 1.771655483e-38
0.04193162546 -0.038378153 -0.07866656035 1.771655483e-38
0.04223833233 -0.03878119588 -0.07930253446 1.771655483e-38
0.04221019149 -0.0386634022 -0.07910753787 1.771655483e-38
0.04226901382 -0.03867333382 -0.07921345532 1.771655483e-38
0.04221108183 -0.03865111247 -0.07909221947 1.771655483e-38
0.04194770381 -0.0383541286 -0.07863054425 1.771655483e-38
0.04191182181 -0.03845384717 -0.07875136286 1.771655483e-38
0.04221531376 -0.03862657398 -0.07906461507 1.771655483e-38
0.04204057902 -0.03874741867 -0.07909804583 1.771655483e-38
0.04189854488 -0.03831809387 -0.07860613614 1.771655483e-38
0.04211844131 -0.0386929512 -0.07907436043 1.771655483e-38
0.04223265126 -0.03876510262 -0.07927181572 1.771655483e-38
0.04204709828 -0.03816992044 -0.07844243199 1.771655483e-38
0.04215629026 -0.03849052265 -0.07883837074 1.771655483e-38
0.04202955216 -0.03834983334 -0.07862862945 1.771655483e-38
0.04217007756 -0.03841331229 -0.07877872884 1.771655483e-38
0.0420290269 -0.03814684227 -0.07841078937 1.771655483e-38
0.04188730195 -0.03828731179 -0.07856234908 1.771655483e-38
0.04225473106 -0.03866256773 -0.07916968316 1.771655483e-38
0.04227625579 -0.03869759291 -0.07925494015 1.771655483e-38
0.04208943993 -0.03833172098 -0.07863228023 1.771655483e-38
0.04206385463 -0.03847223893 -0.07877573371 1.771655483e-38
0.04206090793 -0.0381831713 -0.07846516371 1.771655483e-38
0.04221926257 -0.03855123371 -0.07898660749 1.771655483e-38
0.04218470678 -0.03863109648 -0.07903559506 1.771655483e-38
0.0419819355 -0.03852392361 -0.07881877571 1.771655483e-38
0.04207194224 -0.03820176795 -0.07848627865 1.771655483e-38
0.04215518013 -0.03858952597 -0.07895791531 1.771655483e-38
0.04202652723 -0.03873821348 -0.07908358425 1.771655483e-38
0.04219722003 -0.03845886141 -0.07885660231 1.771655483e-38
0.04202900454 -0.0381735377 -0.07843769342 1.771655483e-38
0.04223986715 -0.03862682357 -0.07910313457 1.771655483e-38
0.04220668226 -0.03847035393 -0.07888413221 1.771655483e-38
0.04203211516 -0.03839654848 -0.07868405432 1.771655483e-38
0.04202048853 -0.03867262602 -0.0789911747 1.771655483e-38
0.04214911535 -0.03870147839 -0.07910399139 1.771655483e-38
0.04192622751 -0.03838356212 -0.07867427915 1.771655483e-38
0.04201710969 -0.03849603236 -0.07879436016 1.771655483e-38
0.04215114564 -0.03879928961 -0.07924598455 1.771655483e-38
0.04208668321 -0.03860391304 -0.0789437592 1.771655483e-38
0.04197744653 -0.03818070516 -0.07843402028 1.771655483e-38
0.04227606952 -0.03872850537 -0.07928811014 1.771655483e-38
0.04224671796 -0.03863966838 -0.07912991196 1.771655483e-38
0.04201553389 -0.03859537095 -0.07890510559 1.771655483e-38
0.04204652458 -0.03873723373 -0.07908397913 1.771655483e-38
0.04197273776 -0.03864834085 -0.07896735519 1.771655483e-38
0.04185943678 -0.0382790491 -0.07857428491 1.771655483e-38
0.04219929129 -0.03851209581 -0.07891502231 1.771655483e-38
0.04193913937 -0.03854817152 -0.07884800434 1.771655483e-38
0.04194050282 -0.03835777566 -0.0786389634 1.771655483e-38
0.04190771282 -0.0383824259 -0.0786761865 1.771655483e-38
0.04210447147 -0.03849509358 -0.07881724834 1.771655483e-38
0.04211931303 -0.03831405938 -0.07862012833 1.771655483e-38
0.04200173914 -0.03822081536 -0.07848739624 1.771655483e-38
0.04190634936 -0.03829754889 -0.07856688648 1.771655483e-38
0.04201161489 -0.03816116229 -0.07841564715 1.771655483e-38
0.04195968807 -0.03868044913 -0.07901260257 1.771655483e-38
0.0421121791 -0.03855982423 -0.07889676094 1.771655483e-38
0.04214530066 -0.03876369074 -0.07918896526 1.771655483e-38
0.04182375968 -0.03821274638 -0.07850670815 1.771655483e-38
0.04193432257 -0.03815659881 -0.0784041658 1.771655483e-38
0.04202862829 -0.03833146021 -0.07860637456 1.771655483e-38
0.04226802289 -0.03877303377 -0.07932914048 1.771655483e-38
0.04206929728 -0.03854179755 -0.07885999978 1.771655483e-38
0.0418686904 -0.03827171773 -0.07854938507 1.771655483e-38
0.04192129523 -0.03854988143 -0.07885214686 1.771655483e-38
0.0422684513 -0.03879969567 -0.07936455309 1.771655483e-38
0.04194334149 -0.03865898028 -0.07899303734 1.771655483e-38
0.04188194126 -0.0383149758 -0.07861037552 1.771655483e-38
0.04192881659 -0.03826282918 -0.0785240978 1.771655483e-38
0.04178004712 -0.03811675683 -0.07842262834 1.771655483e-38
0.04215776175 -0.03851424903 -0.07886465639 1.771655483e-38
0.04216245934 -0.03851230815 -0.07886756957 1.771655483e-38
0.04218481109 -0.03873955086 -0.07918375731 1.771655483e-38
0.04208517447 -0.03824794665 -0.07853254676 1.771655483e-38
0.04220446199 -0.03872785345 -0.07918654382 1.771655483e-38
0.04209589958 -0.03825216368 -0.07853997499 1.771655483e-38
0.04219150916 -0.0384846963 -0.07887601852 1.771655483e-38
0.04219518974 -0.03845655918 -0.07885079831 1.771655483e-38
0.04207604006 -0.03825736791 -0.07853720337 1.771655483e-38
0.04203979671 -0.03861085698 -0.07893211395 1.771655483e-38
0.04195906222 -0.03855258971 -0.07885076851 1.771655483e-38
0.04216245562 -0.03866590559 -0.07906472683 1.771655483e-38
0.04201667383 -0.03822406381 -0.07849313319 1.771655483e-38
0.04219711944 -0.03848014027 -0.07887637615 1.771655483e-38
0.0421253778 -0.03835333139 -0.07866829634 1.771655483e-38
0.04190610349 -0.0385222733 -0.07882612944 1.771655483e-38
0.04194146022 -0.03842173144 -0.07871071994 1.771655483e-38
0.04197496176 -0.03824673966 -0.07850953937 1.771655483e-38
0.04214319959 -0.03837051243 -0.07869929075 1.771655483e-38
0.04212563857 -0.03834027052 -0.07865283638 1.771655483e-38
0.04186186939 -0.03815186769 -0.07840532064 1.771655483e-38
0.04196405411 -0.03817786276 -0.07842933387 1.771655483e-38
0.04194688797 -0.03847379237 -0.07876460254 1.771655483e-38
0.04218956083 -0.03858940303 -0.07898756117 1.771655483e-38
0.04185829312 -0.03826558962 -0.07854714245 1.771655483e-38
0.0421487391 -0.03855713829 -0.0789129287 1.771655483e-38
0.04194997624 -0.03838816658 -0.0786729455 1.771655483e-38
0.04193924367 -0.03835628927 -0.07863750309 1.771655483e-38
0.04218600318 -0.03876682371 -0.07922265679 1.771655483e-38
0.04211863503 -0.03843917325 -0.07876455784 1.771655483e-38
0.04190360382 -0.0384266302 -0.07872415334 1.771655483e-38
0.0420297198 -0.03838914633 -0.07867466658 1.771655483e-38
0.04197138548 -0.03816571087 -0.07841424644 1.771655483e-38
0.04189014435 -0.03819928691 -0.0784542039 1.771655483e-38
0.04197276384 -0.03868705034 -0.0790162161 1.771655483e-38
0.04205662757 -0.0382261835 -0.07850059122 1.771655483e-38
0.04181652144 -0.03813543916 -0.07841289043 1.771655483e-38
0.04228590056 -0.03873085976 -0.07930348068 1.771655483e-38
0.04209771007 -0.03836522251 -0.07867405564 1.771655483e-38
0.04195962101 -0.03867902234 -0.07901053876 1.771655483e-38
0.04208898172 -0.03826899454 -0.07855270803 1.771655483e-38
0.04211698472 -0.03831426054 -0.07861738652 1.771655483e-38
0.04210624844 -0.03827393427 -0.07856719196 1.771655483e-38
0.04221623763 -0.03860805184 -0.07904230803 1.771655483e-38
0.04194420576 -0.03853733838 -0.07883507013 1.771655483e-38
0.04220865667 -0.0387952365 -0.07928708941 1.771655483e-38
0.0422728397 -0.03877242282 -0.07933428884 1.771655483e-38
0.04206371307 -0.03844245896 -0.07874343544 1.771655483e-38
0.0422838293 -0.03871947154 -0.07929000258 1.771655483e-38
0.04193165526 -0.0384173952 -0.07870750129 1.771655483e-38
0.04212466627 -0.03870680928 -0.07909570634 1.771655483e-38
0.04207013547 -0.03833254054 -0.0786242485 1.771655483e-38
0.04179353267 -0.03816816583 -0.07847321779 1.771655483e-38
0.04219817743 -0.03856918216 -0.078971982 1.771655483e-38
0.04204002395 -0.03857588023 -0.07889086753 1.771655483e-38
0.04218863696 -0.03844287992 -0.07883156836 1.771655483e-38
0.04206312075 -0.03823688999 -0.07851305604 1.771655483e-38
0.04190469161 -0.03843164444 -0.07872931659 1.771655483e-38
0.04187053442 -0.03816138953 -0.0784156844 1.771655483e-38
0.04193291068 -0.03820721805 -0.07846295089 1.771655483e-38
0.04211707786 -0.03833343834 -0.07863928378 1.771655483e-38
0.04193612933 -0.03863685578 -0.07896352559 1.771655483e-38
0.04225401953 -0.03872910514 -0.07925250381 1.771655483e-38
0.04180964455 -0.03818950057 -0.07848610729 1.771655483e-38
0.04191353172 -0.0384240374 -0.07871849835 1.771655483e-38
0.04220105708 -0.03848615661 -0.07888798416 1.771655483e-38
0.0422131829 -0.03848660365 -0.07890481502 1.771655483e-38
0.042046085 -0.03855350986 -0.07886554301 1.771655483e-38
0.04192029312 -0.03835212439 -0.07864190638 1.771655483e-38
0.04191563651 -0.03856952116 -0.07887867093 1.771655483e-38
0.04207652807 -0.03865678981 -0.07900532335 1.771655483e-38
0.0420294404 -0.03830223158 -0.07857744396 1.771655483e-38
0.04203960299 -0.03820953146 -0.07847887278 1.771655483e-38
0.04214859754 -0.03838038072 -0.07871541381 1.771655483e-38
0.04221703112 -0.0385241881 -0.07895243913 1.771655483e-38
0.04221536592 -0.03865855187 -0.07910694927 1.771655483e-38
0.04195396975 -0.03839241713 -0.07867667824 1.771655483e-38
0.04197014868 -0.03866054863 -0.07898312062 1.771655483e-38
0.04193443805 -0.03827983141 -0.0785433501 1.771655483e-38
0.0421352312 -0.03850004077 -0.07883425802 1.771655483e-38
0.04202585295 -0.03866193816 -0.07897862792 1.771655483e-38
0.04223938286 -0.03862974793 -0.07910454273 1.771655483e-38
0.04210019857 -0.03825919703 -0.07854848355 1.771655483e-38
0.04199237749 -0.03862138838 -0.07893124223 1.771655483e-38
0.04210207984 -0.03828307614 -0.07857318968 1.771655483e-38
0.04214143753 -0.03875723481 -0.07917648554 1.771655483e-38
0.04203459248 -0.03821514919 -0.07848257571 1.771655483e-38
0.04195293784 -0.03867262229 -0.07900543511 1.771655483e-38
0.04226057604 -0.03862692416 -0.07914605737 1.771655483e-38
0.04207652435 -0.03833953291 -0.07863491029 1.771655483e-38
0.04193934053 -0.03863709792 -0.07896199077 1.771655483e-38
0.04209047556 -0.03825949878 -0.0785452351 1.771655483e-38
0.04217103124 -0.03856004775 -0.07893227786 1.771655483e-38
0.04206281528 -0.03877853975 -0.0791426748 1.771655483e-38
0.04205033183 -0.03851979226 -0.07882673293 1.771655483e-38
0.04220013693 -0.03863608092 -0.0790586248 1.771655483e-38
0.04212219268 -0.03832060844 -0.07863041759 1.771655483e-38
0.04218249768 -0.03879097849 -0.07925768197 1.771655483e-38
0.04202517495 -0.03849935159 -0.0787993446 1.771655483e-38
0.04200670496 -0.03839185089 -0.07867504656 1.771655483e-38
0.0422308296 -0.03865538165 -0.07912018895 1.771655483e-38
0.04193627089 -0.03863219917 -0.07895684987 1.771655483e-38
0.04211553559 -0.03830023482 -0.07860203832 1.771655483e-38
0.04220595956 -0.03870881721 -0.07916334271 1.771655483e-38
0.04202182218 -0.03828258067 -0.07855647057 1.771655483e-38
0.04211103916 -0.03857450932 -0.07891593874 1.771655483e-38
0.04223889485 -0.03875282034 -0.0792619586 1.771655483e-38
0.04209055379 -0.03827510774 -0.07855935395 1.771655483e-38
0.04206764698 -0.03838662058 -0.07868225127 1.771655483e-38
0.04204363376 -0.03865975142 -0.07898719609 1.771655483e-38
0.04215590656 -0.0387102291 -0.07912074029 1.771655483e-38
0.0419719927 -0.03834965825 -0.07862285525 1.771655483e-38
0.04216062278 -0.03850722685 -0.07886017114 1.771655483e-38
0.04197894409 -0.03871728852 -0.07905733585 1.771655483e-38
0.04209464043 -0.03835199401 -0.07865727693 1.771655483e-38
0.04215106741 -0.03840977326 -0.07875051349 1.771655483e-38
0.04212495312 -0.03844803572 -0.07877801359 1.771655483e-38
0.04216773063 -0.0385857448 -0.07896157354 1.771655483e-38
0.04192256555 -0.0384676531 -0.07876348495 1.771655483e-38
0.04188696295 -0.03821474686 -0.07847259939 1.771655483e-38
0.04217238724 -0.03844465688 -0.0788102299 1.771655483e-38
0.04190092534 -0.03834759444 -0.07864308357 1.771655483e-38
0.04211975634 -0.038791731 -0.07920186222 1.771655483e-38
0.04195778072 -0.0383496657 -0.07862308621 1.771655483e-38
0.04180537909 -0.03813154995 -0.07841733098 1.771655483e-38
0.04184838757 -0.03823621571 -0.07851121575 1.771655483e-38
0.04218640178 -0.03847659007 -0.07886060327 2.348204041e-38
0.04198370129 -0.0385180451 -0.07881329954 2.348204041e-38
0.04186345637 -0.03818219155 -0.07844053954 2.348204041e-38
0.0419514887 -0.03868304193 -0.07902164757 2.348204041e-38
0.04212241992 -0.03832704574 -0.07863600552 2.348204041e-38
0.04192854464 -0.03821076453 -0.07846667618 2.348204041e-38
0.04193523526 -0.03816369921 -0.07841198891 2.348204041e-38
0.04196272045 -0.0382848978 -0.07854973525 2.348204041e-38
0.04202378169 -0.03821411729 -0.07848100364 2.348204041e-38
0.04223350063 -0.03875634447 -0.07926049083 2.348204041e-38
0.0420913808 -0.03828967363 -0.07857660949 2.348204041e-38
0.04203684628 -0.03814857453 -0.07841919363 2.348204041e-38
0.04218460247 -0.03871455044 -0.07914973795 2.348204041e-38
0.04220394418 -0.03879462555 -0.07928147167 2.348204041e-38
0.04196932539 -0.03866554797 -0.07898946851 2.348204041e-38
0.04179568589 -0.03812239319 -0.07841335982 2.348204041e-38
0.04188282415 -0.03818937764 -0.07844463736 2.348204041e-38
0.04203504696 -0.03862323239 -0.07894290239 2.348204041e-38
0.04197691754 -0.03829528391 -0.07856225967 2.348204041e-38
0.04192659631 -0.03863119334 -0.07896476239 2.348204041e-38
0.04216016829 -0.0384581238 -0.07881065458 2.348204041e-38
0.0418965593 -0.03828549758 -0.07855398953 2.348204041e-38
0.04182381928 -0.0382197462 -0.07852116227 2.348204041e-38
0.0422042422 -0.03874048218 -0.07920277119 2.348204041e-38
0.04203492776 -0.03822536021 -0.07849411666 2.348204041e-38
0.04222674668 -0.0385639742 -0.07901269197 2.348204041e-38
0.04202833399 -0.03818490356 -0.07844888419 2.348204041e-38
0.04202689603 -0.0386187844 -0.078935422 2.348204041e-38
0.0421246849 -0.03851072118 -0.07884216309 2.348204041e-38
0.04203775898 -0.03818622977 -0.0784547478 2.348204041e-38
0.04218866676 -0.03852062672 -0.07890838385 2.348204041e-38
0.04220229015 -0.03865273669 -0.07908364385 2.348204041e-38
0.04216324911 -0.0384340398 -0.07878952473 2.348204041e-38
0.04191163182 -0.03859395161 -0.07891588658 2.348204041e-38
0.04218208417 -0.03847812861 -0.07885629684 2.348204041e-38
0.04213838279 -0.03851145878 -0.07884830236 2.348204041e-38
0.04212232679 -0.03832929954 -0.07863824815 2.348204041e-38
0.04199939966 -0.03862045333 -0.0789308548 2.348204041e-38
0.04219903052 -0.03852608427 -0.0789289251 2.348204041e-38
0.04208614305 -0.03856424987 -0.07889313251 2.348204041e-38
0.042031914 -0.03814595193 -0.07841155678 2.348204041e-38
0.04222423211 -0.03858020529 -0.07902562618 2.348204041e-38
0.04219288751 -0.03864250705 -0.07905849814 2.348204041e-38
0.04200961441 -0.0382306017 -0.07849957049 2.348204041e-38
0.04207137227 -0.03824750334 -0.07852625102 2.348204041e-38
0.04208614305 -0.03840775415 -0.07871512324 2.348204041e-38
0.04221781716 -0.0385748148 -0.07900857925 2.348204041e-38
0.04197148606 -0.0381927602 -0.07844920456 2.348204041e-38
0.04212569073 -0.03878730163 -0.07920152694 2.348204041e-38
0.04204221815 -0.03839711845 -0.07868644595 2.348204041e-38
0.04192372784 -0.03859564289 -0.07891115546 2.348204041e-38
0.04219578579 -0.03862057999 -0.07903446257 2.348204041e-38
0.0421227999 -0.03853853419 -0.07887393981 2.348204041e-38
0.04203750938 -0.03860092908 -0.07892072946 2.348204041e-38
0.04190762341 -0.03826285154 -0.07852383703 2.348204041e-38
0.04205591977 -0.03877120465 -0.07913160324 2.348204041e-38
0.04203492776 -0.03815426677 -0.07842143625 2.348204041e-38
0.04188565537 -0.03833438456 -0.07863196731 2.348204041e-38
0.04198547453 -0.03826933727 -0.07853528112 2.348204041e-38
0.04193164781 -0.03837808967 -0.07866659015 2.348204041e-38
0.04223837703 -0.03878112882 -0.07930256426 2.348204041e-38
0.04221023247 -0.03866333514 -0.07910755277 2.348204041e-38
0.0422690548 -0.03867327794 -0.07921347022 2.348204041e-38
0.04221111909 -0.03865104914 -0.07909224182 2.348204041e-38
0.04194773734 -0.03835406899 -0.0786305815 2.348204041e-38
0.04191184416 -0.03845378757 -0.07875139266 2.348204041e-38
0.04221535102 -0.03862651065 -0.07906462252 2.348204041e-38
0.0420406051 -0.03874737397 -0.07909806073 2.348204041e-38
0.04189856723 -0.03831803426 -0.0786061734 2.348204041e-38
0.04211847484 -0.03869289532 -0.07907438278 2.348204041e-38
0.04223268852 -0.03876503929 -0.07927183807 2.348204041e-38
0.04204713553 -0.03816988319 -0.07844250649 2.348204041e-38
0.04215633124 -0.03849045187 -0.07883839309 2.348204041e-38
0.04202956706 -0.03834976628 -0.0786286667 2.348204041e-38
0.04217010736 -0.03841325641 -0.0787787661 2.348204041e-38
0.04202906415 -0.03814680874 -0.07841086388 2.348204041e-38
0.04188732803 -0.03828724846 -0.07856237888 2.348204041e-38
0.04225477576 -0.03866251186 -0.07916969806 2.348204041e-38
0.04227629676 -0.03869753331 -0.07925495505 2.348204041e-38
0.04208946601 -0.03833165765 -0.07863231748 2.348204041e-38
0.04206388071 -0.03847216815 -0.07877575606 2.348204041e-38
0.04206094146 -0.03818313405 -0.07846523821 2.348204041e-38
0.042219311 -0.03855117783 -0.07898662239 2.348204041e-38
0.04218475521 -0.03863103688 -0.07903561741 2.348204041e-38
0.04198195413 -0.03852385283 -0.07881880552 2.348204041e-38
0.04207197204 -0.0382017307 -0.07848634571 2.348204041e-38
0.04215522483 -0.03858946264 -0.07895793766 2.348204041e-38
0.04202654958 -0.03873816878 -0.07908359915 2.348204041e-38
0.04219726846 -0.03845879808 -0.07885663211 2.348204041e-38
0.0420290418 -0.03817350045 -0.07843776792 2.348204041e-38
0.04223990813 -0.03862676769 -0.07910314947 2.348204041e-38
0.04220672324 -0.03847029433 -0.07888415456 2.348204041e-38
0.04203214496 -0.03839648515 -0.07868409157 2.348204041e-38
0.04202051833 -0.03867257386 -0.07899119705 2.348204041e-38
0.04214915261 -0.03870141879 -0.07910402119 2.348204041e-38
0.04192624614 -0.03838349879 -0.07867430896 2.348204041e-38
0.04201713204 -0.03849595785 -0.07879438996 2.348204041e-38
0.04215117544 -0.03879922628 -0.07924601436 2.348204041e-38
0.04208672419 -0.03860384971 -0.07894378901 2.348204041e-38
0.0419774726 -0.03818064183 -0.07843406498 2.348204041e-38
0.0422761105 -0.03872844204 -0.07928812504 2.348204041e-38
0.04224675521 -0.03863960877 -0.07912991941 2.348204041e-38
0.04201555997 -0.03859530017 -0.07890512794 2.348204041e-38
0.04204654694 -0.0387371853 -0.07908398658 2.348204041e-38
0.04197276384 -0.03864828125 -0.07896737009 2.348204041e-38
0.04185945168 -0.03827898577 -0.07857431471 2.348204041e-38
0.04219934344 -0.03851202503 -0.07891502976 2.348204041e-38
0.04193916172 -0.03854811192 -0.07884802669 2.348204041e-38
0.04194054008 -0.03835771978 -0.07863900065 2.348204041e-38
0.04190772772 -0.03838235885 -0.07867620885 2.348204041e-38
0.04210450873 -0.03849503025 -0.0788172707 2.348204041e-38
0.04211934656 -0.03831400722 -0.07862018794 2.348204041e-38
0.04200176895 -0.03822074831 -0.07848744094 2.348204041e-38
0.04190637171 -0.03829748556 -0.07856691629 2.348204041e-38
0.04201165587 -0.03816112503 -0.0784157142 2.348204041e-38
0.04195971787 -0.03868038952 -0.07901260257 2.348204041e-38
0.04211221635 -0.0385597609 -0.07889678329 2.348204041e-38
0.04214533791 -0.03876363114 -0.07918899506 2.348204041e-38
0.0418237634 -0.03821268678 -0.0785067454 2.348204041e-38
0.04193434119 -0.0381565392 -0.07840421796 2.348204041e-38
0.04202864692 -0.03833139688 -0.07860641181 2.348204041e-38
0.04226806387 -0.03877297416 -0.07932916284 2.348204041e-38
0.04206933081 -0.03854173422 -0.07886002958 2.348204041e-38
0.04186871275 -0.0382716544 -0.07854941487 2.348204041e-38
0.04192131758 -0.0385498181 -0.07885216177 2.348204041e-38
0.04226849973 -0.03879963607 -0.07936459035 2.348204041e-38
0.0419433713 -0.03865891695 -0.07899304479 2.348204041e-38
0.04188195616 -0.03831491619 -0.07861041278 2.348204041e-38
0.04192884266 -0.03826276585 -0.07852413505 2.348204041e-38
0.04178006202 -0.03811670467 -0.0784226656 2.348204041e-38
0.04215780273 -0.03851417825 -0.07886467874 2.348204041e-38
0.04216250405 -0.03851223364 -0.07886759192 2.348204041e-38
0.04218485579 -0.03873949125 -0.07918377966 2.348204041e-38
0.042085208 -0.0382478945 -0.07853260636 2.348204041e-38
0.0422045067 -0.03872778639 -0.07918656617 2.348204041e-38
0.04209593311 -0.03825211152 -0.07854003459 2.348204041e-38
0.04219155386 -0.03848463297 -0.07887603343 2.348204041e-38
0.04219523445 -0.03845649958 -0.07885082066 2.348204041e-38
0.04207607359 -0.03825731575 -0.07853725553 2.348204041e-38
0.04203982279 -0.0386107862 -0.0789321363 2.348204041e-38
0.04195908457 -0.03855253011 -0.07885079086 2.348204041e-38
0.04216250032 -0.03866584599 -0.07906475663 2.348204041e-38
0.04201670364 -0.03822399303 -0.07849317044 2.348204041e-38
0.04219716415 -0.03848007321 -0.07887639105 2.348204041e-38
0.04212541506 -0.03835327178 -0.07866834849 2.348204041e-38
0.04190611839 -0.03852220997 -0.07882613689 2.348204041e-38
0.04194148257 -0.03842167184 -0.07871074975 2.348204041e-38
0.04197498411 -0.03824667633 -0.07850957662 2.348204041e-38
0.04214322194 -0.03837045282 -0.07869933546 2.348204041e-38
0.0421256721 -0.03834021464 -0.07865288854 2.348204041e-38
0.04186188802 -0.03815181181 -0.07840536535 2.348204041e-38
0.04196407646 -0.03817779943 -0.07842937857 2.348204041e-38
0.04194691032 -0.03847372532 -0.07876462489 2.348204041e-38
0.04218960926 -0.03858934343 -0.07898757607 2.348204041e-38
0.04185830057 -0.03826553002 -0.07854718715 2.348204041e-38
0.0421487838 -0.03855707496 -0.07891295105 2.348204041e-38
0.04195000976 -0.03838810325 -0.0786729902 2.348204041e-38
0.0419392772 -0.03835622966 -0.07863754034 2.348204041e-38
0.04218604416 -0.0387667641 -0.07922268659 2.348204041e-38
0.04211867601 -0.0384391062 -0.07876458764 2.348204041e-38
0.04190361872 -0.03842656314 -0.07872417569 2.348204041e-38
0.04202975333 -0.03838908672 -0.07867469639 2.348204041e-38
0.04197141156 -0.03816565126 -0.07841429114 2.348204041e-38
0.04189015925 -0.0381992273 -0.07845424116 2.348204041e-38
0.04197278991 -0.03868699074 -0.07901622355 2.348204041e-38
0.04205665737 -0.03822613508 -0.07850065082 2.348204041e-38
0.04181652889 -0.038135387 -0.07841292769 2.348204041e-38
0.04228593782 -0.0387307927 -0.07930349559 2.348204041e-38
0.04209773242 -0.03836516291 -0.07867409289 2.348204041e-38
0.04195964709 -0.03867895901 -0.07901054621 2.348204041e-38
0.04208901525 -0.03826894239 -0.07855276763 2.348204041e-38
0.04211702198 -0.03831420466 -0.07861744612 2.348204041e-38
0.04210627452 -0.03827388212 -0.07856725901 2.348204041e-38
0.04221627116 -0.03860798851 -0.07904231548 2.348204041e-38
0.04194422811 -0.03853727505 -0.07883509248 2.348204041e-38
0.04220869765 -0.03879516944 -0.07928711176 2.348204041e-38
0.04227288812 -0.03877236322 -0.07933431864 2.348204041e-38
0.04206374288 -0.0384423919 -0.07874345779 2.348204041e-38
0.04228387401 -0.03871941194 -0.07929001749 2.348204041e-38
0.04193167761 -0.0384173356 -0.07870753855 2.348204041e-38
0.04212470353 -0.03870674968 -0.0790957287 2.348204041e-38
0.04207015783 -0.03833248094 -0.07862428576 2.348204041e-38
0.04179353267 -0.03816810623 -0.07847325504 2.348204041e-38
0.04219822586 -0.03856911138 -0.0789719969 2.348204041e-38
0.04204003885 -0.03857580572 -0.07889088988 2.348204041e-38
0.04218868166 -0.03844282031 -0.07883159071 2.348204041e-38
0.04206315428 -0.03823683783 -0.07851310819 2.348204041e-38
0.04190471023 -0.03843158111 -0.07872934639 2.348204041e-38
0.04187054932 -0.03816133365 -0.07841573656 2.348204041e-38
0.04193293303 -0.03820715472 -0.07846298814 2.348204041e-38
0.04211711511 -0.03833337873 -0.07863932848 2.348204041e-38
0.04193615168 -0.03863679618 -0.07896353304 2.348204041e-38
0.04225406423 -0.03872904554 -0.07925251871 2.348204041e-38
0.041809652 -0.03818943724 -0.07848614454 2.348204041e-38
0.04191355035 -0.03842397034 -0.0787185207 2.348204041e-38
0.04220110923 -0.03848608956 -0.07888799161 2.348204041e-38
0.04221323133 -0.03848654404 -0.07890483737 2.348204041e-38
0.04204610735 -0.03855343536 -0.07886557281 2.348204041e-38
0.0419203192 -0.03835206106 -0.07864193618 2.348204041e-38
0.04191565886 -0.03856946528 -0.07887868583 2.348204041e-38
0.04207655787 -0.03865672648 -0.07900535315 2.348204041e-38
0.0420294553 -0.03830216452 -0.07857748121 2.348204041e-38
0.04203964025 -0.03820947558 -0.07847892493 2.348204041e-38
0.04214862362 -0.03838032112 -0.07871545851 2.348204041e-38
0.04221707582 -0.0385241285 -0.07895244658 2.348204041e-38
0.04221541062 -0.03865848482 -0.07910697162 2.348204041e-38
0.04195400327 -0.0383923538 -0.07867671549 2.348204041e-38
0.04197017848 -0.03866048902 -0.07898313552 2.348204041e-38
0.04193446413 -0.03827976808 -0.07854338735 2.348204041e-38
0.042135261 -0.03849998116 -0.07883428037 2.348204041e-38
0.04202587903 -0.03866188601 -0.07897865027 2.348204041e-38
0.04223942384 -0.03862969205 -0.07910455018 2.348204041e-38
0.04210022837 -0.0382591486 -0.0785485357 2.348204041e-38
0.04199239984 -0.03862132877 -0.07893125713 2.348204041e-38
0.04210212082 -0.03828302026 -0.07857324928 2.348204041e-38
0.04214147478 -0.03875717521 -0.07917650789 2.348204041e-38
0.04203462601 -0.03821509704 -0.07848263532 2.348204041e-38
0.04195296764 -0.03867255896 -0.07900544256 2.348204041e-38
0.04226061329 -0.03862686828 -0.07914607227 2.348204041e-38
0.04207653552 -0.03833947331 -0.07863494754 2.348204041e-38
0.04193936288 -0.03863703832 -0.07896199822 2.348204041e-38
0.04209050909 -0.03825944662 -0.0785452947 2.348204041e-38
0.04217108339 -0.03855998442 -0.07893230021 2.348204041e-38
0.04206284136 -0.03877849504 -0.0791426897 2.348204041e-38
0.04205035791 -0.03851971775 -0.07882676274 2.348204041e-38
0.04220017418 -0.03863601759 -0.07905863225 2.348204041e-38
0.04212222248 -0.03832055628 -0.07863047719 2.348204041e-38
0.04218253866 -0.03879091516 -0.07925770432 2.348204041e-38
0.04202520102 -0.03849927336 -0.0787993744 2.348204041e-38
0.04200673848 -0.03839179128 -0.07867508382 2.348204041e-38
0.0422308743 -0.03865532205 -0.0791201964 2.348204041e-38
0.04193629324 -0.03863214329 -0.07895685732 2.348204041e-38
0.04211556539 -0.03830018267 -0.07860209793 2.348204041e-38
0.04220600426 -0.03870875016 -0.07916336507 2.348204041e-38
0.04202183709 -0.03828250989 -0.07855650038 2.348204041e-38
0.04211107641 -0.03857444227 -0.07891596854 2.348204041e-38
0.04223893583 -0.03875275701 -0.07926198095 2.348204041e-38
0.04209058732 -0.03827505559 -0.07855941355 2.348204041e-38
0.04206766561 -0.03838656843 -0.07868228853 2.348204041e-38
0.04204366356 -0.03865970299 -0.07898722589 2.348204041e-38
0.04215594381 -0.03871016949 -0.0791207701 2.348204041e-38
0.04197202623 -0.03834959492 -0.07862288505 2.348204041e-38
0.04216066748 -0.03850715607 -0.07886019349 2.348204041e-38
0.0419789739 -0.03871722519 -0.0790573433 2.348204041e-38
0.04209466651 -0.03835193068 -0.07865731418 2.348204041e-38
0.04215108603 -0.03840970993 -0.07875053585 2.348204041e-38
0.0421249941 -0.03844797239 -0.07877803594 2.348204041e-38
0.04216777533 -0.03858568147 -0.07896159589 2.348204041e-38
0.0419225879 -0.03846758977 -0.07876351476 2.348204041e-38
0.0418869704 -0.03821468353 -0.07847263664 2.348204041e-38
0.04217242822 -0.03844458982 -0.0788102597 2.348204041e-38
0.04190094396 -0.03834753111 -0.07864310592 2.348204041e-38
0.04211977497 -0.0387916714 -0.07920187712 2.348204041e-38
0.04195781425 -0.0383496061 -0.07862312347 2.348204041e-38
0.04180539027 -0.0381314978 -0.07841736823 2.348204041e-38
0.04184839129 -0.03823615611 -0.07851124555 2.348204041e-38
0.04218643159 -0.03847652674 -0.07886053622 2.345219836e-38
0.04198371246 -0.03851799667 -0.07881326973 2.345219836e-38
0.04186349362 -0.03818216547 -0.07844054699 2.345219836e-38
0.04195153341 -0.03868299723 -0.07902160287 2.345219836e-38
0.04212246835 -0.03832700104 -0.07863600552 2.345219836e-38
0.04192859307 -0.03821073845 -0.07846668363 2.345219836e-38
0.04193526879 -0.03816366568 -0.07841200382 2.345219836e-38
0.04196275771 -0.03828486055 -0.0785497427 2.345219836e-38
0.04202382267 -0.03821408749 -0.07848100364 2.345219836e-38
0.04223354161 -0.03875628486 -0.07926042378 2.345219836e-38
0.04209142923 -0.03828963637 -0.07857660204 2.345219836e-38
0.04203689471 -0.0381485559 -0.07841918617 2.345219836e-38
0.04218463972 -0.03871449456 -0.0791496709 2.345219836e-38
0.04220398515 -0.03879456595 -0.07928140461 2.345219836e-38
0.04196936265 -0.03866550699 -0.07898943126 2.345219836e-38
0.04179572687 -0.03812237084 -0.07841338962 2.345219836e-38
0.04188286886 -0.03818934783 -0.07844464481 2.345219836e-38
0.04203506187 -0.03862317279 -0.07894288003 2.345219836e-38
0.04197695106 -0.03829525039 -0.07856226712 2.345219836e-38
0.04192662984 -0.03863115236 -0.07896472514 2.345219836e-38
0.04216020554 -0.03845805675 -0.07881060988 2.345219836e-38
0.04189658538 -0.03828546032 -0.07855398208 2.345219836e-38
0.04182381928 -0.03821970895 -0.07852116972 2.345219836e-38
0.04220428318 -0.03874041885 -0.07920269668 2.345219836e-38
0.04203496873 -0.03822532669 -0.07849411666 2.345219836e-38
0.04222678766 -0.03856391832 -0.07901263237 2.345219836e-38
0.04202838242 -0.03818487376 -0.07844888419 2.345219836e-38
0.04202690348 -0.03861871734 -0.0789353922 2.345219836e-38
0.0421246998 -0.03851066902 -0.07884212583 2.345219836e-38
0.04203781486 -0.03818621486 -0.07845475525 2.345219836e-38
0.04218869284 -0.03852056339 -0.07890833169 2.345219836e-38
0.0422023274 -0.03865267336 -0.0790835768 2.345219836e-38
0.04216325656 -0.03843397647 -0.07878947258 2.345219836e-38
0.0419116728 -0.03859391809 -0.07891585678 2.345219836e-38
0.04218211398 -0.03847806156 -0.07885624468 2.345219836e-38
0.04213840514 -0.0385114029 -0.07884825766 2.345219836e-38
0.04212237522 -0.03832925484 -0.07863824069 2.345219836e-38
0.04199941084 -0.03862039745 -0.07893081754 2.345219836e-38
0.04219906777 -0.03852601722 -0.07892886549 2.345219836e-38
0.0420861654 -0.03856419772 -0.07889309525 2.345219836e-38
0.04203196988 -0.03814592957 -0.07841155678 2.345219836e-38
0.04222427681 -0.03858014569 -0.07902555913 2.345219836e-38
0.04219292104 -0.03864244372 -0.07905843109 2.345219836e-38
0.04200966656 -0.03823056072 -0.07849957794 2.345219836e-38
0.04207141697 -0.03824747354 -0.07852624357 2.345219836e-38
0.04208615422 -0.03840771317 -0.07871509343 2.345219836e-38
0.04221785814 -0.03857475147 -0.07900851965 2.345219836e-38
0.04197153449 -0.0381927155 -0.07844921947 2.345219836e-38
0.04212572426 -0.0387872383 -0.07920147479 2.345219836e-38
0.04204224423 -0.0383970812 -0.07868644595 2.345219836e-38
0.04192376882 -0.03859560937 -0.07891112566 2.345219836e-38
0.04219582304 -0.03862051666 -0.07903440297 2.345219836e-38
0.04212281853 -0.03853847831 -0.07887390256 2.345219836e-38
0.04203752056 -0.0386008732 -0.07892070711 2.345219836e-38
0.04190764949 -0.03826281056 -0.07852383703 2.345219836e-38
0.04205594957 -0.03877115995 -0.07913154364 2.345219836e-38
0.04203498363 -0.03815424815 -0.07842145115 2.345219836e-38
0.04188567027 -0.03833434731 -0.07863198221 2.345219836e-38
0.04198551923 -0.03826930374 -0.07853528857 2.345219836e-38
0.04193166643 -0.03837805614 -0.07866659015 2.345219836e-38
0.04223842174 -0.03878106177 -0.07930250466 2.345219836e-38
0.04221027344 -0.03866327181 -0.07910748571 2.345219836e-38
0.04226908833 -0.03867321461 -0.07921341062 2.345219836e-38
0.04221116006 -0.03865098581 -0.07909216732 2.345219836e-38
0.04194777459 -0.03835403919 -0.0786305815 2.345219836e-38
0.04191187024 -0.03845374659 -0.07875138521 2.345219836e-38
0.04221538454 -0.03862644359 -0.07906455547 2.345219836e-38
0.04204063118 -0.03874732926 -0.07909800857 2.345219836e-38
0.04189859331 -0.03831800073 -0.07860616595 2.345219836e-38
0.04211850464 -0.03869283572 -0.07907433808 2.345219836e-38
0.04223273322 -0.03876497969 -0.07927176356 2.345219836e-38
0.04204718769 -0.03816986084 -0.07844250649 2.345219836e-38
0.04215636477 -0.03849038854 -0.07883834839 2.345219836e-38
0.04202957451 -0.03834972531 -0.0786286667 2.345219836e-38
0.04217012972 -0.03841320053 -0.07877870649 2.345219836e-38
0.04202912003 -0.03814679384 -0.07841087133 2.345219836e-38
0.04188735783 -0.03828721493 -0.07856237888 2.345219836e-38
0.04225481674 -0.03866245225 -0.079169631 2.345219836e-38
0.04227633029 -0.0386974737 -0.07925489545 2.345219836e-38
0.04208950698 -0.03833161294 -0.07863231003 2.345219836e-38
0.04206389934 -0.03847211599 -0.07877571881 2.345219836e-38
0.04206099361 -0.03818310797 -0.07846523821 2.345219836e-38
0.04221934825 -0.0385511145 -0.07898655534 2.345219836e-38
0.04218478128 -0.03863098472 -0.07903555036 2.345219836e-38
0.0419819653 -0.03852380067 -0.07881878316 2.345219836e-38
0.0420720242 -0.0382017009 -0.07848634571 2.345219836e-38
0.04215524346 -0.03858940303 -0.07895787805 2.345219836e-38
0.04202657565 -0.03873813152 -0.079083547 2.345219836e-38
0.04219730943 -0.03845873475 -0.07885656506 2.345219836e-38
0.04202909768 -0.03817348182 -0.07843777537 2.345219836e-38
0.04223994911 -0.03862670437 -0.07910308242 2.345219836e-38
0.0422067605 -0.038470231 -0.07888409495 2.345219836e-38
0.04203217477 -0.0383964479 -0.07868408412 2.345219836e-38
0.04202052951 -0.03867252544 -0.07899116725 2.345219836e-38
0.04214918241 -0.03870136291 -0.07910396904 2.345219836e-38
0.04192626104 -0.03838346526 -0.07867430151 2.345219836e-38
0.04201715067 -0.0384959057 -0.07879436761 2.345219836e-38
0.04215120897 -0.03879916295 -0.0792459622 2.345219836e-38
0.04208674282 -0.03860379755 -0.07894375175 2.345219836e-38
0.04197752476 -0.03818060085 -0.07843407243 2.345219836e-38
0.04227614403 -0.03872837499 -0.07928806543 2.345219836e-38
0.04224679619 -0.03863954917 -0.07912985235 2.345219836e-38
0.04201557487 -0.03859524429 -0.07890510559 2.345219836e-38
0.04204656929 -0.03873714432 -0.07908393443 2.345219836e-38
0.04197279364 -0.03864824399 -0.07896732539 2.345219836e-38
0.04185947403 -0.03827894852 -0.07857433707 2.345219836e-38
0.04219938442 -0.03851195052 -0.07891497016 2.345219836e-38
0.04193918034 -0.03854805604 -0.07884799689 2.345219836e-38
0.04194057733 -0.0383576937 -0.07863900065 2.345219836e-38
0.04190775007 -0.0383823216 -0.0786762014 2.345219836e-38
0.04210453108 -0.03849498183 -0.07881723344 2.345219836e-38
0.04211938754 -0.03831396997 -0.07862018049 2.345219836e-38
0.0420018211 -0.03822070733 -0.07848744094 2.345219836e-38
0.04190639779 -0.03829744831 -0.07856690884 2.345219836e-38
0.04201171175 -0.03816110641 -0.07841572165 2.345219836e-38
0.04195975885 -0.03868034482 -0.07901256531 2.345219836e-38
0.04211223498 -0.03855970129 -0.07889674604 2.345219836e-38
0.04214537144 -0.03876357153 -0.07918893546 2.345219836e-38
0.04182378575 -0.03821264952 -0.07850676775 2.345219836e-38
0.04193437845 -0.03815650567 -0.07840422541 2.345219836e-38
0.04202866927 -0.0383313559 -0.07860640436 2.345219836e-38
0.04226810485 -0.03877290711 -0.07932910323 2.345219836e-38
0.04206934944 -0.03854167834 -0.07885999233 2.345219836e-38
0.04186874256 -0.03827162087 -0.07854941487 2.345219836e-38
0.04192134738 -0.03854976967 -0.07885213196 2.345219836e-38
0.04226855189 -0.03879957646 -0.07936455309 2.345219836e-38
0.04194341227 -0.03865887597 -0.07899300754 2.345219836e-38
0.04188197479 -0.03831487894 -0.07861042023 2.345219836e-38
0.04192888364 -0.03826273605 -0.0785241425 2.345219836e-38
0.04178009555 -0.0381166786 -0.0784227103 2.345219836e-38
0.04215782881 -0.03851412237 -0.07886463404 2.345219836e-38
0.04216253385 -0.03851217031 -0.07886754721 2.345219836e-38
0.04218489304 -0.03873943537 -0.0791837126 2.345219836e-38
0.04208525643 -0.03824785724 -0.07853260636 2.345219836e-38
0.04220454767 -0.03872772306 -0.07918649167 2.345219836e-38
0.04209598526 -0.03825207427 -0.07854002714 2.345219836e-38
0.04219157994 -0.03848456964 -0.07887596637 2.345219836e-38
0.04219527543 -0.03845643625 -0.07885075361 2.345219836e-38
0.04207612202 -0.03825728595 -0.07853725553 2.345219836e-38
0.04203983396 -0.03861073032 -0.07893211395 2.345219836e-38
0.04195909947 -0.03855247796 -0.07885076851 2.345219836e-38
0.04216253012 -0.03866579011 -0.07906470448 2.345219836e-38
0.04201675579 -0.03822394833 -0.07849317789 2.345219836e-38
0.04219719768 -0.03848001361 -0.07887633145 2.345219836e-38
0.04212545976 -0.03835320845 -0.07866832614 2.345219836e-38
0.04190614447 -0.03852216154 -0.07882610708 2.345219836e-38
0.04194150865 -0.03842164576 -0.0787107572 2.345219836e-38
0.04197502881 -0.0382466428 -0.07850958407 2.345219836e-38
0.04214323312 -0.03837038949 -0.0786992982 2.345219836e-38
0.04212571681 -0.03834016249 -0.07865288109 2.345219836e-38
0.04186194018 -0.03815179318 -0.07840538025 2.345219836e-38
0.04196411744 -0.03817775473 -0.07842938602 2.345219836e-38
0.04194692895 -0.03847368434 -0.07876460999 2.345219836e-38
0.04218965024 -0.03858928382 -0.07898751646 2.345219836e-38
0.04185830802 -0.03826549649 -0.0785471946 2.345219836e-38
0.0421487987 -0.03855701163 -0.07891290635 2.345219836e-38
0.04195003957 -0.03838807717 -0.07867298275 2.345219836e-38
0.04193931818 -0.03835620359 -0.07863754034 2.345219836e-38
0.04218608141 -0.0387667045 -0.07922261953 2.345219836e-38
0.04211871326 -0.03843904287 -0.07876454294 2.345219836e-38
0.04190363362 -0.03842651844 -0.07872416824 2.345219836e-38
0.0420297794 -0.03838904947 -0.07867469639 2.345219836e-38
0.04197145253 -0.03816561401 -0.07841429114 2.345219836e-38
0.04189020768 -0.03819920123 -0.07845424861 2.345219836e-38
0.04197282717 -0.03868694976 -0.0790161863 2.345219836e-38
0.04205670953 -0.03822610527 -0.07850064337 2.345219836e-38
0.04181657359 -0.03813536465 -0.07841295004 2.345219836e-38
0.04228596017 -0.03873072192 -0.07930343598 2.345219836e-38
0.0420977585 -0.03836511821 -0.07867408544 2.345219836e-38
0.04195967689 -0.03867891803 -0.07901050895 2.345219836e-38
0.04208906367 -0.03826890886 -0.07855276018 2.345219836e-38
0.04211707041 -0.03831416368 -0.07861743867 2.345219836e-38
0.04210631922 -0.03827384114 -0.07856725156 2.345219836e-38
0.04221629351 -0.03860791773 -0.07904224098 2.345219836e-38
0.04194424674 -0.03853721917 -0.07883506268 2.345219836e-38
0.04220873863 -0.03879510984 -0.07928703725 2.345219836e-38
0.04227294028 -0.03877229989 -0.07933427393 2.345219836e-38
0.04206377268 -0.03844234347 -0.07874343544 2.345219836e-38
0.04228390381 -0.03871935233 -0.07928995788 2.345219836e-38
0.04193170369 -0.03841730952 -0.078707546 2.345219836e-38
0.04212473333 -0.0387066938 -0.07909568399 2.345219836e-38
0.0420701988 -0.03833243623 -0.07862427831 2.345219836e-38
0.0417935513 -0.03816807643 -0.07847329229 2.345219836e-38
0.04219825938 -0.03856904805 -0.07897192985 2.345219836e-38
0.04204005003 -0.03857574612 -0.07889086008 2.345219836e-38
0.04218871891 -0.03844276071 -0.07883153111 2.345219836e-38
0.04206319898 -0.03823680803 -0.07851310074 2.345219836e-38
0.04190471768 -0.03843152896 -0.07872933149 2.345219836e-38
0.04187060148 -0.0381613113 -0.07841575146 2.345219836e-38
0.04193297401 -0.03820712119 -0.07846299559 2.345219836e-38
0.04211715981 -0.0383333303 -0.07863932848 2.345219836e-38
0.04193618894 -0.03863675147 -0.07896349579 2.345219836e-38
0.04225410894 -0.03872898221 -0.07925245166 2.345219836e-38
0.04180968553 -0.03818940371 -0.0784861818 2.345219836e-38
0.04191356525 -0.03842392191 -0.07871851325 2.345219836e-38
0.04220114648 -0.0384860225 -0.07888792455 2.345219836e-38
0.0422132723 -0.03848648071 -0.07890477777 2.345219836e-38
0.04204612225 -0.03855337575 -0.07886554301 2.345219836e-38
0.04192034155 -0.03835202754 -0.07864192128 2.345219836e-38
0.04191569984 -0.03856943175 -0.07887865603 2.345219836e-38
0.0420765765 -0.0386566706 -0.0790053159 2.345219836e-38
0.04202949256 -0.03830212355 -0.07857748121 2.345219836e-38
0.04203968495 -0.0382094495 -0.07847891748 2.345219836e-38
0.04214863479 -0.03838025779 -0.07871542126 2.345219836e-38
0.04221710563 -0.03852406144 -0.07895237952 2.345219836e-38
0.0422154516 -0.03865842149 -0.07910689712 2.345219836e-38
0.0419540368 -0.038392324 -0.07867671549 2.345219836e-38
0.04197021201 -0.03866044804 -0.07898309827 2.345219836e-38
0.04193450511 -0.03827973455 -0.0785433948 2.345219836e-38
0.04213527218 -0.03849992529 -0.07883423567 2.345219836e-38
0.04202589393 -0.0386618413 -0.07897862047 2.345219836e-38
0.04223946482 -0.03862962872 -0.07910449058 2.345219836e-38
0.04210026935 -0.03825911134 -0.0785485357 2.345219836e-38
0.04199241102 -0.03862127289 -0.07893122733 2.345219836e-38
0.04210216552 -0.03828297555 -0.07857324183 2.345219836e-38
0.04214151204 -0.0387571156 -0.07917644829 2.345219836e-38
0.04203467071 -0.03821506724 -0.07848262787 2.345219836e-38
0.04195300862 -0.03867251799 -0.07900540531 2.345219836e-38
0.04226065055 -0.0386268124 -0.07914601266 2.345219836e-38
0.04207655415 -0.0383394286 -0.07863494009 2.345219836e-38
0.04193939641 -0.03863699734 -0.07896196097 2.345219836e-38
0.04209055752 -0.03825940937 -0.07854528725 2.345219836e-38
0.04217110947 -0.03855993226 -0.07893225551 2.345219836e-38
0.04206286743 -0.03877844661 -0.079142645 2.345219836e-38
0.04205037281 -0.03851966187 -0.07882674038 2.345219836e-38
0.04220020771 -0.03863594681 -0.0790585652 2.345219836e-38
0.04212226346 -0.03832051903 -0.07863046229 2.345219836e-38
0.04218257219 -0.03879085928 -0.07925764471 2.345219836e-38
0.04202521592 -0.03849922121 -0.07879935205 2.345219836e-38
0.04200676829 -0.03839175776 -0.07867508382 2.345219836e-38
0.04223091528 -0.03865525872 -0.07912012935 2.345219836e-38
0.04193632677 -0.03863210231 -0.07895682007 2.345219836e-38
0.04211561009 -0.03830014169 -0.07860209048 2.345219836e-38
0.04220604151 -0.03870868683 -0.07916329801 2.345219836e-38
0.04202187434 -0.03828247264 -0.07855650783 2.345219836e-38
0.04211109504 -0.03857438639 -0.07891592383 2.345219836e-38
0.04223898053 -0.03875269368 -0.0792619139 2.345219836e-38
0.04209063947 -0.03827501833 -0.07855941355 2.345219836e-38
0.04206767306 -0.03838653862 -0.07868228108 2.345219836e-38
0.04204367474 -0.03865963593 -0.07898718864 2.345219836e-38
0.04215597734 -0.03871010989 -0.07912071049 2.345219836e-38
0.04197205976 -0.03834956884 -0.07862288505 2.345219836e-38
0.04216069728 -0.03850708902 -0.07886014879 2.345219836e-38
0.04197902977 -0.03871717677 -0.07905730605 2.345219836e-38
