# .PCD v0.7 - Point Cloud Data file format
VERSION 0.7
FIELDS x y z rgb
SIZE 4 4 4 4
TYPE F F F F
COUNT 1 1 1 1
WIDTH 841
HEIGHT 1
VIEWPOINT 0 0 0 1 0 0 0
POINTS 841
DATA ascii
0.1783852726 -0.3529583216 0.1239058599 8.742304551e-39
0.1727354825 -0.3225733042 0.1590110958 8.742304551e-39
0.1599377841 -0.1270548254 0.2969356179 8.742304551e-39
0.05136734247 -0.47193259 0.3235198855 8.742304551e-39
-0.02443965897 -0.4523282647 0.01346436888 8.742304551e-39
0.181811288 -0.4121726453 -0.002163689584 8.742304551e-39
0.1437181085 -0.1089126617 0.2724655867 8.742304551e-39
0.1542571485 -0.4289876819 0.3179631829 8.742304551e-39
0.1672700197 -0.4865419567 -0.08232973516 8.742304551e-39
0.1895325035 -0.4650174975 -0.1111773401 8.742304551e-39
-0.07554411888 -0.2319038808 0.282840848 8.742304551e-39
0.1689192206 -0.2056332976 -0.1173096746 8.742304551e-39
0.1506671757 -0.393936336 0.3286636472 8.742304551e-39
0.1830458194 -0.1507990211 -0.0884552598 8.742304551e-39
0.1565037668 -0.4238269925 -0.1027996838 8.742304551e-39
0.1126467809 -0.3929615319 -0.01603435352 8.742304551e-39
0.1820177436 -0.4258125424 -0.007387194782 8.742304551e-39
0.07089883834 -0.4825296402 -0.05252966285 8.742304551e-39
0.1755574048 -0.0945905 0.1199436411 8.742304551e-39
-0.0853517279 -0.4766598344 0.2952167392 8.742304551e-39
0.04548429698 -0.1199591011 0.2394261211 8.742304551e-39
0.0164330285 -0.1970490962 0.2899899781 8.742304551e-39
0.1593909413 -0.4073262811 0.2810172141 8.742304551e-39
0.1101993248 -0.1505192518 0.297129333 8.742304551e-39
0.1884593219 -0.2344589829 0.1272822767 8.742304551e-39
0.002197176218 -0.2042381763 0.2893386483 8.742304551e-39
0.1801683754 -0.4610527754 0.2454305142 8.742304551e-39
0.1697078794 -0.1631180942 0.1393913627 8.742304551e-39
0.1741420925 -0.4400134385 0.2524433136 8.742304551e-39
0.1733482927 -0.1015540957 -0.03708010912 8.742304551e-39
0.1823512763 -0.09773910046 -0.08086326718 8.742304551e-39
0.1813266277 -0.4108529389 0.0906150043 8.742304551e-39
0.1695992351 -0.1205828637 0.1616539508 8.742304551e-39
0.08293882757 -0.3393814564 0.1157697663 8.742304551e-39
-0.03156496584 -0.4748625755 0.2655887008 8.742304551e-39
0.09028032422 -0.4827738404 -0.03144044429 8.742304551e-39
0.1917437315 -0.2016112655 0.06199417636 8.742304551e-39
0.1384492069 -0.1232844591 0.2943495512 8.742304551e-39
0.1736730635 -0.3813016713 0.2332362235 8.742304551e-39
0.1842797846 -0.09805999696 0.1056956053 8.742304551e-39
0.1693417877 -0.1679341048 -0.1215328425 8.742304551e-39
0.1872925162 -0.4472121 0.1484026313 8.742304551e-39
0.1671333313 -0.3751884699 -0.1153554022 8.742304551e-39
0.1794656813 -0.1017467082 -0.1002206206 8.742304551e-39
0.1116436198 -0.480606854 -0.1098637134 8.742304551e-39
0.1805416942 -0.4499472082 0.08834095299 8.742304551e-39
0.1753861755 -0.09306572378 -0.01101678237 8.742304551e-39
0.1497592181 -0.1008241475 0.2370979339 8.742304551e-39
0.1813489199 -0.4158349633 0.01320797578 8.742304551e-39
0.1783862263 -0.4549084902 0.2427746207 8.742304551e-39
0.09224763513 -0.1242095828 0.2721013427 8.742304551e-39
0.09303954244 -0.1156675816 0.2619592249 8.742304551e-39
-0.08360534906 -0.475502789 0.2395592928 8.742304551e-39
-0.005499066785 -0.1706399918 0.271042347 8.742304551e-39
0.121961318 -0.4123023748 -0.05408214033 8.742304551e-39
0.1857746392 -0.3846890032 0.1296845376 8.742304551e-39
0.09934120625 -0.3018135726 0.2507918179 8.742304551e-39
0.1841417253 -0.09188628197 0.05544669181 8.742304551e-39
0.1726615578 -0.1057901382 0.05782559142 8.742304551e-39
0.1819016486 -0.4818738699 -0.08570581675 8.742304551e-39
0.168767795 -0.3039434254 -0.1065694839 8.742304551e-39
0.07609363645 -0.4737773538 0.3248689175 8.742304551e-39
0.1417427659 -0.4833284616 0.1682905406 8.742304551e-39
0.106576018 -0.415800631 0.3272590041 8.742304551e-39
0.1714379191 -0.4831300378 0.1993020624 8.742304551e-39
0.1825095564 -0.4829545617 0.1316460818 8.742304551e-39
0.09267885983 -0.356625855 0.2239072174 8.742304551e-39
0.1688362807 -0.2199552953 -0.1162689477 8.742304551e-39
0.1945692748 -0.4769640565 0.1901557595 8.742304551e-39
-0.1312288493 -0.4798324704 0.1425736398 8.742304551e-39
-0.109018825 -0.4740325212 0.2258414179 8.742304551e-39
0.02664656751 -0.277843833 0.263568759 8.742304551e-39
0.02690946124 -0.4691058397 -0.03241142631 8.742304551e-39
0.1740190238 -0.1179702729 0.2176416516 8.742304551e-39
0.1591710001 -0.4832695425 0.03520456702 8.742304551e-39
0.1332019717 -0.1130211949 0.2784087062 8.742304551e-39
0.1708078831 -0.1235018373 0.07701841742 8.742304551e-39
0.1044652686 -0.4742185175 0.3236583471 8.742304551e-39
-0.06874570251 -0.2218680084 0.2839329839 8.742304551e-39
-0.04475237429 -0.4750347137 0.2904105783 8.742304551e-39
0.1719853431 -0.2401867807 -0.08002857864 8.742304551e-39
0.06568327546 -0.3488978148 0.1661705226 8.742304551e-39
0.1017886475 -0.3315740824 0.2489431202 8.742304551e-39
0.1805293262 -0.1079243422 -0.08665257692 8.742304551e-39
0.1763658822 -0.09726247191 0.07115834206 8.742304551e-39
0.044420816 -0.4171889126 0.3230825067 8.742304551e-39
0.1223623976 -0.3880296946 -0.02145571262 8.742304551e-39
0.1745983064 -0.1212361008 -0.1217047274 8.742304551e-39
0.1819598675 -0.4799271226 0.07140527666 8.742304551e-39
0.0990376696 -0.1965231299 0.288059473 8.742304551e-39
-0.02242018655 -0.4745493531 0.3166655898 8.742304551e-39
0.1149145588 -0.4818167686 0.1645404696 8.742304551e-39
-0.05073253438 -0.4758465886 0.007600110024 8.742304551e-39
0.1414473504 -0.4824378788 0.1851590872 8.742304551e-39
0.07738266885 -0.4807539582 -0.0006315521896 8.742304551e-39
-0.1085722074 -0.4216551185 0.2736462951 8.742304551e-39
-0.00421179831 -0.4716946483 -0.009078226984 8.742304551e-39
0.03750091046 -0.3147799373 0.2715325356 8.742304551e-39
-0.03762386739 -0.3091241121 0.2714440227 8.742304551e-39
-0.05684126914 -0.4753620625 0.2471189946 8.742304551e-39
0.1613284498 -0.4786221385 0.306885004 8.742304551e-39
0.1677251756 -0.1210172921 0.1905450672 8.742304551e-39
0.02271687798 -0.4786964059 0.02025116794 8.742304551e-39
0.1580539346 -0.4778368175 0.312410295 8.742304551e-39
-0.07009822875 -0.3709691465 0.2447776347 5.820783626e-39
0.1180418357 -0.1294697374 0.2761968374 5.820783626e-39
0.1818847507 -0.4041407108 0.2788162827 5.820783626e-39
0.1844818145 -0.3496196866 0.0306042172 5.820783626e-39
-0.09363957494 -0.4811777174 0.1511208266 5.820783626e-39
0.1663811803 -0.3430561721 0.2973141074 5.820783626e-39
0.1864966303 -0.2333613038 -0.09410528839 5.820783626e-39
0.09738373011 -0.3896795213 0.3338749409 5.820783626e-39
0.1809332073 -0.1229123175 -0.190518111 5.820783626e-39
0.09536962956 -0.15678069 0.2840437293 5.820783626e-39
-0.02077487484 -0.4782201648 -0.06487856805 5.820783626e-39
0.09402672201 -0.1278504431 0.2539678812 5.820783626e-39
-0.1084530354 -0.4212554395 0.3021843433 5.820783626e-39
0.1810624301 -0.1134151667 0.1065715104 5.820783626e-39
0.05989637226 -0.3564177752 0.3131044507 5.820783626e-39
0.09233684093 -0.1299810261 0.2569288015 5.820783626e-39
0.1435330361 -0.1183899045 0.2573598623 5.820783626e-39
-0.04732300341 -0.2363510281 0.2805019617 5.820783626e-39
0.09937020391 -0.4808789492 -0.1710103154 5.820783626e-39
0.03804709762 -0.3726269901 -0.02724727243 5.820783626e-39
-0.114155665 -0.4154106677 0.3003234863 5.820783626e-39
-0.1406431645 -0.4187837243 0.2902095318 5.820783626e-39
0.07754869014 -0.4814295173 0.3197196722 5.820783626e-39
0.1282591224 -0.1450040489 0.2932150662 5.820783626e-39
0.1616941988 -0.3050318956 0.1375253201 5.820783626e-39
0.1587371528 -0.2555181384 0.1813074946 5.820783626e-39
0.1453806162 -0.1219656318 0.2777563035 5.820783626e-39
0.04004695266 -0.3855888247 0.3214637637 5.820783626e-39
-0.03365046903 -0.4809162319 0.1164816022 5.820783626e-39
0.1731183678 -0.3569574356 -0.002263691276 5.820783626e-39
0.1305997968 -0.1167099774 0.1921086907 5.820783626e-39
0.1521481276 -0.3239690363 0.3059263825 5.820783626e-39
0.1672452092 -0.4799812138 0.009552270174 5.820783626e-39
0.1753579229 -0.4140978456 -0.06989375502 5.820783626e-39
-0.112187475 -0.2843282521 0.2806656361 5.820783626e-39
0.1725199372 -0.3249620199 -0.1776909828 5.820783626e-39
0.1252738535 -0.2795238495 0.3243106008 5.820783626e-39
0.1746600419 -0.2599556446 -0.137699455 5.820783626e-39
0.1316452324 -0.48373577 -0.08874936402 5.820783626e-39
-0.01335470378 -0.480623126 -0.02003197372 5.820783626e-39
0.1725689918 -0.3746803105 0.00572244823 5.820783626e-39
0.1113661602 -0.4818915725 0.1048813909 5.820783626e-39
0.1837310344 -0.1311292648 -0.02018035203 5.820783626e-39
-0.03396706283 -0.4133424759 0.3100392818 5.820783626e-39
0.05904224515 -0.3234801888 0.2297214121 5.820783626e-39
-0.02912594192 -0.184421584 0.2772269845 5.820783626e-39
0.1703344285 -0.2948585749 0.2817694843 5.820783626e-39
0.08947025239 -0.1461190432 0.2761730552 5.820783626e-39
0.146741569 -0.3786268234 0.04160949588 5.820783626e-39
-0.04342809319 -0.1914606094 0.2805122733 5.820783626e-39
0.1804929227 -0.3876025677 0.2820567191 5.820783626e-39
0.1860328168 -0.3540673852 0.04914524779 5.820783626e-39
0.1772159636 -0.3505923748 0.2795305252 5.820783626e-39
0.1836763322 -0.1081630141 -0.1890324503 5.820783626e-39
0.1836585402 -0.1202638 -0.1765214503 5.820783626e-39
0.1790623814 -0.3746284842 0.09710910916 5.820783626e-39
0.1771054864 -0.1149712205 0.04015312344 5.820783626e-39
-0.1410903037 -0.4814595282 0.02520174161 5.820783626e-39
0.02068247087 -0.4533608556 0.3301380277 5.820783626e-39
0.1263362914 -0.4817732871 0.1193271801 5.820783626e-39
0.1697863787 -0.344206661 -0.02102569491 5.820783626e-39
0.118140094 -0.1240733564 0.2660807967 5.820783626e-39
0.1694297493 -0.2688864768 0.2555161119 5.820783626e-39
0.1888036281 -0.1113797277 -0.06184075773 5.820783626e-39
0.1748838425 -0.2531170845 -0.1769862324 5.820783626e-39
0.1813643724 -0.4043343365 0.1725237817 5.820783626e-39
0.169750303 -0.4851859808 -0.1378658414 5.820783626e-39
0.1831772774 -0.1271757185 -0.1837175786 5.820783626e-39
0.1370779574 -0.4817038774 -0.008429475129 5.820783626e-39
0.178260684 -0.4108062088 0.1120811403 5.820783626e-39
0.1833696812 -0.09557312727 -0.1868113279 5.820783626e-39
0.1402770579 -0.1113829017 0.1058520228 5.820783626e-39
0.1727398336 -0.3606839478 0.00638230145 5.820783626e-39
0.1799942404 -0.3807932138 0.2801538408 5.820783626e-39
0.06676326692 -0.1271849573 0.2251492739 5.820783626e-39
0.07625050843 -0.1251892298 0.1945607811 5.820783626e-39
-0.02733871713 -0.4566692412 0.3238592744 5.820783626e-39
-0.04812079296 -0.2203702033 0.2791461945 5.820783626e-39
0.02400661446 -0.4816550612 -0.05274417996 5.820783626e-39
0.1722669899 -0.3402956128 0.1437841058 5.820783626e-39
-0.005830064416 -0.3721368611 0.2063466609 5.820783626e-39
0.1827479452 -0.111058861 -0.1162948757 5.820783626e-39
0.1851090789 -0.1020442992 -0.127338022 5.820783626e-39
0.1686866581 -0.448184967 -0.00805721432 5.820783626e-39
0.1552632153 -0.4767100215 -0.1734327227 5.820783626e-39
0.08767720312 -0.4109123647 0.3321563601 5.820783626e-39
0.1777042747 -0.4784806669 0.2633612752 5.820783626e-39
0.07726699114 -0.3060521185 0.3144184947 5.820783626e-39
0.1850004345 -0.4530658424 0.2663270831 5.820783626e-39
0.1789527535 -0.4466656446 0.1827841401 5.820783626e-39
-0.1169560477 -0.4208292067 0.111017175 5.820783626e-39
0.1751074195 -0.3515142798 -0.1783661991 5.820783626e-39
0.1835233271 -0.4221587479 0.2327097952 5.820783626e-39
-0.03293559328 -0.4816097617 0.3058906794 5.820783626e-39
-0.04227130115 -0.4648348093 0.3234316707 5.820783626e-39
-0.01913162321 -0.3355921209 0.2687370181 5.820783626e-39
0.03966870904 -0.4819708467 0.08222869039 5.820783626e-39
0.1810445338 -0.112989828 0.09985612333 5.820783626e-39
0.1722079366 -0.4776489139 0.1355704069 5.820783626e-39
0.1191222742 -0.119192645 0.2127622813 5.820783626e-39
0.1794393212 -0.1184606552 -0.05412079394 5.820783626e-39
0.1071087047 -0.4074697495 0.3213613033 5.820783626e-39
-0.1013838649 -0.2588290274 0.2816151083 5.820783626e-39
0.004772709683 -0.4368196726 0.3240689039 5.820783626e-39
0.1325744539 -0.3862780929 -0.1249050051 5.820783626e-39
-0.1568359733 -0.4821537733 0.06074368954 5.820783626e-39
-0.03863206506 -0.3588970304 0.1871834397 5.820783626e-39
0.1820523441 -0.1870750189 -0.1529929489 5.820783626e-39
0.1826246828 -0.09542661905 -0.1159776151 5.820783626e-39
0.04017131776 -0.3050050437 0.3218268156 5.820783626e-39
-0.009919483215 -0.4806588888 -0.03431807458 5.820783626e-39
0.1802177131 -0.1629776508 -0.1858445704 5.820783626e-39
0.1751547307 -0.4412122071 0.1301234066 5.820783626e-39
0.08760452271 -0.1800061613 0.2813135982 5.820783626e-39
-0.000986399129 -0.3926664889 0.3158365488 5.820783626e-39
0.1651848406 -0.4827632904 0.2976422906 5.820783626e-39
-0.003554603085 -0.4812868834 0.1583419889 5.820783626e-39
0.1799075902 -0.4726018906 0.2811996937 5.820783626e-39
0.1143574789 -0.4822577834 0.1528598368 5.820783626e-39
-0.1132128611 -0.4504096508 0.3026387691 5.820783626e-39
0.01176813431 -0.4815989733 0.1169151813 5.820783626e-39
-0.04366354644 -0.3407806754 0.2502505183 5.820783626e-39
-0.113474831 -0.4332915246 0.2482008487 5.820783626e-39
0.005393186584 -0.4629671574 0.3301849961 5.820783626e-39
0.1736651957 -0.3963450789 0.2992643714 5.820783626e-39
0.1759921759 -0.1135984361 0.06644979864 5.820783626e-39
0.08660855144 -0.4823235273 0.1942171007 5.820783626e-39
0.1686730534 -0.4009384811 0.2999462485 5.820783626e-39
-0.1366181374 -0.4817558527 0.2692110538 2.898180898e-39
0.1056490019 -0.1267181188 0.1653923839 2.898180898e-39
0.1827680171 -0.3291285634 0.2670887113 2.898180898e-39
0.03328237683 -0.4152871966 -0.1217653155 2.898180898e-39
0.05371774733 -0.483487457 0.27126652 2.898180898e-39
0.1679387689 -0.2641949356 0.3018963933 2.898180898e-39
0.133897543 -0.3480085433 -0.1744839996 2.898180898e-39
0.1142392382 -0.3287853599 0.3191720247 2.898180898e-39
0.1685729027 -0.22781232 -0.2119214386 2.898180898e-39
0.08622974157 -0.133312434 0.2580317855 2.898180898e-39
0.08625081927 -0.4813853502 0.08412888646 2.898180898e-39
0.09024368972 -0.1402867883 0.130581975 2.898180898e-39
-0.06937344372 -0.3857693076 0.3043161631 2.898180898e-39
0.1709918678 -0.1092584282 -0.1095619649 2.898180898e-39
0.06327521801 -0.2822127044 0.3234956264 2.898180898e-39
0.08594994992 -0.1387867332 0.1385014653 2.898180898e-39
0.1366794109 -0.1217839867 0.1128712222 2.898180898e-39
-0.068685323 -0.3170331419 0.2806302011 2.898180898e-39
0.161929369 -0.4817259312 -0.03837279975 2.898180898e-39
-0.03936843574 -0.4807808995 -0.03293189406 2.898180898e-39
-0.07652656734 -0.3782669008 0.3029876947 2.898180898e-39
-0.1053365394 -0.3513779342 0.2987085581 2.898180898e-39
0.1302430928 -0.4241522253 0.3135018945 2.898180898e-39
0.1195955053 -0.1281642914 0.2556981146 2.898180898e-39
0.1690703332 -0.2673370838 0.1026068926 2.898180898e-39
0.1690781862 -0.2232108712 0.1428233385 2.898180898e-39
0.1343577802 -0.122753635 0.1560007334 2.898180898e-39
0.05543504655 -0.3265361488 0.3204078674 2.898180898e-39
0.1023006365 -0.4822493196 0.2412972897 2.898180898e-39
0.1731633991 -0.3158219457 -0.02879521996 2.898180898e-39
0.1519467384 -0.1751503646 0.01369787753 2.898180898e-39
0.1557975262 -0.2523700893 0.3053700328 2.898180898e-39
0.1684909612 -0.4130255878 0.03825961426 2.898180898e-39
0.1665177345 -0.3502687514 -0.04294581711 2.898180898e-39
-0.1497866064 -0.4141434431 0.2782993913 2.898180898e-39
0.180592224 -0.4717371464 -0.1716436148 2.898180898e-39
0.1336143762 -0.2094142288 0.3113422394 2.898180898e-39
0.07451917976 -0.467995584 -0.2098332793 2.898180898e-39
0.1625426412 -0.4557879269 0.013032794 2.898180898e-39
0.1046944037 -0.4814882278 0.1178335622 2.898180898e-39
0.1722459048 -0.3275896609 -0.01966516674 2.898180898e-39
0.1760107577 -0.4661270678 0.1488495022 2.898180898e-39
0.1580379605 -0.3296717107 -0.1225110739 2.898180898e-39
-0.01941100322 -0.3604292274 0.3090299368 2.898180898e-39
0.005139473826 -0.4165523052 0.1609494984 2.898180898e-39
-0.03166594356 -0.2804692984 0.2962195873 2.898180898e-39
0.1708408296 -0.2345897108 0.2784078121 2.898180898e-39
0.07301300019 -0.1325992942 0.2194321603 2.898180898e-39
-0.05428518355 -0.4652052224 -0.1050330102 2.898180898e-39
-0.06229332834 -0.2555592954 0.2964833975 2.898180898e-39
0.1789317578 -0.311367631 0.2792197466 2.898180898e-39
0.03097088821 -0.4115727544 -0.09924307466 2.898180898e-39
0.1745172739 -0.2758449912 0.2772664428 2.898180898e-39
0.1710821092 -0.1671498865 -0.212848559 2.898180898e-39
0.1787612885 -0.2732622027 -0.2189992517 2.898180898e-39
0.1777618527 -0.3256008029 0.0630858466 2.898180898e-39
0.1719750017 -0.1087661833 -0.1692682207 2.898180898e-39
-0.005599087104 -0.4818376303 0.1875614226 2.898180898e-39
0.07175396383 -0.4044886827 0.3300970197 2.898180898e-39
0.1814866662 -0.4577085376 0.1504448652 2.898180898e-39
0.03024381213 -0.4493968189 -0.1518900543 2.898180898e-39
0.1141408011 -0.1280039549 0.1208664477 2.898180898e-39
0.1702661216 -0.2264130712 0.2369951755 2.898180898e-39
0.1741587967 -0.2568946779 -0.1660608649 2.898180898e-39
0.1773151457 -0.4713254571 -0.20089598 2.898180898e-39
0.1781148314 -0.3429512978 0.1386452615 2.898180898e-39
0.1603209525 -0.4372062981 -0.04555890709 2.898180898e-39
0.1734563708 -0.2905032933 -0.2184803039 2.898180898e-39
0.1692785621 -0.4498381615 0.05283618346 2.898180898e-39
0.1789802313 -0.3553673923 0.07939644903 2.898180898e-39
0.1746271551 -0.1511370838 -0.2231110185 2.898180898e-39
0.1935416013 -0.2970203757 -0.01799438149 2.898180898e-39
0.1738411933 -0.3189688325 -0.01964369416 2.898180898e-39
0.1784380376 -0.3046457767 0.2768957019 2.898180898e-39
0.1446454674 -0.3549058139 0.1240110174 2.898180898e-39
0.160847038 -0.3913042545 0.1022312045 2.898180898e-39
0.02954025753 -0.4120033979 0.3246057034 2.898180898e-39
-0.05972103029 -0.3093551397 0.2842078209 2.898180898e-39
0.130167231 -0.4814275801 0.07081639767 2.898180898e-39
0.1706078798 -0.2990715206 0.1065138727 2.898180898e-39
-0.1689525396 -0.4845993519 0.1309620589 2.898180898e-39
0.1703430563 -0.2402690053 -0.1924830526 2.898180898e-39
0.1741408408 -0.1035761386 -0.2249233276 2.898180898e-39
0.169162333 -0.3892820179 0.01181297004 2.898180898e-39
0.1653816998 -0.473823905 -0.06725890189 2.898180898e-39
0.1044732109 -0.3551679254 0.3217836022 2.898180898e-39
0.1885613501 -0.4099268317 0.2456637025 2.898180898e-39
0.07800742239 -0.2395890355 0.3200812936 2.898180898e-39
0.1885672659 -0.3836369514 0.2464720011 2.898180898e-39
0.1807997227 -0.3871065378 0.1572920233 2.898180898e-39
-0.09327165037 -0.4829643965 0.1862351894 2.898180898e-39
0.1776318252 -0.4752911925 -0.1544128358 2.898180898e-39
0.1823128611 -0.3524103761 0.2037344277 2.898180898e-39
0.06866036355 -0.4761453569 0.3250973821 2.898180898e-39
0.0168885421 -0.4177176952 0.3221027255 2.898180898e-39
-0.1348292083 -0.459243238 0.198898226 2.898180898e-39
0.1390552372 -0.4821707606 0.1865928173 2.898180898e-39
0.1706846505 -0.1087866873 -0.118813172 2.898180898e-39
0.1742949784 -0.4160389602 0.1296337545 2.898180898e-39
0.1451186985 -0.1968112141 0.03965166584 2.898180898e-39
0.1748180687 -0.1011792123 -0.2090034336 2.898180898e-39
0.1258312017 -0.3464517891 0.3153697252 2.898180898e-39
-0.1460857093 -0.3775338531 0.2809180021 2.898180898e-39
0.03594397753 -0.392470777 0.3232207894 2.898180898e-39
0.09899807721 -0.4824894071 -0.1053126156 2.898180898e-39
-0.02593268827 -0.4824751616 0.2151916027 2.898180898e-39
-0.1559158564 -0.481310904 0.1607812494 2.898180898e-39
0.1404075474 -0.3929501176 -0.2005395442 2.898180898e-39
0.1763757765 -0.1090583354 -0.2320640832 2.898180898e-39
0.02929027192 -0.2518301606 0.321444571 2.898180898e-39
0.1060551628 -0.4812435508 0.102630049 2.898180898e-39
0.1724206805 -0.3669718504 -0.2134469002 2.898180898e-39
0.1782541871 -0.3812498152 0.100711897 2.898180898e-39
0.07303115726 -0.1471394897 0.2736831009 2.898180898e-39
0.008136911318 -0.3388743103 0.3140993714 2.898180898e-39
0.1885520667 -0.4211884737 0.2817803323 2.898180898e-39
0.1224446371 -0.4825779796 0.2582712471 2.898180898e-39
0.1886790395 -0.4040735662 0.2597308159 2.898180898e-39
0.1818913966 -0.4611867368 0.1914072186 2.898180898e-39
-0.06420969218 -0.4100174606 0.3052940369 2.898180898e-39
0.1315661371 -0.4824151993 0.22586371 2.898180898e-39
-0.1557997763 -0.4813437462 0.2361855656 2.898180898e-39
-0.1066891924 -0.4819334745 0.2981855869 2.898180898e-39
0.0619873777 -0.4141261578 0.3300091624 2.898180898e-39
0.1748493314 -0.3253507018 0.300719738 2.898180898e-39
0.1704224795 -0.1091233343 -0.1487412304 2.898180898e-39
0.1692170054 -0.4802997708 0.2555920184 2.898180898e-39
0.1728094369 -0.3324635327 0.3023718596 2.898180898e-39
-0.0458714962 -0.4793979526 0.3120467067 6.490113838e-41
0.1754933298 -0.2732798755 -0.03051480651 6.490113838e-41
0.1663748026 -0.2505922318 0.2248434424 6.490113838e-41
0.008224533871 -0.480469346 -0.07830037922 6.490113838e-41
0.122699894 -0.4807585776 0.3118783832 6.490113838e-41
0.1517584771 -0.1936658919 0.2919816375 6.490113838e-41
0.07605944574 -0.4870952964 -0.1984807849 6.490113838e-41
0.09901823848 -0.2610528767 0.3100794554 6.490113838e-41
0.1814823896 -0.3720914423 -0.3014608026 6.490113838e-41
0.1191973612 -0.1971530318 0.1197441295 6.490113838e-41
0.1766594201 -0.4826050401 0.1346253157 6.490113838e-41
0.2055951506 -0.4141597748 0.01856716163 6.490113838e-41
-0.03650941327 -0.3578657508 0.3031949401 6.490113838e-41
0.1736148447 -0.09574103355 -0.290274024 6.490113838e-41
0.05936954916 -0.2291448712 0.3108434081 6.490113838e-41
0.205632776 -0.4141517282 0.03166249767 6.490113838e-41
0.1663288772 -0.1954295486 -0.1257433295 6.490113838e-41
-0.170577392 -0.4637283087 0.2121706754 6.490113838e-41
0.1716481 -0.4247217476 -0.02089635283 6.490113838e-41
0.08606309444 -0.4828688204 0.08937683702 6.490113838e-41
-0.04252806306 -0.3554873765 0.3018655181 6.490113838e-41
-0.07655310631 -0.332208544 0.2971795201 6.490113838e-41
0.1070392355 -0.3761320114 0.3057811856 6.490113838e-41
0.1185909435 -0.1180173904 0.05091268942 6.490113838e-41
0.1677406579 -0.1828176379 0.05422988161 6.490113838e-41
0.1648266315 -0.1572482586 0.0972681269 6.490113838e-41
0.1581883132 -0.1486315876 -0.1093621552 6.490113838e-41
0.0466234833 -0.2576112151 0.3094102144 6.490113838e-41
0.1707411706 -0.4761611819 0.2628733516 6.490113838e-41
0.1681516021 -0.2420608401 -0.06163514405 6.490113838e-41
0.1945511997 -0.3385700881 -0.1160733253 6.490113838e-41
0.1403974593 -0.1890300363 0.2986778617 6.490113838e-41
0.1680339724 -0.352704823 0.01895594969 6.490113838e-41
0.1668212116 -0.2887227535 -0.0765703246 6.490113838e-41
-0.1389592141 -0.4188191891 0.2788882852 6.490113838e-41
0.1671394557 -0.3694019616 -0.1437198967 6.490113838e-41
0.1195700243 -0.1605552733 0.3053151369 6.490113838e-41
0.1525354236 -0.4813813567 -0.1206722111 6.490113838e-41
0.1665629447 -0.3973017335 0.005238898098 6.490113838e-41
0.1830476522 -0.4755127132 0.1546524316 6.490113838e-41
0.1682322174 -0.2532818019 -0.0507716164 6.490113838e-41
0.1745558679 -0.3977681398 0.1305749565 6.490113838e-41
0.1021832302 -0.3787791431 -0.254141748 6.490113838e-41
-0.005375660956 -0.3314382136 0.3080177307 6.490113838e-41
-0.1905201823 -0.4851562679 0.1010522246 6.490113838e-41
-0.03535626456 -0.3932433724 0.239366591 6.490113838e-41
0.1566020399 -0.1689789593 0.2348739952 6.490113838e-41
0.1687160581 -0.3335912526 0.09095782787 6.490113838e-41
0.005741497502 -0.4820039272 0.01766770333 6.490113838e-41
-0.07665529102 -0.385296464 0.2583316267 6.490113838e-41
0.1624644101 -0.2342101932 0.2355435193 6.490113838e-41
-0.01836677454 -0.4813995063 -0.0770657286 6.490113838e-41
0.1599917859 -0.2097685337 0.2336328179 6.490113838e-41
0.1781193763 -0.2647795081 -0.3022425771 6.490113838e-41
0.1745462269 -0.4464366734 -0.2796429992 6.490113838e-41
0.1767350584 -0.2506402135 0.01747018285 6.490113838e-41
0.1702990085 -0.07722768188 -0.3029347062 6.490113838e-41
0.1042965725 -0.4837350845 0.2568737268 6.490113838e-41
0.05346628278 -0.3495891392 0.3155611157 6.490113838e-41
0.1746109277 -0.3878695369 0.1307781339 6.490113838e-41
0.04979887605 -0.480167836 -0.06447990984 6.490113838e-41
0.1874800771 -0.3012596071 -0.04875927418 6.490113838e-41
0.1608901471 -0.1629419178 0.1956032068 6.490113838e-41
0.1286569536 -0.311704576 -0.2691546679 6.490113838e-41
0.1750407219 -0.4145556986 -0.1562323272 6.490113838e-41
0.1739654541 -0.2615640759 0.09225694835 6.490113838e-41
0.1628300995 -0.3825161457 -0.04137860239 6.490113838e-41
0.1825651824 -0.4496997297 -0.2724629641 6.490113838e-41
0.1679346114 -0.3901620507 0.05134208128 6.490113838e-41
0.1729976386 -0.2732432783 0.03629919887 6.490113838e-41
0.1819627136 -0.2472276986 -0.3088395 6.490113838e-41
0.1592901349 -0.3615514636 -0.17999731 6.490113838e-41
0.1683823913 -0.2439477146 -0.05291499943 6.490113838e-41
0.1623924971 -0.2303726375 0.2323194146 6.490113838e-41
0.1117123142 -0.4574705362 0.01241899282 6.490113838e-41
0.08280088753 -0.4566784501 -0.0263326019 6.490113838e-41
0.03142343462 -0.3659917414 0.318164289 6.490113838e-41
-0.1457361728 -0.4519857764 0.2110052556 6.490113838e-41
0.1891513169 -0.4503791928 0.1101524532 6.490113838e-41
0.1714082658 -0.2188796401 0.06225439906 6.490113838e-41
-0.06740187109 -0.4833390713 0.2630830407 6.490113838e-41
0.1294005513 -0.3481220305 -0.2805315852 6.490113838e-41
0.1738763601 -0.111540094 -0.3091585636 6.490113838e-41
0.1687078327 -0.3232364058 -0.01380757242 6.490113838e-41
0.1621405184 -0.4080347121 -0.0551559478 6.490113838e-41
0.08874399215 -0.2882058322 0.3114778399 6.490113838e-41
0.1793198436 -0.3327859044 0.2133497745 6.490113838e-41
0.06841561943 -0.1937527061 0.3151851296 6.490113838e-41
0.1763928533 -0.3002809882 0.2114008516 6.490113838e-41
0.1730341166 -0.2973946631 0.1097344086 6.490113838e-41
0.02033763565 -0.4839740992 0.2844709158 6.490113838e-41
0.1639238 -0.3737982512 -0.1329812557 6.490113838e-41
0.1737309992 -0.2729942799 0.1679455936 6.490113838e-41
0.07175851613 -0.4179409742 0.3155047894 6.490113838e-41
0.02411981113 -0.379914999 0.3196099997 6.490113838e-41
-0.1152779758 -0.4829249382 0.2821114659 6.490113838e-41
0.1819076687 -0.448274523 0.1899601966 6.490113838e-41
0.1737802774 -0.09573967755 -0.2918351293 6.490113838e-41
0.1727248281 -0.3379763663 0.09223622084 6.490113838e-41
0.2010343671 -0.3679374456 -0.08214785159 6.490113838e-41
0.1700513661 -0.08102966845 -0.2980297208 6.490113838e-41
0.1105755493 -0.2782221437 0.3063290715 6.490113838e-41
-0.1515389681 -0.4386407733 0.2742897272 6.490113838e-41
0.03185869008 -0.3393458128 0.3139510155 6.490113838e-41
0.187712118 -0.4815237522 -0.02219175547 6.490113838e-41
0.07365238667 -0.4844123721 0.286752075 6.490113838e-41
-0.03633100539 -0.4833555222 0.2782310247 6.490113838e-41
0.1408820152 -0.4881385565 -0.2057101279 6.490113838e-41
0.1835421324 -0.1431515217 -0.3131200075 6.490113838e-41
0.01983505301 -0.209097296 0.3142115474 6.490113838e-41
0.1844385862 -0.4742076993 0.1410230696 6.490113838e-41
0.1825016737 -0.4648652971 -0.2337370068 6.490113838e-41
0.1719763279 -0.2966963351 0.06119089946 6.490113838e-41
0.0997255072 -0.139004603 0.1704481244 6.490113838e-41
0.01515715383 -0.2837216556 0.3088122606 6.490113838e-41
0.183374688 -0.3564828634 0.2487045974 6.490113838e-41
0.176338613 -0.4648998976 0.2706957459 6.490113838e-41
0.1787299067 -0.3282927871 0.2250410765 6.490113838e-41
0.1755729914 -0.3961346149 0.17551364 6.490113838e-41
-0.03072622791 -0.3753994703 0.3089408875 6.490113838e-41
0.1800959855 -0.4591827989 0.2324243635 6.490113838e-41
-0.06855218112 -0.4831231833 0.306014061 6.490113838e-41
-0.03863246739 -0.445324719 0.3116876483 6.490113838e-41
0.04634740204 -0.3602616489 0.3169541955 6.490113838e-41
0.1614125222 -0.2373947948 0.277403295 6.490113838e-41
0.1672819108 -0.08292537928 -0.3022108078 6.490113838e-41
0.1810931414 -0.4215108156 0.2334057987 6.490113838e-41
0.1586318761 -0.2459664345 0.2878204584 6.490113838e-41
-0.0547311157 -0.4835049212 0.3087848425 3.015101038e-39
0.1555819958 -0.2977123559 -0.1615138501 3.015101038e-39
0.1512632221 -0.2149097919 0.2035839111 3.015101038e-39
0.06573730707 -0.4812783599 -0.09410123527 3.015101038e-39
0.1474989653 -0.4714032412 0.2986004353 3.015101038e-39
0.1476544887 -0.1615905464 0.28997913 3.015101038e-39
0.1042056158 -0.4906203747 -0.2037085593 3.015101038e-39
0.1135566905 -0.2353598028 0.3175702095 3.015101038e-39
0.163040176 -0.3856679201 -0.3009799123 3.015101038e-39
0.1283113658 -0.2536935806 -0.01002518833 3.015101038e-39
0.1888758391 -0.4650347829 0.08389297873 3.015101038e-39
0.1592709422 -0.4103277922 -0.1245508194 3.015101038e-39
-0.05378831178 -0.3472118378 0.2955352664 3.015101038e-39
0.1275434047 -0.1045705974 -0.3136276007 3.015101038e-39
0.0563756302 -0.2051283121 0.3053874373 3.015101038e-39
0.1615892053 -0.4167310596 -0.1105495691 3.015101038e-39
0.1295047104 -0.2021295279 -0.2320382446 3.015101038e-39
-0.2720702589 -0.4808690548 0.2099273652 3.015101038e-39
0.1654361635 -0.3916410506 -0.06083442271 3.015101038e-39
0.1416071057 -0.4832256138 0.0598535873 3.015101038e-39
-0.06512243301 -0.3422532976 0.2949108481 3.015101038e-39
-0.1084445342 -0.319632113 0.289911747 3.015101038e-39
0.1280074567 -0.3605393469 0.3075125813 3.015101038e-39
0.1073609069 -0.1368985325 -0.09283809364 3.015101038e-39
0.1606985778 -0.1532147527 -0.006771940738 3.015101038e-39
0.1575082839 -0.1329700947 0.05216845125 3.015101038e-39
0.1170979366 -0.1625168771 -0.2225697488 3.015101038e-39
0.04230748862 -0.2328366041 0.3042997718 3.015101038e-39
0.1656693518 -0.4485552311 0.2353936136 3.015101038e-39
0.1630678624 -0.1923455447 -0.1208567619 3.015101038e-39
0.1303239614 -0.2986671329 -0.2379811257 3.015101038e-39
0.1425386667 -0.1588015854 0.3069487214 3.015101038e-39
0.1652605385 -0.2983064353 -0.03723874688 3.015101038e-39
0.1601088941 -0.2461880445 -0.1242864877 3.015101038e-39
-0.2030187696 -0.4028489888 0.2662535608 3.015101038e-39
0.1554230303 -0.3222173154 -0.1631009877 3.015101038e-39
0.1209977195 -0.133113414 0.3191577196 3.015101038e-39
0.1807117462 -0.4836609364 -0.1387483031 3.015101038e-39
0.164688766 -0.3608645499 -0.04289341718 3.015101038e-39
0.1854267567 -0.4507887363 0.1064069718 3.015101038e-39
0.1627055407 -0.2062209696 -0.1099868417 3.015101038e-39
0.1655427665 -0.3623990417 0.08310949802 3.015101038e-39
0.05159051716 -0.4337272048 -0.2948114276 3.015101038e-39
-0.01696212403 -0.3127740622 0.3003154993 3.015101038e-39
-0.2180119753 -0.4858786762 0.09994643927 3.015101038e-39
-0.135964483 -0.4405937493 0.1921090037 3.015101038e-39
0.1422272325 -0.1346587986 0.2221142054 3.015101038e-39
0.1661992669 -0.3670512736 -0.02865035832 3.015101038e-39
0.07336375117 -0.4823641777 -0.00704145804 3.015101038e-39
-0.1771313101 -0.4418622851 0.2170252651 3.015101038e-39
0.1480595767 -0.1968018711 0.2201371491 3.015101038e-39
0.04865968227 -0.4811951518 -0.09041289985 3.015101038e-39
0.1458640546 -0.1720771044 0.2163916081 3.015101038e-39
0.1569732577 -0.3053952157 -0.3029636145 3.015101038e-39
0.1470110714 -0.4442633986 -0.2728325725 3.015101038e-39
0.1685630083 -0.1979417801 -0.05743642151 3.015101038e-39
0.1385958195 -0.09772463143 -0.3186358809 3.015101038e-39
0.1393643469 -0.4845570624 0.2408741862 3.015101038e-39
0.06190596521 -0.3329185247 0.3125760555 3.015101038e-39
0.1635455489 -0.3484657407 0.08163935691 3.015101038e-39
0.1067683622 -0.4832285941 -0.09119537473 3.015101038e-39
0.162893042 -0.3191999197 -0.1868358999 3.015101038e-39
0.1463648677 -0.1352250576 0.173267141 3.015101038e-39
0.06512268633 -0.3770748377 -0.3119292855 3.015101038e-39
0.1555870026 -0.3699443936 -0.1704496592 3.015101038e-39
0.1670622975 -0.2269703299 0.03590640798 3.015101038e-39
0.1618663818 -0.3349345028 -0.08837208152 3.015101038e-39
0.1542934328 -0.4498410821 -0.2627707124 3.015101038e-39
0.1628371328 -0.346685499 -0.004647471011 3.015101038e-39
0.1677585691 -0.2351944745 -0.02995107323 3.015101038e-39
0.1619610935 -0.2955071926 -0.3112784028 3.015101038e-39
0.07726909965 -0.3217764199 -0.2805182338 3.015101038e-39
0.1633548737 -0.1940483749 -0.1119194776 3.015101038e-39
0.148182556 -0.1928919256 0.2151570022 3.015101038e-39
0.02025870793 -0.496665895 -0.1199385673 3.015101038e-39
-0.02105095796 -0.4844166636 -0.1603829116 3.015101038e-39
0.03524888307 -0.3501950502 0.3129950166 3.015101038e-39
-0.2748035192 -0.4822902381 0.1915331781 3.015101038e-39
0.1771583557 -0.4203757048 0.04537193105 3.015101038e-39
0.1648567021 -0.1775338203 0.001612879336 3.015101038e-39
-0.06930588931 -0.4832440913 0.2646715641 3.015101038e-39
0.08458328992 -0.400935024 -0.3020094633 3.015101038e-39
0.1529595405 -0.1639701724 -0.310501039 3.015101038e-39
0.1652358323 -0.271104455 -0.07402606308 3.015101038e-39
0.1588867158 -0.3681304753 -0.096515432 3.015101038e-39
0.1032872871 -0.2647905946 0.315558672 3.015101038e-39
0.1562797576 -0.285926789 0.1807209402 3.015101038e-39
0.07080698758 -0.1692380905 0.307703495 3.015101038e-39
0.1550242007 -0.2572908401 0.1775271147 3.015101038e-39
0.1659456939 -0.2601649761 0.05579439178 3.015101038e-39
0.04920110852 -0.4840140939 0.2772032619 3.015101038e-39
0.1557942182 -0.325276494 -0.1565017253 3.015101038e-39
0.1619445384 -0.2350661159 0.1199808493 3.015101038e-39
0.07984324545 -0.41003564 0.3183243871 3.015101038e-39
0.02982508205 -0.3639385998 0.3132850528 3.015101038e-39
-0.1366544217 -0.4829785228 0.2858862877 3.015101038e-39
0.1725613177 -0.4144133329 0.1500558853 3.015101038e-39
0.1282880902 -0.1062558591 -0.3150047064 3.015101038e-39
0.1657324284 -0.2948114872 0.04106898233 3.015101038e-39
0.1447279751 -0.3369897008 -0.2193057984 3.015101038e-39
0.1459701657 -0.122396946 -0.3045790195 3.015101038e-39
0.1249533668 -0.2513540387 0.312400341 3.015101038e-39
-0.2213747352 -0.4229747951 0.2610595226 3.015101038e-39
0.0324626565 -0.3151500821 0.3116993904 3.015101038e-39
0.1802409887 -0.4576767087 -0.06711433828 3.015101038e-39
0.1114282981 -0.4844427109 0.2761546075 3.015101038e-39
-0.02916336246 -0.4834785759 0.2851393223 3.015101038e-39
0.1629582494 -0.4860901237 -0.2001447976 3.015101038e-39
0.1471347064 -0.1953636706 -0.3195117712 3.015101038e-39
0.001890605316 -0.1849844009 0.3056017756 3.015101038e-39
0.1863531619 -0.4486779273 0.09073571861 3.015101038e-39
0.1628094018 -0.4522034228 -0.2283792049 3.015101038e-39
0.1679506451 -0.2568294406 0.0008331947029 3.015101038e-39
0.09339407086 -0.188802883 0.08821088076 3.015101038e-39
-0.008293343708 -0.2575993538 0.30205369 3.015101038e-39
0.1611836106 -0.3167813718 0.2365253717 3.015101038e-39
0.1662953645 -0.4365348816 0.2460857332 3.015101038e-39
0.1554430574 -0.2844836414 0.203060925 3.015101038e-39
0.1626227945 -0.3544938266 0.1211623996 3.015101038e-39
-0.03794717416 -0.367831707 0.3034356236 3.015101038e-39
0.1668446064 -0.4267567098 0.2016064078 3.015101038e-39
-0.08265419304 -0.4836076796 0.2993881106 3.015101038e-39
-0.05333451182 -0.4483637214 0.3082845211 3.015101038e-39
0.0539945811 -0.3458926976 0.3124770522 3.015101038e-39
0.1500715315 -0.2034903318 0.2812096477 3.015101038e-39
0.1345205009 -0.09842424095 -0.3175804019 3.015101038e-39
0.1643992364 -0.3836938441 0.2020393908 3.015101038e-39
0.1515043676 -0.2098855078 0.2907276452 3.015101038e-39
-0.07832666487 -0.4580503106 0.2998947501 5.962428276e-39
0.08399665356 -0.3854348958 -0.2309000343 5.962428276e-39
0.1528345644 -0.204252407 0.1665935516 5.962428276e-39
0.09589722008 -0.4824328423 -0.07035371661 5.962428276e-39
0.1186319068 -0.4670314193 0.2909244001 5.962428276e-39
0.1406409293 -0.1625336558 0.2674696445 5.962428276e-39
0.1426103711 -0.4830014706 -0.1696525514 5.962428276e-39
0.07597657293 -0.2241824567 0.3064888716 5.962428276e-39
0.1638845801 -0.4313320816 -0.2654485703 5.962428276e-39
0.1138269976 -0.3967159688 -0.05924198776 5.962428276e-39
0.1828623861 -0.4479202032 0.05796094239 5.962428276e-39
-0.005413355306 -0.4758799672 -0.2198252529 5.962428276e-39
-0.1025176197 -0.3100933135 0.291924119 5.962428276e-39
0.09782215208 -0.1351109296 -0.3245069385 5.962428276e-39
0.008180739358 -0.1927710325 0.3010982275 5.962428276e-39
-0.0004067011178 -0.4782604575 -0.2044897228 5.962428276e-39
0.08488868922 -0.2925068438 -0.2852277756 5.962428276e-39
-0.2460279465 -0.4799048305 0.2488924414 5.962428276e-39
0.170726493 -0.3766957223 -0.0757599324 5.962428276e-39
0.1572688371 -0.4825925827 0.05045420676 5.962428276e-39
-0.1087717265 -0.304507494 0.2915143073 5.962428276e-39
-0.1354769319 -0.2844929099 0.283728987 5.962428276e-39
0.09525195509 -0.3537837863 0.3016896844 5.962428276e-39
0.1314051002 -0.2401857078 -0.1693141609 5.962428276e-39
0.1600028276 -0.1412044913 -0.04595206678 5.962428276e-39
0.1577822417 -0.1249290407 0.01116324961 5.962428276e-39
0.1101778224 -0.2876049876 -0.2688729167 5.962428276e-39
-0.006560355425 -0.2194589972 0.3002523184 5.962428276e-39
0.1588143259 -0.4470490217 0.2219949961 5.962428276e-39
0.1661563963 -0.155962795 -0.1437748969 5.962428276e-39
-0.007636211812 -0.3815891147 -0.3028466702 5.962428276e-39
0.1305512488 -0.1591062993 0.2976961136 5.962428276e-39
0.1715098172 -0.271330893 -0.0575485006 5.962428276e-39
0.1664172858 -0.206847474 -0.1403174847 5.962428276e-39
-0.2020221949 -0.354454577 0.2633416653 5.962428276e-39
0.1628937125 -0.2831302881 -0.1686977595 5.962428276e-39
0.1064480022 -0.131608218 0.3118211031 5.962428276e-39
0.184974283 -0.4820472002 -0.1279902607 5.962428276e-39
0.1704839319 -0.3399970531 -0.06218749285 5.962428276e-39
0.1815337539 -0.4363470078 0.07927363366 5.962428276e-39
0.1659387797 -0.1696096063 -0.1349049509 5.962428276e-39
0.1706162989 -0.3513860404 0.05043443665 5.962428276e-39
0.04174477607 -0.4837260246 -0.2498333007 5.962428276e-39
-0.06960666925 -0.2782035172 0.2953534126 5.962428276e-39
-0.1905435473 -0.4849565625 0.1617017388 5.962428276e-39
-0.251904726 -0.4557707906 0.1904571503 5.962428276e-39
0.1408027112 -0.1314986795 0.1956275553 5.962428276e-39
0.08817718923 -0.4567715824 -0.08361542225 5.962428276e-39
0.09473113716 -0.4831651151 0.01013863087 5.962428276e-39
-0.2578658164 -0.4562140703 0.216919601 5.962428276e-39
0.147403419 -0.1922739595 0.1899373084 5.962428276e-39
0.06643047929 -0.4821640849 -0.05963829905 5.962428276e-39
0.1454147249 -0.1678071469 0.1866977513 5.962428276e-39
0.1613098085 -0.3651851118 -0.2829280496 5.962428276e-39
0.1560275257 -0.4777456522 -0.2238471359 5.962428276e-39
0.1666669995 -0.1670561284 -0.08116644621 5.962428276e-39
0.1542908847 -0.119303003 -0.3166158199 5.962428276e-39
0.1238818243 -0.4844605029 0.2389220744 5.962428276e-39
0.01806134917 -0.3211766779 0.3069499135 5.962428276e-39
0.1695827395 -0.3377389014 0.04879270121 5.962428276e-39
0.1423663199 -0.4832368493 -0.07201483101 5.962428276e-39
0.0608151108 -0.3797812164 -0.25823313 5.962428276e-39
0.1482805461 -0.1279076487 0.1329036355 5.962428276e-39
0.05557189882 -0.4493563771 -0.2956271768 5.962428276e-39
0.1585842818 -0.3299079835 -0.173889637 5.962428276e-39
0.166279152 -0.2066309452 -0.000711761415 5.962428276e-39
0.1694211066 -0.3014567196 -0.1065642834 5.962428276e-39
0.1517959088 -0.4727335274 -0.2222087532 5.962428276e-39
0.1683269888 -0.3223333061 -0.0265007019 5.962428276e-39
0.1691414863 -0.2067824006 -0.0557589829 5.962428276e-39
0.1597780287 -0.3629301786 -0.29357934 5.962428276e-39
-0.02774192207 -0.426227957 -0.3161748648 5.962428276e-39
0.1668403894 -0.1584727466 -0.1370055377 5.962428276e-39
0.1480204314 -0.1874141991 0.1834965646 5.962428276e-39
-0.1770727485 -0.4897243381 -0.1582678556 5.962428276e-39
-0.18395634 -0.4921101332 -0.1675067395 5.962428276e-39
-0.008400501683 -0.3412166834 0.3061150312 5.962428276e-39
-0.2591709495 -0.4807087779 0.2345519811 5.962428276e-39
0.1766108572 -0.4069395661 0.0224555321 5.962428276e-39
0.1643393934 -0.1616555601 -0.03138569742 5.962428276e-39
-0.07546122372 -0.4840010405 0.2719860673 5.962428276e-39
0.09713038802 -0.4564104676 -0.2771747112 5.962428276e-39
0.1603592932 -0.2402388304 -0.2961184978 5.962428276e-39
0.1703402996 -0.2337258458 -0.09702144563 5.962428276e-39
0.1664403975 -0.3388594389 -0.111201629 5.962428276e-39
0.06398292631 -0.2531199157 0.3065686226 5.962428276e-39
0.1590409279 -0.2746444046 0.1461597383 5.962428276e-39
0.02426039614 -0.1595712304 0.3021447062 5.962428276e-39
0.1582108736 -0.2442807406 0.1412225813 5.962428276e-39
0.1699586213 -0.2431831211 0.01908615977 5.962428276e-39
0.0203440506 -0.4844840169 0.2723392844 5.962428276e-39
0.1634835452 -0.2884891033 -0.161907658 5.962428276e-39
0.1636350304 -0.218146652 0.0720641613 5.962428276e-39
0.04272556305 -0.4033229649 0.3157967925 5.962428276e-39
-0.01389164012 -0.3537499011 0.306450367 5.962428276e-39
-0.1407634169 -0.4824405909 0.2881018519 5.962428276e-39
0.1751793474 -0.4055331349 0.1137637571 5.962428276e-39
0.09500499815 -0.1396291256 -0.3244425654 5.962428276e-39
0.1723741293 -0.2781904936 0.01104847714 5.962428276e-39
-0.01521850843 -0.4193833768 -0.2907627821 5.962428276e-39
0.1508299708 -0.1590251327 -0.2873883843 5.962428276e-39
0.09367723018 -0.245352 0.3035394549 5.962428276e-39
-0.2139541805 -0.368604362 0.2609180212 5.962428276e-39
-0.01608551666 -0.2995558381 0.3032560945 5.962428276e-39
0.1839154512 -0.4406537414 -0.07184235007 5.962428276e-39
0.08373845369 -0.4851185381 0.2723019123 5.962428276e-39
-0.04417269677 -0.4841564298 0.2829622626 5.962428276e-39
0.1796258092 -0.4837629199 -0.174093172 5.962428276e-39
0.1382979304 -0.2780622542 -0.3069435358 5.962428276e-39
-0.05119687319 -0.1726220697 0.3005619049 5.962428276e-39
0.1820601076 -0.4330530167 0.06459543854 5.962428276e-39
0.1582912505 -0.3886789083 -0.2140098661 5.962428276e-39
0.1721892953 -0.2383046597 -0.02518216521 5.962428276e-39
0.1142090037 -0.3460272551 0.04162258282 5.962428276e-39
-0.05888111889 -0.2378434837 0.2982464433 5.962428276e-39
0.160057649 -0.3129924536 0.2072865516 5.962428276e-39
0.1585826129 -0.432112515 0.2315024436 5.962428276e-39
0.1581282914 -0.2736685872 0.168438524 5.962428276e-39
0.1685223281 -0.3462939262 0.07899898291 5.962428276e-39
-0.09006478637 -0.3416469991 0.2959073186 5.962428276e-39
0.1649112254 -0.4196995199 0.1747171134 5.962428276e-39
-0.09621217102 -0.4823781252 0.2976555228 5.962428276e-39
-0.0877102986 -0.4237258136 0.2978915572 5.962428276e-39
0.01123119704 -0.3371047378 0.307444036 5.962428276e-39
0.1446812004 -0.2017035335 0.2601730227 5.962428276e-39
0.1418137103 -0.120689556 -0.3205443621 5.962428276e-39
0.1651685983 -0.3762330711 0.1722121835 5.962428276e-39
0.1448473632 -0.2088729143 0.2716686726 5.962428276e-39
-0.08454877883 -0.4366802871 0.2936170399 8.906165387e-39
0.01120954566 -0.394715786 -0.2843751311 8.906165387e-39
0.1572265923 -0.1844073385 0.1587584019 8.906165387e-39
0.12375734 -0.4833889902 -0.06979838014 8.906165387e-39
0.1017727032 -0.4447170794 0.2874503136 8.906165387e-39
0.1389125884 -0.1515589952 0.2580622733 8.906165387e-39
0.1631197482 -0.4836804271 -0.1739668846 8.906165387e-39
0.05774856359 -0.2165977657 0.2927833796 8.906165387e-39
0.162631914 -0.4188776016 -0.2543775439 8.906165387e-39
0.1033106819 -0.4485871494 -0.111559391 8.906165387e-39
0.1815927476 -0.414608568 0.04968366027 8.906165387e-39
-0.09282315522 -0.4927692413 -0.2539719343 8.906165387e-39
-0.1131074056 -0.3011403382 0.2887911797 8.906165387e-39
0.05261124671 -0.1742114723 -0.3209701777 8.906165387e-39
-0.02241043001 -0.1887003034 0.2938709259 8.906165387e-39
-0.09176461399 -0.4947081208 -0.2434815317 8.906165387e-39
0.02415676974 -0.2982025445 -0.3176754117 8.906165387e-39
-0.2305682302 -0.4783235192 0.2536988258 8.906165387e-39
0.172767356 -0.3325284421 -0.09446781874 8.906165387e-39
0.1712102443 -0.4829857945 0.05536810309 8.906165387e-39
-0.1190098673 -0.2964272499 0.2880423367 8.906165387e-39
-0.1469696313 -0.2807631195 0.2802763581 8.906165387e-39
0.07937056571 -0.3353251219 0.2915164232 8.906165387e-39
0.1300097257 -0.3426710665 -0.2296832651 8.906165387e-39
0.1580723375 -0.12686643 -0.05904653668 8.906165387e-39
0.1559091806 -0.1160731912 0.004561670125 8.906165387e-39
0.05457721651 -0.2999646664 -0.3122763634 8.906165387e-39
-0.03600068763 -0.2171126604 0.2936044931 8.906165387e-39
0.1577112675 -0.4246456325 0.2185296565 8.906165387e-39
0.164659813 -0.1214433163 -0.1626528352 8.906165387e-39
-0.07418907434 -0.4108910263 -0.3366841078 8.906165387e-39
0.1297125816 -0.149086073 0.2875421643 8.906165387e-39
0.1737222672 -0.2198956311 -0.07953085005 8.906165387e-39
0.1685617566 -0.1595398188 -0.1617237777 8.906165387e-39
-0.202444911 -0.3436098099 0.2688993216 8.906165387e-39
0.1687814742 -0.2409031391 -0.1807035208 8.906165387e-39
0.09665038437 -0.1314361393 0.2927290201 8.906165387e-39
0.1729598939 -0.4530136883 -0.1460411996 8.906165387e-39
0.1740853041 -0.2912492156 -0.07814197242 8.906165387e-39
0.1824039221 -0.4074054658 0.07089105248 8.906165387e-39
0.1653818041 -0.125522092 -0.151996389 8.906165387e-39
0.1754580438 -0.3141611218 0.03894399852 8.906165387e-39
0.05179766566 -0.4881279469 -0.2355904728 8.906165387e-39
-0.08539430797 -0.271250695 0.2943366766 8.906165387e-39
-0.1777629405 -0.4842731357 0.1914658844 8.906165387e-39
-0.2886491418 -0.4804158807 0.1864155531 8.906165387e-39
0.1425186098 -0.1286900192 0.1817680597 8.906165387e-39
0.006608812138 -0.4881836176 -0.1613075435 8.906165387e-39
0.1202047244 -0.4833925366 0.009928204119 8.906165387e-39
-0.2788551748 -0.4762354493 0.2151432931 8.906165387e-39
0.151084587 -0.1739647686 0.1784320325 8.906165387e-39
0.09367592633 -0.4828264713 -0.05948595703 8.906165387e-39
0.1487482041 -0.1491001397 0.1741930544 8.906165387e-39
0.1636407971 -0.3733560741 -0.2670124769 8.906165387e-39
0.150201574 -0.4714049697 -0.2292669564 8.906165387e-39
0.164247036 -0.1282567531 -0.1034970134 8.906165387e-39
0.1437885612 -0.1405853927 -0.3102254868 8.906165387e-39
0.1226018742 -0.4761199355 0.2453848571 8.906165387e-39
-0.008233370259 -0.3059991002 0.3003364801 8.906165387e-39
0.1747114211 -0.2993141711 0.03757313266 8.906165387e-39
0.1602356285 -0.4835337102 -0.07794272155 8.906165387e-39
-0.0231926851 -0.4039603472 -0.3022221327 8.906165387e-39
0.1510336846 -0.117817238 0.121517472 8.906165387e-39
0.06326292455 -0.4630330205 -0.2833254337 8.906165387e-39
0.1615915447 -0.2874251008 -0.1826896071 8.906165387e-39
0.165617004 -0.1758926213 -0.009335964918 8.906165387e-39
0.1711311489 -0.2484497577 -0.1308110654 8.906165387e-39
0.1516065449 -0.4453429878 -0.2273092419 8.906165387e-39
0.174304381 -0.2750610411 -0.04643705487 8.906165387e-39
0.1661750823 -0.1620705128 -0.07606143504 8.906165387e-39
0.1517413706 -0.3749064803 -0.2880077958 8.906165387e-39
-0.04632181674 -0.4690812528 -0.3161818385 8.906165387e-39
0.1650517732 -0.1217375249 -0.1557341963 8.906165387e-39
0.1510950774 -0.1686853617 0.1723296046 8.906165387e-39
-0.2163003534 -0.4902942181 -0.1351617873 8.906165387e-39
-0.1991693974 -0.487395972 -0.1274288446 8.906165387e-39
-0.03105859645 -0.3273465037 0.3017670512 8.906165387e-39
-0.2438616008 -0.4779611826 0.2461865246 8.906165387e-39
0.1780117005 -0.378696084 0.003765936941 8.906165387e-39
0.160719946 -0.1396948248 -0.04456848651 8.906165387e-39
-0.06805828214 -0.4841325879 0.2828887701 8.906165387e-39
0.1090217903 -0.4659583569 -0.2653110623 8.906165387e-39
0.1540845484 -0.2551649511 -0.2932385206 8.906165387e-39
0.17021662 -0.1891253442 -0.1162000746 8.906165387e-39
0.1693851054 -0.2848456204 -0.1342026144 8.906165387e-39
0.037369892 -0.2400784045 0.294423461 8.906165387e-39
0.1621796042 -0.2420140058 0.1363898665 8.906165387e-39
-0.004966054112 -0.1558050662 0.293302834 8.906165387e-39
0.1617400497 -0.2183499038 0.1352809817 8.906165387e-39
0.1700122505 -0.2100127637 0.01272685453 8.906165387e-39
0.02736641653 -0.4845480919 0.2834071815 8.906165387e-39
0.1692109257 -0.2448499054 -0.1740552336 8.906165387e-39
0.1660867631 -0.1888239235 0.06608212739 8.906165387e-39
0.01918008365 -0.3841033876 0.30425179 8.906165387e-39
-0.03503324836 -0.3390012085 0.3029449582 8.906165387e-39
-0.129872635 -0.4792485237 0.2905569971 8.906165387e-39
0.177424863 -0.3797776401 0.1040836424 8.906165387e-39
