# .PCD v0.7 - Point Cloud Data file format
VERSION 0.7
FIELDS x y z rgb
SIZE 4 4 4 4
TYPE F F F F
COUNT 1 1 1 1
WIDTH 828
HEIGHT 1
VIEWPOINT 0 0 0 1 0 0 0
POINTS 828
DATA ascii
0.02228797227 -0.3421777785 0.208385393 1.771655483e-38
-0.1002264172 -0.4223386943 0.1122751683 1.771655483e-38
0.0006469637156 -0.3128548861 0.05706266314 1.771655483e-38
-0.03369872272 -0.3291039467 0.04614006355 1.771655483e-38
-0.1731361151 -0.3364265263 -0.01812354289 1.771655483e-38
-0.02696693689 -0.3528897166 0.219726637 1.771655483e-38
0.1341792047 -0.4015102684 0.09651946276 1.771655483e-38
-0.0743162334 -0.3575666249 0.2208916396 1.771655483e-38
0.009703285992 -0.3369601071 0.08382612467 1.771655483e-38
-0.03735867143 -0.3288766146 -0.06203360856 1.771655483e-38
-0.04704204202 -0.3962685764 0.1832678914 1.771655483e-38
-0.1591104269 -0.3443186879 -0.03401040286 1.771655483e-38
-0.1663565487 -0.3464450538 -0.03535236418 1.771655483e-38
0.03483171761 -0.3293367028 -0.06241420656 1.771655483e-38
-0.08639791608 -0.3117188811 0.05200264603 1.771655483e-38
-0.05966544151 -0.4030399621 0.1371263117 1.771655483e-38
-0.1617351025 -0.3476826847 -0.038827084 1.771655483e-38
-0.166045025 -0.3242297769 -0.0038194675 1.771655483e-38
0.06150056422 -0.3430455625 0.0972468853 1.771655483e-38
0.02439641953 -0.3259003162 0.02675944194 1.771655483e-38
0.04269579053 -0.3393652439 0.06352284551 1.771655483e-38
0.1602137685 -0.3533461392 0.08772099763 1.771655483e-38
-0.1014662236 -0.3413085341 0.177516818 1.771655483e-38
-0.06518299878 -0.338213563 0.1448123753 1.771655483e-38
-0.08206154406 -0.3156833649 0.007102847099 1.771655483e-38
-0.02205238491 -0.3550663292 0.01925840043 1.771655483e-38
0.1413069665 -0.3287756443 0.1514424384 1.771655483e-38
-0.03889492154 -0.4164573848 0.06462609768 1.771655483e-38
-0.1188778728 -0.3388893604 0.1712539643 1.771655483e-38
-0.102392599 -0.3366653621 0.1597031951 1.771655483e-38
0.005826309323 -0.3379254341 0.1005306691 1.771655483e-38
-0.0201440379 -0.321418792 -0.03861114383 1.771655483e-38
-0.1517958343 -0.3338426948 0.06707644463 1.771655483e-38
0.06581468135 -0.3967065215 0.04249083251 1.771655483e-38
0.0131440945 -0.326726675 -0.07413294166 1.771655483e-38
-0.04521950334 -0.3216487765 -0.03251044452 1.771655483e-38
-0.1330138147 -0.2977467179 0.07379535586 1.771655483e-38
-0.02453232557 -0.3312091231 -0.07830743492 1.771655483e-38
-0.1579029411 -0.3294739127 0.04684698582 1.771655483e-38
0.1692471802 -0.3912321329 0.04701692238 1.771655483e-38
0.07824861258 -0.442548126 0.05604975671 1.771655483e-38
-0.05393882096 -0.3259853423 -0.04291654378 1.771655483e-38
-0.01268057525 -0.3394606113 0.1527390331 1.771655483e-38
-0.06721766293 -0.3200983107 0.02754656039 1.771655483e-38
0.1451091468 -0.3284491301 0.1521468461 1.771655483e-38
0.1172458827 -0.3670083582 -0.04928132892 1.771655483e-38
0.06477624178 -0.4039542675 0.1299597919 1.771655483e-38
0.1436340213 -0.3335238397 0.1322413534 1.771655483e-38
0.1269740462 -0.3874652386 0.02634783462 1.771655483e-38
0.05822071806 -0.3293432295 0.1835290641 1.771655483e-38
0.06314320862 -0.3338353336 0.2078698575 1.771655483e-38
-0.1502474099 -0.4192707539 -0.007155010477 1.771655483e-38
0.07698249817 -0.441893965 0.05777116865 1.771655483e-38
0.149864763 -0.3977138698 0.07723730057 1.771655483e-38
-0.1217769682 -0.2958516777 0.08915690333 1.771655483e-38
-0.07278250158 -0.4204824567 -0.009779421613 1.771655483e-38
0.1360320747 -0.3274200559 -0.03258080035 1.771655483e-38
-0.1066702753 -0.3177641034 0.01091842912 1.771655483e-38
0.150509432 -0.3432644904 0.01712850854 1.771655483e-38
-0.130829066 -0.3787258565 0.02875787579 1.771655483e-38
-0.09788492322 -0.3326422572 0.1286829561 1.771655483e-38
0.04945899546 -0.423301816 0.04345610738 1.771655483e-38
-0.03298999369 -0.4430583417 0.0735694468 1.771655483e-38
0.001244306564 -0.3484463692 0.2177592069 1.771655483e-38
0.1135862097 -0.3358615637 0.2144519687 1.771655483e-38
-0.109976843 -0.3875377178 0.1843934804 1.771655483e-38
0.07046539336 -0.4417209923 0.04328829795 1.771655483e-38
0.03772709891 -0.4010376036 0.137100324 1.771655483e-38
-0.03807848692 -0.4169453382 -0.02369819023 1.771655483e-38
0.06246295944 -0.377104789 0.04470127821 1.771655483e-38
0.03165199235 -0.4421623349 0.04922620952 1.771655483e-38
-0.02585965395 -0.3997941017 0.1609847099 1.771655483e-38
0.07886685431 -0.400714457 0.2065946311 1.771655483e-38
-0.06497141719 -0.3885485232 0.2004196346 1.771655483e-38
0.05481504649 -0.4144682288 0.1035242379 1.771655483e-38
-0.1061562449 -0.4339807928 0.09238195419 1.771655483e-38
-0.0762270391 -0.3694396019 0.01999854669 1.771655483e-38
-0.04507275671 -0.4337213933 0.09052827954 1.771655483e-38
0.03001420572 -0.4197253287 -0.06768082827 1.771655483e-38
0.04570610449 -0.4043251276 -0.02584162541 1.771655483e-38
-0.1024729759 -0.381259799 0.08343446255 1.771655483e-38
0.004319153726 -0.4101113081 0.1086915582 1.771655483e-38
-0.1512233764 -0.3313521147 -0.02231172659 1.771655483e-38
0.07167772204 -0.4439979792 0.04852463678 1.771655483e-38
0.1029293761 -0.342670083 0.02745971456 1.771655483e-38
0.1581177413 -0.3241061568 0.02760986052 1.771655483e-38
0.1678269207 -0.328096211 0.02580264024 1.771655483e-38
0.07661640644 -0.3279271126 0.1810663939 1.771655483e-38
0.062544249 -0.3399561644 0.03106953762 1.771655483e-38
-0.141027838 -0.3311769962 0.05557389557 1.771655483e-38
0.03265831992 -0.3245352805 0.01088549383 1.771655483e-38
0.04487471282 -0.3210780025 -0.004068644717 1.771655483e-38
-0.1124754548 -0.2941794395 0.07771684974 1.771655483e-38
0.07486994565 -0.3611472249 0.0001542046666 1.771655483e-38
0.06991312653 -0.329549104 0.1645078957 1.771655483e-38
0.1094732732 -0.3432561159 0.02549939044 1.771655483e-38
0.003951117396 -0.4356217384 0.07944053411 1.771655483e-38
-0.03183958679 -0.3394727707 0.1602884233 1.771655483e-38
-0.05706992745 -0.3388877511 0.1495581567 1.771655483e-38
-0.1613621861 -0.3378190398 0.1658981442 1.771655483e-38
0.09079467505 -0.3369413912 0.1444176584 1.771655483e-38
0.09523882717 -0.3317016959 0.163335517 1.771655483e-38
-0.1320232004 -0.3298780322 -0.02881156467 1.771655483e-38
-0.02026341856 -0.3280518055 -0.06504239142 1.771655483e-38
0.08588919789 -0.3930270076 -0.04687730968 1.771655483e-38
0.03668930754 -0.4110005498 -0.03579601645 1.771655483e-38
0.08847100288 -0.4353666306 0.03837091103 1.771655483e-38
-0.02889174223 -0.3365899324 0.1035139561 1.771655483e-38
0.01741879061 -0.4093830884 0.05243945867 1.771655483e-38
-0.03986886144 -0.4143020213 -0.0168971885 1.771655483e-38
0.06268902123 -0.3295779824 0.003939528018 1.771655483e-38
-0.06659337878 -0.3629012108 0.2383085191 1.771655483e-38
0.1341824234 -0.3622129858 0.05880730599 1.771655483e-38
-0.003789566457 -0.355088383 0.233217746 1.771655483e-38
0.06491573155 -0.4163173735 0.09989794344 1.771655483e-38
-0.1265020072 -0.3599748313 -0.07541427016 1.771655483e-38
-0.1250492334 -0.4147192538 0.001949630678 1.771655483e-38
-0.05542381108 -0.3018223643 0.05687147379 1.771655483e-38
0.1452746391 -0.3870697916 0.09367132932 1.771655483e-38
-0.004699550569 -0.3756555915 0.06231354922 1.771655483e-38
0.1064885482 -0.3301491141 -0.06394151598 1.771655483e-38
0.06899495423 -0.4186778069 0.09519855678 1.771655483e-38
0.1642623544 -0.3944868445 0.05380733311 1.771655483e-38
0.1219940707 -0.3468804061 -0.0522158742 1.771655483e-38
-0.01584302634 -0.3229601383 -0.04516644776 1.771655483e-38
0.02193817124 -0.4266523421 0.08504337072 1.771655483e-38
-0.1537920386 -0.3822461069 0.02602500841 1.771655483e-38
-0.03408648819 -0.3959969878 -0.001795750111 1.771655483e-38
-0.01779300719 -0.3373669982 0.1060161814 1.771655483e-38
0.1388798058 -0.3178209066 -0.02823470719 1.771655483e-38
0.1068084687 -0.3344868422 0.1513402015 1.771655483e-38
-0.01307010651 -0.354763031 0.2291014344 1.771655483e-38
-0.1450867802 -0.3437463045 0.1809306592 1.771655483e-38
-0.1549954265 -0.3653428853 -0.0723573193 1.771655483e-38
-0.151230514 -0.4235371053 0.1103167385 1.771655483e-38
-0.09547075629 -0.3433518708 -0.05967897177 1.771655483e-38
-0.04701200128 -0.3946816921 0.00117597729 1.771655483e-38
0.1560218334 -0.3369694352 0.1088583544 1.771655483e-38
0.1335696578 -0.3445098102 0.1020072922 1.771655483e-38
0.01455279812 -0.3958856165 0.1642056406 1.771655483e-38
-0.03999084979 -0.3302240372 -0.06777008623 1.771655483e-38
-0.0123186931 -0.3351962566 0.06047523022 1.771655483e-38
0.03658337146 -0.4018422663 0.1958295703 1.771655483e-38
-0.08245040476 -0.3573228419 0.2189431638 1.771655483e-38
-0.1453481168 -0.3234709501 -0.008013179526 1.771655483e-38
-0.1386229545 -0.3787676394 0.0287547186 1.771655483e-38
0.01318253577 -0.3539027274 0.2361546904 1.771655483e-38
0.02508788928 -0.4422903359 0.05034875125 1.771655483e-38
-0.1098034531 -0.4054418504 0.08083871752 1.771655483e-38
-0.09243388474 -0.3492016196 0.1959902644 1.771655483e-38
0.03175463155 -0.3374526799 0.08250680566 1.771655483e-38
0.1416601241 -0.336498946 0.159402594 1.771655483e-38
-0.1397629827 -0.4257914722 0.08239912242 1.771655483e-38
0.1114365309 -0.3901726902 0.03029675782 1.771655483e-38
-0.1084177345 -0.3978902698 0.08179720491 1.771655483e-38
-0.04936686158 -0.3162447512 -0.01276975684 1.771655483e-38
0.03062757477 -0.3228010535 0.008672278374 1.771655483e-38
0.002381965518 -0.3398153186 0.1210614368 1.771655483e-38
0.09567169845 -0.3986483216 0.1385533959 1.771655483e-38
-0.148639515 -0.3343559504 0.0696522966 1.771655483e-38
-0.1210638881 -0.410086602 0.1351186633 1.771655483e-38
0.0296340771 -0.3250467479 0.03697223961 1.771655483e-38
-0.1303985864 -0.4334164262 0.0926206708 1.771655483e-38
0.005654506385 -0.3308150768 0.0610825941 1.771655483e-38
0.07703318447 -0.4140934646 0.1061316654 1.771655483e-38
-0.1334262937 -0.3309062123 0.1426420212 1.771655483e-38
0.02792205289 -0.3966905475 0.1586004049 1.771655483e-38
0.1566307992 -0.3487543762 0.1026784182 1.771655483e-38
-0.02813651413 -0.3995142579 -0.005283115432 1.771655483e-38
0.1155532897 -0.4346374869 0.03557480127 1.771655483e-38
-0.03346502036 -0.3990611434 0.1558940411 1.771655483e-38
-0.08959935606 -0.3989872634 0.009511787444 1.771655483e-38
-0.155015856 -0.4308280349 0.08392382413 1.771655483e-38
0.1533279419 -0.4133640826 0.05958256871 1.771655483e-38
-0.0160427168 -0.3979309201 0.1592974067 2.348204041e-38
0.09433046728 -0.4330737293 0.03689079359 2.348204041e-38
0.1386535913 -0.3430507779 0.1727340221 2.348204041e-38
-0.1888385117 -0.3390601277 -0.01754220016 2.348204041e-38
-0.1704239696 -0.3323400021 0.06174819171 2.348204041e-38
-0.1571376026 -0.433870554 0.08391356468 2.348204041e-38
0.1216363087 -0.3448826075 0.01474568248 2.348204041e-38
-0.1068366319 -0.3504852951 0.197785005 2.348204041e-38
-0.1378459632 -0.3210671544 0.007257284597 2.348204041e-38
-0.09703008831 -0.3541606069 -0.08054277301 2.348204041e-38
-0.12719208 -0.2963091135 0.09107667953 2.348204041e-38
0.1221223176 -0.3364087343 0.0347556062 2.348204041e-38
0.1492221951 -0.3412737846 0.094082959 2.348204041e-38
0.05722919106 -0.4019506574 0.1348562837 2.348204041e-38
0.05530805513 -0.3420310915 0.04697885737 2.348204041e-38
0.08484463394 -0.3464716673 0.1108715385 2.348204041e-38
-0.09291552007 -0.3481701612 -0.070871979 2.348204041e-38
0.05715285242 -0.3266405463 -0.03899463266 2.348204041e-38
-0.108431533 -0.3543155789 0.2074644119 2.348204041e-38
0.1393174827 -0.3365625739 0.2081505656 2.348204041e-38
-0.01002410054 -0.3377187848 0.07258353382 2.348204041e-38
-0.1932073534 -0.3339903951 0.09361790866 2.348204041e-38
0.114409104 -0.3426782191 -0.07302396744 2.348204041e-38
-0.09004022181 -0.2959696054 0.06746898592 2.348204041e-38
-0.1505923122 -0.3429492116 0.05052529275 2.348204041e-38
-0.07276175916 -0.4143060744 -0.004246378317 2.348204041e-38
0.07752345502 -0.3361268044 0.1441290379 2.348204041e-38
-0.07006308436 -0.3363767862 0.07300651819 2.348204041e-38
0.1419608295 -0.3441797495 0.1524721235 2.348204041e-38
-0.1297772676 -0.3336618245 0.06590621918 2.348204041e-38
0.1372624636 -0.3814678192 0.1248376891 2.348204041e-38
-0.08981190622 -0.3329591155 0.06018726528 2.348204041e-38
0.06038511917 -0.3311189413 -0.0607695654 2.348204041e-38
0.1540679038 -0.3695233166 0.02281949855 2.348204041e-38
0.04470550269 -0.4425716698 0.06218703836 2.348204041e-38
0.05496533215 -0.3448094726 0.07782453299 2.348204041e-38
0.001775987446 -0.3152391315 -0.02256171219 2.348204041e-38
-0.08547544479 -0.3274217546 -0.03463384509 2.348204041e-38
0.1570143402 -0.4112967253 0.05505546182 2.348204041e-38
-0.0986674726 -0.4353571236 0.09014746547 2.348204041e-38
0.1347995996 -0.3692114651 0.1484069079 2.348204041e-38
-0.005348213017 -0.3266752362 -0.06294345111 2.348204041e-38
0.08275083452 -0.3380214572 0.2208601981 2.348204041e-38
0.08346611261 -0.3337951303 0.1532154977 2.348204041e-38
-0.122445479 -0.3183596134 0.01896005124 2.348204041e-38
0.08561629802 -0.3490718305 0.03797770292 2.348204041e-38
-0.07379436493 -0.3288064003 -0.04270757735 2.348204041e-38
0.06785026193 -0.3471994996 0.08831425756 2.348204041e-38
0.09801701456 -0.3896234632 0.1951708794 2.348204041e-38
-0.09164190292 -0.3888560534 0.08038310707 2.348204041e-38
-0.1623945087 -0.3526983559 -0.04704648256 2.348204041e-38
-0.1856484115 -0.3391872346 0.1671320051 2.348204041e-38
-0.01527815312 -0.3260890543 0.03291673586 2.348204041e-38
-0.094300583 -0.3334504962 0.04190706462 2.348204041e-38
0.1277235597 -0.3269210458 0.1881770641 2.348204041e-38
0.1639406085 -0.390976131 0.02987187356 2.348204041e-38
0.1380380392 -0.3272131681 0.2035161257 2.348204041e-38
-0.1075668484 -0.3613670766 0.2274881005 2.348204041e-38
-0.06249861419 -0.3955283165 0.170922175 2.348204041e-38
0.103532359 -0.3801280856 -0.05506554991 2.348204041e-38
0.02496900409 -0.3209023476 -0.03538863361 2.348204041e-38
-0.1488419026 -0.3256849349 0.02856209315 2.348204041e-38
0.004245780408 -0.3551238775 0.2361561656 2.348204041e-38
0.1294028908 -0.3198699057 -0.03476649523 2.348204041e-38
0.04805164784 -0.3520644605 0.01115029678 2.348204041e-38
0.09711161256 -0.3459708989 0.03673215583 2.348204041e-38
-0.02300242335 -0.3388263583 0.1169355139 2.348204041e-38
-0.04946122319 -0.3864992261 0.006351295859 2.348204041e-38
0.07129216194 -0.3248504102 -0.01549636386 2.348204041e-38
0.1152587831 -0.345597893 0.1139724702 2.348204041e-38
-0.002530321479 -0.3376487494 0.09781699628 2.348204041e-38
-0.1158392876 -0.3597651422 -0.08059205115 2.348204041e-38
-0.07971434295 -0.4018021822 0.1449973285 2.348204041e-38
0.01238816977 -0.3389537632 0.1439052373 2.348204041e-38
-0.204908669 -0.3372842073 0.07238287479 2.348204041e-38
0.007383227348 -0.4020377696 0.1321118921 2.348204041e-38
-0.1064486802 -0.3907611668 0.01843388937 2.348204041e-38
-0.1505397856 -0.3387159705 -0.02936875261 2.348204041e-38
-0.1130744964 -0.3496768773 -0.06273140013 2.348204041e-38
-0.05568355322 -0.313300997 0.07593936473 2.348204041e-38
-0.0581304878 -0.3272864521 -0.04495960474 2.348204041e-38
0.01867097244 -0.3431666493 0.20969069 2.348204041e-38
0.02228797227 -0.3421777785 0.208385393 2.348204041e-38
-0.1002264172 -0.4223386943 0.1122751683 2.348204041e-38
0.0006469637156 -0.3128548861 0.05706266314 2.348204041e-38
-0.03369872272 -0.3291039467 0.04614006355 2.348204041e-38
-0.1731361151 -0.3364265263 -0.01812354289 2.348204041e-38
-0.02696693689 -0.3528897166 0.219726637 2.348204041e-38
0.1341792047 -0.4015102684 0.09651946276 2.348204041e-38
-0.0743162334 -0.3575666249 0.2208916396 2.348204041e-38
0.009703285992 -0.3369601071 0.08382612467 2.348204041e-38
-0.03735867143 -0.3288766146 -0.06203360856 2.348204041e-38
-0.04704204202 -0.3962685764 0.1832678914 2.348204041e-38
-0.1591104269 -0.3443186879 -0.03401040286 2.348204041e-38
-0.1663565487 -0.3464450538 -0.03535236418 2.348204041e-38
0.03483171761 -0.3293367028 -0.06241420656 2.348204041e-38
-0.08639791608 -0.3117188811 0.05200264603 2.348204041e-38
-0.05966544151 -0.4030399621 0.1371263117 2.348204041e-38
-0.1617351025 -0.3476826847 -0.038827084 2.348204041e-38
-0.166045025 -0.3242297769 -0.0038194675 2.348204041e-38
0.06150056422 -0.3430455625 0.0972468853 2.348204041e-38
0.02439641953 -0.3259003162 0.02675944194 2.348204041e-38
0.04269579053 -0.3393652439 0.06352284551 2.348204041e-38
0.1602137685 -0.3533461392 0.08772099763 2.348204041e-38
-0.1014662236 -0.3413085341 0.177516818 2.348204041e-38
-0.06518299878 -0.338213563 0.1448123753 2.348204041e-38
-0.08206154406 -0.3156833649 0.007102847099 2.348204041e-38
-0.02205238491 -0.3550663292 0.01925840043 2.348204041e-38
0.1413069665 -0.3287756443 0.1514424384 2.348204041e-38
-0.03889492154 -0.4164573848 0.06462609768 2.348204041e-38
-0.1188778728 -0.3388893604 0.1712539643 2.348204041e-38
-0.102392599 -0.3366653621 0.1597031951 2.348204041e-38
0.005826309323 -0.3379254341 0.1005306691 2.348204041e-38
-0.0201440379 -0.321418792 -0.03861114383 2.348204041e-38
-0.1517958343 -0.3338426948 0.06707644463 2.348204041e-38
0.06581468135 -0.3967065215 0.04249083251 2.348204041e-38
0.0131440945 -0.326726675 -0.07413294166 2.348204041e-38
-0.04521950334 -0.3216487765 -0.03251044452 2.348204041e-38
-0.1330138147 -0.2977467179 0.07379535586 2.348204041e-38
-0.02453232557 -0.3312091231 -0.07830743492 2.348204041e-38
-0.1579029411 -0.3294739127 0.04684698582 2.348204041e-38
0.1692471802 -0.3912321329 0.04701692238 2.348204041e-38
0.07824861258 -0.442548126 0.05604975671 2.348204041e-38
-0.05393882096 -0.3259853423 -0.04291654378 2.348204041e-38
-0.01268057525 -0.3394606113 0.1527390331 2.348204041e-38
-0.06721766293 -0.3200983107 0.02754656039 2.348204041e-38
0.1451091468 -0.3284491301 0.1521468461 2.348204041e-38
0.1172458827 -0.3670083582 -0.04928132892 2.348204041e-38
0.06477624178 -0.4039542675 0.1299597919 2.348204041e-38
0.1436340213 -0.3335238397 0.1322413534 2.348204041e-38
0.1269740462 -0.3874652386 0.02634783462 2.348204041e-38
0.05822071806 -0.3293432295 0.1835290641 2.348204041e-38
0.06314320862 -0.3338353336 0.2078698575 2.348204041e-38
-0.1502474099 -0.4192707539 -0.007155010477 2.348204041e-38
0.07698249817 -0.441893965 0.05777116865 2.348204041e-38
0.149864763 -0.3977138698 0.07723730057 2.348204041e-38
-0.1217769682 -0.2958516777 0.08915690333 2.348204041e-38
-0.07278250158 -0.4204824567 -0.009779421613 2.348204041e-38
0.1360320747 -0.3274200559 -0.03258080035 2.348204041e-38
-0.1066702753 -0.3177641034 0.01091842912 2.348204041e-38
0.150509432 -0.3432644904 0.01712850854 2.348204041e-38
-0.130829066 -0.3787258565 0.02875787579 2.348204041e-38
-0.09788492322 -0.3326422572 0.1286829561 2.348204041e-38
0.04945899546 -0.423301816 0.04345610738 2.348204041e-38
-0.03298999369 -0.4430583417 0.0735694468 2.348204041e-38
0.001244306564 -0.3484463692 0.2177592069 2.348204041e-38
0.1135862097 -0.3358615637 0.2144519687 2.348204041e-38
-0.109976843 -0.3875377178 0.1843934804 2.348204041e-38
0.07046539336 -0.4417209923 0.04328829795 2.348204041e-38
0.03772709891 -0.4010376036 0.137100324 2.348204041e-38
-0.03807848692 -0.4169453382 -0.02369819023 2.348204041e-38
0.06246295944 -0.377104789 0.04470127821 2.348204041e-38
0.03165199235 -0.4421623349 0.04922620952 2.348204041e-38
-0.02585965395 -0.3997941017 0.1609847099 2.348204041e-38
0.07886685431 -0.400714457 0.2065946311 2.348204041e-38
-0.06497141719 -0.3885485232 0.2004196346 2.348204041e-38
0.05481504649 -0.4144682288 0.1035242379 2.348204041e-38
-0.1061562449 -0.4339807928 0.09238195419 2.348204041e-38
-0.0762270391 -0.3694396019 0.01999854669 2.348204041e-38
-0.04507275671 -0.4337213933 0.09052827954 2.348204041e-38
0.03001420572 -0.4197253287 -0.06768082827 2.348204041e-38
0.04570610449 -0.4043251276 -0.02584162541 2.348204041e-38
-0.1024729759 -0.381259799 0.08343446255 2.348204041e-38
0.004319153726 -0.4101113081 0.1086915582 2.348204041e-38
-0.1512233764 -0.3313521147 -0.02231172659 2.348204041e-38
0.07167772204 -0.4439979792 0.04852463678 2.348204041e-38
0.1029293761 -0.342670083 0.02745971456 2.348204041e-38
0.1581177413 -0.3241061568 0.02760986052 2.348204041e-38
0.1678269207 -0.328096211 0.02580264024 2.348204041e-38
0.07661640644 -0.3279271126 0.1810663939 2.348204041e-38
0.062544249 -0.3399561644 0.03106953762 2.348204041e-38
-0.141027838 -0.3311769962 0.05557389557 2.348204041e-38
0.03265831992 -0.3245352805 0.01088549383 2.348204041e-38
0.04487471282 -0.3210780025 -0.004068644717 2.348204041e-38
-0.1124754548 -0.2941794395 0.07771684974 2.348204041e-38
0.07486994565 -0.3611472249 0.0001542046666 2.348204041e-38
0.06991312653 -0.329549104 0.1645078957 2.348204041e-38
0.1094732732 -0.3432561159 0.02549939044 2.348204041e-38
0.003951117396 -0.4356217384 0.07944053411 2.348204041e-38
-0.03183958679 -0.3394727707 0.1602884233 2.348204041e-38
-0.05706992745 -0.3388877511 0.1495581567 2.348204041e-38
-0.1613621861 -0.3378190398 0.1658981442 2.348204041e-38
0.09079467505 -0.3369413912 0.1444176584 2.348204041e-38
0.09523882717 -0.3317016959 0.163335517 2.348204041e-38
-0.1320232004 -0.3298780322 -0.02881156467 2.348204041e-38
-0.02026341856 -0.3280518055 -0.06504239142 2.348204041e-38
0.08588919789 -0.3930270076 -0.04687730968 2.348204041e-38
0.03668930754 -0.4110005498 -0.03579601645 2.348204041e-38
0.08847100288 -0.4353666306 0.03837091103 2.348204041e-38
-0.02889174223 -0.3365899324 0.1035139561 2.348204041e-38
0.01741879061 -0.4093830884 0.05243945867 2.348204041e-38
-0.03986886144 -0.4143020213 -0.0168971885 2.348204041e-38
0.06268902123 -0.3295779824 0.003939528018 2.348204041e-38
-0.06659337878 -0.3629012108 0.2383085191 2.348204041e-38
0.1341824234 -0.3622129858 0.05880730599 2.348204041e-38
-0.003789566457 -0.355088383 0.233217746 2.348204041e-38
0.06491573155 -0.4163173735 0.09989794344 2.348204041e-38
-0.1265020072 -0.3599748313 -0.07541427016 2.348204041e-38
-0.1250492334 -0.4147192538 0.001949630678 2.348204041e-38
-0.05542381108 -0.3018223643 0.05687147379 2.348204041e-38
0.1452746391 -0.3870697916 0.09367132932 2.348204041e-38
-0.004699550569 -0.3756555915 0.06231354922 2.348204041e-38
0.1064885482 -0.3301491141 -0.06394151598 2.348204041e-38
0.06899495423 -0.4186778069 0.09519855678 2.348204041e-38
0.1642623544 -0.3944868445 0.05380733311 2.348204041e-38
0.1219940707 -0.3468804061 -0.0522158742 2.348204041e-38
-0.01584302634 -0.3229601383 -0.04516644776 2.348204041e-38
0.02193817124 -0.4266523421 0.08504337072 2.348204041e-38
-0.1537920386 -0.3822461069 0.02602500841 2.348204041e-38
-0.03408648819 -0.3959969878 -0.001795750111 2.348204041e-38
-0.01779300719 -0.3373669982 0.1060161814 2.348204041e-38
0.1388798058 -0.3178209066 -0.02823470719 2.348204041e-38
0.1068084687 -0.3344868422 0.1513402015 2.348204041e-38
-0.01307010651 -0.354763031 0.2291014344 2.348204041e-38
-0.1450867802 -0.3437463045 0.1809306592 2.348204041e-38
-0.1549954265 -0.3653428853 -0.0723573193 2.348204041e-38
-0.151230514 -0.4235371053 0.1103167385 2.348204041e-38
-0.09547075629 -0.3433518708 -0.05967897177 2.348204041e-38
-0.04701200128 -0.3946816921 0.00117597729 2.348204041e-38
0.1560218334 -0.3369694352 0.1088583544 2.348204041e-38
0.1335696578 -0.3445098102 0.1020072922 2.348204041e-38
0.01455279812 -0.3958856165 0.1642056406 2.348204041e-38
-0.03999084979 -0.3302240372 -0.06777008623 2.348204041e-38
-0.0123186931 -0.3351962566 0.06047523022 2.348204041e-38
0.03658337146 -0.4018422663 0.1958295703 2.348204041e-38
-0.08245040476 -0.3573228419 0.2189431638 2.348204041e-38
-0.1453481168 -0.3234709501 -0.008013179526 2.348204041e-38
-0.1386229545 -0.3787676394 0.0287547186 2.348204041e-38
0.01318253577 -0.3539027274 0.2361546904 2.348204041e-38
0.02508788928 -0.4422903359 0.05034875125 2.348204041e-38
-0.1098034531 -0.4054418504 0.08083871752 2.348204041e-38
-0.09243388474 -0.3492016196 0.1959902644 2.348204041e-38
0.03175463155 -0.3374526799 0.08250680566 2.348204041e-38
0.1416601241 -0.336498946 0.159402594 2.348204041e-38
-0.1397629827 -0.4257914722 0.08239912242 2.348204041e-38
0.1114365309 -0.3901726902 0.03029675782 2.348204041e-38
-0.1084177345 -0.3978902698 0.08179720491 2.348204041e-38
-0.04936686158 -0.3162447512 -0.01276975684 2.348204041e-38
0.03062757477 -0.3228010535 0.008672278374 2.348204041e-38
0.002381965518 -0.3398153186 0.1210614368 2.348204041e-38
0.09567169845 -0.3986483216 0.1385533959 2.348204041e-38
-0.148639515 -0.3343559504 0.0696522966 2.348204041e-38
-0.1210638881 -0.410086602 0.1351186633 2.348204041e-38
0.0296340771 -0.3250467479 0.03697223961 2.348204041e-38
-0.1303985864 -0.4334164262 0.0926206708 2.348204041e-38
0.005654506385 -0.3308150768 0.0610825941 2.348204041e-38
0.07703318447 -0.4140934646 0.1061316654 2.348204041e-38
-0.1334262937 -0.3309062123 0.1426420212 2.348204041e-38
0.02792205289 -0.3966905475 0.1586004049 2.348204041e-38
0.1566307992 -0.3487543762 0.1026784182 2.348204041e-38
-0.02813651413 -0.3995142579 -0.005283115432 2.348204041e-38
0.1155532897 -0.4346374869 0.03557480127 2.348204041e-38
-0.03346502036 -0.3990611434 0.1558940411 2.348204041e-38
-0.08959935606 -0.3989872634 0.009511787444 2.348204041e-38
-0.155015856 -0.4308280349 0.08392382413 2.348204041e-38
0.1533279419 -0.4133640826 0.05958256871 2.348204041e-38
-0.1291417927 -0.2841445506 0.2246596217 2.345219836e-38
-0.08632586896 -0.3484124839 0.127276361 2.345219836e-38
-0.01337320358 -0.2831694782 0.235707283 2.345219836e-38
-0.01583216339 -0.459900856 0.0712236613 2.345219836e-38
0.001220650971 -0.4629481733 0.1178850383 2.345219836e-38
-0.2407509089 -0.3379480839 0.150445804 2.345219836e-38
-0.0587143302 -0.3462432027 0.05738700181 2.345219836e-38
0.007800891995 -0.4444782436 0.2228186429 2.345219836e-38
0.02306539193 -0.4334497452 0.07763673365 2.345219836e-38
0.03793071955 -0.3959119618 -0.001002203673 2.345219836e-38
-0.2465441227 -0.3728986084 0.07378013432 2.345219836e-38
0.0003305375576 -0.334405303 0.07392158359 2.345219836e-38
-0.001257456839 -0.3221764565 0.1588584036 2.345219836e-38
-0.08462899923 -0.2985118032 0.2090637982 2.345219836e-38
-0.1123137921 -0.3582042456 0.07557944208 2.345219836e-38
0.03099576384 -0.331052959 0.1546150595 2.345219836e-38
0.03967340663 -0.3877686858 0.007280586287 2.345219836e-38
0.005830615759 -0.3136227727 0.01446253434 2.345219836e-38
-6.547570229e-05 -0.4450552762 0.2330515236 2.345219836e-38
0.0005790218711 -0.2736484408 0.2600131333 2.345219836e-38
0.04515286908 -0.3848532736 0.1030593738 2.345219836e-38
-0.02148452401 -0.4778471589 0.1415010989 2.345219836e-38
-0.0312166065 -0.3011925519 -0.007753698155 2.345219836e-38
-0.2214309871 -0.370523572 0.05711842328 2.345219836e-38
-0.257329464 -0.3602932394 0.03476301208 2.345219836e-38
-0.1848505437 -0.3274576068 0.0002884808928 2.345219836e-38
0.03403339162 -0.3179898858 0.1874861866 2.345219836e-38
0.04449587315 -0.4148195088 0.1111408398 2.345219836e-38
-0.01691959053 -0.290928036 0.2197784036 2.345219836e-38
0.02425134555 -0.4425202012 0.1149386466 2.345219836e-38
-0.03455289453 -0.3058594763 0.1995467544 2.345219836e-38
0.04150827229 -0.4204755127 0.1058856696 2.345219836e-38
0.001494854689 -0.301238209 -0.001076910645 2.345219836e-38
-0.04404156655 -0.3467221856 0.08689394593 2.345219836e-38
-0.1132774353 -0.3361789882 0.1562021673 2.345219836e-38
0.03714438528 -0.352578938 0.1052390561 2.345219836e-38
0.02849546447 -0.3358132839 0.03120249882 2.345219836e-38
0.04167927057 -0.3828364313 0.03401391953 2.345219836e-38
-0.04031021893 -0.3365751505 0.1415064931 2.345219836e-38
-0.1960743964 -0.3272120655 0.1675353497 2.345219836e-38
-0.02839531004 -0.2923362255 0.2186699659 2.345219836e-38
0.02460850775 -0.3130961657 0.0002553872764 2.345219836e-38
0.04231039435 -0.291077137 0.2594117224 2.345219836e-38
0.03184679896 -0.3092631996 0.1972762942 2.345219836e-38
0.03276348487 -0.4262679517 0.082360439 2.345219836e-38
-0.08722350001 -0.3540297449 0.07385913283 2.345219836e-38
0.04015048966 -0.3702770174 0.02493212372 2.345219836e-38
0.03631414846 -0.3468922377 0.1211775765 2.345219836e-38
-0.04059445858 -0.2768153548 0.2523648441 2.345219836e-38
-0.2154352963 -0.3574545979 0.1244937927 2.345219836e-38
-0.0004269257188 -0.438876152 0.04239742085 2.345219836e-38
-0.04102903605 -0.483669728 0.1932531148 2.345219836e-38
0.04109042883 -0.3740205467 0.07991304249 2.345219836e-38
-0.2158115208 -0.3601488471 0.03460017964 2.345219836e-38
0.01296282187 -0.2808386683 0.2398951203 2.345219836e-38
-0.03983195126 -0.345808059 0.102574572 2.345219836e-38
0.004743970931 -0.2760543823 0.2557131946 2.345219836e-38
-0.01265215129 -0.4422056675 0.2534923851 2.345219836e-38
-0.158167243 -0.2772880495 0.2331222892 2.345219836e-38
-0.05438990891 -0.3142437935 -0.0001752395183 2.345219836e-38
0.01844907552 -0.3209196627 0.01865589805 2.345219836e-38
0.01524318755 -0.4455985427 0.09388811141 2.345219836e-38
0.05869817361 -0.3600268066 0.2675330043 2.345219836e-38
-0.0261991024 -0.3239730299 0.01977858692 2.345219836e-38
-0.1093391776 -0.3499664068 0.03406176716 2.345219836e-38
0.0122907348 -0.3320891857 0.07313848287 2.345219836e-38
0.05016870797 -0.4004099667 0.1439450532 2.345219836e-38
-0.1737206578 -0.3416739702 0.01410466805 2.345219836e-38
0.004651725292 -0.3228981495 0.033123862 2.345219836e-38
0.01717893034 -0.3165771961 0.1672420204 2.345219836e-38
0.04746913165 -0.3881423473 0.1245188937 2.345219836e-38
0.0267078951 -0.4136058688 0.001697978005 2.345219836e-38
-0.1732610017 -0.2934877276 0.2092078626 2.345219836e-38
0.05081161857 -0.3722322881 0.1754975468 2.345219836e-38
-0.0296420157 -0.480563134 0.1308362335 2.345219836e-38
-0.1187130511 -0.2987045646 0.2071541995 2.345219836e-38
-0.2168640494 -0.3425384164 0.01384393219 2.345219836e-38
0.01142730191 -0.4321153462 0.05227487534 2.345219836e-38
0.03308204189 -0.4023868144 0.01798779145 2.345219836e-38
-0.2015200555 -0.3702349365 0.07908642292 2.345219836e-38
0.03752643615 -0.3574710488 0.02029636689 2.345219836e-38
0.05546036363 -0.3418058753 0.2411675602 2.345219836e-38
0.05495713651 -0.3381346464 0.2401431799 2.345219836e-38
-0.1908607185 -0.3142806888 0.1841532588 2.345219836e-38
-0.1564168185 -0.3634533584 0.06304423511 2.345219836e-38
0.0445484966 -0.387601018 0.08959616721 2.345219836e-38
-0.002677485347 -0.4508393407 0.06670704484 2.345219836e-38
0.05114540458 -0.3802108169 0.2479141057 2.345219836e-38
-0.04381341487 -0.3202490211 0.1765672565 2.345219836e-38
0.02071902156 -0.4220592082 0.2462489009 2.345219836e-38
0.04418025538 -0.3775413632 0.109012574 2.345219836e-38
0.0327113457 -0.3347802162 0.00556397438 2.345219836e-38
-0.1467248946 -0.2750995159 0.2409859151 2.345219836e-38
0.004283696413 -0.4376955926 0.05123796314 2.345219836e-38
-0.0009074062109 -0.4421776533 0.05222282559 2.345219836e-38
0.01111735404 -0.3013348281 -0.002245087177 2.345219836e-38
-0.2146499753 -0.3654846251 0.04432158172 2.345219836e-38
-0.1624732912 -0.2967818081 0.2061986327 2.345219836e-38
0.001613222063 -0.438652575 0.04853726923 2.345219836e-38
0.004286803305 -0.4492000937 0.07524675131 2.345219836e-38
0.03901684284 -0.3487238884 0.1311593205 2.345219836e-38
0.03411077708 -0.3501957059 0.07248110324 2.345219836e-38
0.03671684489 -0.3539663553 0.09164075553 2.345219836e-38
-0.01852232218 -0.3241009414 0.1623510569 2.345219836e-38
0.02131702006 -0.440582335 0.2008496374 2.345219836e-38
0.04484158009 -0.4195076525 0.1701651067 2.345219836e-38
0.04354576766 -0.401014626 0.07013570517 2.345219836e-38
-0.1612269729 -0.352157563 0.02782093175 2.345219836e-38
0.0006726756692 -0.2945882976 0.211525768 2.345219836e-38
-0.1751856506 -0.3498531282 0.1349103153 2.345219836e-38
0.01338374242 -0.4504815936 0.1946085393 2.345219836e-38
0.02493669465 -0.4413482845 0.1840796769 2.345219836e-38
0.04708112031 -0.3835648894 0.1277040988 2.345219836e-38
0.03125487641 -0.3375088871 0.02006598562 2.345219836e-38
0.01184160635 -0.4544390738 0.1184851527 2.345219836e-38
-0.1051455736 -0.3548902869 0.1131464019 2.345219836e-38
0.01649956033 -0.2993993163 -0.008616143838 2.345219836e-38
0.03628045693 -0.3558261395 0.02837296203 2.345219836e-38
-0.2483493686 -0.3702225983 0.05607784539 2.345219836e-38
0.0293652676 -0.3219014704 -0.01023891009 2.345219836e-38
0.009067803621 -0.4544626176 0.1073608324 2.345219836e-38
-0.02935495973 -0.3387973607 0.1281361133 2.345219836e-38
-0.09096354246 -0.3385172784 0.1502321512 2.345219836e-38
0.0368398726 -0.3553613722 0.02115197293 2.345219836e-38
0.05274966359 -0.3888708055 0.1813421696 2.345219836e-38
0.04560379684 -0.3993203342 0.08159366995 2.345219836e-38
-0.005548655987 -0.2928951681 0.2152905613 2.345219836e-38
-0.04827175289 -0.3194556832 0.006090799347 2.345219836e-38
-0.08112315834 -0.3016867042 0.2050418407 2.345219836e-38
0.001364089549 -0.304656744 0.1940218657 2.345219836e-38
-0.06212475896 -0.3509079516 0.09578159451 2.345219836e-38
0.04445298761 -0.3082009554 0.2208447158 2.345219836e-38
0.04723182693 -0.3010014594 0.245285511 2.345219836e-38
-0.2437025011 -0.3194003105 -0.009931022301 2.345219836e-38
-0.09154996276 -0.3377077579 0.151735127 2.345219836e-38
-0.03693072498 -0.3284300566 0.1600263864 2.345219836e-38
-0.2434701324 -0.3729203343 0.07267141342 2.345219836e-38
-0.1832236946 -0.321339637 -0.005524707958 2.345219836e-38
-0.03351642936 -0.3279337883 0.02331806161 2.345219836e-38
0.03870767727 -0.4159402847 0.07578918338 2.345219836e-38
-0.043090716 -0.3446549177 0.07120472938 2.345219836e-38
-0.2387078702 -0.3478583694 0.01911153644 2.345219836e-38
0.03364482522 -0.4366511106 0.1525414437 2.345219836e-38
-0.1149489582 -0.3508077562 0.1289275289 2.345219836e-38
-0.1612522304 -0.333103925 0.1597572863 2.345219836e-38
0.05665009469 -0.35842219 0.2484520972 2.345219836e-38
0.02665479481 -0.2809581459 0.2580724657 2.345219836e-38
-0.1866233945 -0.2740609646 0.2358583063 2.345219836e-38
-0.1002343297 -0.3462940156 0.136687994 2.345219836e-38
-0.0973546207 -0.2968141437 0.2107271701 2.345219836e-38
-0.1550064236 -0.3182232976 -0.007943524048 2.345219836e-38
-0.1080322266 -0.3578963876 0.1016593874 2.345219836e-38
-0.1258671135 -0.3459075093 0.140947938 2.345219836e-38
-0.135583207 -0.2829889059 0.2256092429 2.345219836e-38
-0.05368150771 -0.2724750638 0.259096086 2.345219836e-38
-0.1570634097 -0.2694411278 0.2497148961 2.345219836e-38
-0.09538091719 -0.3162305355 0.1846449971 2.345219836e-38
-0.1994359493 -0.326346755 0.1687896401 2.345219836e-38
-0.1963464022 -0.3481734693 0.02117257752 2.345219836e-38
-0.1646388918 -0.3243288994 0.1715270728 2.345219836e-38
-0.09774267673 -0.2985139489 -0.02130687423 2.345219836e-38
-0.1011164635 -0.3289711177 0.007409617305 2.345219836e-38
-0.2230426669 -0.3594282866 0.1212665439 2.345219836e-38
-0.1271066666 -0.3113185167 0.190216288 2.345219836e-38
0.0124960728 -0.4335599244 0.05777543038 2.345219836e-38
-0.09762966633 -0.3426595926 0.1436690241 2.345219836e-38
-0.07227222621 -0.3498675525 0.06264434755 2.345219836e-38
-0.01620519161 -0.3384001255 0.07588600367 2.345219836e-38
-0.02235350758 -0.3402990103 0.07810264826 2.345219836e-38
0.03579443321 -0.2972700596 0.2216407955 2.345219836e-38
0.02358074859 -0.3380873799 0.07134731114 2.345219836e-38
0.01858970895 -0.4466650486 0.1100976542 2.345219836e-38
0.02765330672 -0.3401058316 0.05876234919 2.345219836e-38
0.01899118721 -0.3308587074 0.04592865705 2.345219836e-38
-0.2368834615 -0.3719105422 0.06305550784 2.345219836e-38
-0.08858944476 -0.3458907604 0.03285813704 2.345219836e-38
0.03707705811 -0.310149312 0.2053380907 2.345219836e-38
-0.06775569916 -0.3489575386 0.06289574504 2.345219836e-38
-0.1363918632 -0.3286435604 0.1667464525 2.345219836e-38
0.05145961419 -0.3992206454 0.1873261034 2.345219836e-38
0.04632338136 -0.4153654575 0.1752265394 2.345219836e-38
-0.01896815747 -0.4726327956 0.1910366118 2.345219836e-38
0.0288085416 -0.3106634915 0.1906515807 2.345219836e-38
0.02635036409 -0.2988058329 0.2093505114 2.345219836e-38
0.0258074142 -0.4178007543 0.04782015085 2.345219836e-38
0.02865602449 -0.3200289309 0.0004888176918 2.345219836e-38
-0.06789544225 -0.3180202842 0.00108984299 2.345219836e-38
-0.1033820361 -0.3206282258 -0.00155784376 2.345219836e-38
-0.08961100876 -0.3479527533 0.1295172274 2.345219836e-38
0.04914746806 -0.402648747 0.1297886372 2.345219836e-38
-0.1379740089 -0.353457123 0.1270596385 2.345219836e-38
-0.1580709964 -0.3226702809 -0.003836350515 2.345219836e-38
0.01578158885 -0.3298614025 0.05324606597 2.345219836e-38
0.01959924772 -0.4170032442 0.2646213472 2.345219836e-38
0.00992359221 -0.3336623907 0.1091099381 2.345219836e-38
0.05754759908 -0.3657806218 0.2646982968 2.345219836e-38
-0.08942790329 -0.3184316754 0.181586504 2.345219836e-38
0.01992740482 -0.4213189781 0.008174045011 2.345219836e-38
-0.2284454703 -0.3274125755 -0.001524098217 2.345219836e-38
-0.1966956854 -0.3662714958 0.05261803791 2.345219836e-38
-0.03483122587 -0.321708262 0.172670871 2.345219836e-38
-0.1585642546 -0.3604887128 0.1121824607 2.345219836e-38
-0.0198771134 -0.3049535751 -0.001700486988 2.345219836e-38
-0.08792878687 -0.3209129274 0.1780168265 2.345219836e-38
-0.03249252588 -0.3367330432 0.1369913667 2.345219836e-38
-0.03852014244 -0.3168152273 0.005824852735 2.345219836e-38
0.0296927169 -0.3309944272 0.01435433142 2.345219836e-38
-0.121803835 -0.3241398036 0.1732009202 2.345219836e-38
-0.2539015114 -0.3454526663 0.0170215331 2.345219836e-38
-0.1609806269 -0.3373517394 0.01027453225 2.345219836e-38
0.04958807677 -0.3976446688 0.1326119155 2.345219836e-38
-0.029991813 -0.3296281397 0.02850364149 2.345219836e-38
0.02047106996 -0.3013873696 0.2009389699 2.345219836e-38
0.05543705821 -0.3718513846 0.2597784102 2.345219836e-38
-0.01411853731 -0.4655240178 0.2067807168 2.345219836e-38
-0.0006966292858 -0.4456492364 0.01582555845 2.345219836e-38
-0.221200794 -0.316349566 0.1798693091 2.345219836e-38
0.03993722796 -0.3847264946 0.01829138026 2.345219836e-38
-0.1700641811 -0.3378565907 0.0102837244 2.345219836e-38
-0.006633341312 -0.3146098554 0.1772287488 2.345219836e-38
0.006856761873 -0.3201671243 0.161211744 2.345219836e-38
-0.1074201912 -0.2824223638 0.2286645174 2.345219836e-38
0.03323708102 -0.3339160085 0.002456912771 2.345219836e-38
0.04393617064 -0.3815672398 0.09553153813 2.345219836e-38
-0.08697611094 -0.2758384049 0.2502365112 2.345219836e-38
0.01599192992 -0.427972734 0.2440733463 2.345219836e-38
0.01738008112 -0.4353407919 0.06963783503 2.345219836e-38
-0.2442845106 -0.3476610184 0.01907247677 2.345219836e-38
0.05971315876 -0.3530503213 0.267984122 2.345219836e-38
-0.1301520169 -0.3456348479 0.141783461 2.345219836e-38
-0.2220934033 -0.3519054353 0.1325284988 2.345219836e-38
0.01980689913 -0.4351623356 0.2205223143 2.345219836e-38
0.04114431515 -0.3651916683 0.10871353 2.345219836e-38
-0.01232308894 -0.2873408794 0.2241612971 2.345219836e-38
-0.2324702144 -0.3439316154 0.1439149678 2.345219836e-38
-0.0721257627 -0.3527189493 0.09901570529 2.345219836e-38
-0.2229197025 -0.3542044461 0.1290754229 2.345219836e-38
0.03931000829 -0.3720233142 0.04856742546 2.345219836e-38
0.02757032588 -0.33970505 0.05679728836 2.345219836e-38
0.04982959479 -0.386120975 0.1500627995 2.345219836e-38
-0.05770890415 -0.2977994084 0.211138621 2.345219836e-38
0.01354422793 -0.4531599283 0.1195638701 2.345219836e-38
-0.1976610124 -0.3018333912 0.1992689967 2.345219836e-38
-0.1290590763 -0.3578006923 0.05048851669 2.345219836e-38
-0.2138275206 -0.3269898891 0.1676155478 2.345219836e-38
-0.154799208 -0.3646801114 0.08174843341 2.345219836e-38
-0.07951301336 -0.3153687119 0.1860828102 2.345219836e-38
0.01143951342 -0.4575838447 0.1662780344 2.345219836e-38
-0.09937022626 -0.2853844166 0.2251584977 2.345219836e-38
-0.01765188575 -0.3172646761 0.1760959178 2.345219836e-38
-0.155822739 -0.3353472352 0.008654780686 2.345219836e-38
-0.07305309176 -0.346843034 0.1269627959 2.345219836e-38
-0.1413197219 -0.285441637 0.2221260518 2.345219836e-38
-0.2013430893 -0.3370895982 0.009397110902 2.345219836e-38
-0.240593493 -0.3398655653 0.148028031 2.345219836e-38
-0.04193013161 -0.3350375891 0.1461212486 2.345219836e-38
-0.05086520314 -0.4265168011 0.1923657358 2.341805152e-38
0.03345891461 -0.4224963784 0.06368268281 2.341805152e-38
0.1262185425 -0.4064996541 0.1900223792 2.341805152e-38
-0.1313591897 -0.3479198813 -0.007374929264 2.341805152e-38
-0.1007155031 -0.3617064059 0.06646291167 2.341805152e-38
-0.2426184416 -0.4192963243 0.1253005564 2.341805152e-38
0.06122253463 -0.4032371342 0.003653563559 2.341805152e-38
-0.08469700813 -0.3907008469 0.1799196601 2.341805152e-38
-0.06875988841 -0.3335458636 0.009933159687 2.341805152e-38
-0.04640851915 -0.3605595827 -0.08289855719 2.341805152e-38
-0.2684981227 -0.3625713289 0.06897298247 2.341805152e-38
0.1575971991 -0.3904892206 -0.002861667424 2.341805152e-38
0.1572732031 -0.3924972713 0.09298029542 2.341805152e-38
0.0274309665 -0.4290649295 0.1691984832 2.341805152e-38
-0.02658806741 -0.3879627585 0.02951266058 2.341805152e-38
0.124937132 -0.3684740365 0.1007113382 2.341805152e-38
-0.03897440434 -0.3584357202 -0.07492097467 2.341805152e-38
0.1245546415 -0.3870067596 -0.05145072937 2.341805152e-38
-0.09023267031 -0.3918194175 0.1891715527 2.341805152e-38
0.135489136 -0.3902678788 0.2195522189 2.341805152e-38
0.03970885277 -0.3710734844 0.05741066486 2.341805152e-38
-0.1245286614 -0.3752914667 0.09354626387 2.341805152e-38
0.06266222149 -0.4179009199 -0.06630175561 2.341805152e-38
-0.224997431 -0.3799906373 0.04963193461 2.341805152e-38
-0.3040250242 -0.3659024239 0.03387600183 2.341805152e-38
-0.2000530362 -0.4013460279 -0.01304540969 2.341805152e-38
0.1084854156 -0.367277056 0.1377763897 2.341805152e-38
-0.01486955583 -0.3629637957 0.06265987456 2.341805152e-38
0.1252357066 -0.4113789499 0.1700250804 2.341805152e-38
-0.0642952323 -0.3613767624 0.06452008337 2.341805152e-38
0.1044661403 -0.4201215506 0.1466593742 2.341805152e-38
-0.02801103145 -0.3544009626 0.05374252796 2.341805152e-38
0.1119036525 -0.395021528 -0.07122771442 2.341805152e-38
0.09960694611 -0.4039038718 0.0169355683 2.341805152e-38
-0.01565867662 -0.427713573 0.1044573635 2.341805152e-38
0.1155877113 -0.3655718565 0.05644929409 2.341805152e-38
0.09908442199 -0.3501744866 -0.03683973849 2.341805152e-38
-0.01360500604 -0.3496955335 -0.04124457389 2.341805152e-38
0.1150921881 -0.4247753918 0.07087770849 2.341805152e-38
-0.1718112081 -0.4290553927 0.1383173019 2.341805152e-38
0.1093026549 -0.4163609445 0.1711776853 2.341805152e-38
0.09902785718 -0.3518697619 -0.07955445349 2.341805152e-38
0.1159876436 -0.3691120148 0.220661968 2.341805152e-38
0.1164476797 -0.3673292398 0.1478893757 2.341805152e-38
-0.05266735703 -0.3301728964 0.02033253014 2.341805152e-38
0.01899950579 -0.3982268572 0.02094548196 2.341805152e-38
-0.001206301153 -0.3550533652 -0.05141720921 2.341805152e-38
0.1220665425 -0.3733368218 0.07160101086 2.341805152e-38
0.08489361405 -0.4163203239 0.217418626 2.341805152e-38
-0.203351289 -0.405406028 0.09072119743 2.341805152e-38
-0.1102483571 -0.3591814935 -0.04085029662 2.341805152e-38
-0.1431921571 -0.3834614158 0.1491429955 2.341805152e-38
0.05262737349 -0.3576706946 0.02070854604 2.341805152e-38
-0.229203254 -0.3862375617 0.02690920979 2.341805152e-38
0.1447772533 -0.3699960709 0.1949082166 2.341805152e-38
0.1145994812 -0.4105399549 0.0300020054 2.341805152e-38
0.1388491541 -0.3832798898 0.2136968225 2.341805152e-38
-0.09328664839 -0.407317102 0.2102171779 2.341805152e-38
-0.1029350311 -0.4141491055 0.2060706168 2.341805152e-38
0.03238378093 -0.4210525453 -0.04634032398 2.341805152e-38
0.1263427436 -0.3579440117 -0.05181048065 2.341805152e-38
-0.08146820962 -0.3386319876 0.0341258198 2.341805152e-38
0.005492046475 -0.3917978704 0.2313126028 2.341805152e-38
0.09231925756 -0.410669893 -0.03149657696 2.341805152e-38
-0.0331433937 -0.4099684954 0.00549858436 2.341805152e-38
0.1652524024 -0.3717556298 -0.003949735314 2.341805152e-38
0.007506608963 -0.3825383484 0.1042626873 2.341805152e-38
-0.167774424 -0.410405159 0.003946069628 2.341805152e-38
0.1361438334 -0.3880341649 -0.02961796708 2.341805152e-38
0.1554827392 -0.359367907 0.1056872904 2.341805152e-38
0.03598481417 -0.3825776279 0.08534120768 2.341805152e-38
-0.06745034456 -0.3622708917 -0.08010562509 2.341805152e-38
-0.1273174137 -0.4195542037 0.1836743355 2.341805152e-38
0.02369093522 -0.3832630515 0.1348404288 2.341805152e-38
-0.1356722713 -0.3692072928 0.07848167419 2.341805152e-38
-0.02931793034 -0.426915586 0.1684886068 2.341805152e-38
-0.2477807701 -0.3890925944 0.006532263011 2.341805152e-38
-0.09035103023 -0.3508991599 -0.02721042745 2.341805152e-38
-0.05895395577 -0.3588777781 -0.06403668225 2.341805152e-38
-0.1812692881 -0.3707575798 0.05760152638 2.341805152e-38
0.02036678419 -0.3588672578 -0.05563440174 2.341805152e-38
0.02424842492 -0.3821528852 0.204472214 2.341805152e-38
0.0286581479 -0.380870223 0.2035386711 2.341805152e-38
-0.1609877199 -0.4262316227 0.1575534046 2.341805152e-38
-0.1035294086 -0.383913219 0.03468086571 2.341805152e-38
0.0287065804 -0.3588511944 0.03518750519 2.341805152e-38
-0.1128276139 -0.3471662998 -0.01102220453 2.341805152e-38
-0.02473030239 -0.3931920528 0.2094027102 2.341805152e-38
0.09437456727 -0.4237242639 0.1177458391 2.341805152e-38
-0.06894037127 -0.3956292272 0.2052326947 2.341805152e-38
0.05765597522 -0.3739829361 0.06688560545 2.341805152e-38
0.04631137848 -0.3597257435 -0.07489005476 2.341805152e-38
-0.08521401882 -0.4134129882 0.2127377987 2.341805152e-38
-0.1022581905 -0.3541168869 -0.03026749752 2.341805152e-38
-0.1108360738 -0.3550212085 -0.02973602898 2.341805152e-38
0.1168336719 -0.3768082559 -0.07671875507 2.341805152e-38
-0.2190303802 -0.3860113323 0.03675682843 2.341805152e-38
-0.1072979271 -0.4244792759 0.1777738333 2.341805152e-38
-0.106703639 -0.3562176824 -0.03387144208 2.341805152e-38
-0.1002688259 -0.3399263024 0.001828284934 2.341805152e-38
0.1068823263 -0.3801128268 0.08389110118 2.341805152e-38
0.1084079891 -0.3507613242 0.004215251654 2.341805152e-38
0.1097328067 -0.3585889935 0.03534518182 2.341805152e-38
0.1399102211 -0.4184385836 0.09492820501 2.341805152e-38
-0.07209895551 -0.3883377612 0.1600662023 2.341805152e-38
-0.03697244078 -0.3858189583 0.129955709 2.341805152e-38
-0.00938975811 -0.3334759474 0.003691997379 2.341805152e-38
-0.1313056201 -0.4079464376 0.01455885451 2.341805152e-38
0.1428282261 -0.3889824748 0.1580982357 2.341805152e-38
-0.1316533089 -0.4202067554 0.09332614392 2.341805152e-38
-0.08380149305 -0.3870607913 0.1533358246 2.341805152e-38
-0.06849586964 -0.3862894177 0.1432717294 2.341805152e-38
0.04129450768 -0.3852311969 0.08833143115 2.341805152e-38
0.07349393517 -0.3556219935 -0.05252251774 2.341805152e-38
-0.08377404511 -0.3636591136 0.06819978356 2.341805152e-38
-0.006523497403 -0.4103344977 0.05397256464 2.341805152e-38
0.1144679785 -0.3624706268 -0.08989654481 2.341805152e-38
0.03935776278 -0.3582823277 -0.04310458153 2.341805152e-38
-0.2784308195 -0.3660787642 0.05325247347 2.341805152e-38
0.0629453212 -0.3554169238 -0.09337182343 2.341805152e-38
-0.08952215314 -0.3509148955 0.0533050485 2.341805152e-38
0.1356111318 -0.423564136 0.05540635437 2.341805152e-38
0.02346551418 -0.4275298119 0.09195481241 2.341805152e-38
0.02757522836 -0.3589963317 -0.05386553705 2.341805152e-38
-0.002600871027 -0.3798606396 0.1410354227 2.341805152e-38
0.001575037837 -0.3398862481 0.02288687043 2.341805152e-38
0.1387133002 -0.4000118673 0.1626031846 2.341805152e-38
0.04940142483 -0.4177182615 -0.03977554291 2.341805152e-38
0.03328101337 -0.4290649593 0.1635566503 2.341805152e-38
0.1442750692 -0.38745597 0.1361462325 2.341805152e-38
0.07274767011 -0.4066205025 0.02928751335 2.341805152e-38
0.08141560853 -0.3771901429 0.1810910553 2.341805152e-38
0.08980773389 -0.3752438128 0.2079421878 2.341805152e-38
-0.2955367863 -0.3909699619 -0.02323491685 2.341805152e-38
0.02242490277 -0.4273072779 0.09387467057 2.341805152e-38
0.1118979007 -0.4236688614 0.09399725497 2.341805152e-38
-0.2626465261 -0.3645899892 0.06715811789 2.341805152e-38
-0.2006935775 -0.3982527554 -0.02374306507 2.341805152e-38
0.08434624225 -0.4107764065 -0.0251989048 2.341805152e-38
-0.03656890243 -0.3291255832 0.01060118712 2.341805152e-38
0.09349584579 -0.4030641317 0.005417844281 2.341805152e-38
-0.2807091475 -0.3775190413 0.01401693374 2.341805152e-38
