# .PCD v0.7 - Point Cloud Data file format
VERSION 0.7
FIELDS x y z rgb
SIZE 4 4 4 4
TYPE F F F F
COUNT 1 1 1 1
WIDTH 825
HEIGHT 1
VIEWPOINT 0 0 0 1 0 0 0
POINTS 825
DATA ascii
-0.08094929159 -0.006931953132 -0.2116982937 8.906165387e-39
-0.1982025355 -0.3518542647 -0.1991503239 8.906165387e-39
-0.1185752749 -0.329477787 -0.2429210097 8.906165387e-39
-0.1946057528 -0.1438494474 -0.2339121997 8.906165387e-39
-0.1976950169 -0.1144081876 -0.2323890626 8.906165387e-39
-0.04819154739 0.01744540036 -0.2051802278 8.906165387e-39
-0.1430775821 -0.1836562157 -0.2073217332 8.906165387e-39
-0.2874865532 -0.2660203576 -0.2451652884 8.906165387e-39
-0.1762033701 -0.113601692 -0.232150048 8.906165387e-39
0.0104870908 -0.1961328089 -0.2368249446 8.906165387e-39
-0.1631902903 -0.4791793525 -0.2289509326 8.906165387e-39
0.05000752583 -0.4093581736 -0.2134726048 8.906165387e-39
0.2008337677 -0.3637183309 -0.2065484077 8.906165387e-39
-0.2636823952 -0.006053686142 -0.1810124218 8.906165387e-39
0.1323453188 -0.2116058469 -0.187384665 8.906165387e-39
-0.1298474669 -0.2998902202 -0.2413456589 8.906165387e-39
0.3381447792 -0.2441787124 -0.1766272187 8.906165387e-39
-0.2026793957 -0.4787542522 -0.2251024842 8.906165387e-39
0.1255312264 -0.02281564474 -0.220365569 8.906165387e-39
-0.2714606822 -0.2969822288 -0.2454732805 8.906165387e-39
0.1381639689 -0.3441242278 -0.2281615436 8.906165387e-39
0.1994691938 -0.3773086965 -0.2167641222 8.906165387e-39
0.1315216124 -0.4002477527 -0.2121904194 8.906165387e-39
-0.3128558695 -0.3620734811 -0.2097527832 8.906165387e-39
-0.1370113194 -0.00863955915 -0.2106981725 8.906165387e-39
-0.1471284032 -0.45787099 -0.206459403 8.906165387e-39
0.02741702646 -0.103028886 -0.2073268741 8.906165387e-39
-0.3101662993 -0.0584564656 -0.2271600366 8.906165387e-39
-0.1774392724 -0.2366134971 -0.2052001804 8.906165387e-39
0.05379287899 -0.014903225 -0.2088780701 8.906165387e-39
0.03852241486 -0.4066213965 -0.2131899297 8.906165387e-39
-0.02309004962 -0.1001488417 -0.2113871872 8.906165387e-39
0.04720988125 -0.1303006411 -0.2037443519 8.906165387e-39
0.260547787 -0.1192891747 -0.1880595684 8.906165387e-39
-0.1983896196 -0.06603964418 -0.2027736306 8.906165387e-39
-0.06630311906 -0.1463208795 -0.2090074122 8.906165387e-39
-0.03444992006 -0.1072469726 -0.2122562975 8.906165387e-39
0.298421979 -0.09008140862 -0.1954084486 8.906165387e-39
-0.06098155677 -0.1729463637 -0.2067168355 8.906165387e-39
-0.1562622488 -0.4807817638 -0.2268320024 8.906165387e-39
0.1949336976 -0.2323053181 -0.1868998855 8.906165387e-39
-0.09870056808 -0.477003634 -0.2165898532 8.906165387e-39
-0.2407345176 -0.1600828916 -0.2355220169 8.906165387e-39
-0.03316151351 -0.2106678933 -0.239773944 8.906165387e-39
-0.0513446182 -0.2005970478 -0.2382862121 8.906165387e-39
0.01620145515 -0.3535789251 -0.2388936579 8.906165387e-39
0.3258504868 -0.1415578872 -0.1878709793 8.906165387e-39
0.2650180459 -0.2944563925 -0.1868255734 8.906165387e-39
-0.2628522813 -0.3516402841 -0.1953953356 8.906165387e-39
-0.07659438998 -0.2078506798 -0.2380352765 8.906165387e-39
0.04921718314 -0.2521538734 -0.2300239652 8.906165387e-39
-0.1329609752 -0.2496325076 -0.2066034228 8.906165387e-39
-0.01815976575 -0.02256534994 -0.2111096084 8.906165387e-39
0.02222833037 -0.01747737825 -0.2065830082 8.906165387e-39
-0.2590732574 -0.3838282228 -0.1947221458 8.906165387e-39
-0.2619493604 -0.3806809783 -0.1948812306 8.906165387e-39
-0.1134706885 -0.3811171055 -0.2426822633 8.906165387e-39
-0.2535190582 -0.06460687518 -0.1838411093 8.906165387e-39
0.06702830642 5.250424147e-05 -0.2217050791 8.906165387e-39
0.046672903 -0.1676226258 -0.1957975924 8.906165387e-39
-0.2063302547 -0.4045934379 -0.2404889017 8.906165387e-39
0.02965076827 -0.4172848463 -0.2135204375 8.906165387e-39
0.1864650398 -0.1727243215 -0.1853510141 8.906165387e-39
0.07891650498 -0.4011923373 -0.2323679179 8.906165387e-39
-0.06101366132 -0.03010979295 -0.2127291709 8.906165387e-39
-0.09055244923 -0.09577226639 -0.2157841772 8.906165387e-39
-0.06589651108 -0.158354044 -0.2007419765 1.184631237e-38
-0.2578529119 -0.05985681713 -0.2140211314 1.184631237e-38
0.001540344208 -0.4029892385 -0.2362794429 1.184631237e-38
0.1793265641 -0.3774424791 -0.2161148787 1.184631237e-38
-0.0709169507 -0.3003599048 -0.2332758605 1.184631237e-38
-0.2995833755 -0.1685592532 -0.1846297532 1.184631237e-38
-0.1954361647 -0.02634325624 -0.2026160061 1.184631237e-38
-0.1260236353 -0.4147211909 -0.1985527426 1.184631237e-38
-0.2955466807 -0.3057745695 -0.2302678525 1.184631237e-38
0.1865756959 -0.3215745389 -0.2018041909 1.184631237e-38
-0.09424313903 -0.03111889213 -0.2094935626 1.184631237e-38
0.03622373566 -0.4247307181 -0.2206077576 1.184631237e-38
-0.2063796073 -0.07728904486 -0.1981155872 1.184631237e-38
0.2718247771 -0.2309165001 -0.1882379502 1.184631237e-38
0.02645229176 0.0005534887314 -0.2086459845 1.184631237e-38
-0.1410152763 0.017701298 -0.2049942613 1.184631237e-38
-0.08436097205 -0.3568798006 -0.2366475463 1.184631237e-38
-0.03487163782 -0.2602364719 -0.2320008725 1.184631237e-38
-0.2801030278 -0.006279304624 -0.1707597822 1.184631237e-38
-0.07699830085 -0.02533149719 -0.2090904415 1.184631237e-38
0.05904171616 -0.2321888804 -0.2225185633 1.184631237e-38
-0.1483205855 -0.1320395172 -0.2038215846 1.184631237e-38
-0.1679947227 -0.4129853845 -0.2357762456 1.184631237e-38
0.2794365287 -0.206884414 -0.1878586709 1.184631237e-38
-0.2462253273 -0.1878061593 -0.2250447273 1.184631237e-38
-0.09630212188 -0.3148434162 -0.2330297679 1.184631237e-38
-0.03845219314 -0.4434133768 -0.213138178 1.184631237e-38
0.0507151559 0.002219736576 -0.211065352 1.184631237e-38
-0.04113134742 -0.05987611413 -0.2084969282 1.184631237e-38
-0.3372703791 -0.138573885 -0.2135775387 1.184631237e-38
-0.05426868051 -0.1143203974 -0.2063635141 1.184631237e-38
-0.1443793625 -0.0110097155 -0.207788676 1.184631237e-38
-0.1116091609 -0.4759643972 -0.2160781622 1.184631237e-38
-0.3281689584 -0.2686879039 -0.217131108 1.184631237e-38
0.07017922401 -0.02658613771 -0.2039602101 1.184631237e-38
0.08389736712 -0.3730316758 -0.2133472264 1.184631237e-38
-0.2179030776 -0.3107463717 -0.1943836808 1.184631237e-38
0.03572569415 0.005375921726 -0.2104274631 1.184631237e-38
-0.1028458029 -0.02996493876 -0.209638983 1.184631237e-38
-0.001796245575 -0.0752427727 -0.2051937878 1.184631237e-38
-0.1548539698 -0.4214128256 -0.2369107157 1.184631237e-38
-0.1314820349 -0.01401265711 -0.2090250552 1.184631237e-38
-0.2818577588 -0.1358340681 -0.2215457559 1.184631237e-38
-0.2911335826 -0.3952003717 -0.1809982806 1.184631237e-38
0.1408167481 -0.02276619524 -0.2085592598 1.184631237e-38
-0.1845061332 -0.4237580895 -0.2340428531 1.184631237e-38
-0.09333540499 0.003024682403 -0.2067827284 1.184631237e-38
0.2250863463 -0.2129468024 -0.1846384406 1.184631237e-38
0.04185365513 -0.2900792658 -0.2277459502 1.184631237e-38
0.1688944697 -0.2866131663 -0.1971541792 1.184631237e-38
-0.1411924809 0.01206178963 -0.2060558498 1.184631237e-38
-0.1352670342 -0.2712598443 -0.1979034692 1.184631237e-38
0.113202244 -0.05224119872 -0.2014892101 1.184631237e-38
0.2851535678 -0.2748565078 -0.1966684014 1.184631237e-38
0.06451483071 -0.2645609975 -0.1998233646 1.184631237e-38
0.04293178767 -0.3826642334 -0.2318159491 1.184631237e-38
0.07276146114 -0.2487721294 -0.221871838 1.184631237e-38
-0.188731581 -0.1692363918 -0.2003367394 1.184631237e-38
0.253791213 -0.2439496219 -0.1881079972 1.184631237e-38
-0.2810837924 -0.20345442 -0.2273584902 1.184631237e-38
-0.09424878657 -0.2756618857 -0.1971622854 1.184631237e-38
-0.3040554225 -0.02917925268 -0.2100450546 1.184631237e-38
-0.1111886352 0.001788422465 -0.2073186934 1.184631237e-38
-0.2381266057 -0.3444966376 -0.1922280192 1.184631237e-38
-0.1462548524 -0.3125593662 -0.2321444303 1.184631237e-38
-0.2098463178 -0.1328938007 -0.2191102505 1.184631237e-38
-0.2137740552 -0.1041261032 -0.2167956531 1.184631237e-38
-0.07914625108 0.03056798875 -0.2017539889 1.184631237e-38
-0.1872573942 -0.1779635251 -0.2001523823 1.184631237e-38
-0.2973291576 -0.2441869229 -0.2302903831 1.184631237e-38
-0.189624235 -0.1038993448 -0.2173788846 1.184631237e-38
-0.02137003839 -0.1923815161 -0.2268122137 1.184631237e-38
-0.1964125335 -0.4624001682 -0.2277445793 1.184631237e-38
-0.01414578781 -0.4174979627 -0.2144649774 1.184631237e-38
0.1200942621 -0.3936434686 -0.2160238177 1.184631237e-38
-0.288066417 0.008199378848 -0.1651388556 1.184631237e-38
0.06799189001 -0.2243080884 -0.1933127642 1.184631237e-38
-0.1574722379 -0.2834194303 -0.2289129794 1.184631237e-38
0.2599673867 -0.2632547617 -0.1892930418 1.184631237e-38
-0.2361324728 -0.4596087039 -0.2209716439 1.184631237e-38
0.0866632089 -0.001215197146 -0.2138883322 1.184631237e-38
-0.2801001966 -0.270003736 -0.2337566316 1.184631237e-38
0.06935815513 -0.3497812152 -0.2316512167 1.184631237e-38
0.1207702607 -0.3975454867 -0.2286377251 1.184631237e-38
0.05221766979 -0.4179327786 -0.2190953344 1.184631237e-38
-0.328340441 -0.3306798339 -0.2034400254 1.184631237e-38
-0.1655492783 0.002361178398 -0.2053608745 1.184631237e-38
-0.1896789074 -0.4502065778 -0.2013428509 1.184631237e-38
-0.01625080034 -0.09230180085 -0.2045626193 1.184631237e-38
-0.3189951777 -0.05352823436 -0.211509347 1.184631237e-38
-0.2164829671 -0.2290558517 -0.1976945102 1.184631237e-38
0.01780086756 0.005183562636 -0.2086739838 1.184631237e-38
-0.02290841937 -0.4106265903 -0.2133277506 1.184631237e-38
-0.06477218866 -0.09489970654 -0.2085412443 1.184631237e-38
0.000437118113 -0.1217755824 -0.2025441229 1.184631237e-38
0.1971053034 -0.1128838211 -0.1936661005 1.184631237e-38
-0.2250846624 -0.05453506112 -0.1930310279 1.184631237e-38
-0.1034261584 -0.148688525 -0.2030458748 1.184631237e-38
-0.07452553511 -0.1031474024 -0.2078604996 1.184631237e-38
0.2360541821 -0.07415492833 -0.1998991817 1.184631237e-38
-0.09801898897 -0.1720786095 -0.199846074 1.184631237e-38
-0.1897136718 -0.4658973515 -0.2260633856 1.184631237e-38
0.1200297028 -0.2645309567 -0.1994678974 1.184631237e-38
-0.1412144005 -0.4790051877 -0.2132954895 1.184631237e-38
-0.2549148202 -0.1468235999 -0.2217375189 1.184631237e-38
-0.06405988336 -0.2113569677 -0.2263079584 1.184631237e-38
-0.08186732978 -0.2022919357 -0.2250374854 1.184631237e-38
-0.02536796033 -0.3451446891 -0.2369988263 1.184631237e-38
0.2570130229 -0.1394115984 -0.1940205395 1.184631237e-38
0.1790670753 -0.3258219361 -0.2030495256 1.184631237e-38
-0.2966175079 -0.3400113583 -0.1877797395 1.184631237e-38
-0.1063672006 -0.2059348822 -0.2253860533 1.184631237e-38
0.005787257105 -0.2424398512 -0.2312343717 1.184631237e-38
-0.1769939214 -0.2433442622 -0.1981676221 1.184631237e-38
-0.05704261363 -0.008858077228 -0.2083773464 1.184631237e-38
-0.01680915803 0.004209592938 -0.2059934884 1.184631237e-38
-0.2906189561 -0.3735613823 -0.1852343976 1.184631237e-38
-0.293495357 -0.3709685206 -0.1855185628 1.184631237e-38
-0.143553853 -0.3634154201 -0.2355775088 1.184631237e-38
-0.2848261595 -0.05377005041 -0.1729343235 1.184631237e-38
0.03613410145 0.01633453369 -0.2160729319 1.184631237e-38
-0.003078743815 -0.1611025035 -0.1966473162 1.184631237e-38
-0.2273077667 -0.3674812019 -0.2327619344 1.184631237e-38
-0.02818112075 -0.4232541621 -0.2135569602 1.184631237e-38
0.1194477528 -0.171202451 -0.1910780221 1.184631237e-38
0.01696085557 -0.4001586735 -0.2346225679 1.184631237e-38
-0.09443724155 -0.02343320847 -0.2091479748 1.184631237e-38
-0.128021881 -0.09192287177 -0.2078563422 1.184631237e-38
-0.07187141478 -0.1701427102 -0.2059489191 1.478322936e-38
-0.2854184806 -0.06383642554 -0.246868223 1.478322936e-38
-0.02617694438 -0.4153250456 -0.2645855844 1.478322936e-38
0.1782016754 -0.3978470564 -0.2197804302 1.478322936e-38
-0.1040249765 -0.3163661957 -0.2665215135 1.478322936e-38
-0.301825434 -0.1831320971 -0.1868407875 1.478322936e-38
-0.1941294223 -0.03077051789 -0.203264758 1.478322936e-38
-0.1485350132 -0.4379785061 -0.2087492347 1.478322936e-38
-0.3162284493 -0.2892832756 -0.246991396 1.478322936e-38
0.1898521185 -0.3463757634 -0.2086347789 1.478322936e-38
-0.0963614136 -0.03347139806 -0.2116214335 1.478322936e-38
0.01089723036 -0.4460070431 -0.2364107519 1.478322936e-38
-0.2059043199 -0.08749589324 -0.1992434561 1.478322936e-38
0.2775346637 -0.2487041652 -0.1841795743 1.478322936e-38
0.02206547745 -0.001871228218 -0.2148241848 1.478322936e-38
-0.1416910142 0.01769369841 -0.2045251727 1.478322936e-38
-0.1199352592 -0.3759582937 -0.2712094486 1.478322936e-38
-0.06084024906 -0.2752515078 -0.2630036175 1.478322936e-38
-0.2728030086 -0.01476681978 -0.1748018116 1.478322936e-38
-0.07841015607 -0.0258962214 -0.2116360664 1.478322936e-38
0.03556986153 -0.2499575317 -0.2528500557 1.478322936e-38
-0.1531620026 -0.1450801045 -0.2068846375 1.478322936e-38
-0.1992106736 -0.4166819751 -0.2683929503 1.478322936e-38
0.2835357189 -0.2239596546 -0.1810493171 1.478322936e-38
-0.280115664 -0.1904240549 -0.2598574162 1.478322936e-38
-0.1309010386 -0.3321599364 -0.2669039369 1.478322936e-38
-0.06912046671 -0.4727931023 -0.2277297974 1.478322936e-38
0.04630357027 -0.003500945866 -0.215697825 1.478322936e-38
-0.04104784131 -0.06184472516 -0.2117245942 1.478322936e-38
-0.3370071948 -0.1205009818 -0.2285844535 1.478322936e-38
-0.05672645569 -0.1209642589 -0.2098837048 1.478322936e-38
-0.1428710073 -0.01525064558 -0.20750691 1.478322936e-38
-0.1404168159 -0.4857956469 -0.2420052141 1.478322936e-38
-0.3311157525 -0.2454984486 -0.2292226404 1.478322936e-38
0.06742370129 -0.03380914032 -0.208514154 1.478322936e-38
0.06945250928 -0.4055611491 -0.2234546989 1.478322936e-38
-0.2272188962 -0.3281462789 -0.2004281282 1.478322936e-38
0.03187101707 0.0004666671157 -0.2151999921 1.478322936e-38
-0.1048623323 -0.03301996738 -0.2110313177 1.478322936e-38
-0.002946298569 -0.07849472761 -0.2091977894 1.478322936e-38
-0.1876109689 -0.4277537465 -0.2703481913 1.478322936e-38
-0.1307333559 -0.01744837314 -0.2077353597 1.478322936e-38
-0.3036951423 -0.1316334754 -0.2488120347 1.478322936e-38
-0.3002220988 -0.4030297697 -0.1916939616 1.478322936e-38
0.1349592954 -0.03301924467 -0.21117872 1.478322936e-38
-0.2161182761 -0.4208011925 -0.26518628 1.478322936e-38
-0.09323577583 0.004120692611 -0.2107388526 1.478322936e-38
0.231171295 -0.2352891862 -0.1884270012 1.478322936e-38
0.0191570539 -0.303327769 -0.2570865154 1.478322936e-38
0.1710540652 -0.3155222535 -0.2052783668 1.478322936e-38
-0.1410687268 0.01147523522 -0.2041247934 1.478322936e-38
-0.151755929 -0.2956510782 -0.2044140995 1.478322936e-38
0.1108123809 -0.05993103236 -0.2013922185 1.478322936e-38
0.2939658165 -0.2978114188 -0.1899059713 1.478322936e-38
0.05039419234 -0.2967218161 -0.2015751451 1.478322936e-38
0.0166360531 -0.3931664526 -0.2572464347 1.478322936e-38
0.04930050671 -0.2639359832 -0.2496044785 1.478322936e-38
-0.1921619326 -0.1916347742 -0.2053664476 1.478322936e-38
0.2612411976 -0.2658619285 -0.186442107 1.478322936e-38
-0.3068041503 -0.2004930973 -0.2542296946 1.478322936e-38
-0.1083828211 -0.2998791933 -0.2028859705 1.478322936e-38
-0.3185509145 -0.0324395895 -0.2376492172 1.478322936e-38
-0.1130127013 0.002180352807 -0.2093737721 1.478322936e-38
-0.2475741208 -0.3551795483 -0.1991246045 1.478322936e-38
-0.1811749488 -0.3226911724 -0.2648973763 1.478322936e-38
-0.2452273965 -0.1383574754 -0.2543108761 1.478322936e-38
-0.2461109459 -0.1087149978 -0.2510971129 1.478322936e-38
-0.08019836992 0.02939257026 -0.2044424266 1.478322936e-38
-0.1914251447 -0.2024769485 -0.2058595568 1.478322936e-38
-0.3156883717 -0.2335023731 -0.2496391535 1.478322936e-38
-0.2244726717 -0.1112531573 -0.2508953512 1.478322936e-38
-0.04547204822 -0.2085757256 -0.2589686513 1.478322936e-38
-0.2323456109 -0.4541225731 -0.2555513382 1.478322936e-38
-0.03945977986 -0.4481915534 -0.2210039049 1.478322936e-38
0.1080183834 -0.4203826785 -0.229008168 1.478322936e-38
-0.2793828249 -0.001202829182 -0.1713500321 1.478322936e-38
0.05609496683 -0.2533653975 -0.1953054219 1.478322936e-38
-0.1923835725 -0.2925969958 -0.2596057355 1.478322936e-38
0.2687833905 -0.2855574787 -0.1870483756 1.478322936e-38
-0.2695674598 -0.4466752708 -0.2449782491 1.478322936e-38
0.07820773125 -0.007859610021 -0.2214583158 1.478322936e-38
-0.3080128729 -0.2633999586 -0.2545977235 1.478322936e-38
0.04959199578 -0.3568480015 -0.2535813749 1.478322936e-38
0.1065856293 -0.4035505056 -0.2414429486 1.478322936e-38
0.02852324396 -0.4421988428 -0.2354022115 1.478322936e-38
-0.3305866718 -0.3038975298 -0.2139248699 1.478322936e-38
-0.165859744 -0.002104125917 -0.2046298534 1.478322936e-38
-0.2230248749 -0.4652983248 -0.2170775384 1.478322936e-38
-0.01784879714 -0.09793610871 -0.2094274014 1.478322936e-38
-0.3301123083 -0.05396482348 -0.2331048995 1.478322936e-38
-0.2232096791 -0.2472156584 -0.2026829123 1.478322936e-38
0.01290787943 0.002922177315 -0.2145288289 1.478322936e-38
-0.0457701087 -0.4405448139 -0.2167991996 1.478322936e-38
-0.0671030134 -0.1017529368 -0.2118209153 1.478322936e-38
-0.004507895559 -0.1298383474 -0.2052761763 1.478322936e-38
0.1979344338 -0.1359607577 -0.1901058257 1.478322936e-38
-0.2231630981 -0.06208244339 -0.1935363859 1.478322936e-38
-0.1095807552 -0.1622941494 -0.2083985806 1.478322936e-38
-0.07767871022 -0.1096521616 -0.210709393 1.478322936e-38
0.2364750803 -0.09160001576 -0.1927197427 1.478322936e-38
-0.105968982 -0.1887539625 -0.2069479376 1.478322936e-38
-0.2255960107 -0.4589686692 -0.2544156015 1.478322936e-38
0.1153398678 -0.2943853736 -0.2026065141 1.478322936e-38
-0.1701530218 -0.4855041802 -0.2414562255 1.478322936e-38
-0.2854378819 -0.1479412466 -0.255302161 1.478322936e-38
-0.09302820265 -0.2249245346 -0.2562033236 1.478322936e-38
-0.113126412 -0.212970525 -0.2553246617 1.478322936e-38
-0.05560507625 -0.3596966267 -0.2712306082 1.478322936e-38
0.2594627142 -0.1572346091 -0.1882213503 1.478322936e-38
0.1812470555 -0.3512979746 -0.2108067721 1.478322936e-38
-0.3000384867 -0.3486742377 -0.1928675771 1.478322936e-38
-0.1393352747 -0.2189512253 -0.2565558553 1.478322936e-38
-0.01826850325 -0.2586212754 -0.2624501586 1.478322936e-38
-0.1881589144 -0.2666966319 -0.2044995725 1.478322936e-38
-0.05629104376 -0.009760707617 -0.2123044431 1.478322936e-38
-0.0204956755 0.002021729946 -0.2099391073 1.478322936e-38
-0.2964782715 -0.3845628202 -0.1929736584 1.478322936e-38
-0.2984268963 -0.3804406226 -0.1928129941 1.478322936e-38
-0.1802145839 -0.3769420683 -0.2697022855 1.478322936e-38
-0.284532398 -0.06696781516 -0.1778190881 1.478322936e-38
0.02676374651 0.01042786241 -0.2239980996 1.478322936e-38
-0.01593988389 -0.1762135923 -0.2016217262 1.478322936e-38
-0.2648905516 -0.3663233519 -0.2623290122 1.478322936e-38
-0.05411177874 -0.4539857805 -0.2204134762 1.478322936e-38
0.1136798486 -0.1877792925 -0.1935323626 1.478322936e-38
-0.009545512497 -0.4114578366 -0.2613999248 1.478322936e-38
-0.09623150527 -0.02470754087 -0.2112489194 1.478322936e-38
-0.1322347224 -0.09644299746 -0.2089249939 1.478322936e-38
-0.07567865402 -0.1671484858 -0.2066582441 1.771655483e-38
-0.2931358814 -0.05965576321 -0.2487678975 1.771655483e-38
-0.01963429898 -0.4138213396 -0.2652403116 1.771655483e-38
0.1857767105 -0.3938096762 -0.2226873636 1.771655483e-38
-0.09983161092 -0.3129290342 -0.2681504786 1.771655483e-38
-0.3091732562 -0.1697920561 -0.1832383722 1.771655483e-38
-0.2030773759 -0.02372523397 -0.2023378015 1.771655483e-38
-0.1501588672 -0.4304338694 -0.2080139518 1.771655483e-38
-0.3199525774 -0.2818119526 -0.241262123 1.771655483e-38
0.1995170563 -0.3445840776 -0.2105818242 1.771655483e-38
-0.09957359731 -0.0294078961 -0.2126925141 1.771655483e-38
0.01657195948 -0.4437486827 -0.2381217629 1.771655483e-38
-0.2156769037 -0.0782700479 -0.199157685 1.771655483e-38
0.286673069 -0.2469553053 -0.1868598163 1.771655483e-38
0.02937939204 0.001811593771 -0.2154827267 1.771655483e-38
-0.1469662637 0.02195283771 -0.2043379247 1.771655483e-38
-0.1149429679 -0.3740043342 -0.2726205587 1.771655483e-38
-0.0559129566 -0.2719959021 -0.2652728856 1.771655483e-38
-0.281376034 -0.006649330258 -0.1689232886 1.771655483e-38
-0.08045840263 -0.02204797417 -0.212854445 1.771655483e-38
0.04409236088 -0.2458100021 -0.2552905381 1.771655483e-38
-0.1610257924 -0.1378259361 -0.2076442987 1.771655483e-38
-0.1982300282 -0.4144407213 -0.2678910792 1.771655483e-38
0.2909662127 -0.2203719169 -0.1834309399 1.771655483e-38
-0.2861171663 -0.1844456792 -0.2572001815 1.771655483e-38
-0.1272346377 -0.3286975324 -0.2686206102 1.771655483e-38
-0.0664062202 -0.4671085477 -0.2272790521 1.771655483e-38
0.05363497511 0.001377522945 -0.2163689137 1.771655483e-38
-0.04213966429 -0.05827816576 -0.2125899494 1.771655483e-38
-0.3404476047 -0.1108195633 -0.2260701209 1.771655483e-38
-0.05913551152 -0.1164597124 -0.2108807117 1.771655483e-38
-0.1514234245 -0.01034671813 -0.2078702003 1.771655483e-38
-0.1386351287 -0.4818992615 -0.2410220504 1.771655483e-38
-0.3340890408 -0.2389974594 -0.2232956588 1.771655483e-38
0.0733397454 -0.03105507791 -0.2089493871 1.771655483e-38
0.07600030303 -0.4040979743 -0.2252417505 1.771655483e-38
-0.2356622219 -0.3203471899 -0.2014620304 1.771655483e-38
0.03917368129 0.004904851317 -0.2159411162 1.771655483e-38
-0.1087391526 -0.02889855206 -0.2122160047 1.771655483e-38
0.001265436411 -0.07502801716 -0.2103424966 1.771655483e-38
-0.1851183325 -0.4250732958 -0.2701737583 1.771655483e-38
-0.1370273829 -0.01288530976 -0.2087017447 1.771655483e-38
-0.3093560934 -0.125231728 -0.2469531745 1.771655483e-38
-0.3049987555 -0.3898614347 -0.1902060956 1.771655483e-38
0.1455538571 -0.02818454057 -0.2122074068 1.771655483e-38
-0.2173493207 -0.4176779091 -0.264149189 1.771655483e-38
-0.09590396285 0.006589919329 -0.2117244303 1.771655483e-38
0.2397644967 -0.2326110899 -0.1908214241 1.771655483e-38
0.0272418987 -0.2999604642 -0.2584228218 1.771655483e-38
0.1795351207 -0.3139006495 -0.2076536715 1.771655483e-38
-0.1470769346 0.01648370922 -0.2039935142 1.771655483e-38
-0.158649385 -0.2886118889 -0.2046042383 1.771655483e-38
0.1216612831 -0.05558717251 -0.2012401819 1.771655483e-38
0.3025672138 -0.2959105968 -0.194250077 1.771655483e-38
0.05677679181 -0.2936993837 -0.2032386065 1.771655483e-38
0.02458719723 -0.3912061155 -0.2592015266 1.771655483e-38
0.05800174922 -0.2604899704 -0.2522605062 1.771655483e-38
-0.2015680671 -0.1821077317 -0.2060163617 1.771655483e-38
0.2705282569 -0.2648545504 -0.1885824054 1.771655483e-38
-0.3122516572 -0.1930736452 -0.2512782812 1.771655483e-38
-0.111547038 -0.2934247851 -0.2029974312 1.771655483e-38
-0.3238470852 -0.02768409252 -0.2357596606 1.771655483e-38
-0.1165321916 0.005450233817 -0.2100379765 1.771655483e-38
-0.255892843 -0.3466958106 -0.1997274458 1.771655483e-38
-0.1798506677 -0.3196858168 -0.2655431628 1.771655483e-38
-0.2517700195 -0.1335330307 -0.2546441257 1.771655483e-38
-0.2524432838 -0.1046931744 -0.252179265 1.771655483e-38
-0.07774989307 0.03046414256 -0.2041211575 1.771655483e-38
-0.2008187175 -0.191996485 -0.2063907385 1.771655483e-38
-0.3199478686 -0.2238485068 -0.2459394038 1.771655483e-38
-0.2309499681 -0.108773306 -0.25175336 1.771655483e-38
-0.03952093422 -0.2040936351 -0.2625350952 1.771655483e-38
-0.2352808416 -0.4495498836 -0.2546297312 1.771655483e-38
-0.03622537106 -0.4410273731 -0.2208396792 1.771655483e-38
0.1156777889 -0.4168903232 -0.2302618772 1.771655483e-38
-0.2880978286 0.006984427571 -0.1650752723 1.771655483e-38
0.06208193302 -0.2489559799 -0.1980173141 1.771655483e-38
-0.192072317 -0.2879162431 -0.2615180016 1.771655483e-38
0.2780853212 -0.2850970626 -0.1893447638 1.771655483e-38
-0.2734521925 -0.4414773285 -0.2440612614 1.771655483e-38
0.08607003093 -0.002426669002 -0.222409308 1.771655483e-38
-0.3128633499 -0.255231142 -0.2504464388 1.771655483e-38
0.05814145878 -0.352460146 -0.2550078034 1.771655483e-38
0.1153479218 -0.4014120996 -0.2440009862 1.771655483e-38
0.03473764658 -0.4394516945 -0.2372557521 1.771655483e-38
-0.3329833448 -0.2994958162 -0.2080811709 1.771655483e-38
-0.174307853 0.002994328737 -0.2050511837 1.771655483e-38
-0.2266481221 -0.4567965865 -0.2163830101 1.771655483e-38
-0.01536690071 -0.09376347065 -0.2110509276 1.771655483e-38
-0.3353387117 -0.04941029847 -0.2313630581 1.771655483e-38
-0.2321209311 -0.2365529537 -0.2032247037 1.771655483e-38
0.02017991059 0.00685377419 -0.2151799202 1.771655483e-38
-0.04332085699 -0.4332489669 -0.2165879309 1.771655483e-38
-0.07001580298 -0.09659221768 -0.2129385024 1.771655483e-38
-0.002153150737 -0.1252406389 -0.2070053071 1.771655483e-38
0.2071261257 -0.1284466237 -0.1907859594 1.771655483e-38
-0.2336307168 -0.05353736132 -0.1916119754 1.771655483e-38
-0.1136970222 -0.1562398374 -0.2088271827 1.771655483e-38
-0.08102679253 -0.1046090797 -0.2117888629 1.771655483e-38
0.2463430911 -0.08501662314 -0.1937628388 1.771655483e-38
-0.1102854759 -0.1834807247 -0.2076051384 1.771655483e-38
-0.2280139327 -0.4544456303 -0.2535890639 1.771655483e-38
0.1234301552 -0.2932360768 -0.2053763419 1.771655483e-38
-0.1695722938 -0.4815304577 -0.2403081506 1.771655483e-38
-0.2909151316 -0.1412240863 -0.2537034452 1.771655483e-38
-0.08731156588 -0.2204420418 -0.2585936189 1.771655483e-38
-0.1080218405 -0.2092413306 -0.2567264438 1.771655483e-38
-0.04927577078 -0.3569198847 -0.273462683 1.771655483e-38
0.2668498158 -0.1514692754 -0.1898203939 1.771655483e-38
0.1909767836 -0.3493435979 -0.2125602216 1.771655483e-38
-0.3050035238 -0.3318129778 -0.1900331229 1.771655483e-38
-0.1360137314 -0.2151400149 -0.2566217482 1.771655483e-38
-0.01070069894 -0.2548864484 -0.2649016678 1.771655483e-38
-0.1971533 -0.2594798207 -0.2052422762 1.771655483e-38
-0.0550403893 -0.007239475846 -0.2128478438 1.771655483e-38
-0.0133212842 0.005049556494 -0.2111369967 1.771655483e-38
-0.3011454642 -0.3711345196 -0.1918454021 1.771655483e-38
-0.3027459681 -0.3665112853 -0.1915147007 1.771655483e-38
-0.1789644212 -0.3765664995 -0.2706295252 1.771655483e-38
-0.2950622439 -0.05819168687 -0.172192663 1.771655483e-38
0.03343220055 0.01455959678 -0.2246548831 1.771655483e-38
-0.01441745088 -0.1722590625 -0.2041796297 1.771655483e-38
-0.2682561874 -0.361245513 -0.2599958181 1.771655483e-38
-0.05165157467 -0.446044445 -0.2199478596 1.771655483e-38
0.1217532828 -0.1829211712 -0.1967535168 1.771655483e-38
-0.003255411983 -0.4106263518 -0.2620957792 1.771655483e-38
-0.09962199628 -0.02087139338 -0.2123894393 1.771655483e-38
-0.1403222531 -0.08917990327 -0.2093130946 1.771655483e-38
-0.07509660721 -0.236521244 -0.210896492 2.06466517e-38
-0.3002550304 -0.04228644818 -0.2349895239 2.06466517e-38
-0.0323799327 -0.3808800876 -0.2555900812 2.06466517e-38
0.1647862941 -0.4112944305 -0.2254227996 2.06466517e-38
-0.1027576476 -0.2623867393 -0.2473085821 2.06466517e-38
-0.3110537827 -0.2180204988 -0.1909673959 2.06466517e-38
-0.2008029372 -0.0839079693 -0.2093027085 2.06466517e-38
-0.1845077574 -0.4461565614 -0.207781285 2.06466517e-38
-0.3197401166 -0.2269670367 -0.2321099937 2.06466517e-38
0.1850563437 -0.3949163854 -0.2133038342 2.06466517e-38
-0.08803984523 -0.09396976978 -0.2186957002 2.06466517e-38
-0.005874246359 -0.438010335 -0.2384060025 2.06466517e-38
-0.2207927108 -0.1534785479 -0.2092292756 2.06466517e-38
0.2943143249 -0.3228999972 -0.190282017 2.06466517e-38
0.06103056669 -0.05213207752 -0.2086196989 2.06466517e-38
-0.1239516586 -0.03098142892 -0.2139919549 2.06466517e-38
-0.1197939068 -0.3164888024 -0.2515324652 2.06466517e-38
-0.06087843329 -0.2275975645 -0.2455744892 2.06466517e-38
-0.2793041766 -0.06436511874 -0.1812875271 2.06466517e-38
-0.06090262532 -0.08647949994 -0.2178018242 2.06466517e-38
0.04839194566 -0.2087438107 -0.2381110936 2.06466517e-38
-0.167388767 -0.2107392997 -0.2125966847 2.06466517e-38
-0.206788078 -0.353259027 -0.2456429899 2.06466517e-38
0.2955282032 -0.2899607718 -0.1879594177 2.06466517e-38
-0.2914649546 -0.1405185759 -0.2408829629 2.06466517e-38
-0.1298784465 -0.2747360468 -0.2473182231 2.06466517e-38
-0.09342566133 -0.4718882442 -0.2304917723 2.06466517e-38
0.08591067791 -0.04896443337 -0.2043401897 2.06466517e-38
-0.03252954036 -0.1317613423 -0.2142809033 2.06466517e-38
-0.3414095938 -0.08339527249 -0.2178251743 2.06466517e-38
-0.05970586091 -0.1803934872 -0.2111705989 2.06466517e-38
-0.1472019851 -0.06988691539 -0.2182043791 2.06466517e-38
-0.1687661409 -0.4583774805 -0.2428203821 2.06466517e-38
-0.3311742842 -0.1886709929 -0.2143042088 2.06466517e-38
0.09701719135 -0.0914356336 -0.2063113749 2.06466517e-38
0.05876378715 -0.4337380528 -0.2245749533 2.06466517e-38
-0.2505308092 -0.3539329171 -0.1983922273 2.06466517e-38
0.07111654431 -0.04565687478 -0.2047900558 2.06466517e-38
-0.1005317867 -0.09251845628 -0.2192742825 2.06466517e-38
0.01218655519 -0.1485847235 -0.2116630822 2.06466517e-38
-0.1935646385 -0.3657083213 -0.2478770316 2.06466517e-38
-0.1317683756 -0.07316506654 -0.2191284597 2.06466517e-38
-0.312798202 -0.09323000163 -0.2343661487 2.06466517e-38
-0.3166848719 -0.3593198657 -0.1780401021 2.06466517e-38
0.1814139336 -0.07586033642 -0.1975972503 2.06466517e-38
-0.2301015556 -0.357160151 -0.2432017773 2.06466517e-38
-0.07080342621 -0.05383008718 -0.2156543881 2.06466517e-38
0.2403470278 -0.3182829618 -0.1963879913 2.06466517e-38
0.02681336552 -0.2650519609 -0.2424348891 2.06466517e-38
0.1751713604 -0.3764320314 -0.2120647132 2.06466517e-38
-0.1292154938 -0.04145697504 -0.2170797735 2.06466517e-38
-0.1758338809 -0.3488880098 -0.1988007575 2.06466517e-38
0.1486329138 -0.1190233678 -0.1994232386 2.06466517e-38
0.3004246056 -0.3559210002 -0.1971173286 2.06466517e-38
0.05636966228 -0.3631412983 -0.2125984877 2.06466517e-38
0.01358641312 -0.365218997 -0.2525819838 2.06466517e-38
0.06206420064 -0.2277427763 -0.2369732261 2.06466517e-38
-0.2147307396 -0.2630300224 -0.2069318891 2.06466517e-38
0.2728580236 -0.3431591988 -0.1938496232 2.06466517e-38
-0.3140899539 -0.1470327973 -0.2383866459 2.06466517e-38
-0.1207982749 -0.3534035981 -0.2019661516 2.06466517e-38
-0.3261996806 -0.01382996142 -0.2263769954 2.06466517e-38
-0.09476527572 -0.05435021967 -0.2171843201 2.06466517e-38
-0.2703232169 -0.3682426214 -0.1964185536 2.06466517e-38
-0.1827441156 -0.2614129782 -0.2434289008 2.06466517e-38
-0.257923156 -0.09682332724 -0.2398415655 2.06466517e-38
-0.2598813474 -0.07570211589 -0.2376231551 2.06466517e-38
-0.0472272858 -0.01779974252 -0.2106578499 2.06466517e-38
-0.2149150372 -0.2723915577 -0.2063316256 2.06466517e-38
-0.3206295669 -0.1751031131 -0.2364719361 2.06466517e-38
-0.2376352251 -0.07636396587 -0.2375030667 2.06466517e-38
-0.04017187655 -0.1603546888 -0.2453953177 2.06466517e-38
-0.2527970076 -0.3926656842 -0.2388432771 2.06466517e-38
-0.05769396573 -0.466078192 -0.2210531533 2.06466517e-38
0.09261258692 -0.4342746735 -0.2262449563 2.06466517e-38
-0.2811576426 -0.0453132987 -0.1766558886 2.06466517e-38
0.06360753626 -0.3319908082 -0.2074495256 2.06466517e-38
-0.1976188123 -0.2341446877 -0.2446920723 2.06466517e-38
0.2783974409 -0.3557314873 -0.19438456 2.06466517e-38
-0.2866076827 -0.3823727965 -0.2287675887 2.06466517e-38
0.1270935237 -0.05072692037 -0.2034984976 2.06466517e-38
-0.3157298565 -0.2028655857 -0.2403483391 2.06466517e-38
0.05510446429 -0.3216282129 -0.2449189425 2.06466517e-38
0.09840521961 -0.3999812603 -0.2427970916 2.06466517e-38
0.0141782295 -0.4398975968 -0.2360569388 2.06466517e-38
-0.3335832357 -0.2500608563 -0.1982687116 2.06466517e-38
-0.1663407981 -0.05422195047 -0.216757983 2.06466517e-38
-0.261277467 -0.442301482 -0.2164667398 2.06466517e-38
-0.01282041147 -0.1668117344 -0.2106010467 2.06466517e-38
-0.3352954686 -0.03387221694 -0.2225021124 2.06466517e-38
-0.2465171814 -0.2995227575 -0.2029275745 2.06466517e-38
0.05260077119 -0.04659224302 -0.2083447129 2.06466517e-38
-0.06537628174 -0.4596979618 -0.2196621299 2.06466517e-38
-0.06853833795 -0.1626590639 -0.2117215097 2.06466517e-38
0.001077007502 -0.1898865402 -0.2103197575 2.06466517e-38
0.2085919231 -0.1915386319 -0.1954911798 2.06466517e-38
-0.2347078025 -0.1222053915 -0.2051991224 2.06466517e-38
-0.1189391464 -0.2234508097 -0.2121377587 2.06466517e-38
-0.07953569293 -0.1702042371 -0.2124879956 2.06466517e-38
0.2580433786 -0.1530462652 -0.1907207519 2.06466517e-38
-0.1137773991 -0.2582959533 -0.2103607506 2.06466517e-38
-0.2481254339 -0.3997083008 -0.2395204753 2.06466517e-38
0.1235233545 -0.3662077188 -0.2132079154 2.06466517e-38
-0.20403409 -0.4488813877 -0.2423738539 2.06466517e-38
-0.2957175374 -0.1048370749 -0.2384104133 2.06466517e-38
-0.08909876645 -0.1778634042 -0.2414109856 2.06466517e-38
-0.1077069938 -0.1673433334 -0.2409503013 2.06466517e-38
-0.05770059675 -0.3083360791 -0.2519302964 2.06466517e-38
0.2685900331 -0.2167107016 -0.1928502768 2.06466517e-38
0.176718995 -0.3981266022 -0.2144265622 2.06466517e-38
-0.3108962774 -0.3376481235 -0.1856241822 2.06466517e-38
-0.1358856112 -0.1735281497 -0.2427713722 2.06466517e-38
-0.009798586369 -0.2096455097 -0.2457675636 2.06466517e-38
-0.2131774426 -0.3245347738 -0.201416105 2.06466517e-38
-0.03170382977 -0.07127671689 -0.2153542191 2.06466517e-38
0.01358424872 -0.05358109623 -0.2142201811 2.06466517e-38
-0.3118683398 -0.3557729721 -0.1826630831 2.06466517e-38
-0.312987864 -0.3518608212 -0.1820975542 2.06466517e-38
-0.1779360771 -0.3123830855 -0.2466299683 2.06466517e-38
-0.2987492085 -0.1293087006 -0.1855835915 2.06466517e-38
0.0807877928 -0.0334719941 -0.2027527392 2.06466517e-38
-0.008402906358 -0.2481215 -0.2082196325 2.06466517e-38
-0.2700338662 -0.2952229381 -0.237051934 2.06466517e-38
-0.07608624548 -0.4693525434 -0.2206668407 2.06466517e-38
0.1272993088 -0.2685605288 -0.1997342557 2.06466517e-38
-0.0153089948 -0.3806725144 -0.2545694411 2.06466517e-38
-0.08396446705 -0.08393456042 -0.2187461108 2.06466517e-38
-0.1455011666 -0.1576217264 -0.2139751315 2.06466517e-38
-0.1061993986 -0.2324686199 -0.2117370218 2.348204041e-38
-0.32174474 -0.01529546827 -0.2445826977 2.348204041e-38
-0.0416059196 -0.3872555792 -0.2572422922 2.348204041e-38
0.1742842197 -0.4250359535 -0.2243683338 2.348204041e-38
-0.1274754852 -0.2563033998 -0.2559421957 2.348204041e-38
-0.3132870197 -0.1678395271 -0.1807751358 2.348204041e-38
-0.2288575768 -0.06225496158 -0.2090483606 2.348204041e-38
-0.2192433774 -0.4351395965 -0.2055795342 2.348204041e-38
-0.3300634325 -0.1752797514 -0.2210399061 2.348204041e-38
0.1912749261 -0.4080432951 -0.2108224481 2.348204041e-38
-0.1271005869 -0.07886317372 -0.2158590108 2.348204041e-38
-0.01609507576 -0.4469280243 -0.2401116937 2.348204041e-38
-0.2502490282 -0.1337351203 -0.2080236524 2.348204041e-38
0.3141132593 -0.3398572206 -0.1830739677 2.348204041e-38
0.05486929417 -0.04095927626 -0.1971048564 2.348204041e-38
-0.1616568714 -0.01825437695 -0.2104824483 2.348204041e-38
-0.1428117603 -0.3108033538 -0.2585789263 2.348204041e-38
-0.08209604025 -0.2257004976 -0.2550885975 2.348204041e-38
-0.296363771 -0.05274406075 -0.1726749092 2.348204041e-38
-0.09275606275 -0.07519206405 -0.2149161249 2.348204041e-38
0.03946356103 -0.2056059539 -0.2468821108 2.348204041e-38
-0.2024354786 -0.1959605515 -0.2144394219 2.348204041e-38
-0.244992584 -0.3319013119 -0.2466126531 2.348204041e-38
0.3168670535 -0.3058115244 -0.1789243221 2.348204041e-38
-0.3182071745 -0.1022513211 -0.2481738329 2.348204041e-38
-0.1618373245 -0.2629470229 -0.2556926012 2.348204041e-38
-0.1188794225 -0.465705961 -0.2305271029 2.348204041e-38
0.0863557905 -0.03756859899 -0.1920818686 2.348204041e-38
-0.05513971299 -0.1185090244 -0.2117171735 2.348204041e-38
-0.3481495976 -0.0426569581 -0.2106916904 2.348204041e-38
-0.08615234494 -0.1701154411 -0.2105109245 2.348204041e-38
-0.1789795905 -0.05299319327 -0.2151864916 2.348204041e-38
-0.2012343407 -0.4445117414 -0.2436386198 2.348204041e-38
-0.3383499384 -0.1331297904 -0.2007556707 2.348204041e-38
0.1003242061 -0.08135275543 -0.1966258436 2.348204041e-38
0.05899043381 -0.4411242306 -0.2206046432 2.348204041e-38
-0.2747772038 -0.3246887326 -0.1988022178 2.348204041e-38
0.0691023916 -0.03490593284 -0.1931168139 2.348204041e-38
-0.1390114129 -0.07689347863 -0.2158326805 2.348204041e-38
-0.004678089172 -0.1368423104 -0.208542645 2.348204041e-38
-0.2289707959 -0.3462368846 -0.2485321164 2.348204041e-38
-0.1665701866 -0.05708609521 -0.2157653421 2.348204041e-38
-0.3305027187 -0.05998653173 -0.2391745597 2.348204041e-38
-0.3183632493 -0.3043033481 -0.1708828062 2.348204041e-38
0.1930542737 -0.06652392447 -0.1834151745 2.348204041e-38
-0.2655888498 -0.3341451883 -0.2441839129 2.348204041e-38
-0.1044367105 -0.04195174575 -0.2104970217 2.348204041e-38
0.2589554191 -0.3268131018 -0.1886325479 2.348204041e-38
0.01898484677 -0.2626314163 -0.2496772408 2.348204041e-38
0.1836648136 -0.3885271251 -0.2094360292 2.348204041e-38
-0.1655124575 -0.02846689522 -0.2128240019 2.348204041e-38
-0.2080597281 -0.3436050117 -0.2028953582 2.348204041e-38
0.1558211148 -0.1075706035 -0.1893235892 2.348204041e-38
0.3203754723 -0.363119185 -0.1881064326 2.348204041e-38
0.05613319203 -0.3639625907 -0.2070120275 2.348204041e-38
0.007707785815 -0.3714620471 -0.2566406727 2.348204041e-38
0.05552626401 -0.2265679836 -0.2457568794 2.348204041e-38
-0.2462947965 -0.2358706594 -0.2080109715 2.348204041e-38
0.2904439569 -0.356661737 -0.187225461 2.348204041e-38
-0.3303548098 -0.1013523638 -0.2405509353 2.348204041e-38
-0.162609145 -0.3535618186 -0.2026338428 2.348204041e-38
-0.3466628492 0.0144778192 -0.2309381366 2.348204041e-38
-0.1354077905 -0.04231428355 -0.2134934962 2.348204041e-38
-0.2899694145 -0.3361298442 -0.1950615048 2.348204041e-38
-0.229074508 -0.2442932427 -0.2517248392 2.348204041e-38
-0.2941985428 -0.06729640067 -0.2514221966 2.348204041e-38
-0.2949101925 -0.04903744161 -0.2507360876 2.348204041e-38
-0.07280812413 -0.01080344617 -0.2023404688 2.348204041e-38
-0.2462810874 -0.2435646057 -0.2074459791 2.348204041e-38
-0.3322977126 -0.1235633343 -0.229975 2.348204041e-38
-0.276565969 -0.04992832243 -0.2506465316 2.348204041e-38
-0.05847073346 -0.1567270905 -0.2555371225 2.348204041e-38
-0.2804400623 -0.3630107641 -0.2363243252 2.348204041e-38
-0.07832124829 -0.4634326398 -0.2192562521 2.348204041e-38
0.09490038455 -0.4429886341 -0.2268819362 2.348204041e-38
-0.2982557714 -0.03441041708 -0.1659944654 2.348204041e-38
0.06636353582 -0.3305636048 -0.2038752735 2.348204041e-38
-0.2434618175 -0.2151485085 -0.2509562969 2.348204041e-38
0.2926518321 -0.3665533066 -0.1915811151 2.348204041e-38
-0.3056860268 -0.3423709571 -0.2220637202 2.348204041e-38
0.1351947635 -0.03844061494 -0.1906960905 2.348204041e-38
-0.3276388943 -0.1536663473 -0.2335151583 2.348204041e-38
0.04775089025 -0.3261025548 -0.2499493062 2.348204041e-38
0.1011495963 -0.4092604816 -0.2451080382 2.348204041e-38
0.00621842593 -0.4476869404 -0.2369779199 2.348204041e-38
-0.334910363 -0.1986205429 -0.1843359917 2.348204041e-38
-0.196077764 -0.03666885942 -0.21403341 2.348204041e-38
-0.2823523283 -0.4134259224 -0.2132900208 2.348204041e-38
-0.03122544289 -0.1512113661 -0.2095613331 2.348204041e-38
-0.3520253301 -0.004436150193 -0.2237870097 2.348204041e-38
-0.2727360129 -0.2637976408 -0.2021599263 2.348204041e-38
0.04600318894 -0.03606370091 -0.1959641725 2.348204041e-38
-0.08635373414 -0.4573566914 -0.2167201489 2.348204041e-38
-0.1017166823 -0.148560226 -0.2145976126 2.348204041e-38
-0.01168845966 -0.1793355197 -0.2080094218 2.348204041e-38
0.2199814171 -0.1795990914 -0.1893388927 2.348204041e-38
-0.2606063187 -0.1024133563 -0.2018981725 2.348204041e-38
-0.1569251716 -0.2149501741 -0.2148550004 2.348204041e-38
-0.1171276718 -0.1565581262 -0.2144951522 2.348204041e-38
0.2724966407 -0.1423720717 -0.179245308 2.348204041e-38
-0.1544850767 -0.2534442544 -0.2144008577 2.348204041e-38
-0.2757379115 -0.3722770214 -0.2372469604 2.348204041e-38
0.1311308444 -0.3801194429 -0.2112336159 2.348204041e-38
-0.2365799546 -0.4287582934 -0.2430458814 2.348204041e-38
-0.3196582794 -0.07108050585 -0.2455268204 2.348204041e-38
-0.1138356179 -0.1698666364 -0.2535587847 2.348204041e-38
-0.1374747455 -0.157767266 -0.2535491288 2.348204041e-38
-0.06888841838 -0.3054687977 -0.2587859631 2.348204041e-38
0.2797906995 -0.2114278227 -0.1828771532 2.348204041e-38
0.1814373285 -0.4120057225 -0.2125264853 2.348204041e-38
-0.3111935854 -0.2817263603 -0.1737365276 2.348204041e-38
-0.1739130914 -0.154610455 -0.2540813982 2.348204041e-38
-0.02214214951 -0.2057100832 -0.2542747557 2.348204041e-38
-0.2423737943 -0.3020871878 -0.2045586258 2.348204041e-38
-0.0568254739 -0.06125997007 -0.2132594287 2.348204041e-38
-0.00183397904 -0.04249506444 -0.2045955062 2.348204041e-38
-0.3136482835 -0.2993480563 -0.1742381603 2.348204041e-38
-0.3140981793 -0.2944648266 -0.1732126325 2.348204041e-38
-0.2211852372 -0.2945271134 -0.250413537 2.348204041e-38
-0.3099913299 -0.1079080999 -0.1765063852 2.348204041e-38
0.0754519552 -0.02296930552 -0.193065986 2.348204041e-38
-0.01998440176 -0.2407504916 -0.2017956674 2.348204041e-38
-0.3033846021 -0.266769886 -0.2386246473 2.348204041e-38
-0.1003908813 -0.4656052887 -0.2197172791 2.348204041e-38
0.1382903755 -0.264274627 -0.1982150972 2.348204041e-38
-0.02315348387 -0.3875674307 -0.2564533651 2.348204041e-38
-0.1228649169 -0.07016295195 -0.2163947821 2.348204041e-38
-0.1808982044 -0.1397535056 -0.2150640339 2.348204041e-38
-0.1506683677 -0.2495764494 -0.2183118761 2.346801622e-38
-0.3530090749 0.0006880313158 -0.2548720539 2.346801622e-38
-0.06400532275 -0.3845936954 -0.2601566315 2.346801622e-38
0.170649901 -0.4331791103 -0.2257610559 2.346801622e-38
-0.1727790684 -0.2450749874 -0.258796066 2.346801622e-38
-0.3282518983 -0.1572578102 -0.1772914827 2.346801622e-38
-0.264729023 -0.05921135098 -0.2187961489 2.346801622e-38
-0.2569616735 -0.4291657507 -0.210887596 2.346801622e-38
-0.3462861776 -0.146087572 -0.2239140272 2.346801622e-38
0.1876791567 -0.4248013794 -0.2120960504 2.346801622e-38
-0.1690394431 -0.07481695712 -0.2247803211 2.346801622e-38
-0.03578767926 -0.4477769136 -0.2433162183 2.346801622e-38
-0.2811396122 -0.1376601607 -0.2151495665 2.346801622e-38
0.3242878914 -0.3536379039 -0.1812019348 2.346801622e-38
0.03074673936 -0.03351816535 -0.1978094578 2.346801622e-38
-0.2012411207 -0.008556343615 -0.2196341306 2.346801622e-38
-0.1886743605 -0.299298048 -0.2604178488 2.346801622e-38
-0.1137951016 -0.2211351395 -0.2584683597 2.346801622e-38
-0.3162362874 -0.05559371412 -0.174258396 2.346801622e-38
-0.1378024668 -0.06806890666 -0.2234016061 2.346801622e-38
0.02105898969 -0.2118142247 -0.2510754764 2.346801622e-38
-0.240837723 -0.2050219774 -0.2210810184 2.346801622e-38
-0.2857703269 -0.3147996366 -0.2517075837 2.346801622e-38
0.3333183229 -0.3223406672 -0.1765809804 2.346801622e-38
-0.3459077179 -0.08436897397 -0.2550213039 2.346801622e-38
-0.2117159069 -0.2491531372 -0.2567336857 2.346801622e-38
-0.1609145105 -0.4556687772 -0.2311027199 2.346801622e-38
0.0730240494 -0.03030139953 -0.1950101405 2.346801622e-38
-0.09813593328 -0.1141551882 -0.2197411954 2.346801622e-38
-0.3701296747 -0.01860368252 -0.2172301114 2.346801622e-38
-0.127847001 -0.1827241033 -0.2169631869 2.346801622e-38
-0.2161151469 -0.04733342677 -0.2247722894 2.346801622e-38
-0.2450962067 -0.4265060723 -0.2481465042 2.346801622e-38
-0.3539739251 -0.1120469645 -0.200245589 2.346801622e-38
0.07689844072 -0.07429832965 -0.2008049637 2.346801622e-38
0.03808096796 -0.4520232081 -0.2292039096 2.346801622e-38
-0.2984450161 -0.3214998841 -0.1998726726 2.346801622e-38
0.0512406975 -0.02726526558 -0.1945159435 2.346801622e-38
-0.1816751361 -0.07344140857 -0.2254382968 2.346801622e-38
-0.03451953828 -0.1327951252 -0.2146517038 2.346801622e-38
-0.2722540796 -0.3298846483 -0.2535964549 2.346801622e-38
-0.2045110315 -0.05143398046 -0.2254056782 2.346801622e-38
-0.3572372794 -0.04097470641 -0.2466536313 2.346801622e-38
-0.3321097791 -0.2746816874 -0.1710095406 2.346801622e-38
0.1851648837 -0.05952860415 -0.185484454 2.346801622e-38
-0.2997040451 -0.311188817 -0.2475104034 2.346801622e-38
-0.1481034756 -0.03321114182 -0.2194932997 2.346801622e-38
0.2663273215 -0.3494345546 -0.1903735697 2.346801622e-38
0.002812553197 -0.2656713724 -0.2558147013 2.346801622e-38
0.1789597422 -0.4099116325 -0.2113902867 2.346801622e-38
-0.2046168894 -0.01959370077 -0.22273992 2.346801622e-38
-0.2426173389 -0.3498660922 -0.2080511153 2.346801622e-38
0.1404355764 -0.1011337936 -0.1940128952 2.346801622e-38
0.3307809234 -0.3704984486 -0.1846071333 2.346801622e-38
0.03789305314 -0.3824595511 -0.2140907943 2.346801622e-38
-0.006492570043 -0.3729002476 -0.2611468136 2.346801622e-38
0.04138004407 -0.2330712825 -0.2502751648 2.346801622e-38
-0.2774128616 -0.2360682786 -0.2108251303 2.346801622e-38
0.2970155776 -0.3703711033 -0.1870741397 2.346801622e-38
-0.3527765572 -0.07706351578 -0.2425472438 2.346801622e-38
-0.1992271692 -0.3665398061 -0.2091867626 2.346801622e-38
-0.3749351203 0.03252644837 -0.2414200753 2.346801622e-38
-0.1766931415 -0.0343138352 -0.2230305523 2.346801622e-38
-0.3075979352 -0.3266223073 -0.1962898374 2.346801622e-38
-0.2733839154 -0.2305957824 -0.2559577227 2.346801622e-38
-0.3293260634 -0.05526935309 -0.2603087723 2.346801622e-38
-0.3298787773 -0.03648077697 -0.2598212659 2.346801622e-38
-0.1160752326 -0.0002335906029 -0.2071775645 2.346801622e-38
-0.2773455977 -0.2434206456 -0.2098728567 2.346801622e-38
-0.353751272 -0.1000663042 -0.2313946933 2.346801622e-38
-0.3138299286 -0.03824819624 -0.2592942715 2.346801622e-38
-0.08777946234 -0.1571792662 -0.2622834146 2.346801622e-38
-0.3112475872 -0.3340943456 -0.2380197346 2.346801622e-38
-0.1183229387 -0.4580769837 -0.2236491889 2.346801622e-38
0.08475323766 -0.4481472671 -0.231693238 2.346801622e-38
-0.3178737462 -0.0368719399 -0.1676061749 2.346801622e-38
0.0484764576 -0.349681735 -0.2120711356 2.346801622e-38
-0.2859807312 -0.2017237544 -0.2575416565 2.346801622e-38
0.2998405993 -0.3775320947 -0.1899755746 2.346801622e-38
-0.3241119087 -0.3107170463 -0.223927319 2.346801622e-38
0.1240930036 -0.03207761049 -0.1963690072 2.346801622e-38
-0.3495297134 -0.1271882951 -0.2348118573 2.346801622e-38
0.03938790411 -0.3331080675 -0.2563757598 2.346801622e-38
0.09217081964 -0.418792218 -0.2516735196 2.346801622e-38
-0.01035467535 -0.4506477714 -0.2417880297 2.346801622e-38
-0.3495718539 -0.1633469313 -0.1847104132 2.346801622e-38
-0.2311037779 -0.0306398645 -0.2228984237 2.346801622e-38
-0.3067854047 -0.3854280412 -0.2179231644 2.346801622e-38
-0.06634225696 -0.1531486213 -0.216117993 2.346801622e-38
-0.3768208027 0.01781149209 -0.2337618321 2.346801622e-38
-0.29831478 -0.2631396651 -0.2037913948 2.346801622e-38
0.02197126299 -0.02840260416 -0.1966290623 2.346801622e-38
-0.1303037703 -0.4545687139 -0.2205384821 2.346801622e-38
-0.1422588229 -0.1556438208 -0.2227335423 2.346801622e-38
-0.0435969606 -0.1901650578 -0.2122490704 2.346801622e-38
0.2211038172 -0.1793492734 -0.190736264 2.346801622e-38
-0.2890736759 -0.1041658819 -0.2093369663 2.346801622e-38
-0.2003760189 -0.2293804735 -0.2223753482 2.346801622e-38
-0.1582036018 -0.1665751785 -0.2228194624 2.346801622e-38
0.2803136706 -0.1361485422 -0.1793742478 2.346801622e-38
-0.1954549253 -0.2705426812 -0.2221984714 2.346801622e-38
-0.3084098995 -0.3422531784 -0.2389293462 2.346801622e-38
0.1169360653 -0.396863997 -0.2146828175 2.346801622e-38
-0.2755702138 -0.4052941501 -0.2457321584 2.346801622e-38
-0.3483547866 -0.05379225314 -0.2532317638 2.346801622e-38
-0.1590281576 -0.1621913612 -0.2607217133 2.346801622e-38
-0.1871075779 -0.1468488127 -0.2599262595 2.346801622e-38
-0.09530581534 -0.3014546335 -0.2605006695 2.346801622e-38
0.2928284109 -0.2137134075 -0.1808627397 2.346801622e-38
0.1778668165 -0.4285529256 -0.2134677321 2.346801622e-38
-0.3268386424 -0.2621191144 -0.1697181761 2.346801622e-38
-0.22618559 -0.1427459121 -0.2601990402 2.346801622e-38
-0.04416566342 -0.2096199393 -0.2600651085 2.346801622e-38
-0.2739591002 -0.302120626 -0.2062930167 2.346801622e-38
-0.09807550907 -0.05261996388 -0.2188355774 2.346801622e-38
-0.03807092458 -0.03467945009 -0.2074300945 2.346801622e-38
-0.3285208344 -0.2799981236 -0.1721698195 2.346801622e-38
-0.328953594 -0.2754485607 -0.1705904454 2.346801622e-38
-0.2655642629 -0.2786183655 -0.2538755238 2.346801622e-38
