# .PCD v0.7 - Point Cloud Data file format
VERSION 0.7
FIELDS x y z rgb
SIZE 4 4 4 4
TYPE F F F F
COUNT 1 1 1 1
WIDTH 832
HEIGHT 1
VIEWPOINT 0 0 0 1 0 0 0
POINTS 832
DATA ascii
0.05308499187 -0.4707689881 0.1306022704 5.820783626e-39
-0.0232732147 -0.4638277292 -0.0007700007409 5.820783626e-39
-0.01127364486 -0.3660958409 -0.04502214491 5.820783626e-39
0.03196086362 -0.4708024263 0.1329453886 5.820783626e-39
-0.07227642834 -0.3809049129 0.2598774731 5.820783626e-39
0.1613140106 -0.4570118189 0.2749505937 5.820783626e-39
0.1253930628 -0.4497250915 -0.02491120435 5.820783626e-39
-0.2132700235 -0.4518498778 0.05920197815 5.820783626e-39
0.02730666474 -0.4702952504 0.09546392411 5.820783626e-39
-0.1857624799 -0.3629392385 0.05598285049 5.820783626e-39
-0.001980140805 -0.4689908624 -0.04943695664 5.820783626e-39
-0.005926564336 -0.4686200023 -0.03125796467 5.820783626e-39
-0.1714470237 -0.3617955446 0.08122240007 5.820783626e-39
0.04550432041 -0.3539648056 -0.1415285915 5.820783626e-39
-0.02043673396 -0.3840277791 0.2941583395 5.820783626e-39
0.1368212402 -0.3620526195 -0.07412917167 5.820783626e-39
0.05154592171 -0.4687061906 0.07552734017 5.820783626e-39
-0.05597083271 -0.3851548433 0.2858273089 5.820783626e-39
0.1199612617 -0.3763779998 0.0002130307257 5.820783626e-39
0.07703332603 -0.4688537717 0.08503754437 5.820783626e-39
0.055643484 -0.3687961698 0.04723259434 5.820783626e-39
0.1494278312 -0.460302949 0.2590816319 5.820783626e-39
0.1920321286 -0.3661302328 -0.04195924103 5.820783626e-39
-0.08644364774 -0.4663233161 0.0201238431 5.820783626e-39
0.1556955874 -0.3791288733 0.2427390963 5.820783626e-39
0.006018549204 -0.3673020005 0.2242803574 5.820783626e-39
-0.08441457152 -0.472073853 0.1337093562 5.820783626e-39
0.1112811118 -0.3752926588 -0.001729130745 5.820783626e-39
-0.03885899484 -0.3668518066 0.1210179925 5.820783626e-39
0.07051691413 -0.4610496163 0.2567759156 5.820783626e-39
0.02940844372 -0.4679043293 0.2190580815 5.820783626e-39
0.001456417143 -0.366877377 0.007295554504 5.820783626e-39
-0.0843821764 -0.4603136778 0.028872177 5.820783626e-39
0.1804431677 -0.4675662518 0.1887571365 5.820783626e-39
0.007304251194 -0.4529418945 0.2996764779 5.820783626e-39
0.09457099438 -0.3677528501 0.2275634557 5.820783626e-39
0.1623801142 -0.467617929 0.06384077668 5.820783626e-39
0.02746036276 -0.4748193622 0.05406565964 5.820783626e-39
0.02581975237 -0.4616832733 -0.01421675645 5.820783626e-39
0.1003800556 -0.3743172288 0.2715106308 5.820783626e-39
-0.1369891167 -0.3647581935 0.02432180382 5.820783626e-39
-0.1151465178 -0.4720658064 0.1694946885 5.820783626e-39
0.110082671 -0.469764173 0.09065020829 5.820783626e-39
0.05834757164 -0.4683579803 -0.05108961463 5.820783626e-39
0.09684845805 -0.4694448113 0.08617689461 5.820783626e-39
-0.09956783056 -0.4036956429 0.302891165 5.820783626e-39
0.1572882086 -0.4669115543 -0.08825241774 5.820783626e-39
0.1598150432 -0.4122200608 -0.1192273796 5.820783626e-39
0.1181747466 -0.3688303232 0.2198714018 5.820783626e-39
0.1067661494 -0.469981432 0.1043266207 5.820783626e-39
0.1971837133 -0.3785921931 0.06118621677 5.820783626e-39
-0.2602145672 -0.4679481983 0.01684440486 5.820783626e-39
-0.09977447987 -0.367854476 0.02841878124 5.820783626e-39
0.1983393133 -0.4663639069 0.184610188 5.820783626e-39
0.05235956982 -0.3590263724 -0.04967910051 5.820783626e-39
0.03392322361 -0.465130806 -0.02505250461 5.820783626e-39
0.1032587737 -0.4679191113 0.06251962483 5.820783626e-39
-0.03067739308 -0.3618481755 -0.01403173618 5.820783626e-39
0.09696032107 -0.3801232576 0.3011929095 5.820783626e-39
-0.1369089335 -0.3820422292 0.2199907303 5.820783626e-39
-0.1130158156 -0.4720998406 0.01760000177 5.820783626e-39
-0.06382927299 -0.4711893201 0.2141936421 5.820783626e-39
-0.224600181 -0.4431644678 0.06877456605 5.820783626e-39
-0.2059715539 -0.464915216 0.02654858865 5.820783626e-39
0.2422229797 -0.4384106398 0.0370660685 5.820783626e-39
0.08945295215 -0.4705920815 0.05218274146 5.820783626e-39
-0.02674467117 -0.3670791388 0.1107186228 5.820783626e-39
-0.06694503129 -0.3802195191 0.2600543499 5.820783626e-39
0.044859685 -0.3683553934 0.1830768883 5.820783626e-39
0.1849252582 -0.4658113718 0.1986878663 5.820783626e-39
0.06917207688 -0.3661807775 0.2087139338 5.820783626e-39
0.1339430213 -0.3734673262 -0.1412254125 5.820783626e-39
0.02337411419 -0.3713327646 0.08580036461 5.820783626e-39
0.01501376554 -0.4682545662 0.2025659531 5.820783626e-39
0.01468172297 -0.4717851877 0.06613036245 5.820783626e-39
0.1612389088 -0.3846262693 0.09491413832 5.820783626e-39
0.00522377342 -0.4604036808 0.2826526165 5.820783626e-39
0.07034003735 -0.3746171594 0.2803564668 5.820783626e-39
-0.07605598867 -0.3659646511 0.08773937821 5.820783626e-39
0.03582626954 -0.3667412996 0.2228027582 5.820783626e-39
0.00140992552 -0.461623311 -0.1042423695 5.820783626e-39
-0.00303285569 -0.4623515606 0.277711004 5.820783626e-39
0.03451570123 -0.4667026997 -0.1096432507 5.820783626e-39
-0.1301453412 -0.3581930399 0.1435291022 5.820783626e-39
-0.06569330394 -0.3645215631 -0.03371945024 5.820783626e-39
-0.02603761107 -0.363799274 -0.1291206181 5.820783626e-39
0.08775531501 -0.3733375072 0.267757833 5.820783626e-39
-0.1911272258 -0.470749557 0.1502327025 5.820783626e-39
0.03490957618 -0.4756361246 0.05042824894 5.820783626e-39
-0.1103742123 -0.3669565916 0.0315072909 5.820783626e-39
0.2140621841 -0.3800089359 0.007579016499 5.820783626e-39
0.1106087267 -0.3693269491 0.1603764445 5.820783626e-39
-0.05249150842 -0.4712279439 0.2188108861 5.820783626e-39
0.02931481227 -0.3702348471 0.1759872139 5.820783626e-39
-0.08067432046 -0.4612094164 -0.06136790663 5.820783626e-39
-0.1212442219 -0.3886835575 0.2499738038 5.820783626e-39
0.121342063 -0.4118198156 -0.1757914722 5.820783626e-39
-0.01343727112 -0.4701135755 0.1581900716 5.820783626e-39
0.2025510967 -0.3779469728 0.1016505808 5.820783626e-39
0.02005390823 -0.4696991444 0.1535264403 5.820783626e-39
0.0227810517 -0.3596792817 -0.03232850134 5.820783626e-39
0.1390227526 -0.3777323961 0.2658053339 5.820783626e-39
0.0762225464 -0.3660916686 0.2065113485 5.820783626e-39
-0.1456489116 -0.4671842456 -8.08890909e-05 5.820783626e-39
-0.1157281548 -0.3640987277 0.00558215566 5.820783626e-39
0.1151974127 -0.4670703411 0.1371187419 5.820783626e-39
0.05552785099 -0.3666138053 0.2053109556 5.820783626e-39
0.06919054687 -0.3742294312 0.278493911 5.820783626e-39
-0.1191922128 -0.4750314951 0.1018894017 5.820783626e-39
0.007910072803 -0.3537946939 -0.1493590176 5.820783626e-39
0.008066691458 -0.466370225 -0.0235047061 5.820783626e-39
-0.0192791149 -0.3707193136 0.08703465015 5.820783626e-39
-0.08583638072 -0.3680068851 -0.09016914666 5.820783626e-39
-0.1324868202 -0.4589067698 0.04459997267 5.820783626e-39
0.1774048209 -0.4539551139 -0.04646086693 5.820783626e-39
-0.2049021572 -0.4688769579 0.003629082814 5.820783626e-39
0.146347478 -0.4680202603 0.1417703927 5.820783626e-39
0.07602123171 -0.3665811419 0.1938810349 5.820783626e-39
-0.06322902441 -0.3631265759 -0.128366366 5.820783626e-39
0.1901471019 -0.3756347895 0.1255142391 5.820783626e-39
0.1338860393 -0.4672079682 0.1469037682 5.820783626e-39
-0.1083736271 -0.3677088022 -0.1107090414 5.820783626e-39
0.1256947368 -0.4659231901 -0.1261934787 5.820783626e-39
0.08031491935 -0.4507567286 -0.1740527749 5.820783626e-39
-0.1590524465 -0.4707791209 0.1200859025 5.820783626e-39
0.00289093703 -0.3710839748 0.09009664506 5.820783626e-39
0.1807360053 -0.4678040743 0.0678968057 5.820783626e-39
-0.006079539657 -0.4551241398 -0.1442121863 5.820783626e-39
-0.2511107922 -0.4511130452 0.05432024598 5.820783626e-39
0.2129784822 -0.4604263306 -0.002881405875 5.820783626e-39
-0.2359298319 -0.4532354474 0.1257222146 5.820783626e-39
0.2032261938 -0.3703047037 -0.04951816052 5.820783626e-39
0.2149650306 -0.4422810674 0.2677929401 6.490113838e-41
0.08388091624 -0.3502176404 -0.06832326204 6.490113838e-41
0.02684077248 -0.3579928279 0.109331578 6.490113838e-41
-0.1323180199 -0.4306554198 -0.1015224457 6.490113838e-41
-0.2543073297 -0.438615799 -0.03908035159 6.490113838e-41
-0.04922129959 -0.4054175019 0.1986254007 6.490113838e-41
-0.1264790595 -0.4096317291 -0.07137574255 6.490113838e-41
-0.2584274411 -0.4396859407 -0.03335482627 6.490113838e-41
-0.1660604179 -0.4040449858 0.05338960886 6.490113838e-41
0.1350829303 -0.3561540246 -0.1374202818 6.490113838e-41
0.2927199006 -0.3980587721 -0.01445982791 6.490113838e-41
0.05508103222 -0.3554292321 0.001269802451 6.490113838e-41
0.2247265577 -0.3573589325 0.04849413037 6.490113838e-41
-0.002580285072 -0.4703211784 0.04252019525 6.490113838e-41
-0.00249633193 -0.4146027565 0.2427641004 6.490113838e-41
0.08664256334 -0.3789232373 0.2019246817 6.490113838e-41
0.188970834 -0.4609618783 -0.154222548 6.490113838e-41
0.1890871674 -0.3701776862 0.1863038689 6.490113838e-41
-0.05326616764 -0.4406750202 0.2810719907 6.490113838e-41
0.2720196843 -0.3519450426 -0.02945374511 6.490113838e-41
0.248294726 -0.4586865306 -0.09917562455 6.490113838e-41
-0.1456933171 -0.4583932161 0.3084000945 6.490113838e-41
0.08261514455 -0.4018561244 0.2691444159 6.490113838e-41
0.06104122847 -0.3924540877 0.2266655117 6.490113838e-41
-0.1393947452 -0.4105359912 -0.06951679289 6.490113838e-41
-0.06831628084 -0.4464821219 0.2897928357 6.490113838e-41
0.2360407114 -0.4109624624 0.2302117795 6.490113838e-41
-0.01665950567 -0.4623322487 -0.1399472207 6.490113838e-41
-0.07404194772 -0.4123216271 -0.09490513057 6.490113838e-41
0.000249363482 -0.4336619973 -0.2115221173 6.490113838e-41
-0.0190942809 -0.4660661817 0.1171158031 6.490113838e-41
0.2564608753 -0.456004858 -0.08909867704 6.490113838e-41
0.2258326113 -0.4692581892 -0.08621552587 6.490113838e-41
0.2534630299 -0.3580670953 -0.05006842315 6.490113838e-41
-0.005425296724 -0.4361301661 -0.2104828656 6.490113838e-41
0.2417575121 -0.3982573152 -0.1425351053 6.490113838e-41
0.1418979764 -0.3772436976 -0.2172817737 6.490113838e-41
0.123205997 -0.4691018462 0.1103939265 6.490113838e-41
0.1859429777 -0.3784533739 0.2979563773 6.490113838e-41
0.0101615414 -0.4631873965 0.2653822303 6.490113838e-41
-0.1497591734 -0.4607242942 -0.07542868704 6.490113838e-41
-0.09364141524 -0.4466584921 -0.1442888975 6.490113838e-41
-0.04749647528 -0.4381334186 0.2771484554 6.490113838e-41
0.2230607271 -0.4300965667 0.2603874803 6.490113838e-41
0.2125476152 -0.3788093925 0.281047523 6.490113838e-41
-0.01290027797 -0.4334559441 0.2833565176 6.490113838e-41
-0.06809861958 -0.39793998 0.1744150668 6.490113838e-41
-0.09577904642 -0.4483290315 0.2926252782 6.490113838e-41
0.09888862073 -0.351639092 -0.07922896743 6.490113838e-41
-0.06766836345 -0.3762271404 0.128439188 6.490113838e-41
0.1981917471 -0.4709953666 0.0157370735 6.490113838e-41
-0.2305727452 -0.4409433603 0.1759759039 6.490113838e-41
0.1968014836 -0.4116888642 -0.2114879638 6.490113838e-41
0.1958211064 -0.4649240971 -0.1223428845 6.490113838e-41
0.01440935209 -0.471776545 -0.002175210044 6.490113838e-41
-0.1025935858 -0.4289562106 -0.1095645726 6.490113838e-41
0.2064402252 -0.472938776 -0.04061321169 6.490113838e-41
0.2270840108 -0.4516361356 -0.1461069286 6.490113838e-41
-0.04548464715 -0.3860002756 0.1565613151 6.490113838e-41
0.1852831542 -0.4559695125 -0.2131051868 6.490113838e-41
0.06190803647 -0.4049952626 -0.1948842406 6.490113838e-41
0.03668845445 -0.3822364211 0.1852967441 6.490113838e-41
0.2627984285 -0.4108445644 0.1491381377 6.490113838e-41
0.1842367649 -0.3698531389 0.2373649925 6.490113838e-41
-0.0159483403 -0.46329391 0.1614747643 6.490113838e-41
0.1315213889 -0.4692622423 0.1625648737 6.490113838e-41
-0.2242893726 -0.4281600118 -0.04394900054 6.490113838e-41
-0.1031437516 -0.4221590757 -0.09775091708 6.490113838e-41
-0.2030405551 -0.4516125321 0.2464005351 6.490113838e-41
-0.0164264515 -0.4401154518 -0.2008654326 6.490113838e-41
0.2877134979 -0.4265572429 0.02544656023 6.490113838e-41
0.02594565228 -0.4049005508 0.2394194305 6.490113838e-41
-0.1628766954 -0.4494493008 -0.1229806095 6.490113838e-41
0.006420686841 -0.4708636403 -0.07931357622 6.490113838e-41
0.139545992 -0.3828778267 0.2617868781 6.490113838e-41
0.2019518316 -0.390928328 -0.2013812512 6.490113838e-41
0.2532132268 -0.4629972577 0.09158622473 6.490113838e-41
0.1770493984 -0.46022439 -0.2011003047 6.490113838e-41
0.2909911573 -0.4100217223 0.007273717783 6.490113838e-41
-0.1930490583 -0.443713367 -0.1068796962 6.490113838e-41
-0.02898734808 -0.4400602579 -0.2259131819 6.490113838e-41
-0.2349644154 -0.4418166876 0.1586786956 6.490113838e-41
-0.06257872283 -0.4477273226 0.31947577 6.490113838e-41
-0.0163070932 -0.4669687152 -0.1030596346 6.490113838e-41
-0.1364212185 -0.397798717 -0.02586486377 6.490113838e-41
0.001773051918 -0.4631745815 0.189026922 6.490113838e-41
0.09006486833 -0.4707788825 -0.04873484373 6.490113838e-41
0.04979760945 -0.3772644997 0.1774113029 6.490113838e-41
0.003364853561 -0.4697753787 0.07738209516 6.490113838e-41
-0.1493267715 -0.4019129276 0.1329243034 6.490113838e-41
-0.09990991652 -0.4550529718 -0.2093990594 6.490113838e-41
0.2333779186 -0.465575099 -0.02885995992 6.490113838e-41
0.06257303059 -0.3562458158 0.09147325903 6.490113838e-41
0.07593882829 -0.4489908814 0.3184289932 6.490113838e-41
-0.2555685043 -0.4390547276 -0.03971780092 6.490113838e-41
-0.08621436357 -0.3965653777 -0.06589354575 6.490113838e-41
-0.01065407693 -0.3658006787 0.1183105707 6.490113838e-41
-0.06049963832 -0.4763282537 -0.04260966927 6.490113838e-41
-0.06021763384 -0.4167582393 -0.1091650128 6.490113838e-41
-0.1583342403 -0.4598811269 -0.08367708325 6.490113838e-41
0.1777249873 -0.3713132739 0.2198688686 6.490113838e-41
-0.005032144487 -0.4689668417 0.01197233144 6.490113838e-41
-0.06104968488 -0.4181767106 0.2212794572 6.490113838e-41
0.1793756783 -0.3493615985 -0.1542070806 6.490113838e-41
0.1535583436 -0.4713460207 0.09212119132 6.490113838e-41
0.1493284553 -0.4722396731 0.2240869105 6.490113838e-41
0.01300422847 -0.4259765148 -0.1922710538 6.490113838e-41
0.2285842448 -0.4593604207 0.1837284565 6.490113838e-41
-0.04145693779 -0.3713876009 0.1240953654 6.490113838e-41
0.1742689908 -0.3839683533 0.3063681722 6.490113838e-41
0.1265524775 -0.4715383649 0.04704844207 6.490113838e-41
0.01044633612 -0.4646381736 0.1110157743 6.490113838e-41
0.0816904828 -0.3908221722 0.2334548235 6.490113838e-41
0.144515112 -0.4693291187 -0.03873349726 6.490113838e-41
0.219268173 -0.3741887808 0.2122107893 6.490113838e-41
-0.03686084598 -0.4416915774 -0.1752491742 6.490113838e-41
-0.1207053512 -0.3871205449 0.01680565625 6.490113838e-41
0.1705854237 -0.4634088278 0.2724229097 6.490113838e-41
0.009091436863 -0.4739245772 -0.01171173714 6.490113838e-41
-0.2046401054 -0.4494293928 0.237471804 6.490113838e-41
0.07978896797 -0.3711516261 -0.116490826 6.490113838e-41
0.2117703259 -0.3586794734 -0.1746100485 6.490113838e-41
-0.2094017714 -0.4212688208 -0.02004681341 6.490113838e-41
0.1659742892 -0.4719370008 0.0844976902 6.490113838e-41
0.273909986 -0.4221932292 0.1000241488 6.490113838e-41
0.2299633771 -0.4598571658 -0.1234904528 6.490113838e-41
-0.130647108 -0.4271005988 -0.09658673406 6.490113838e-41
0.2680287957 -0.4496894479 0.09804306179 6.490113838e-41
-0.1583581418 -0.451911211 0.2589932084 6.490113838e-41
0.1260926127 -0.3982311487 0.3100752532 6.490113838e-41
0.2166988403 -0.3523548841 -0.1013002172 6.490113838e-41
-0.05030684918 -0.4768093824 -0.01526725478 6.490113838e-41
0.2744246721 -0.456569612 0.04330959916 6.490113838e-41
-0.2622966766 -0.4381850958 0.02067357861 6.490113838e-41
0.2214850187 -0.4251073599 -0.169084534 6.490113838e-41
0.228136003 -0.4378607869 -0.155338183 6.490113838e-41
-0.2573897839 -0.436763525 0.04197649658 6.490113838e-41
-0.03358935565 -0.4453786612 -0.1871963441 6.490113838e-41
-0.1076989025 -0.4515744448 0.2995203733 6.490113838e-41
-0.002513855696 -0.4028160572 -0.1215405911 6.490113838e-41
0.2869144678 -0.4325515628 0.02307569236 6.490113838e-41
-0.137594223 -0.4540976882 0.2876165807 6.490113838e-41
-0.05272482336 -0.3761075735 -0.04321083426 6.490113838e-41
0.2870136499 -0.4024076462 0.04683301598 6.490113838e-41
-0.1257364303 -0.3883906603 0.009101109579 6.490113838e-41
0.1373351216 -0.390639782 0.2895728946 6.490113838e-41
0.02304340899 -0.3718465567 -0.07790442556 6.490113838e-41
0.1506831795 -0.4678954482 -0.09355852753 6.490113838e-41
0.01997467503 -0.424069047 0.279253602 6.490113838e-41
-0.1172694117 -0.4319280386 0.2344685048 6.490113838e-41
0.1530364156 -0.4718726873 0.07602124661 6.490113838e-41
-0.0593226552 -0.3796861172 -0.04815717787 6.490113838e-41
-0.1901433319 -0.4144527316 0.1072241589 6.490113838e-41
0.2248338163 -0.3849118948 0.2537591755 6.490113838e-41
0.2409135848 -0.440946579 0.2035395354 6.490113838e-41
-0.1498096585 -0.4045525789 -0.04362307489 6.490113838e-41
0.1566602588 -0.4701856375 -0.07570953667 6.490113838e-41
0.1101674289 -0.3824323416 0.2298501879 6.490113838e-41
0.1871007681 -0.4571577311 0.290364325 6.490113838e-41
-0.03470853716 -0.4267269373 0.2531038523 6.490113838e-41
0.2080331147 -0.3548009396 0.0505531989 6.490113838e-41
0.2788426876 -0.447524786 -0.01928053237 6.490113838e-41
0.250295192 -0.4149258137 -0.1296098828 6.490113838e-41
-0.01295682788 -0.4381859899 0.2959866822 6.490113838e-41
-0.2409375459 -0.4327087998 -0.01246835478 6.490113838e-41
0.09160069376 -0.4662666321 0.1273232698 6.490113838e-41
0.2674102783 -0.3677470088 0.06586815417 6.490113838e-41
0.218051523 -0.3540370464 -0.157437861 6.490113838e-41
0.2834687829 -0.3777699471 0.05302088708 6.490113838e-41
-0.1668976396 -0.4606097341 0.3036166728 6.490113838e-41
0.109197855 -0.3713940978 -0.1499658227 6.490113838e-41
0.05283487588 -0.4012111425 -0.1676942706 6.490113838e-41
-0.0139414072 -0.4208453298 0.2502369583 6.490113838e-41
0.2603714466 -0.3683514595 0.08500733227 6.490113838e-41
0.005592867732 -0.3488686681 0.07797337323 6.490113838e-41
-0.1653961539 -0.45965451 -0.05474731326 6.490113838e-41
-0.2265804559 -0.427633822 -0.0103452038 6.490113838e-41
0.09279724211 -0.3876288533 0.2315790355 6.490113838e-41
-0.07248367369 -0.4164803028 -0.1023885086 6.490113838e-41
0.242606923 -0.394182682 -0.1409445852 6.490113838e-41
0.2850347161 -0.3699672222 0.02478798665 6.490113838e-41
-0.165968582 -0.4123708606 -0.06475604326 6.490113838e-41
-0.001620925963 -0.4415897727 0.3234469295 6.490113838e-41
-0.2071036845 -0.4437044263 0.2177788168 6.490113838e-41
0.1049857289 -0.4669749141 -0.09625133872 6.490113838e-41
0.1312036514 -0.4728575349 0.1992441863 6.490113838e-41
-0.06562097371 -0.4760274291 -0.001661319286 6.490113838e-41
-0.05820706487 -0.4748784304 -0.05788685381 6.490113838e-41
0.09840907902 -0.3433914185 0.05059022084 6.490113838e-41
0.2924795151 -0.3821948171 0.002857817337 6.490113838e-41
-0.1853898019 -0.4118763804 0.09307023138 6.490113838e-41
-0.1546238065 -0.4515113831 0.2595420182 6.490113838e-41
-0.09915751219 -0.4158676863 0.2028221786 6.490113838e-41
0.104908973 -0.3875952363 0.2418541461 6.490113838e-41
-0.06665812433 -0.423217237 0.2308937162 6.490113838e-41
0.02182066813 -0.4190952778 -0.1846963912 6.490113838e-41
-0.1524278075 -0.4006408453 0.06426855922 6.490113838e-41
0.2379492819 -0.4548832774 0.1822620332 6.490113838e-41
0.2693715096 -0.4575713277 0.0003229733557 6.490113838e-41
-0.02543144673 -0.3703575134 0.1258398145 6.490113838e-41
0.1954376996 -0.4590010047 0.2709580958 6.490113838e-41
-0.03791397065 -0.4444310665 0.2986232936 6.490113838e-41
-0.2175391763 -0.422783494 0.05478646606 6.490113838e-41
-0.09292156994 -0.4303930402 0.2381651253 6.490113838e-41
0.1982896626 -0.4078278542 -0.2089689225 6.490113838e-41
0.1891396195 -0.4622663856 0.2656964064 6.490113838e-41
0.1893295497 -0.3676393032 -0.2056818902 6.490113838e-41
-0.2291535288 -0.4342228174 0.1147907525 6.490113838e-41
-0.1819380671 -0.4246412516 -0.07946522534 6.490113838e-41
-0.09264266491 -0.4564641714 -0.1714847684 6.490113838e-41
-0.0272969082 -0.439070642 0.2898516357 6.490113838e-41
1.257658005e-05 -0.4655946493 0.106622912 6.490113838e-41
0.2823655307 -0.4403229952 -0.02698065527 6.490113838e-41
-0.2315164059 -0.4290143251 -0.006358565763 6.490113838e-41
0.02272280306 -0.355903089 -0.007824143395 6.490113838e-41
-0.044793576 -0.401651144 0.1921897829 6.490113838e-41
0.1466196775 -0.4719178081 0.2036233097 6.490113838e-41
-0.1165006161 -0.4136117697 0.192529574 6.490113838e-41
0.1388203502 -0.4595971704 -0.1732476205 6.490113838e-41
-0.1926379949 -0.4522237778 0.2487262785 6.490113838e-41
0.04910870641 -0.4110585451 -0.217503652 6.490113838e-41
0.2295908928 -0.4676706195 0.1238810793 6.490113838e-41
0.01034426689 -0.3703879714 0.1422196478 6.490113838e-41
0.2568309605 -0.4557900429 0.1231293008 6.490113838e-41
-0.1100720316 -0.4141293764 -0.082748577 6.490113838e-41
0.01891208068 -0.430736661 0.2979110181 6.490113838e-41
-0.06021647155 -0.4218401909 0.230178386 6.490113838e-41
0.04082319513 -0.4663020372 -0.1048092693 6.490113838e-41
-0.2267744988 -0.4287775159 -0.03624051064 6.490113838e-41
0.2186151147 -0.3687115312 0.1368153393 6.490113838e-41
-0.08124707639 -0.4232606888 0.2254105359 6.490113838e-41
-0.03978740424 -0.4440402389 0.2966165841 6.490113838e-41
0.1171678454 -0.4697321653 0.03131790087 6.490113838e-41
-0.05629859865 -0.4485357404 -0.1919195205 6.490113838e-41
0.2375439852 -0.4268606901 -0.1452131867 6.490113838e-41
-0.1845124513 -0.4103204608 0.05999992788 6.490113838e-41
-0.1590467989 -0.453912735 -0.1316039562 6.490113838e-41
0.0806870684 -0.4713100195 -0.04731176049 6.490113838e-41
0.143569693 -0.3499028683 -0.1027030423 6.490113838e-41
-0.07090976834 -0.4667197466 -0.08211249858 6.490113838e-41
0.1687862873 -0.3676925898 0.1601422131 6.490113838e-41
-0.06491081417 -0.4175024033 0.2182486802 6.490113838e-41
-0.1206187755 -0.4597021341 -0.1684096903 6.490113838e-41
0.004377424717 -0.3824722171 0.1709141582 6.490113838e-41
0.182739526 -0.3672221303 0.1602804214 6.490113838e-41
-0.162381947 -0.4600259662 -0.1484582871 6.490113838e-41
0.1039833054 -0.3850631118 -0.1871991158 6.490113838e-41
0.117387332 -0.3849664927 -0.2347638905 6.490113838e-41
0.05838257819 -0.4686207771 0.05974330008 6.490113838e-41
-0.1683710366 -0.4054675102 0.0677485466 6.490113838e-41
0.176021874 -0.352838695 0.06845714897 6.490113838e-41
0.1814729869 -0.4230048656 -0.2383672595 6.490113838e-41
-0.122928232 -0.4762211442 -0.00712220557 6.490113838e-41
0.1635130644 -0.3427684307 -0.01851595007 6.490113838e-41
-0.0636061579 -0.4633308649 0.05882522464 6.490113838e-41
0.03746782243 -0.3711177111 -0.08652080595 6.490113838e-41
0.09227782488 -0.4430461526 0.2707020342 5.962428276e-39
0.1829281151 -0.2340662777 -0.07181479782 5.962428276e-39
0.1413886994 -0.2417596579 0.09887461364 5.962428276e-39
-0.1221060604 -0.2805113196 -0.1064344049 5.962428276e-39
-0.2736030817 -0.3273360729 -0.05941897631 5.962428276e-39
0.01672928408 -0.2604164779 0.2011349499 5.962428276e-39
-0.1021665633 -0.2433635145 -0.07645848393 5.962428276e-39
-0.2791538835 -0.3308827877 -0.05363997817 5.962428276e-39
-0.122707963 -0.2246214896 0.05833867192 5.962428276e-39
0.1887655556 -0.3436028361 -0.1252392828 5.962428276e-39
0.1564653516 -0.4137633443 0.01115035545 5.962428276e-39
0.1640430093 -0.2084655464 -0.009176710621 5.962428276e-39
0.2539408207 -0.4411381483 0.02906369045 5.962428276e-39
-0.1652437299 -0.3853793144 0.1031739041 5.962428276e-39
0.06178536266 -0.2930852175 0.235950917 5.962428276e-39
0.2018579543 -0.3056627512 0.1655451655 5.962428276e-39
-0.005046159029 -0.4632723927 -0.07916601002 5.962428276e-39
0.2160655111 -0.4317580462 0.1556132585 5.962428276e-39
-0.002561211586 -0.3363255858 0.2857039571 5.962428276e-39
0.2272131294 -0.373696506 -0.01522000693 5.962428276e-39
0.04538813978 -0.392654717 -0.01924288832 5.962428276e-39
-0.125466615 -0.3885654807 0.3159085214 5.962428276e-39
0.1793147922 -0.3273162842 0.239617005 5.962428276e-39
0.1611023843 -0.3024644852 0.1982833296 5.962428276e-39
-0.116448015 -0.2499553263 -0.07671284676 5.962428276e-39
-0.02047558874 -0.3468720317 0.2953726053 5.962428276e-39
0.1236534864 -0.4462765455 0.2285645157 5.962428276e-39
-0.1424258053 -0.4707563519 -0.09105522931 5.962428276e-39
-0.04755391181 -0.2350760251 -0.09300053865 5.962428276e-39
0.03413259238 -0.3119217455 -0.2151062638 5.962428276e-39
-0.1779737324 -0.4757761359 0.1277131438 5.962428276e-39
0.05476852134 -0.3714415431 -0.01087256707 5.962428276e-39
0.01238747314 -0.3831094503 -0.00458012335 5.962428276e-39
0.236289382 -0.3379530311 -0.02558638714 5.962428276e-39
0.02625407651 -0.3138146102 -0.2142777294 5.962428276e-39
0.1010033041 -0.4310927391 -0.08231835067 5.962428276e-39
0.1339982897 -0.4365478754 -0.202993989 5.962428276e-39
-0.05963207781 -0.4726461172 0.1262369156 5.962428276e-39
0.1829602122 -0.4238120914 0.2752096951 5.962428276e-39
-0.09869673848 -0.4465894103 0.2538846135 5.962428276e-39
-0.2255622298 -0.4675859213 -0.03684019297 5.962428276e-39
-0.08114048839 -0.3014096022 -0.1472785175 5.962428276e-39
0.005281500518 -0.3316839039 0.2806964517 5.962428276e-39
0.107652925 -0.4420055747 0.2620438635 5.962428276e-39
0.1554830223 -0.4314731359 0.2692224383 5.962428276e-39
0.042234689 -0.3306504488 0.2806632221 5.962428276e-39
-0.002567864954 -0.2412530035 0.1802085042 5.962428276e-39
-0.05466066301 -0.3599079251 0.3004771173 5.962428276e-39
0.1953377426 -0.2504664063 -0.08014857769 5.962428276e-39
0.01353240758 -0.2097186893 0.1256022006 5.962428276e-39
-0.002548955381 -0.43889153 0.05838084966 5.962428276e-39
-0.2359934896 -0.3362392783 0.185392946 5.962428276e-39
0.07086052001 -0.4693564177 -0.1665114313 5.962428276e-39
-0.007797963917 -0.4443021417 -0.04110068083 5.962428276e-39
-0.1512274742 -0.358501792 0.06442673504 5.962428276e-39
-0.08766667545 -0.2694934011 -0.1105243266 5.962428276e-39
-0.004641659558 -0.315269351 0.04981982708 5.962428276e-39
0.04006471112 -0.4459730387 -0.07199735194 5.962428276e-39
0.04055130482 -0.2319271713 0.1534870267 5.962428276e-39
0.02577290311 -0.4721869826 -0.1606973261 5.962428276e-39
0.1247674003 -0.3032551408 -0.1965492666 5.962428276e-39
0.1421823353 -0.2736513615 0.1590758413 5.962428276e-39
0.1337318867 -0.4547136426 0.149246484 5.962428276e-39
0.1996507347 -0.4312950969 0.209129706 5.962428276e-39
-0.1618963927 -0.47203058 0.1713338196 5.962428276e-39
-0.03756216168 -0.4713466167 0.1653935164 5.962428276e-39
-0.2284550816 -0.2975369692 -0.05807947367 5.962428276e-39
-0.08455362916 -0.2562099099 -0.09899396449 5.962428276e-39
-0.2011742741 -0.3694928885 0.2580778003 5.962428276e-39
0.01416182891 -0.314548254 -0.204821974 5.962428276e-39
0.1345004439 -0.4632535577 0.0327437669 5.962428276e-39
0.1047000736 -0.2919921875 0.2224758714 5.962428276e-39
-0.1695285887 -0.3269173503 -0.1338774711 5.962428276e-39
-0.1439440101 -0.4667562246 -0.01566291042 5.962428276e-39
0.2087118328 -0.3913254738 0.2275581807 5.962428276e-39
0.08773763478 -0.4647510648 -0.1569866687 5.962428276e-39
0.06823802739 -0.4671196342 0.09646790475 5.962428276e-39
0.004771567881 -0.4723809361 -0.1424753517 5.962428276e-39
0.1483691037 -0.4469432235 0.02049546503 5.962428276e-39
-0.2068670541 -0.3315458894 -0.1229730248 5.962428276e-39
-0.00839381665 -0.3290981948 -0.2332871258 5.962428276e-39
-0.2399875969 -0.3355294466 0.1688486189 5.962428276e-39
-0.01910856366 -0.3645723462 0.3223055005 5.962428276e-39
-0.1502910852 -0.4692099094 -0.04870016128 5.962428276e-39
-0.1005518734 -0.2186699063 -0.0340923816 5.962428276e-39
-0.1378076673 -0.4690722227 0.1953337491 5.962428276e-39
-0.0883937031 -0.3982735872 0.02313753217 5.962428276e-39
0.161075592 -0.276696384 0.148551479 5.962428276e-39
-0.1606582105 -0.4644995332 0.1077897474 5.962428276e-39
-0.1020677388 -0.2283883989 0.1394700706 5.962428276e-39
-0.1046209186 -0.3551607132 -0.2194194645 5.962428276e-39
0.02408244461 -0.3701950312 0.0483517237 5.962428276e-39
0.1849320829 -0.2621548474 0.0780473128 5.962428276e-39
-0.01892779022 -0.4408324361 0.311142534 5.962428276e-39
-0.2756472826 -0.3287573755 -0.06048663706 5.962428276e-39
-0.04698853195 -0.213361308 -0.06786040217 5.962428276e-39
0.08932345361 -0.2198194116 0.1114240885 5.962428276e-39
-0.18548204 -0.4574257731 0.0122764241 5.962428276e-39
-0.03160627931 -0.243964836 -0.1074459106 5.962428276e-39
-0.2291790992 -0.4681927562 -0.04704917222 5.962428276e-39
0.2085009068 -0.4272192717 0.1889390945 5.962428276e-39
-0.167564705 -0.3450437784 0.07812968642 5.962428276e-39
-0.0005617663264 -0.284435302 0.2254324853 5.962428276e-39
0.176073581 -0.4199844599 -0.129283309 5.962428276e-39
-0.03706700355 -0.4734506011 0.1091367379 5.962428276e-39
-0.003898046911 -0.4603384733 0.2268978804 5.962428276e-39
0.05905788392 -0.2967475653 -0.1938385069 5.962428276e-39
0.06230227649 -0.4598376751 0.1902346611 5.962428276e-39
0.05006118119 -0.2128257006 0.1185599715 5.962428276e-39
0.1869800836 -0.4153907895 0.2815585434 5.962428276e-39
-0.06265345216 -0.463177979 0.07654557377 5.962428276e-39
-0.1530201286 -0.4766078591 0.1226378381 5.962428276e-39
0.1889222562 -0.3121364713 0.2005362064 5.962428276e-39
-0.051755853 -0.3342863321 0.04044948518 5.962428276e-39
0.1804386675 -0.4430394769 0.1934420466 5.962428276e-39
-0.005885049701 -0.3037806451 -0.1786545068 5.962428276e-39
-0.0635368973 -0.1971344203 0.01711002551 5.962428276e-39
0.03577116504 -0.4455798864 0.2761680484 5.962428276e-39
-0.152389735 -0.3817538619 0.05398782343 5.962428276e-39
-0.2028964907 -0.3647140861 0.2501915991 5.962428276e-39
0.1618354321 -0.2529482841 -0.1133918613 5.962428276e-39
0.1198586524 -0.44577384 -0.1302277595 5.962428276e-39
-0.1965012103 -0.2702124417 -0.02847126313 5.962428276e-39
-0.02702112496 -0.4737660289 0.1017447188 5.962428276e-39
0.1328804493 -0.4606799483 0.09911560267 5.962428276e-39
0.02745028958 -0.4282604456 -0.04429905862 5.962428276e-39
-0.1179905385 -0.2734843194 -0.1014904678 5.962428276e-39
0.1009276211 -0.4642068744 0.1011252478 5.962428276e-39
-0.1360484213 -0.3608791232 0.2699017227 5.962428276e-39
0.1941086948 -0.3703277111 0.2794082463 5.962428276e-39
0.213977769 -0.3907817006 -0.08054095507 5.962428276e-39
-0.1866019517 -0.4233242869 0.04094090313 5.962428276e-39
0.09438952804 -0.4694347382 0.05203285068 5.962428276e-39
-0.2769586444 -0.3339637518 0.01209033281 5.962428276e-39
0.06490749866 -0.4560730457 -0.1071814597 5.962428276e-39
0.0560862571 -0.4493848085 -0.08658149093 5.962428276e-39
-0.2654767036 -0.331799984 0.0439864099 5.962428276e-39
-0.005555942655 -0.3147833943 -0.1913336664 5.962428276e-39
-0.07330659032 -0.3692071438 0.3071638644 5.962428276e-39
0.05032332242 -0.2334121317 -0.1223367751 5.962428276e-39
0.1280288249 -0.4626957178 0.0326455608 5.962428276e-39
-0.1111829579 -0.3725030422 0.2971631587 5.962428276e-39
0.007928162813 -0.1913755536 -0.04974393547 5.962428276e-39
0.1636727154 -0.4661785364 0.04419733584 5.962428276e-39
-0.07416890562 -0.1998346299 0.006438720971 5.962428276e-39
0.2004150748 -0.3850081563 0.2577464581 5.962428276e-39
0.09970406443 -0.2057181299 -0.07789315283 5.962428276e-39
-0.04379539937 -0.4340941906 -0.01258955337 5.962428276e-39
0.07768456638 -0.3212764263 0.2712153792 5.962428276e-39
-0.07061290741 -0.3148412406 0.2461009324 5.962428276e-39
-0.0387608856 -0.4750424623 0.09552419931 5.962428276e-39
-0.0020198524 -0.1936165839 -0.05399695784 5.962428276e-39
-0.1566513926 -0.2578608394 0.1169963256 5.962428276e-39
0.1491281241 -0.4385238886 0.2449792773 5.962428276e-39
0.09839564562 -0.4528136849 0.2069576234 5.962428276e-39
-0.1211123019 -0.238050729 -0.05433265865 5.962428276e-39
-0.04098904133 -0.4053056836 0.002879673615 5.962428276e-39
0.2162882537 -0.3403457999 0.1916719526 5.962428276e-39
0.06239832193 -0.4410418272 0.2937760055 5.962428276e-39
0.02374797687 -0.3080122173 0.2540053725 5.962428276e-39
0.2609196901 -0.4269630313 0.02880041301 5.962428276e-39
0.0905797407 -0.4055789113 0.02919124067 5.962428276e-39
0.09148783982 -0.4241410494 -0.0654963702 5.962428276e-39
0.03896448016 -0.3422758579 0.2939232886 5.962428276e-39
-0.2475662082 -0.30722785 -0.02384841628 5.962428276e-39
-0.08228617907 -0.4725279808 0.1416172236 5.962428276e-39
0.2157513499 -0.46192801 0.05247305334 5.962428276e-39
0.1418416798 -0.4333769083 -0.1147877425 5.962428276e-39
0.194103688 -0.4651907682 0.04605095461 5.962428276e-39
-0.1515998244 -0.3920501471 0.3112492263 5.962428276e-39
0.1723828316 -0.3110426664 -0.1426350325 5.962428276e-39
0.11451298 -0.2733668983 -0.1680369973 5.962428276e-39
0.04572298005 -0.3019408584 0.2471192479 5.962428276e-39
0.2124457508 -0.4582787156 0.06910449266 5.962428276e-39
0.110480994 -0.2122599185 0.07571173459 5.962428276e-39
-0.2387229949 -0.4649261236 -0.01594081707 5.962428276e-39
-0.2218589336 -0.2874718606 -0.01974558271 5.962428276e-39
0.2023953348 -0.3179785013 0.1958952695 5.962428276e-39
-0.04739136994 -0.2426297963 -0.1006919593 5.962428276e-39
0.1057575345 -0.4296351671 -0.08202653378 5.962428276e-39
0.2035938352 -0.4576371908 0.01940056123 5.962428276e-39
-0.148132056 -0.2641146779 -0.07665303349 5.962428276e-39
0.04747276753 -0.3605616093 0.3192776442 5.962428276e-39
-0.2053630501 -0.350951314 0.2294627428 5.962428276e-39
-0.07867051661 -0.4576272368 -0.01943215914 5.962428276e-39
-0.02607917786 -0.4664396644 0.1996082962 5.962428276e-39
-0.1993957013 -0.4090292454 0.05216524005 5.962428276e-39
-0.1817539185 -0.4644584656 -0.003539185971 5.962428276e-39
0.2239726484 -0.2851815522 0.03633281216 5.962428276e-39
0.1808627248 -0.4378241897 0.01064141281 5.962428276e-39
-0.1485640407 -0.2496513277 0.101765357 5.962428276e-39
-0.1305490881 -0.3598642349 0.2707054615 5.962428276e-39
-0.04337315261 -0.2770354152 0.2136186063 5.962428276e-39
0.2102510035 -0.3354922533 0.2051268816 5.962428276e-39
-0.007681488991 -0.2943971157 0.2364731431 5.962428276e-39
0.07243014872 -0.2863563895 -0.1863825023 5.962428276e-39
-0.1045033634 -0.2127005607 0.07112515718 5.962428276e-39
0.0772273615 -0.4584486485 0.188154906 5.962428276e-39
0.07701714337 -0.4348598719 0.03397632018 5.962428276e-39
0.07048380375 -0.2175584435 0.1191939265 5.962428276e-39
0.05992035568 -0.4439011812 0.2762248218 5.962428276e-39
0.01189622283 -0.3491681814 0.3002974391 5.962428276e-39
-0.1973745078 -0.2789230943 0.05967853218 5.962428276e-39
-0.03939561546 -0.3068619967 0.2472075969 5.962428276e-39
0.07385284454 -0.4691408873 -0.163715452 5.962428276e-39
0.04895894602 -0.4453878999 0.2713364661 5.962428276e-39
0.112220563 -0.4596970081 -0.1720545888 5.962428276e-39
-0.2261764854 -0.3149832785 0.1251567006 5.962428276e-39
-0.1757614017 -0.2913610935 -0.09259340912 5.962428276e-39
-0.08764742315 -0.3320912421 -0.1782948524 5.962428276e-39
0.02495595813 -0.3393061161 0.2900811732 5.962428276e-39
-0.1628928334 -0.4760875702 0.1179954112 5.962428276e-39
0.09856900573 -0.3943808079 0.0265572127 5.962428276e-39
-0.2300691754 -0.2934257984 -0.0157172326 5.962428276e-39
0.1149090677 -0.1921143532 -0.0226125326 5.962428276e-39
0.02509995922 -0.2533384562 0.193293646 5.962428276e-39
-0.01139254868 -0.4640387893 0.2055077702 5.962428276e-39
-0.06477424502 -0.275357604 0.2057407349 5.962428276e-39
-0.04117572308 -0.4721591473 -0.1075567454 5.962428276e-39
-0.1860916466 -0.3673268557 0.260347873 5.962428276e-39
0.1081539392 -0.3046711683 -0.2210804522 5.962428276e-39
0.04072070494 -0.4672430754 0.1320512593 5.962428276e-39
0.1182561815 -0.245208621 0.1293704808 5.962428276e-39
0.08541510999 -0.4634463191 0.1297669709 5.962428276e-39
-0.08690728247 -0.2446353287 -0.0854851827 5.962428276e-39
0.07374471426 -0.3373128176 0.290317893 5.962428276e-39
-0.0006181672215 -0.2925015092 0.2347616404 5.962428276e-39
-0.1198889315 -0.4691048861 -0.03860352933 5.962428276e-39
-0.2306479365 -0.2955145836 -0.04826822132 5.962428276e-39
0.2213971317 -0.4412608147 0.1105154753 5.962428276e-39
-0.02320370823 -0.2922729254 0.2325611264 5.962428276e-39
0.01008452475 -0.3476955891 0.2986328006 5.962428276e-39
-0.0699031949 -0.4323439002 0.07737334073 5.962428276e-39
-0.04121310264 -0.3269221485 -0.1981732845 5.962428276e-39
0.07083200663 -0.4367179275 -0.07708173245 5.962428276e-39
-0.1469068527 -0.2434140295 0.06487481296 5.962428276e-39
-0.1674618721 -0.3339264989 -0.1422038376 5.962428276e-39
-0.09533207119 -0.4020940661 0.02397183515 5.962428276e-39
0.2147392333 -0.3193470836 -0.09602535516 5.962428276e-39
-0.1824812144 -0.4679034948 -0.03388814628 5.962428276e-39
0.2353976816 -0.4057875276 0.1243889928 5.962428276e-39
-0.004377052188 -0.2822368145 0.222785607 5.962428276e-39
-0.1256401241 -0.3453062773 -0.1767735481 5.962428276e-39
0.1037376821 -0.2530023456 0.1562467963 5.962428276e-39
0.2303080708 -0.4223805666 0.126975894 5.962428276e-39
-0.1787130088 -0.3550166488 -0.1598238647 5.962428276e-39
0.1478099674 -0.3490875363 -0.1822119206 5.962428276e-39
0.1244686246 -0.409673214 -0.2264927775 5.962428276e-39
-0.1161708981 -0.4600375295 0.09286380559 5.962428276e-39
-0.1249767989 -0.2284067124 0.07428266108 5.962428276e-39
0.2646356821 -0.3935706615 0.04143837094 5.962428276e-39
0.057822451 -0.469262898 -0.1985658258 5.962428276e-39
-0.2263723463 -0.436286509 0.03435795754 5.962428276e-39
0.2541276813 -0.289285481 -0.02257910557 5.962428276e-39
-0.2150820345 -0.3750282526 0.1170401722 5.962428276e-39
0.1185374931 -0.2170188427 -0.08690536767 5.962428276e-39
0.09227782488 -0.4430461526 0.2707020342 1.184631237e-38
0.1829281151 -0.2340662777 -0.07181479782 1.184631237e-38
0.1413886994 -0.2417596579 0.09887461364 1.184631237e-38
-0.1221060604 -0.2805113196 -0.1064344049 1.184631237e-38
-0.2736030817 -0.3273360729 -0.05941897631 1.184631237e-38
0.01672928408 -0.2604164779 0.2011349499 1.184631237e-38
-0.1021665633 -0.2433635145 -0.07645848393 1.184631237e-38
-0.2791538835 -0.3308827877 -0.05363997817 1.184631237e-38
-0.122707963 -0.2246214896 0.05833867192 1.184631237e-38
0.1887655556 -0.3436028361 -0.1252392828 1.184631237e-38
0.1564653516 -0.4137633443 0.01115035545 1.184631237e-38
0.1640430093 -0.2084655464 -0.009176710621 1.184631237e-38
0.2539408207 -0.4411381483 0.02906369045 1.184631237e-38
-0.1652437299 -0.3853793144 0.1031739041 1.184631237e-38
0.06178536266 -0.2930852175 0.235950917 1.184631237e-38
0.2018579543 -0.3056627512 0.1655451655 1.184631237e-38
-0.005046159029 -0.4632723927 -0.07916601002 1.184631237e-38
0.2160655111 -0.4317580462 0.1556132585 1.184631237e-38
-0.002561211586 -0.3363255858 0.2857039571 1.184631237e-38
0.2272131294 -0.373696506 -0.01522000693 1.184631237e-38
0.04538813978 -0.392654717 -0.01924288832 1.184631237e-38
-0.125466615 -0.3885654807 0.3159085214 1.184631237e-38
0.1793147922 -0.3273162842 0.239617005 1.184631237e-38
0.1611023843 -0.3024644852 0.1982833296 1.184631237e-38
-0.116448015 -0.2499553263 -0.07671284676 1.184631237e-38
-0.02047558874 -0.3468720317 0.2953726053 1.184631237e-38
0.1236534864 -0.4462765455 0.2285645157 1.184631237e-38
-0.1424258053 -0.4707563519 -0.09105522931 1.184631237e-38
-0.04755391181 -0.2350760251 -0.09300053865 1.184631237e-38
0.03413259238 -0.3119217455 -0.2151062638 1.184631237e-38
-0.1779737324 -0.4757761359 0.1277131438 1.184631237e-38
0.05476852134 -0.3714415431 -0.01087256707 1.184631237e-38
0.01238747314 -0.3831094503 -0.00458012335 1.184631237e-38
0.236289382 -0.3379530311 -0.02558638714 1.184631237e-38
0.02625407651 -0.3138146102 -0.2142777294 1.184631237e-38
0.1010033041 -0.4310927391 -0.08231835067 1.184631237e-38
0.1339982897 -0.4365478754 -0.202993989 1.184631237e-38
-0.05963207781 -0.4726461172 0.1262369156 1.184631237e-38
0.1829602122 -0.4238120914 0.2752096951 1.184631237e-38
-0.09869673848 -0.4465894103 0.2538846135 1.184631237e-38
-0.2255622298 -0.4675859213 -0.03684019297 1.184631237e-38
-0.08114048839 -0.3014096022 -0.1472785175 1.184631237e-38
0.005281500518 -0.3316839039 0.2806964517 1.184631237e-38
0.107652925 -0.4420055747 0.2620438635 1.184631237e-38
0.1554830223 -0.4314731359 0.2692224383 1.184631237e-38
0.042234689 -0.3306504488 0.2806632221 1.184631237e-38
-0.002567864954 -0.2412530035 0.1802085042 1.184631237e-38
-0.05466066301 -0.3599079251 0.3004771173 1.184631237e-38
0.1953377426 -0.2504664063 -0.08014857769 1.184631237e-38
0.01353240758 -0.2097186893 0.1256022006 1.184631237e-38
-0.002548955381 -0.43889153 0.05838084966 1.184631237e-38
-0.2359934896 -0.3362392783 0.185392946 1.184631237e-38
0.07086052001 -0.4693564177 -0.1665114313 1.184631237e-38
-0.007797963917 -0.4443021417 -0.04110068083 1.184631237e-38
-0.1512274742 -0.358501792 0.06442673504 1.184631237e-38
-0.08766667545 -0.2694934011 -0.1105243266 1.184631237e-38
-0.004641659558 -0.315269351 0.04981982708 1.184631237e-38
0.04006471112 -0.4459730387 -0.07199735194 1.184631237e-38
0.04055130482 -0.2319271713 0.1534870267 1.184631237e-38
0.02577290311 -0.4721869826 -0.1606973261 1.184631237e-38
0.1247674003 -0.3032551408 -0.1965492666 1.184631237e-38
0.1421823353 -0.2736513615 0.1590758413 1.184631237e-38
0.1337318867 -0.4547136426 0.149246484 1.184631237e-38
0.1996507347 -0.4312950969 0.209129706 1.184631237e-38
-0.1618963927 -0.47203058 0.1713338196 1.184631237e-38
-0.03756216168 -0.4713466167 0.1653935164 1.184631237e-38
-0.2284550816 -0.2975369692 -0.05807947367 1.184631237e-38
-0.08455362916 -0.2562099099 -0.09899396449 1.184631237e-38
-0.2011742741 -0.3694928885 0.2580778003 1.184631237e-38
0.01416182891 -0.314548254 -0.204821974 1.184631237e-38
0.1345004439 -0.4632535577 0.0327437669 1.184631237e-38
0.1047000736 -0.2919921875 0.2224758714 1.184631237e-38
-0.1695285887 -0.3269173503 -0.1338774711 1.184631237e-38
-0.1439440101 -0.4667562246 -0.01566291042 1.184631237e-38
0.2087118328 -0.3913254738 0.2275581807 1.184631237e-38
0.08773763478 -0.4647510648 -0.1569866687 1.184631237e-38
0.06823802739 -0.4671196342 0.09646790475 1.184631237e-38
0.004771567881 -0.4723809361 -0.1424753517 1.184631237e-38
0.1483691037 -0.4469432235 0.02049546503 1.184631237e-38
-0.2068670541 -0.3315458894 -0.1229730248 1.184631237e-38
-0.00839381665 -0.3290981948 -0.2332871258 1.184631237e-38
-0.2399875969 -0.3355294466 0.1688486189 1.184631237e-38
-0.01910856366 -0.3645723462 0.3223055005 1.184631237e-38
-0.1502910852 -0.4692099094 -0.04870016128 1.184631237e-38
-0.1005518734 -0.2186699063 -0.0340923816 1.184631237e-38
-0.1378076673 -0.4690722227 0.1953337491 1.184631237e-38
-0.0883937031 -0.3982735872 0.02313753217 1.184631237e-38
0.161075592 -0.276696384 0.148551479 1.184631237e-38
-0.1606582105 -0.4644995332 0.1077897474 1.184631237e-38
-0.1020677388 -0.2283883989 0.1394700706 1.184631237e-38
-0.1046209186 -0.3551607132 -0.2194194645 1.184631237e-38
0.02408244461 -0.3701950312 0.0483517237 1.184631237e-38
0.1849320829 -0.2621548474 0.0780473128 1.184631237e-38
-0.01892779022 -0.4408324361 0.311142534 1.184631237e-38
-0.2756472826 -0.3287573755 -0.06048663706 1.184631237e-38
-0.04698853195 -0.213361308 -0.06786040217 1.184631237e-38
0.08932345361 -0.2198194116 0.1114240885 1.184631237e-38
-0.18548204 -0.4574257731 0.0122764241 1.184631237e-38
-0.03160627931 -0.243964836 -0.1074459106 1.184631237e-38
-0.2291790992 -0.4681927562 -0.04704917222 1.184631237e-38
0.2085009068 -0.4272192717 0.1889390945 1.184631237e-38
-0.167564705 -0.3450437784 0.07812968642 1.184631237e-38
-0.0005617663264 -0.284435302 0.2254324853 1.184631237e-38
0.176073581 -0.4199844599 -0.129283309 1.184631237e-38
-0.03706700355 -0.4734506011 0.1091367379 1.184631237e-38
-0.003898046911 -0.4603384733 0.2268978804 1.184631237e-38
0.05905788392 -0.2967475653 -0.1938385069 1.184631237e-38
0.06230227649 -0.4598376751 0.1902346611 1.184631237e-38
0.05006118119 -0.2128257006 0.1185599715 1.184631237e-38
0.1869800836 -0.4153907895 0.2815585434 1.184631237e-38
-0.06265345216 -0.463177979 0.07654557377 1.184631237e-38
-0.1530201286 -0.4766078591 0.1226378381 1.184631237e-38
0.1889222562 -0.3121364713 0.2005362064 1.184631237e-38
-0.051755853 -0.3342863321 0.04044948518 1.184631237e-38
0.1804386675 -0.4430394769 0.1934420466 1.184631237e-38
-0.005885049701 -0.3037806451 -0.1786545068 1.184631237e-38
-0.0635368973 -0.1971344203 0.01711002551 1.184631237e-38
0.03577116504 -0.4455798864 0.2761680484 1.184631237e-38
-0.152389735 -0.3817538619 0.05398782343 1.184631237e-38
-0.2028964907 -0.3647140861 0.2501915991 1.184631237e-38
0.1618354321 -0.2529482841 -0.1133918613 1.184631237e-38
0.1198586524 -0.44577384 -0.1302277595 1.184631237e-38
-0.1965012103 -0.2702124417 -0.02847126313 1.184631237e-38
-0.02702112496 -0.4737660289 0.1017447188 1.184631237e-38
0.1328804493 -0.4606799483 0.09911560267 1.184631237e-38
0.02745028958 -0.4282604456 -0.04429905862 1.184631237e-38
-0.1179905385 -0.2734843194 -0.1014904678 1.184631237e-38
0.1009276211 -0.4642068744 0.1011252478 1.184631237e-38
-0.1360484213 -0.3608791232 0.2699017227 1.184631237e-38
0.1941086948 -0.3703277111 0.2794082463 1.184631237e-38
0.213977769 -0.3907817006 -0.08054095507 1.184631237e-38
-0.1866019517 -0.4233242869 0.04094090313 1.184631237e-38
0.09438952804 -0.4694347382 0.05203285068 1.184631237e-38
-0.2769586444 -0.3339637518 0.01209033281 1.184631237e-38
0.06490749866 -0.4560730457 -0.1071814597 1.184631237e-38
0.0560862571 -0.4493848085 -0.08658149093 1.184631237e-38
-0.2654767036 -0.331799984 0.0439864099 1.184631237e-38
-0.005555942655 -0.3147833943 -0.1913336664 1.184631237e-38
-0.07330659032 -0.3692071438 0.3071638644 1.184631237e-38
0.05032332242 -0.2334121317 -0.1223367751 1.184631237e-38
0.1280288249 -0.4626957178 0.0326455608 1.184631237e-38
-0.1111829579 -0.3725030422 0.2971631587 1.184631237e-38
0.007928162813 -0.1913755536 -0.04974393547 1.184631237e-38
0.1636727154 -0.4661785364 0.04419733584 1.184631237e-38
-0.07416890562 -0.1998346299 0.006438720971 1.184631237e-38
0.2004150748 -0.3850081563 0.2577464581 1.184631237e-38
0.09970406443 -0.2057181299 -0.07789315283 1.184631237e-38
-0.04379539937 -0.4340941906 -0.01258955337 1.184631237e-38
0.07768456638 -0.3212764263 0.2712153792 1.184631237e-38
-0.07061290741 -0.3148412406 0.2461009324 1.184631237e-38
-0.0387608856 -0.4750424623 0.09552419931 1.184631237e-38
-0.0020198524 -0.1936165839 -0.05399695784 1.184631237e-38
-0.1566513926 -0.2578608394 0.1169963256 1.184631237e-38
0.1491281241 -0.4385238886 0.2449792773 1.184631237e-38
0.09839564562 -0.4528136849 0.2069576234 1.184631237e-38
-0.1211123019 -0.238050729 -0.05433265865 1.184631237e-38
-0.04098904133 -0.4053056836 0.002879673615 1.184631237e-38
0.2162882537 -0.3403457999 0.1916719526 1.184631237e-38
0.06239832193 -0.4410418272 0.2937760055 1.184631237e-38
0.02374797687 -0.3080122173 0.2540053725 1.184631237e-38
0.2609196901 -0.4269630313 0.02880041301 1.184631237e-38
0.0905797407 -0.4055789113 0.02919124067 1.184631237e-38
0.09148783982 -0.4241410494 -0.0654963702 1.184631237e-38
0.03896448016 -0.3422758579 0.2939232886 1.184631237e-38
-0.2475662082 -0.30722785 -0.02384841628 1.184631237e-38
-0.08228617907 -0.4725279808 0.1416172236 1.184631237e-38
0.2157513499 -0.46192801 0.05247305334 1.184631237e-38
0.1418416798 -0.4333769083 -0.1147877425 1.184631237e-38
0.194103688 -0.4651907682 0.04605095461 1.184631237e-38
-0.1515998244 -0.3920501471 0.3112492263 1.184631237e-38
0.1723828316 -0.3110426664 -0.1426350325 1.184631237e-38
0.11451298 -0.2733668983 -0.1680369973 1.184631237e-38
0.04572298005 -0.3019408584 0.2471192479 1.184631237e-38
0.2124457508 -0.4582787156 0.06910449266 1.184631237e-38
0.110480994 -0.2122599185 0.07571173459 1.184631237e-38
-0.2387229949 -0.4649261236 -0.01594081707 1.184631237e-38
-0.2218589336 -0.2874718606 -0.01974558271 1.184631237e-38
0.2023953348 -0.3179785013 0.1958952695 1.184631237e-38
-0.04739136994 -0.2426297963 -0.1006919593 1.184631237e-38
0.1057575345 -0.4296351671 -0.08202653378 1.184631237e-38
0.2035938352 -0.4576371908 0.01940056123 1.184631237e-38
-0.148132056 -0.2641146779 -0.07665303349 1.184631237e-38
0.04747276753 -0.3605616093 0.3192776442 1.184631237e-38
-0.2053630501 -0.350951314 0.2294627428 1.184631237e-38
-0.07867051661 -0.4576272368 -0.01943215914 1.184631237e-38
-0.02607917786 -0.4664396644 0.1996082962 1.184631237e-38
-0.1993957013 -0.4090292454 0.05216524005 1.184631237e-38
-0.1817539185 -0.4644584656 -0.003539185971 1.184631237e-38
