# .PCD v0.7 - Point Cloud Data file format
VERSION 0.7
FIELDS x y z rgb
SIZE 4 4 4 4
TYPE F F F F
COUNT 1 1 1 1
WIDTH 801
HEIGHT 1
VIEWPOINT 0 0 0 1 0 0 0
POINTS 801
DATA ascii
-0.05457067117 0.001310762716 0.08089987189 6.490113838e-41
-0.05496234074 0.001237592893 0.0807005316 5.962428276e-39
-0.05460288376 0.00134960725 0.08074552566 5.962428276e-39
-0.05492187664 0.001229480375 0.08082950115 5.962428276e-39
-0.05469391868 0.001284511527 0.08085037768 5.962428276e-39
-0.05499200523 0.001242833212 0.08063746989 5.962428276e-39
-0.05465079471 0.001337590395 0.08070265502 5.962428276e-39
-0.05473873019 0.001316760899 0.08070509881 5.962428276e-39
-0.05461784452 0.001344920835 0.08075779676 5.962428276e-39
-0.05487597734 0.001279286342 0.08066876978 5.962428276e-39
-0.05471549928 0.001315457048 0.08075877279 5.962428276e-39
-0.05495947599 0.001247438602 0.08066873997 5.962428276e-39
-0.05489639565 0.001269781962 0.08068136126 5.962428276e-39
-0.0550228022 0.001221054699 0.08069711924 5.962428276e-39
-0.05491831154 0.001250066329 0.08071859181 5.962428276e-39
-0.0548215881 0.001302013872 0.08066762239 5.962428276e-39
-0.05468898267 0.001325744204 0.0807569325 5.962428276e-39
-0.05483417213 0.001299415017 0.08065951616 5.962428276e-39
-0.05471444875 0.001327210339 0.08069115132 5.962428276e-39
-0.05479142815 0.00129870302 0.08072484285 5.962428276e-39
-0.05460110679 0.001297830604 0.08090688288 5.962428276e-39
-0.0550792478 0.001258658478 0.08057770878 5.962428276e-39
-0.05482866615 0.001293758862 0.08067976683 5.962428276e-39
-0.05457877368 0.001346080797 0.08082437515 5.962428276e-39
-0.05458789691 0.001300880918 0.08091191202 5.962428276e-39
-0.05479107052 0.001277844189 0.08077145368 5.962428276e-39
-0.05458234251 0.001350064529 0.08079444617 5.962428276e-39
-0.05504848436 0.001227314118 0.08061864227 5.962428276e-39
-0.05471801758 0.001295170281 0.0808160156 5.962428276e-39
-0.05456742272 0.00134831504 0.08083339036 5.962428276e-39
-0.05468653142 0.001330100466 0.08071269095 5.962428276e-39
-0.05473947525 0.001285051461 0.08080968261 5.962428276e-39
-0.05497378483 0.001232197275 0.08076330274 5.962428276e-39
-0.054565005 0.001311925473 0.08090740442 5.962428276e-39
-0.05473539233 0.001322642434 0.08067651093 5.962428276e-39
-0.05457825586 0.001349694096 0.08080797642 5.962428276e-39
-0.05471461266 0.001325142803 0.08070102334 5.962428276e-39
-0.05495874584 0.001285155769 0.08061738312 5.962428276e-39
-0.05507831275 0.001253194176 0.08059124649 5.962428276e-39
-0.05505306646 0.001247602981 0.08060897142 5.962428276e-39
-0.05477596819 0.001296580303 0.08074487746 5.962428276e-39
-0.05471655354 0.001282096375 0.0808461085 5.962428276e-39
-0.05454514921 0.001349074068 0.08087225258 5.962428276e-39
-0.05495113879 0.001284392551 0.08061348647 5.962428276e-39
-0.05486039445 0.001267096959 0.08073172718 5.962428276e-39
-0.05500506237 0.001223032596 0.08071643114 5.962428276e-39
-0.05501044542 0.001254760427 0.08062442392 5.962428276e-39
-0.05466219783 0.001292094821 0.08086361736 5.962428276e-39
-0.05469395965 0.001327254344 0.08071656525 5.962428276e-39
-0.05486527085 0.001264924183 0.08073759824 5.962428276e-39
-0.05479905754 0.001279945718 0.08075433969 5.962428276e-39
-0.05495506153 0.001244310522 0.08068752289 5.962428276e-39
-0.05475490913 0.00130357407 0.08075983822 5.962428276e-39
-0.05466139689 0.001335385256 0.0807376802 5.962428276e-39
-0.05472227186 0.00129692303 0.0808108896 5.962428276e-39
-0.05478921533 0.001279588789 0.08076924086 5.962428276e-39
-0.05490782112 0.001252650749 0.08072406799 5.962428276e-39
-0.05472051352 0.001324262936 0.08069680631 5.962428276e-39
-0.05500383675 0.001251244452 0.08062811941 5.962428276e-39
-0.05481919646 0.001294193324 0.08068891615 5.962428276e-39
-0.05497031286 0.001234365162 0.08070107549 5.962428276e-39
-0.05509895086 0.001249669585 0.08058048785 5.962428276e-39
-0.05479915068 0.001279338263 0.08075750619 5.962428276e-39
-0.05495131388 0.001233711606 0.08079835027 5.962428276e-39
-0.05483368039 0.001299354481 0.08065545559 5.962428276e-39
-0.05446241423 0.001332060201 0.08096354455 5.962428276e-39
-0.05491985381 0.001238356344 0.0808186084 5.962428276e-39
-0.05461546034 0.001350185601 0.08072517812 5.962428276e-39
-0.05458215997 0.001331369625 0.0808769092 5.962428276e-39
-0.05484653264 0.001286142506 0.08068844676 5.962428276e-39
-0.05470144376 0.001326448517 0.08070918173 5.962428276e-39
-0.05468709394 0.001316726673 0.08079411089 5.962428276e-39
-0.05475370586 0.00129885599 0.08076802641 5.962428276e-39
-0.0548206009 0.00129303406 0.08070407063 5.962428276e-39
-0.05478683487 0.001290292013 0.08074240386 5.962428276e-39
-0.05502810329 0.001237438293 0.08062012494 5.962428276e-39
-0.05459909141 0.001338702859 0.08083388209 5.962428276e-39
-0.05487096682 0.001274642535 0.08069549501 5.962428276e-39
-0.0548950471 0.001273344504 0.08066685498 5.962428276e-39
-0.05502048135 0.001239276957 0.08062313497 5.962428276e-39
-0.05453206226 0.001347739948 0.08088977635 5.962428276e-39
-0.05483414233 0.001288903179 0.08069759607 5.962428276e-39
-0.05494668707 0.001263827784 0.08064547926 5.962428276e-39
-0.05512739718 0.001236858079 0.08057101816 5.962428276e-39
-0.05475243926 0.00128092058 0.08083491772 5.962428276e-39
-0.05499253049 0.001273020171 0.08062024415 5.962428276e-39
-0.05488752201 0.001259123906 0.08072783798 5.962428276e-39
-0.05477087945 0.001309973421 0.08068809658 5.962428276e-39
-0.05495468527 0.00128391711 0.08060897142 5.962428276e-39
-0.05470750481 0.001310753869 0.08079281449 5.962428276e-39
-0.05506213754 0.001262661768 0.08058971167 5.962428276e-39
-0.05465500429 0.001297742827 0.08085623384 5.962428276e-39
-0.05490178615 0.001289196778 0.08061925322 5.962428276e-39
-0.05458755046 0.001348912716 0.08079112321 5.962428276e-39
-0.05488964915 0.001285790233 0.08065358549 5.962428276e-39
-0.05473167077 0.00131450803 0.0807145685 5.962428276e-39
-0.05462141335 0.001349448226 0.08071384579 5.962428276e-39
-0.05494084582 0.001287972555 0.08062365651 5.962428276e-39
-0.0549723655 0.00124587398 0.08065602183 5.962428276e-39
-0.05492369086 0.001270980341 0.0806511268 5.962428276e-39
-0.05462685972 0.00130548235 0.08086933196 5.962428276e-39
-0.05463476852 0.001300808741 0.08086958528 5.962428276e-39
-0.05480980501 0.001276303083 0.08075559139 5.962428276e-39
-0.05469772592 0.001331496518 0.08069308847 5.962428276e-39
-0.05496361479 0.00122031942 0.08081390709 5.962428276e-39
-0.05491982773 0.00126704271 0.08065740019 5.962428276e-39
-0.05496647954 0.001250817906 0.08065072447 5.962428276e-39
-0.05482188985 0.001274133567 0.0807486549 5.962428276e-39
-0.05472101644 0.001303613419 0.08079999685 5.962428276e-39
-0.05509401113 0.001245346386 0.08058669418 5.962428276e-39
-0.05457824469 0.001323745586 0.08088548481 5.962428276e-39
-0.05468846858 0.001286178827 0.08085025102 5.962428276e-39
-0.05457993597 0.001309606712 0.08089902997 5.962428276e-39
-0.05480249971 0.001304576639 0.08066667616 5.962428276e-39
-0.05461717024 0.001344288699 0.08076448739 5.962428276e-39
-0.05468854681 0.001332577085 0.08068941534 5.962428276e-39
-0.0545925796 0.001297225943 0.08091764897 5.962428276e-39
-0.05459255725 0.00130996434 0.08088655025 5.962428276e-39
-0.05505042151 0.001238903962 0.080611974 5.962428276e-39
-0.05498603359 0.001229518792 0.08070922643 5.962428276e-39
-0.05502276123 0.001244095387 0.08062185347 5.962428276e-39
-0.05451676622 0.001332199667 0.08091657609 5.962428276e-39
-0.05490804464 0.001264989376 0.08068142086 5.962428276e-39
-0.0550991483 0.001247682143 0.08058176935 5.962428276e-39
-0.05493039638 0.001235195668 0.08081558347 5.962428276e-39
-0.05470837653 0.001295710448 0.08082198352 5.962428276e-39
-0.05493088439 0.001273997827 0.08064771444 5.962428276e-39
-0.05467895791 0.001331664855 0.08071668446 5.962428276e-39
-0.05479831249 0.001277102623 0.08081074804 5.962428276e-39
-0.05486183986 0.001277877018 0.08069393784 5.962428276e-39
-0.05473475531 0.001312306384 0.08071612567 5.962428276e-39
-0.05450640619 0.001324849902 0.08093330264 5.962428276e-39
-0.05479038507 0.001299381023 0.08070946485 5.962428276e-39
-0.05474537984 0.001281354111 0.08083171397 5.962428276e-39
-0.05482068658 0.001293153269 0.08070298284 5.962428276e-39
-0.05494661257 0.001253793482 0.08066620678 5.962428276e-39
-0.05484404415 0.001261235448 0.08083419502 5.962428276e-39
-0.05480601639 0.001261446858 0.08085149527 5.962428276e-39
-0.05470271409 0.00128423702 0.08084243536 5.962428276e-39
-0.05468033254 0.001316772774 0.08080330491 5.962428276e-39
-0.05458376184 0.001342972042 0.08083672076 5.962428276e-39
-0.05458865315 0.001311591826 0.08088642359 5.962428276e-39
-0.05458363891 0.001300919568 0.0809160769 5.962428276e-39
-0.05474329367 0.001291622408 0.0807954222 5.962428276e-39
-0.05506338552 0.001262864796 0.08058545738 5.962428276e-39
-0.05471182615 0.001296523958 0.08081895858 5.962428276e-39
-0.05464087054 0.001340712188 0.08070325106 5.962428276e-39
-0.05503282696 0.001248705201 0.08061683923 5.962428276e-39
-0.05486420169 0.00129482965 0.08063013852 5.962428276e-39
-0.0549736768 0.001217399957 0.08080925792 5.962428276e-39
-0.05467677861 0.001280275872 0.08088611066 5.962428276e-39
-0.05492121726 0.001290453132 0.0806318447 5.962428276e-39
-0.054615926 0.001330583123 0.08084388077 5.962428276e-39
-0.05490014702 0.001261248719 0.08078756183 5.962428276e-39
-0.05474203825 0.001308370847 0.08072877675 5.962428276e-39
-0.05483790115 0.001298400573 0.08066590875 5.962428276e-39
-0.05476533249 0.00126164942 0.0808692351 5.962428276e-39
-0.05495300889 0.001238188939 0.08078019321 5.962428276e-39
-0.05488340557 0.001292427769 0.0806415379 5.962428276e-39
-0.05483548343 0.001286865678 0.08070069551 5.962428276e-39
-0.05501791462 0.001274797367 0.0806004256 5.962428276e-39
-0.05472226441 0.001314773923 0.08073938638 5.962428276e-39
-0.05481402948 0.001274076756 0.0807839334 5.962428276e-39
-0.05496351421 0.00126685435 0.08063931018 5.962428276e-39
-0.05497734994 0.001239015954 0.08066716045 5.962428276e-39
-0.0548290275 0.001262091566 0.08084005862 5.962428276e-39
-0.05470443144 0.001286102692 0.08083320409 5.962428276e-39
-0.05476374179 0.001303556142 0.08072660118 5.962428276e-39
-0.05497520044 0.001266436884 0.08063415438 5.962428276e-39
-0.05508265272 0.001243146835 0.0805959031 5.962428276e-39
-0.05490648374 0.001233986812 0.08083280176 5.962428276e-39
-0.05496221408 0.0012850645 0.0806171298 5.962428276e-39
-0.05474523082 0.001280555967 0.08084073663 5.962428276e-39
-0.05486939475 0.001267286949 0.08080624044 5.962428276e-39
-0.05459886044 0.001331401523 0.08086315542 5.962428276e-39
-0.05460659415 0.001346295699 0.08077011257 5.962428276e-39
-0.05449396744 0.001330589876 0.08093649894 5.962428276e-39
-0.05478946865 0.001277145697 0.08079657704 5.962428276e-39
-0.05472666025 0.001281987876 0.08083948493 5.962428276e-39
-0.05477019399 0.001265795203 0.08086057007 5.962428276e-39
-0.05446175486 0.00133127789 0.08096606284 5.962428276e-39
-0.05470456555 0.001311734784 0.08079069853 5.962428276e-39
-0.05504782125 0.001231009373 0.08061501384 5.962428276e-39
-0.05474689603 0.001307481667 0.08071614802 5.962428276e-39
-0.05497268587 0.001233570045 0.08075522631 5.962428276e-39
-0.05473048985 0.001322381198 0.08068986982 5.962428276e-39
-0.05456887931 0.001308280975 0.08091074973 5.962428276e-39
-0.0544914864 0.001322826138 0.08095235378 5.962428276e-39
-0.05474492162 0.001305781072 0.08076561987 5.962428276e-39
-0.05457904562 0.001342608593 0.08085007966 5.962428276e-39
-0.05463898927 0.001331136562 0.08079649508 5.962428276e-39
-0.05472997576 0.001307744766 0.08077586442 5.962428276e-39
-0.05464782566 0.001325480174 0.08081828058 5.962428276e-39
-0.05472369865 0.001280129654 0.0808525309 5.962428276e-39
-0.05501861125 0.001274211798 0.08060172945 5.962428276e-39
-0.05493161082 0.001247617649 0.08077897877 5.962428276e-39
-0.05494457111 0.001251680544 0.08068168908 5.962428276e-39
-0.05465713143 0.001296252478 0.08085655421 5.962428276e-39
-0.05460504442 0.001298606396 0.08090085536 5.962428276e-39
-0.05480925739 0.001303136814 0.08066320419 5.962428276e-39
-0.05450185016 0.001329381717 0.08093132824 5.962428276e-39
-0.05488445982 0.001276045572 0.08066909015 5.962428276e-39
-0.05462680012 0.001293795882 0.0808904618 5.962428276e-39
-0.05474908277 0.001275938004 0.0808532238 5.962428276e-39
-0.0545187369 0.001338955248 0.08090864867 5.962428276e-39
-0.05478291214 0.001259857789 0.08086317778 5.962428276e-39
-0.05486636609 0.001279165968 0.08068286628 5.962428276e-39
-0.05493272841 0.001287397696 0.08063027263 5.962428276e-39
-0.05452017114 0.001317670802 0.08093451709 5.962428276e-39
-0.05496845767 0.001244412968 0.08066181093 5.962428276e-39
-0.05464614928 0.001325400081 0.08082130551 5.962428276e-39
-0.05454078317 0.001353023108 0.08085616678 5.962428276e-39
-0.05468288809 0.001291468507 0.08084313571 5.962428276e-39
-0.05487705395 0.001275980845 0.08068233728 5.962428276e-39
-0.05480074883 0.001290665939 0.08072947711 5.962428276e-39
-0.05486287177 0.001290237764 0.08065997809 5.962428276e-39
-0.05460929871 0.001349951839 0.08073489368 5.962428276e-39
-0.05459444597 0.001350344392 0.08076019585 5.962428276e-39
-0.05455264822 0.001318687806 0.08090416342 5.962428276e-39
-0.05499801412 0.001225459855 0.08073535562 5.962428276e-39
-0.05474992096 0.001288427971 0.08079307526 5.962428276e-39
-0.05473978817 0.001278188545 0.08085140586 5.962428276e-39
-0.05458498746 0.001311274711 0.08089029044 5.962428276e-39
-0.0550763309 0.001257788623 0.08058908582 5.962428276e-39
-0.05499605462 0.001211921684 0.08079507947 5.962428276e-39
-0.05477853864 0.001267809654 0.08085456491 5.962428276e-39
-0.05491944402 0.001258159056 0.08069161326 5.962428276e-39
-0.05478530377 0.001312643522 0.0806574747 5.962428276e-39
-0.05500943586 0.001232708339 0.08064354211 5.962428276e-39
-0.05469200388 0.001332462532 0.08069632202 5.962428276e-39
-0.05475658178 0.001319780946 0.08066260815 5.962428276e-39
-0.05499828234 0.001258278964 0.08062807471 5.962428276e-39
-0.05494874343 0.001287075458 0.08062217385 5.962428276e-39
-0.05485956371 0.001286882674 0.0806677714 5.962428276e-39
-0.05488077924 0.001292109024 0.08064142615 5.962428276e-39
-0.05489473417 0.001262230799 0.08079557866 5.962428276e-39
-0.0548549816 0.00126512046 0.08075371385 5.962428276e-39
-0.05498804525 0.001241414808 0.08064676821 5.962428276e-39
-0.05476516485 0.001317448914 0.0806619972 5.962428276e-39
-0.05483330041 0.001299510477 0.0806607008 5.962428276e-39
-0.05480799824 0.001276143594 0.08080539852 5.962428276e-39
-0.05481122062 0.001296094386 0.08070490509 5.962428276e-39
-0.05501065031 0.001263659447 0.08061949909 5.962428276e-39
-0.05469532311 0.001324064098 0.0807550922 5.962428276e-39
-0.05501631647 0.001223867061 0.08069238067 5.962428276e-39
-0.05486482382 0.001283827703 0.08066698909 5.962428276e-39
-0.05475980043 0.001295427093 0.08076680452 5.962428276e-39
-0.05500358716 0.001275357092 0.0806093961 5.962428276e-39
-0.05487759411 0.001266359817 0.08077737689 5.962428276e-39
-0.05486939102 0.001264972147 0.08076377958 5.962428276e-39
-0.05479953438 0.001309264451 0.08065173775 5.962428276e-39
-0.05493109301 0.00127630611 0.0806466043 5.962428276e-39
-0.05489356816 0.001252826303 0.08081777394 5.962428276e-39
-0.05489683151 0.001252623973 0.08081489056 5.962428276e-39
-0.05472137034 0.001281915233 0.08084446192 5.962428276e-39
-0.05500622466 0.001212188043 0.0807826221 5.962428276e-39
-0.0545720011 0.001312331064 0.08089930564 5.962428276e-39
-0.05496223271 0.001237605698 0.08070041984 1.184631237e-38
-0.05460277945 0.001349551138 0.0807454139 1.184631237e-38
-0.05492182821 0.001229509944 0.0808294192 1.184631237e-38
-0.05469382554 0.001284540864 0.08085035533 1.184631237e-38
-0.05499188602 0.001242822269 0.08063732833 1.184631237e-38
-0.05465071276 0.001337577589 0.08070254326 1.184631237e-38
-0.05473862961 0.00131670991 0.08070500195 1.184631237e-38
-0.05461774021 0.001344870543 0.08075767756 1.184631237e-38
-0.05487587303 0.001279269578 0.08066862822 1.184631237e-38
-0.0547153987 0.001315440983 0.08075864613 1.184631237e-38
-0.05495937541 0.001247451408 0.08066859096 1.184631237e-38
-0.05489628389 0.001269802917 0.0806812197 1.184631237e-38
-0.05502270162 0.0012210852 0.08069699258 1.184631237e-38
-0.05491821468 0.001250081696 0.08071846515 1.184631237e-38
-0.05482148379 0.00130201783 0.08066750318 1.184631237e-38
-0.05468888581 0.001325708814 0.08075679839 1.184631237e-38
-0.05483406037 0.001299404074 0.0806593895 1.184631237e-38
-0.05471434817 0.0013272129 0.08069102466 1.184631237e-38
-0.05479131266 0.001298725605 0.08072471619 1.184631237e-38
-0.05460106954 0.001297828043 0.08090689778 1.184631237e-38
-0.0550791584 0.001258688513 0.08057756722 1.184631237e-38
-0.05482856929 0.001293749781 0.08067964762 1.184631237e-38
-0.05457868055 0.001346049597 0.08082427084 1.184631237e-38
-0.05458785221 0.001300884411 0.08091191947 1.184631237e-38
-0.05479096994 0.001277870731 0.08077135682 1.184631237e-38
-0.0545822531 0.001350019127 0.08079434931 1.184631237e-38
-0.05504839495 0.001227292232 0.08061852306 1.184631237e-38
-0.05471791327 0.001295169815 0.08081596345 1.184631237e-38
-0.05456732586 0.001348283608 0.08083328605 1.184631237e-38
-0.05468644574 0.001330058323 0.08071257919 1.184631237e-38
-0.05473936722 0.001285103848 0.08080958575 1.184631237e-38
-0.0549736917 0.001232222654 0.08076318353 1.184631237e-38
-0.05456494913 0.001311934786 0.08090738952 1.184631237e-38
-0.05473529547 0.001322638709 0.08067637682 1.184631237e-38
-0.05457817018 0.00134965661 0.08080788702 1.184631237e-38
-0.05471451581 0.001325145597 0.08070089668 1.184631237e-38
-0.0549586378 0.001285163453 0.08061721921 1.184631237e-38
-0.0550782308 0.001253188588 0.08059113473 1.184631237e-38
-0.05505299196 0.001247584121 0.08060885221 1.184631237e-38
-0.05477585644 0.001296607312 0.0807447657 1.184631237e-38
-0.05471644923 0.001282131532 0.08084607124 1.184631237e-38
-0.0545450598 0.001349040074 0.08087215573 1.184631237e-38
-0.05495104194 0.001284403261 0.08061332256 1.184631237e-38
-0.05486029387 0.001267120242 0.08073158562 1.184631237e-38
-0.05500495806 0.00122306007 0.08071631193 1.184631237e-38
-0.05501037091 0.00125473598 0.08062430471 1.184631237e-38
-0.05466211215 0.001292119268 0.08086359501 1.184631237e-38
-0.0546938628 0.00132721616 0.08071644604 1.184631237e-38
-0.05486517772 0.00126494444 0.08073745668 1.184631237e-38
-0.05479897186 0.00127998204 0.08075422794 1.184631237e-38
-0.05495495349 0.001244317042 0.08068738878 1.184631237e-38
-0.05475480109 0.001303597586 0.08075971901 1.184631237e-38
-0.05466130003 0.001335345209 0.08073754609 1.184631237e-38
-0.05472216755 0.001296918141 0.08081082255 1.184631237e-38
-0.05478911474 0.00127961603 0.08076915145 1.184631237e-38
-0.05490772426 0.001252664253 0.08072394878 1.184631237e-38
-0.05472041667 0.001324265031 0.0806966871 1.184631237e-38
-0.05500376225 0.001251220237 0.0806280002 1.184631237e-38
-0.05481908843 0.001294180518 0.08068878204 1.184631237e-38
-0.0549702011 0.001234377036 0.08070096374 1.184631237e-38
-0.05509885773 0.001249717083 0.08058034629 1.184631237e-38
-0.05479906499 0.001279373886 0.08075739443 1.184631237e-38
-0.05495122075 0.001233744435 0.08079826087 1.184631237e-38
-0.05483355373 0.001299333991 0.08065532893 1.184631237e-38
-0.05446239561 0.001332097687 0.08096354455 1.184631237e-38
-0.0549198091 0.001238397788 0.080818519 1.184631237e-38
-0.05461535975 0.00135012879 0.08072507381 1.184631237e-38
-0.05458205193 0.001331335166 0.08087684214 1.184631237e-38
-0.05484644696 0.00128614367 0.0806883201 1.184631237e-38
-0.05470135808 0.001326416153 0.08070907742 1.184631237e-38
-0.05468699336 0.001316693379 0.08079402149 1.184631237e-38
-0.05475359038 0.001298880903 0.08076791465 1.184631237e-38
-0.05482050776 0.001293038484 0.08070393652 1.184631237e-38
-0.05478671938 0.001290322049 0.08074229211 1.184631237e-38
-0.05502800643 0.001237422694 0.08062002063 1.184631237e-38
-0.054599002 0.001338672359 0.08083377779 1.184631237e-38
-0.05487085879 0.001274667913 0.080695346 1.184631237e-38
-0.05489494652 0.001273332629 0.08066669106 1.184631237e-38
-0.05502038822 0.001239261823 0.08062302321 1.184631237e-38
-0.05453199148 0.00134769571 0.0808897242 1.184631237e-38
-0.05483404547 0.001288908534 0.08069747686 1.184631237e-38
-0.05494659394 0.001263809856 0.0806453526 1.184631237e-38
-0.05512730777 0.001236911165 0.08057086915 1.184631237e-38
-0.05475233495 0.001280946424 0.08083487302 1.184631237e-38
-0.05499245226 0.001272985013 0.08062013984 1.184631237e-38
-0.05488742143 0.001259145327 0.08072769642 1.184631237e-38
-0.05477078259 0.001309968531 0.08068794012 1.184631237e-38
-0.05495460704 0.001283917809 0.08060882241 1.184631237e-38
-0.05470740795 0.001310728723 0.08079273254 1.184631237e-38
-0.05506204441 0.001262693666 0.08058957011 1.184631237e-38
-0.05465491116 0.001297762385 0.08085620403 1.184631237e-38
-0.05490165949 0.00128918374 0.08061909676 1.184631237e-38
-0.05458746105 0.001348862424 0.08079104125 1.184631237e-38
-0.05488955975 0.001285756472 0.08065347373 1.184631237e-38
-0.05473158509 0.001314466121 0.08071446419 1.184631237e-38
-0.05462133512 0.001349401195 0.08071372658 1.184631237e-38
-0.05494075269 0.001287975116 0.08062351495 1.184631237e-38
-0.05497223884 0.001245871652 0.08065588772 1.184631237e-38
-0.05492358655 0.00127096544 0.08065097779 1.184631237e-38
-0.05462675542 0.001305459999 0.0808692947 1.184631237e-38
-0.05463467166 0.001300830627 0.08086956292 1.184631237e-38
-0.05480971932 0.00127633824 0.08075547963 1.184631237e-38
-0.05469762161 0.001331490465 0.08069296181 1.184631237e-38
-0.05496356636 0.001220352482 0.08081381023 1.184631237e-38
-0.05491970852 0.001267030369 0.08065723628 1.184631237e-38
-0.05496636033 0.001250805566 0.08065057546 1.184631237e-38
-0.05482180417 0.0012741643 0.08074852824 1.184631237e-38
-0.0547209084 0.001303604105 0.08079992235 1.184631237e-38
-0.05509392545 0.001245350111 0.08058658242 1.184631237e-38
-0.05457815155 0.001323702978 0.08088545501 1.184631237e-38
-0.05468837544 0.001286204439 0.08085022867 1.184631237e-38
-0.05457984656 0.001309614861 0.08089902252 1.184631237e-38
-0.0548023954 0.00130454707 0.08066654205 1.184631237e-38
-0.05461708084 0.001344237709 0.08076437563 1.184631237e-38
-0.05468844995 0.001332573825 0.08068926632 1.184631237e-38
-0.05459252745 0.001297218958 0.08091764897 1.184631237e-38
-0.05459246039 0.001309977612 0.0808865279 1.184631237e-38
-0.05505033582 0.001238881145 0.08061185479 1.184631237e-38
-0.05498592556 0.001229556743 0.08070911467 1.184631237e-38
-0.05502267182 0.001244078856 0.08062174171 1.184631237e-38
-0.05451668799 0.001332168235 0.08091654629 1.184631237e-38
-0.05490793288 0.001265014056 0.08068127185 1.184631237e-38
-0.05509906262 0.001247729175 0.08058162779 1.184631237e-38
-0.05493030697 0.001235231059 0.08081548661 1.184631237e-38
-0.05470827594 0.001295699272 0.08082192391 1.184631237e-38
-0.05493078008 0.001273977337 0.08064758778 1.184631237e-38
-0.05467885733 0.001331614098 0.08071656525 1.184631237e-38
-0.05479823053 0.001277147792 0.08081065863 1.184631237e-38
-0.05486173555 0.001277901465 0.08069378883 1.184631237e-38
-0.05473466218 0.001312266104 0.08071601391 1.184631237e-38
-0.05450635403 0.001324854558 0.08093329519 1.184631237e-38
-0.05479027331 0.001299388008 0.08070934564 1.184631237e-38
-0.05474527925 0.001281382749 0.08083168417 1.184631237e-38
-0.05482059717 0.001293157227 0.08070284873 1.184631237e-38
-0.05494650081 0.001253804192 0.08066605777 1.184631237e-38
-0.05484401062 0.001261274097 0.08083411306 1.184631237e-38
-0.05480597913 0.001261481317 0.08085142821 1.184631237e-38
-0.05470262468 0.001284274273 0.08084239811 1.184631237e-38
-0.05468023941 0.001316741342 0.0808032155 1.184631237e-38
-0.05458367243 0.001342941541 0.08083662391 1.184631237e-38
-0.05458856374 0.001311601838 0.08088640869 1.184631237e-38
-0.0545835942 0.001300921431 0.08091608435 1.184631237e-38
-0.05474317819 0.001291633118 0.08079533279 1.184631237e-38
-0.05506329983 0.00126289716 0.08058530837 1.184631237e-38
-0.05471172184 0.001296511386 0.08081889898 1.184631237e-38
-0.05464078113 0.001340707066 0.0807031095 1.184631237e-38
-0.055032745 0.001248679124 0.08061671257 1.184631237e-38
-0.05486407876 0.001294808462 0.0806299895 1.184631237e-38
-0.05497362837 0.001217435114 0.08080916107 1.184631237e-38
-0.05467672646 0.001280278899 0.08088612556 1.184631237e-38
-0.05492113158 0.001290465705 0.08063170314 1.184631237e-38
-0.05461582541 0.001330545172 0.08084378392 1.184631237e-38
-0.05490005761 0.001261292025 0.08078746498 1.184631237e-38
-0.05474193394 0.001308362 0.08072862774 1.184631237e-38
-0.05483778194 0.001298360294 0.080665797 1.184631237e-38
-0.05476527661 0.001261676196 0.08086918294 1.184631237e-38
-0.05495292321 0.001238212688 0.08078008145 1.184631237e-38
-0.05488331988 0.001292433823 0.08064138889 1.184631237e-38
-0.05483538285 0.00128687988 0.08070057631 1.184631237e-38
-0.05501780659 0.001274812967 0.08060026914 1.184631237e-38
-0.05472216383 0.0013147383 0.08073925227 1.184631237e-38
-0.0548139438 0.001274136594 0.08078383654 1.184631237e-38
-0.05496340618 0.001266830601 0.08063916862 1.184631237e-38
-0.05497724935 0.001239021774 0.08066701144 1.184631237e-38
-0.05482898653 0.001262129517 0.08083997667 1.184631237e-38
-0.05470433831 0.00128613878 0.08083315194 1.184631237e-38
-0.05476363003 0.001303565456 0.08072645962 1.184631237e-38
-0.05497510731 0.001266399631 0.08063403517 1.184631237e-38
-0.05508257821 0.001243147301 0.08059579134 1.184631237e-38
-0.05490644276 0.001234023832 0.0808327198 1.184631237e-38
-0.05496212095 0.001285064034 0.08061698824 1.184631237e-38
-0.05474513769 0.001280581579 0.08084071428 1.184631237e-38
-0.05486931279 0.001267345389 0.08080613613 1.184631237e-38
-0.05459874496 0.001331369393 0.08086307347 1.184631237e-38
-0.05460651219 0.001346236793 0.08077002317 1.184631237e-38
-0.05449391901 0.001330605708 0.08093649149 1.184631237e-38
-0.05478938669 0.001277195057 0.08079650253 1.184631237e-38
-0.05472655222 0.001282019541 0.08083944768 1.184631237e-38
-0.05477013439 0.001265830593 0.08086053282 1.184631237e-38
-0.05446173251 0.001331305131 0.08096606284 1.184631237e-38
-0.0547044687 0.00131170731 0.08079060912 1.184631237e-38
-0.05504772812 0.001230983296 0.08061490208 1.184631237e-38
-0.0547468029 0.001307465136 0.08071601391 1.184631237e-38
-0.05497259647 0.001233594725 0.0807551071 1.184631237e-38
-0.05473039299 0.001322375378 0.08068974316 1.184631237e-38
-0.05456881225 0.001308297971 0.08091072738 1.184631237e-38
-0.05449144542 0.001322834054 0.08095238358 1.184631237e-38
-0.05474481732 0.001305799233 0.08076549321 1.184631237e-38
-0.05457895249 0.001342572505 0.0808499828 1.184631237e-38
-0.05463889241 0.001331108389 0.08079639077 1.184631237e-38
-0.0547298789 0.001307749189 0.08077576011 1.184631237e-38
-0.05464772508 0.001325444086 0.08081819117 1.184631237e-38
-0.05472363532 0.001280169468 0.08085249364 1.184631237e-38
-0.05501850694 0.001274224604 0.08060157299 1.184631237e-38
-0.05493152142 0.001247656066 0.08077888191 1.184631237e-38
-0.05494446307 0.00125169917 0.08068156242 1.184631237e-38
-0.05465704203 0.001296275295 0.08085652441 1.184631237e-38
-0.05460499227 0.001298611052 0.08090085536 1.184631237e-38
-0.05480914935 0.001303107245 0.08066307008 1.184631237e-38
-0.05450180173 0.001329394989 0.08093129098 1.184631237e-38
-0.05488437042 0.001276036957 0.08066891879 1.184631237e-38
-0.05462675914 0.00129380729 0.0808904618 1.184631237e-38
-0.05474902689 0.001275971299 0.08085318655 1.184631237e-38
-0.05451865122 0.001338919392 0.08090861142 1.184631237e-38
-0.05478285626 0.0012598834 0.08086312562 1.184631237e-38
-0.05486628041 0.001279171556 0.08068272471 1.184631237e-38
-0.054932639 0.001287373714 0.08063016087 1.184631237e-38
-0.05452011526 0.00131768221 0.08093451709 1.184631237e-38
-0.05496835336 0.001244427869 0.08066166192 1.184631237e-38
-0.05464604869 0.00132536306 0.08082121611 1.184631237e-38
-0.05454069376 0.001352990279 0.08085606992 1.184631237e-38
-0.05468278751 0.001291459892 0.08084307611 1.184631237e-38
-0.05487695336 0.001275988296 0.08068218082 1.184631237e-38
-0.05480065569 0.001290700398 0.08072936535 1.184631237e-38
-0.05486277863 0.001290209824 0.08065988123 1.184631237e-38
-0.05460920185 0.001349894796 0.08073478937 1.184631237e-38
-0.05459434539 0.001350288978 0.08076008409 1.184631237e-38
-0.05455256626 0.001318688504 0.08090414107 1.184631237e-38
-0.05499791354 0.001225492451 0.08073524386 1.184631237e-38
-0.05474980921 0.001288443105 0.08079297841 1.184631237e-38
-0.05473972857 0.001278222539 0.08085136861 1.184631237e-38
-0.05458489805 0.001311285421 0.08089027554 1.184631237e-38
-0.05507624894 0.001257825643 0.08058894426 1.184631237e-38
-0.05499598384 0.001211950323 0.08079500496 1.184631237e-38
-0.05477847531 0.001267844811 0.08085452765 1.184631237e-38
-0.05491934717 0.001258184202 0.08069147915 1.184631237e-38
-0.05478518084 0.001312624197 0.08065732569 1.184631237e-38
-0.05500931293 0.001232687384 0.08064338565 1.184631237e-38
-0.05469190329 0.00133245741 0.08069619536 1.184631237e-38
-0.05475648493 0.001319758361 0.08066247404 1.184631237e-38
-0.05499819666 0.001258248696 0.0806279555 1.184631237e-38
-0.05494864285 0.001287088264 0.08062201738 1.184631237e-38
-0.0548594743 0.00128686754 0.08066766709 1.184631237e-38
-0.05488069355 0.001292112516 0.08064126968 1.184631237e-38
-0.05489464477 0.001262270613 0.0807954818 1.184631237e-38
-0.05485488847 0.001265151193 0.08075360209 1.184631237e-38
-0.05498792976 0.001241405029 0.08064662665 1.184631237e-38
-0.05476506054 0.001317427726 0.08066186309 1.184631237e-38
-0.0548331812 0.001299499767 0.08066057414 1.184631237e-38
-0.05480791628 0.001276188297 0.08080530912 1.184631237e-38
-0.05481112748 0.00129609881 0.08070477843 1.184631237e-38
-0.05501056463 0.001263630576 0.08061939478 1.184631237e-38
-0.05469522625 0.001324030338 0.08075495809 1.184631237e-38
-0.05501620471 0.001223899424 0.08069224656 1.184631237e-38
-0.05486473441 0.001283813734 0.08066688478 1.184631237e-38
-0.05475968495 0.001295450144 0.08076670021 1.184631237e-38
-0.0550034903 0.001275322866 0.08060926944 1.184631237e-38
-0.05487750843 0.001266416861 0.08077726513 1.184631237e-38
-0.05486930162 0.001265033381 0.08076366782 1.184631237e-38
-0.0547994338 0.001309250016 0.08065159619 1.184631237e-38
-0.05493099242 0.001276282128 0.08064648509 1.184631237e-38
-0.05489349365 0.001252866583 0.08081769198 1.184631237e-38
-0.05489675701 0.001252677292 0.08081480116 1.184631237e-38
-0.05472125858 0.00128194876 0.08084442466 1.184631237e-38
-0.05500615016 0.001212215284 0.08078255504 1.184631237e-38
-0.05457191169 0.001312338049 0.08089930564 1.184631237e-38
-0.05496402085 0.001236752374 0.08069963753 1.771655483e-38
-0.05460520834 0.001348305726 0.0807447508 1.771655483e-38
-0.05492346361 0.001228910405 0.08082859963 1.771655483e-38
-0.05469572544 0.001283912919 0.08084935695 1.771655483e-38
-0.0549931787 0.001241572667 0.08063625544 1.771655483e-38
-0.05465326086 0.001335677924 0.080701828 1.771655483e-38
-0.05474075675 0.001315602334 0.08070460707 1.771655483e-38
-0.05462000519 0.001343699638 0.08075709641 1.771655483e-38
-0.05487770587 0.001278291689 0.08066757023 1.771655483e-38
-0.05471767113 0.001314381137 0.0807582736 1.771655483e-38
-0.05496090651 0.001246437198 0.08066739142 1.771655483e-38
-0.05489769205 0.001268771943 0.08068010211 1.771655483e-38
-0.05502466112 0.001220591366 0.08069644868 1.771655483e-38
-0.05491983145 0.001248939661 0.08071781695 1.771655483e-38
-0.05482335389 0.001300328877 0.08066711575 1.771655483e-38
-0.05469111353 0.001324646175 0.08075641096 1.771655483e-38
-0.05483591929 0.001297737239 0.08065892756 1.771655483e-38
-0.05471660942 0.001325710444 0.08069056273 1.771655483e-38
-0.05479317158 0.001297682757 0.0807235688 1.771655483e-38
-0.05460268259 0.001297082519 0.08090623468 1.771655483e-38
-0.055080764 0.001256877789 0.08057647943 1.771655483e-38
-0.05483048409 0.001292717876 0.08067899942 1.771655483e-38
-0.05458093062 0.001344863791 0.08082345128 1.771655483e-38
-0.05458962917 0.001300002681 0.08091146499 1.771655483e-38
-0.05479263142 0.001276562689 0.08077085763 1.771655483e-38
-0.05458452553 0.001348803518 0.0807935968 1.771655483e-38
-0.05504985899 0.001225987682 0.08061750978 1.771655483e-38
-0.05472007766 0.001293986803 0.08081540465 1.771655483e-38
-0.05456965044 0.001347139245 0.08083237708 1.771655483e-38
-0.05468869954 0.001328778453 0.08071197569 1.771655483e-38
-0.05474096164 0.001284364145 0.08080877364 1.771655483e-38
-0.05497571081 0.001231459202 0.08076266199 1.771655483e-38
-0.05456706882 0.0013112491 0.08090656996 1.771655483e-38
-0.05473773926 0.001321118791 0.08067571372 1.771655483e-38
-0.05458044261 0.001348439138 0.08080712706 1.771655483e-38
-0.05471688136 0.0013237393 0.08070052415 1.771655483e-38
-0.05496044457 0.001283385092 0.080616422 1.771655483e-38
-0.05507934839 0.001252008602 0.08058965951 1.771655483e-38
-0.05505431071 0.00124620297 0.08060767502 1.771655483e-38
-0.05477767438 0.001295589143 0.08074369282 1.771655483e-38
-0.0547179915 0.00128145027 0.08084503561 1.771655483e-38
-0.05454753712 0.001347911311 0.0808712095 1.771655483e-38
-0.05495284498 0.001282647951 0.08061240613 1.771655483e-38
-0.05486183241 0.001265999163 0.08073083311 1.771655483e-38
-0.05500713736 0.001222160645 0.08071567863 1.771655483e-38
-0.05501185358 0.001253354363 0.08062301576 1.771655483e-38
-0.05466397107 0.001291360939 0.08086298406 1.771655483e-38
-0.05469609424 0.001326086931 0.0807159096 1.771655483e-38
-0.05486675352 0.001263586571 0.08073662221 1.771655483e-38
-0.05480043218 0.001278771553 0.08075333387 1.771655483e-38
-0.05495659262 0.001243069535 0.08068628609 1.771655483e-38
-0.05475676432 0.001302452991 0.08075860143 1.771655483e-38
-0.05466345325 0.00133413868 0.08073709905 1.771655483e-38
-0.05472416058 0.001295761205 0.08080970496 1.771655483e-38
-0.05479077622 0.001278308919 0.08076864481 1.771655483e-38
-0.05490939319 0.001251318026 0.08072330803 1.771655483e-38
-0.05472270772 0.001322811702 0.08069635183 1.771655483e-38
-0.05500517786 0.001249765744 0.0806267187 1.771655483e-38
-0.05482109636 0.001293211244 0.08068802208 1.771655483e-38
-0.05497205257 0.001233588904 0.08070034534 1.771655483e-38
-0.05510015041 0.001248042332 0.08057890087 1.771655483e-38
-0.05480054393 0.0012781478 0.08075650036 1.771655483e-38
-0.05495322123 0.00123295025 0.08079792559 1.771655483e-38
-0.05483548343 0.001297638519 0.08065471053 1.771655483e-38
-0.05446473509 0.001331568928 0.08096304536 1.771655483e-38
-0.05492157489 0.00123750791 0.08081795275 1.771655483e-38
-0.05461780727 0.001348878024 0.08072443306 1.771655483e-38
-0.05458441377 0.001330476021 0.08087616414 1.771655483e-38
-0.05484844744 0.001285232138 0.08068729937 1.771655483e-38
-0.05470365658 0.001325317193 0.08070847392 1.771655483e-38
-0.05468933284 0.001315578818 0.08079340309 1.771655483e-38
-0.05475549027 0.001297770534 0.08076685667 1.771655483e-38
-0.05482260138 0.00129203801 0.08070286363 1.771655483e-38
-0.05478832498 0.001289449865 0.08074111491 1.771655483e-38
-0.05502934754 0.001236146549 0.08061900735 1.771655483e-38
-0.05460129306 0.001337561058 0.08083280176 1.771655483e-38
-0.05487232283 0.001273672795 0.08069442213 1.771655483e-38
-0.05489645898 0.00127212354 0.08066564053 1.771655483e-38
-0.05502172932 0.001237984747 0.08062200993 1.771655483e-38
-0.05453437939 0.001347020734 0.08088885993 1.771655483e-38
-0.05483602732 0.00128802238 0.08069647849 1.771655483e-38
-0.05494802818 0.001262398902 0.08064425737 1.771655483e-38
-0.05512874201 0.001235232456 0.08056931198 1.771655483e-38
-0.05475396663 0.00128025352 0.0808339268 1.771655483e-38
-0.05499411002 0.001271890709 0.08061918616 1.771655483e-38
-0.05488894135 0.00125793484 0.0807268247 1.771655483e-38
-0.05477306992 0.001308771316 0.08068718016 1.771655483e-38
-0.05495640263 0.001282272628 0.08060788363 1.771655483e-38
-0.05470973998 0.001309586689 0.08079208434 1.771655483e-38
-0.05506355315 0.001261108788 0.08058846742 1.771655483e-38
-0.05465710536 0.00129682594 0.08085539192 1.771655483e-38
-0.05490334705 0.001287558582 0.08061800897 1.771655483e-38
-0.05458968505 0.001347652869 0.08079036325 1.771655483e-38
-0.05489144102 0.001284529222 0.08065276593 1.771655483e-38
-0.05473377556 0.001313404879 0.08071413636 1.771655483e-38
-0.05462422594 0.001347637037 0.08071342111 1.771655483e-38
-0.05494271591 0.001286182087 0.08062291145 1.771655483e-38
-0.05497352034 0.001244654879 0.08065482229 1.771655483e-38
-0.0549252294 0.001269902801 0.08064994216 1.771655483e-38
-0.05462881923 0.00130439247 0.08086822927 1.771655483e-38
-0.05463688821 0.001300007105 0.08086892217 1.771655483e-38
-0.05481122807 0.00127512007 0.08075458556 1.771655483e-38
-0.05469982326 0.001329909777 0.08069249243 1.771655483e-38
-0.05496538058 0.001219376456 0.08081333339 1.771655483e-38
-0.05492104217 0.001265683677 0.0806561932 1.771655483e-38
-0.05496764928 0.001249555731 0.08064950258 1.771655483e-38
-0.05482328311 0.001272836467 0.08074767143 1.771655483e-38
-0.05472297966 0.001302270219 0.0807993114 1.771655483e-38
-0.05509488285 0.001244298415 0.08058496565 1.771655483e-38
-0.05458031222 0.001322909957 0.08088427782 1.771655483e-38
-0.05469023809 0.001285445644 0.08084961772 1.771655483e-38
-0.05458196625 0.00130890077 0.0808981657 1.771655483e-38
-0.05480450019 0.001303045778 0.08066599071 1.771655483e-38
-0.05461935699 0.001343061682 0.08076381683 1.771655483e-38
-0.05469091982 0.001330861822 0.08068871498 1.771655483e-38
-0.05459416658 0.001296495553 0.08091703802 1.771655483e-38
-0.05459465459 0.001309312414 0.08088536561 1.771655483e-38
-0.05505174771 0.001237516757 0.08061055839 1.771655483e-38
-0.05498791113 0.00122879399 0.08070843667 1.771655483e-38
-0.05502403527 0.00124277221 0.08062050492 1.771655483e-38
-0.05451892689 0.00133134448 0.0809154287 1.771655483e-38
-0.05490945652 0.001263906248 0.08068009466 1.771655483e-38
-0.05510004237 0.001246305881 0.08058024943 1.771655483e-38
-0.05493221432 0.001234283438 0.08081495017 1.771655483e-38
-0.05471037328 0.001294624293 0.08082145452 1.771655483e-38
-0.05493233353 0.001272904919 0.08064641804 1.771655483e-38
-0.05468112603 0.001330290688 0.0807159543 1.771655483e-38
-0.05479992554 0.001276394585 0.08081007749 1.771655483e-38
-0.05486318097 0.001276925905 0.08069287241 1.771655483e-38
-0.05473688245 0.001311199041 0.08071569353 1.771655483e-38
-0.05450855941 0.001324335812 0.08093268424 1.771655483e-38
-0.05479237065 0.001298458083 0.08070863783 1.771655483e-38
-0.05474691465 0.001280699391 0.08083079755 1.771655483e-38
-0.05482268706 0.001292155823 0.08070177585 1.771655483e-38
-0.05494796857 0.001252777409 0.08066488057 1.771655483e-38
-0.05484572053 0.001260554185 0.0808333531 1.771655483e-38
-0.05480763689 0.001260929042 0.08085051179 1.771655483e-38
-0.0547044687 0.001283811172 0.08084122092 1.771655483e-38
-0.05468242615 0.001315658679 0.08080244809 1.771655483e-38
-0.05458599329 0.001341797411 0.08083570749 1.771655483e-38
-0.05459076166 0.001310937805 0.0808852464 1.771655483e-38
-0.05458537117 0.001300041797 0.08091562241 1.771655483e-38
-0.05474500358 0.001290718326 0.08079446852 1.771655483e-38
-0.05506480858 0.00126116327 0.08058418334 1.771655483e-38
-0.05471381545 0.001295437803 0.08081842959 1.771655483e-38
-0.05464360863 0.001338827424 0.08070289344 1.771655483e-38
-0.05503416061 0.001247225795 0.08061543107 1.771655483e-38
-0.05486578867 0.001293349313 0.08062884212 1.771655483e-38
-0.05497555807 0.001216622535 0.08080889285 1.771655483e-38
-0.05467841774 0.001279835589 0.08088519424 1.771655483e-38
-0.05492318422 0.001288805855 0.0806311816 1.771655483e-38
-0.05461814255 0.001329475082 0.08084261417 1.771655483e-38
-0.05490195006 0.001260405174 0.08078661561 1.771655483e-38
-0.05474404991 0.00130745722 0.08072774857 1.771655483e-38
-0.05483944714 0.00129706366 0.08066514134 1.771655483e-38
-0.05476687849 0.001261215424 0.08086856455 1.771655483e-38
-0.05495500565 0.00123728835 0.08077959716 1.771655483e-38
-0.05488530546 0.001290743006 0.0806407854 1.771655483e-38
-0.05483730137 0.001286066603 0.08069965988 1.771655483e-38
-0.0550195761 0.001273192931 0.08059940487 1.771655483e-38
-0.05472431332 0.001313700341 0.08073885739 1.771655483e-38
-0.05481578037 0.001273185248 0.08078348637 1.771655483e-38
-0.05496495962 0.001265584026 0.08063790202 1.771655483e-38
-0.05497878417 0.001237974502 0.08066581935 1.771655483e-38
-0.05483069643 0.001261417288 0.08083921671 1.771655483e-38
-0.05470620468 0.001285481732 0.08083227277 1.771655483e-38
-0.05476553738 0.001302704681 0.080725573 1.771655483e-38
-0.05497671664 0.001265057595 0.08063288778 1.771655483e-38
-0.05508356541 0.001241759397 0.08059443533 1.771655483e-38
-0.05490809307 0.001233463408 0.08083186299 1.771655483e-38
-0.05496397614 0.001283263089 0.08061622828 1.771655483e-38
-0.05474667251 0.001279984368 0.08083990216 1.771655483e-38
-0.0548713766 0.001266420586 0.08080541342 1.771655483e-38
-0.05460083857 0.001330425963 0.08086201549 1.771655483e-38
-0.05460866913 0.001345073339 0.08076943457 1.771655483e-38
-0.05449614674 0.001330041792 0.0809360072 1.771655483e-38
-0.05479104072 0.001276414841 0.08079586178 1.771655483e-38
-0.05472810194 0.00128133921 0.08083842695 1.771655483e-38
-0.05477173999 0.001265320228 0.08085981011 1.771655483e-38
-0.05446408689 0.001330785919 0.0809655264 1.771655483e-38
-0.05470680073 0.001310565742 0.08078996092 1.771655483e-38
-0.05504919589 0.00122966012 0.08061391115 1.771655483e-38
-0.05474894494 0.00130655244 0.0807152167 1.771655483e-38
-0.05497469753 0.001232754672 0.08075454086 1.771655483e-38
-0.05473266542 0.001320956275 0.08068943024 1.771655483e-38
-0.05457084626 0.001307690516 0.08091020584 1.771655483e-38
-0.05449365824 0.001322189113 0.08095187694 1.771655483e-38
-0.05474683642 0.001304807141 0.08076443523 1.771655483e-38
-0.05458128825 0.001341411145 0.08084908873 1.771655483e-38
-0.05464112014 0.001329853898 0.08079566061 1.771655483e-38
-0.05473214015 0.001306457678 0.08077532798 1.771655483e-38
-0.05464995652 0.001324139303 0.08081728965 1.771655483e-38
-0.05472502857 0.001279570861 0.08085175604 1.771655483e-38
-0.05502014607 0.001272720518 0.08060069382 1.771655483e-38
-0.05493366718 0.001246776897 0.08077835292 1.771655483e-38
-0.05494607985 0.001250405097 0.08068039268 1.771655483e-38
-0.05465932935 0.001295554917 0.0808557719 1.771655483e-38
-0.054606691 0.001297795679 0.08090026677 1.771655483e-38
-0.05481116474 0.00130165834 0.08066247404 1.771655483e-38
-0.05450404435 0.001328823389 0.08093036711 1.771655483e-38
-0.05488615483 0.001275062794 0.08066782355 1.771655483e-38
-0.05462851003 0.001293107402 0.08088999242 1.771655483e-38
-0.05475060269 0.001275314251 0.08085244894 1.771655483e-38
-0.05452097952 0.001338215545 0.08090765774 1.771655483e-38
-0.05478442833 0.001259415876 0.08086245507 1.771655483e-38
-0.05486797541 0.00127818482 0.08068180829 1.771655483e-38
-0.05493453145 0.001286152052 0.08062940836 1.771655483e-38
-0.05452222377 0.00131703238 0.08093389124 1.771655483e-38
-0.0549698323 0.001243418781 0.08066044748 1.771655483e-38
-0.05464827642 0.001324058278 0.08082031459 1.771655483e-38
-0.054543145 0.001351830317 0.08085521311 1.771655483e-38
-0.05468501151 0.001290448243 0.08084239066 1.771655483e-38
-0.05487843603 0.001274988754 0.0806812644 1.771655483e-38
-0.05480232835 0.00128977932 0.08072841167 1.771655483e-38
-0.054864645 0.00128894439 0.0806594342 1.771655483e-38
-0.05461163819 0.001348648919 0.08073412627 1.771655483e-38
-0.05459648743 0.001349090599 0.08075930923 1.771655483e-38
-0.05455481261 0.001318047522 0.08090311289 1.771655483e-38
-0.05499996617 0.00122467312 0.08073465526 1.771655483e-38
-0.0547512956 0.001287334133 0.08079221845 1.771655483e-38
-0.05474130809 0.001277565723 0.08085063845 1.771655483e-38
-0.0545870997 0.00131062069 0.08088911325 1.771655483e-38
-0.05507735163 0.00125621981 0.08058768511 1.771655483e-38
-0.05499799922 0.001211175928 0.08079464734 1.771655483e-38
-0.05478008464 0.001267322572 0.0808537975 1.771655483e-38
-0.05492098629 0.001256925752 0.08069032431 1.771655483e-38
-0.05478749424 0.001310952939 0.08065700531 1.771655483e-38
-0.05501071364 0.001231400529 0.08064232022 1.771655483e-38
-0.05469410121 0.00133087649 0.08069572598 1.771655483e-38
-0.05475882813 0.001318004681 0.0806619823 1.771655483e-38
-0.05499984324 0.001257012831 0.08062663674 1.771655483e-38
-0.05495043471 0.001285440987 0.08062142134 1.771655483e-38
-0.05486128479 0.001285670325 0.08066666871 1.771655483e-38
-0.05488281325 0.001290334621 0.08064068854 1.771655483e-38
-0.05489660054 0.00126134092 0.08079465479 1.771655483e-38
-0.05485652015 0.001264109276 0.08075306565 1.771655483e-38
-0.05498921871 0.001240154728 0.08064555377 1.771655483e-38
-0.05476737767 0.001315744827 0.08066153526 1.771655483e-38
-0.05483498797 0.001297873445 0.0806601122 1.771655483e-38
-0.05480960757 0.001275434857 0.08080473542 1.771655483e-38
-0.05481321737 0.001295097638 0.08070370555 1.771655483e-38
-0.0550121665 0.0012623691 0.08061824739 1.771655483e-38
-0.05469745025 0.001322907163 0.08075457811 1.771655483e-38
-0.05501826108 0.001223276602 0.08069175482 1.771655483e-38
-0.05486657098 0.001282668905 0.0806658566 1.771655483e-38
-0.05476154387 0.001294223359 0.08076568693 1.771655483e-38
-0.05500495061 0.001274246257 0.08060813695 1.771655483e-38
-0.05487933382 0.001265329542 0.08077666163 1.771655483e-38
-0.05487095192 0.001264004968 0.08076319098 1.771655483e-38
-0.05480195209 0.001307700761 0.08065097034 1.771655483e-38
-0.0549325496 0.001274975715 0.08064545691 1.771655483e-38
-0.05489540845 0.001252231421 0.08081688732 1.771655483e-38
-0.05489882827 0.001251865411 0.08081422746 1.771655483e-38
-0.0547228083 0.001281268429 0.08084339648 1.771655483e-38
-0.05500817299 0.001211469295 0.08078216016 1.771655483e-38
-0.05457410961 0.001311636064 0.08089836687 1.771655483e-38
-0.05496355146 0.001236711629 0.08069914579 2.348204041e-38
-0.05460480601 0.001348274993 0.08074454218 2.348204041e-38
-0.05492310598 0.001229025889 0.08082808554 2.348204041e-38
-0.05469530076 0.001283980208 0.08084893972 2.348204041e-38
-0.05499272421 0.001241543796 0.08063590527 2.348204041e-38
-0.05465305597 0.001335675828 0.0807017684 2.348204041e-38
-0.0547403805 0.001315519912 0.08070455492 2.348204041e-38
-0.05461962521 0.001343648182 0.0807569325 2.348204041e-38
-0.05487728119 0.001278188778 0.08066724241 2.348204041e-38
-0.05471722037 0.001314236084 0.08075809479 2.348204041e-38
-0.05496043339 0.001246460481 0.08066705614 2.348204041e-38
-0.05489724874 0.001268767053 0.08067974448 2.348204041e-38
-0.05502426252 0.001220593462 0.08069601655 2.348204041e-38
-0.0549193956 0.001248943619 0.08071745932 2.348204041e-38
-0.05482293293 0.001300296979 0.08066697419 2.348204041e-38
-0.05469068885 0.001324534416 0.08075622469 2.348204041e-38
-0.05483548343 0.001297698589 0.0806587711 2.348204041e-38
-0.05471622571 0.001325727673 0.08069044352 2.348204041e-38
-0.05479262024 0.00129759172 0.08072329313 2.348204041e-38
-0.05460234731 0.001297115348 0.08090600371 2.348204041e-38
-0.05508026853 0.00125697325 0.08057627082 2.348204041e-38
-0.05483010411 0.001292678993 0.08067886531 2.348204041e-38
-0.05458048731 0.001344911754 0.08082319796 2.348204041e-38
-0.0545892939 0.001300039468 0.08091124147 2.348204041e-38
-0.05479219556 0.001276570372 0.08077055961 2.348204041e-38
-0.05458408967 0.001348865684 0.08079338074 2.348204041e-38
-0.05504951626 0.001225958345 0.08061727136 2.348204041e-38
-0.05471954867 0.001294035232 0.08081512153 2.348204041e-38
-0.05456919968 0.001347187674 0.08083212376 2.348204041e-38
-0.05468832701 0.001328706043 0.08071189374 2.348204041e-38
-0.05474043265 0.001284354366 0.08080842346 2.348204041e-38
-0.0549752973 0.001231449656 0.08076217026 2.348204041e-38
