# .PCD v0.7 - Point Cloud Data file format
VERSION 0.7
FIELDS x y z rgb
SIZE 4 4 4 4
TYPE F F F F
COUNT 1 1 1 1
WIDTH 837
HEIGHT 1
VIEWPOINT 0 0 0 1 0 0 0
POINTS 837
DATA ascii
0.1212776899 -0.4775596857 -0.3330571949 1.184631237e-38
0.4221490324 -0.4863818586 0.06362478435 1.184631237e-38
0.3868792951 -0.4854304194 0.08245189488 1.184631237e-38
0.3091336787 -0.4120355844 0.06684857607 1.184631237e-38
0.3821079433 -0.433077395 0.1133063287 1.184631237e-38
0.3734179139 -0.4643404782 0.1094203219 1.184631237e-38
0.3377925158 -0.3585464954 0.09855432808 1.184631237e-38
0.1192931831 -0.4865486622 0.09226674587 1.184631237e-38
-0.1608674228 -0.2209669799 -0.2950209677 1.184631237e-38
0.2728914917 -0.3381696939 0.1012008265 1.184631237e-38
0.06340183318 -0.484410584 0.001729670912 1.184631237e-38
0.3490253985 -0.4623622 -0.01002866775 1.184631237e-38
0.240010947 -0.4728727043 -0.3370786607 1.184631237e-38
-0.1151872575 -0.4822846651 0.07866787165 1.184631237e-38
-0.139506802 -0.3287994862 0.08065882325 1.184631237e-38
-0.1463296264 -0.3482892811 -0.2451089919 1.184631237e-38
-0.07348236442 -0.4835012555 0.1108185574 1.184631237e-38
-0.134483099 -0.286057651 -0.1227133721 1.184631237e-38
0.3019095957 -0.3458852172 0.09680007398 1.184631237e-38
0.1529105008 -0.4867267609 0.04910093546 1.184631237e-38
-0.1153318435 -0.4756166935 0.05685883015 1.184631237e-38
0.3990098536 -0.4888861775 -0.2396488786 1.184631237e-38
-0.1432678849 -0.3135702908 -0.1613663733 1.184631237e-38
-0.2051437348 -0.2725447416 -0.3434215784 1.184631237e-38
0.3090161681 -0.3679036796 0.06287759542 1.184631237e-38
0.3647688925 -0.4512327313 0.04523037747 1.184631237e-38
0.1899705827 -0.4269462824 0.2156406641 1.184631237e-38
0.103953734 -0.4826233089 0.2312461883 1.184631237e-38
-0.1531324238 -0.2705966532 -0.2650493681 1.184631237e-38
-0.03246805817 -0.4863508642 0.2608292699 1.184631237e-38
0.4104445577 -0.4355545342 0.09533661604 1.184631237e-38
0.06358058751 -0.4850088358 0.08134077489 1.184631237e-38
-0.1345290244 -0.3762477636 -0.2070126384 1.184631237e-38
0.3483730257 -0.4872069061 0.1007910147 1.184631237e-38
-0.02074089088 -0.4855262339 -0.3116728663 1.184631237e-38
-0.1277802438 -0.4492804706 0.01131151803 1.184631237e-38
-0.1386791915 -0.3216368854 0.002721916884 1.184631237e-38
-0.01545127295 -0.4853332043 0.1716401577 1.184631237e-38
-0.123541832 -0.4737145901 -0.1103271246 1.184631237e-38
-0.1497388333 -0.3127136528 0.1557052732 1.184631237e-38
-0.1343693435 -0.4229286015 -0.05257645249 1.184631237e-38
0.3397480547 -0.4787072539 0.1223459095 1.184631237e-38
0.1240265816 -0.4862226546 0.03525726125 1.184631237e-38
0.373737663 -0.4803663492 -0.3220404983 1.184631237e-38
-0.1721132547 -0.2277608961 -0.3050152659 1.184631237e-38
0.2502348721 -0.3554312885 0.04187733307 1.184631237e-38
0.4347308874 -0.4862269759 0.02376305312 1.184631237e-38
0.1259986609 -0.4514138401 0.199801445 1.184631237e-38
-0.1679930836 -0.2694942951 -0.2945001125 1.184631237e-38
-0.07857077569 -0.4856009781 0.2136310041 1.478322936e-38
-0.171674639 -0.2776420116 0.06064896286 1.478322936e-38
0.1317813247 -0.3441795707 0.1695606112 1.478322936e-38
0.3656529188 -0.406878829 0.0678511411 1.478322936e-38
-0.09427858889 -0.4841377735 -0.2586682141 1.478322936e-38
-0.2061997056 -0.2088175416 -0.4049791098 1.478322936e-38
-0.1654874384 -0.2711505592 -0.0644550398 1.478322936e-38
0.2210376859 -0.4873153567 0.2047368884 1.478322936e-38
0.4019002318 -0.469306469 0.03123123012 1.478322936e-38
0.4130779207 -0.4862719774 -0.175084874 1.478322936e-38
-0.1633975059 -0.2946328223 0.08294073492 1.478322936e-38
-0.04970944673 -0.4835811257 -0.3551290929 1.478322936e-38
-0.1708073169 -0.2725990117 0.0317853801 1.478322936e-38
-0.1491126865 -0.2719748914 0.01896156929 1.478322936e-38
-0.1414739639 -0.2571097314 -0.09958468378 1.478322936e-38
-0.1420674026 -0.2268278301 -0.2545189261 1.478322936e-38
-0.1298078299 -0.4857265353 -0.4042422473 1.478322936e-38
-0.1693970114 -0.2685457468 0.00856519863 1.478322936e-38
0.1924925745 -0.3176411986 0.1119110733 1.478322936e-38
-0.1896708012 -0.2033643723 -0.3807376623 1.478322936e-38
0.3895027339 -0.4784052074 -0.0138883777 1.478322936e-38
0.3369961381 -0.4818422198 -0.222618252 1.478322936e-38
-0.1466901451 -0.3955132365 0.007628509775 1.478322936e-38
-0.1687308401 -0.2344543636 -0.3504208922 1.478322936e-38
-0.13107346 -0.2722478211 -0.173842907 1.478322936e-38
0.2828950584 -0.3770012856 0.1262740791 1.478322936e-38
-0.1577796638 -0.3490245044 -0.1792108566 1.478322936e-38
0.271291256 -0.3400736451 0.04790993035 1.478322936e-38
-0.2014365345 -0.2225790024 -0.3837483823 1.478322936e-38
-0.1474610269 -0.4356946349 -0.3178301156 1.478322936e-38
-0.1418629438 -0.225391686 -0.2598550618 1.478322936e-38
0.4049844742 -0.4381223917 0.07317448407 1.478322936e-38
-0.1236170828 -0.4280530214 0.2090780288 1.478322936e-38
0.405352205 -0.4619345069 0.0966180712 1.478322936e-38
0.06950949132 -0.4863004088 -0.172572121 1.478322936e-38
0.3461491168 -0.4877838492 0.03620565683 1.478322936e-38
-0.1073232442 -0.4846614599 -0.2632125914 1.478322936e-38
-0.1327602863 -0.4677197635 -0.1000617594 1.478322936e-38
-0.1513273716 -0.2930727005 -0.0941452831 1.478322936e-38
-0.1584191024 -0.4416999221 -0.3600103557 1.478322936e-38
-0.2097743601 -0.2543729544 -0.4162837267 1.478322936e-38
0.04691422358 -0.4858120382 -0.154297784 1.478322936e-38
-0.1731875092 -0.4044473171 -0.3867961764 1.478322936e-38
-0.07839182764 -0.4860881567 0.1679810584 1.478322936e-38
-0.138493374 -0.2371676564 -0.2128079981 1.478322936e-38
0.2257807851 -0.4868907928 -0.3500887454 1.478322936e-38
0.3192282617 -0.423584044 0.1378466189 1.478322936e-38
0.1436775923 -0.4868970513 0.04677504674 1.478322936e-38
0.3181193173 -0.4707680345 -0.415153116 1.478322936e-38
-0.1738731563 -0.3790871501 -0.3600634634 1.478322936e-38
-0.05183289945 -0.4861664772 -0.4195864797 1.478322936e-38
-0.1429777145 -0.375410378 -0.09312039614 1.478322936e-38
0.07569177449 -0.4795062542 -0.4278711379 1.478322936e-38
0.2914593518 -0.3535734713 0.04584726691 1.478322936e-38
0.2818371058 -0.3860397935 0.1365346014 1.478322936e-38
-0.003177527338 -0.4855532646 -0.2727740109 1.478322936e-38
-0.1596523225 -0.291521132 -0.3011679053 1.478322936e-38
0.3503743112 -0.4259984493 0.04619698226 1.478322936e-38
-0.03402183577 -0.4042258263 -0.4081995189 1.478322936e-38
0.2533248365 -0.3273624778 0.08588445187 1.478322936e-38
-0.09000904858 -0.4438598752 -0.4240250885 1.478322936e-38
0.02778497711 -0.3926349878 -0.4102446139 1.478322936e-38
-0.1453589052 -0.373863548 -0.09756019711 1.478322936e-38
-0.1515904218 -0.2523416877 -0.2569687963 1.478322936e-38
-0.1177352965 -0.4802845716 0.02097165026 1.478322936e-38
-0.165683493 -0.3366809189 -0.4150734842 1.478322936e-38
-0.1917090565 -0.3021243513 -0.4236896038 1.478322936e-38
0.1779029965 -0.3405571878 0.1642759293 1.478322936e-38
-0.147213608 -0.3446604311 -0.230633229 1.478322936e-38
0.02974763885 -0.485011667 -0.1278620213 1.478322936e-38
0.4131603837 -0.4829898477 -0.37914446 1.478322936e-38
0.3868299127 -0.4858004749 -0.3685893714 1.478322936e-38
0.1010929197 -0.4895926118 0.1915823668 1.478322936e-38
0.1623084098 -0.3348917663 0.1698383838 1.478322936e-38
-0.1226827949 -0.4054262638 -0.4201442599 1.478322936e-38
0.1133571863 -0.4793872833 -0.4279169738 1.478322936e-38
0.3594289124 -0.4591683745 0.1157115623 1.478322936e-38
0.0375979878 -0.4887436628 0.2452817857 1.478322936e-38
-0.1920694411 -0.2016657293 -0.3843161464 1.478322936e-38
0.09508705139 -0.4763516188 -0.4274691939 1.478322936e-38
0.4333353937 -0.4852592945 0.006499690935 1.478322936e-38
0.3821314275 -0.4866490364 0.03327183798 1.478322936e-38
0.3327863216 -0.4310545921 0.02492022514 1.478322936e-38
0.3992503285 -0.4733659625 0.09338845313 1.478322936e-38
0.3788089454 -0.4866377115 0.0855153203 1.478322936e-38
0.3763143718 -0.3756748438 0.09676343203 1.478322936e-38
0.08586125076 -0.4857145548 0.01712496579 1.478322936e-38
-0.19227615 -0.2030955702 -0.3830671012 1.478322936e-38
0.3139135242 -0.3448112905 0.09422761947 1.478322936e-38
0.004619371146 -0.4840102196 -0.1130474359 1.478322936e-38
0.368070364 -0.479906261 -0.0827120617 1.478322936e-38
0.2156510353 -0.4725646079 -0.4229594469 1.478322936e-38
-0.1298181415 -0.4686543047 -0.0169259645 1.478322936e-38
-0.1492832452 -0.3190942705 0.02222609147 1.478322936e-38
-0.1575832218 -0.3213702142 -0.2989449203 1.478322936e-38
-0.112058416 -0.4814029336 0.007235495374 1.478322936e-38
-0.1567604095 -0.2711891532 -0.183176592 1.478322936e-38
0.3427304924 -0.3567171693 0.08912222087 1.478322936e-38
0.1127532274 -0.4858702421 -0.0246759057 1.478322936e-38
-0.1387063414 -0.4522495866 -0.03777151555 1.478322936e-38
0.4074631333 -0.4863680601 -0.322753787 1.478322936e-38
-0.1605364829 -0.2973148823 -0.2204528451 1.478322936e-38
-0.2048500627 -0.2567558289 -0.4101683497 1.478322936e-38
0.357208997 -0.3704302013 0.0755751878 1.478322936e-38
0.3855087161 -0.4746237695 -0.006338190287 1.478322936e-38
0.2178983688 -0.44965446 0.2125366032 1.478322936e-38
0.1061899215 -0.48758322 0.2511985302 1.478322936e-38
-0.161118716 -0.2578531802 -0.3114862144 1.478322936e-38
-0.07174141705 -0.4863106012 0.1967490762 1.478322936e-38
0.433239013 -0.4750289321 0.07889995724 1.478322936e-38
0.01970760152 -0.4839049876 9.589269757e-05 1.478322936e-38
-0.1482804567 -0.3412448764 -0.2820000648 1.478322936e-38
0.3284431696 -0.4880900383 0.05183111876 1.478322936e-38
-0.04693340883 -0.4861946106 -0.4014912248 1.478322936e-38
-0.1463834196 -0.4192058444 -0.09120875597 1.478322936e-38
-0.1515942067 -0.3074012399 -0.0699769631 1.478322936e-38
-0.06515075266 -0.4846463501 0.08423811942 1.478322936e-38
-0.1396528333 -0.4529570341 -0.2111954689 1.478322936e-38
-0.1595376134 -0.3019430041 0.1005629003 1.478322936e-38
-0.1484635919 -0.3950693309 -0.1200212091 1.478322936e-38
0.3363946974 -0.488093853 0.09431906044 1.478322936e-38
0.08833742142 -0.4847960472 -0.05387286097 1.478322936e-38
0.3832154572 -0.4805778265 -0.4006145597 1.478322936e-38
-0.1934442222 -0.2101395875 -0.3881230056 1.478322936e-38
0.2926961184 -0.3619211912 0.05028666556 1.478322936e-38
0.4198631644 -0.4848988056 -0.04965761304 1.478322936e-38
0.1356962323 -0.4562106133 0.2265048176 1.478322936e-38
-0.1736771166 -0.257096529 -0.3333735168 1.478322936e-38
-0.1500105411 -0.4783858657 0.1093138382 1.771655483e-38
-0.1741554141 -0.2640666962 0.04880875349 1.771655483e-38
0.1785595715 -0.4076149762 0.1772363782 1.771655483e-38
0.3760664463 -0.4751400054 -0.03836707026 1.771655483e-38
-0.1344153583 -0.4627403021 -0.3855443299 1.771655483e-38
-0.09485755861 -0.1839370579 -0.4034945965 1.771655483e-38
-0.1655745655 -0.2610573471 -0.1022898108 1.771655483e-38
0.1758034825 -0.4898481369 0.142383337 1.771655483e-38
0.4147799015 -0.4853465259 -0.1519616395 1.771655483e-38
0.4074029326 -0.4837427139 -0.390927881 1.771655483e-38
-0.1673474014 -0.2777636945 0.07638842613 1.771655483e-38
-0.08309085667 -0.4458569884 -0.4118464291 1.771655483e-38
-0.1726883501 -0.2589080334 0.0121350307 1.771655483e-38
-0.1382650286 -0.3049196899 0.002674587071 1.771655483e-38
-0.1268169135 -0.3026042581 -0.1369769573 1.771655483e-38
-0.1201228052 -0.2577472329 -0.3031325936 1.771655483e-38
-0.1043833792 -0.3845693767 -0.4142591655 1.771655483e-38
-0.1702504903 -0.2558902502 -0.01655025408 1.771655483e-38
0.2577515244 -0.3714299202 0.1190468371 1.771655483e-38
-0.1061027944 -0.1789630949 -0.3895354867 1.771655483e-38
0.4045343101 -0.4858056009 -0.2074877322 1.771655483e-38
0.4069094062 -0.4764888883 -0.4005983472 1.771655483e-38
-0.1560408026 -0.3663958609 -0.03994115442 1.771655483e-38
-0.1578994393 -0.2025570869 -0.3779697418 1.771655483e-38
-0.1126652062 -0.3173062205 -0.2081191987 1.771655483e-38
0.3259349763 -0.4842743874 0.1223897263 1.771655483e-38
-0.1683091521 -0.3179634213 -0.2339226305 1.771655483e-38
0.3223026693 -0.3878779709 0.0668733418 1.771655483e-38
-0.02751616016 -0.1915911138 -0.4120210409 1.771655483e-38
-0.153169021 -0.3794525564 -0.3593613803 1.771655483e-38
-0.1106615514 -0.2709934115 -0.2978404164 1.771655483e-38
0.4228894114 -0.4866130948 -0.06031104922 1.771655483e-38
-0.1674976349 -0.4477429986 0.2026362121 1.771655483e-38
0.3687525988 -0.4862722158 0.01301269233 1.771655483e-38
-0.0111621432 -0.4837654233 -0.3455283642 1.771655483e-38
0.2610833049 -0.4850414991 -0.1176134199 1.771655483e-38
-0.1388169378 -0.4577800035 -0.3821179271 1.771655483e-38
-0.1650194973 -0.4308900833 -0.2092753351 1.771655483e-38
-0.1530218869 -0.278719902 -0.1211282611 1.771655483e-38
-0.155398339 -0.3693802059 -0.4024994075 1.771655483e-38
-0.07707937062 -0.2172580063 -0.4156691134 1.771655483e-38
-0.04021145403 -0.4829625189 -0.3226168752 1.771655483e-38
-0.1460977793 -0.3171725869 -0.4126944244 1.771655483e-38
-0.1447375715 -0.4785516262 0.0381995067 1.771655483e-38
-0.128769055 -0.2761036158 -0.2553853691 1.771655483e-38
0.1439972073 -0.4489679039 -0.4283601344 1.771655483e-38
0.3218141794 -0.4869427383 0.09929866344 1.771655483e-38
0.05906919762 -0.4855312705 -0.07353363931 1.771655483e-38
0.2550332844 -0.35160923 -0.4076176882 1.771655483e-38
-0.1582112759 -0.3141714931 -0.3996711075 1.771655483e-38
-0.05839752406 -0.3737328351 -0.4265038371 1.771655483e-38
-0.1521206647 -0.3559742868 -0.1420664936 1.771655483e-38
0.0256405361 -0.3922224641 -0.4206407368 1.771655483e-38
0.3224665225 -0.406689018 0.06210520491 1.771655483e-38
0.314748168 -0.4857444465 0.1236835122 1.771655483e-38
-0.06060258299 -0.4757016003 -0.4098141193 1.771655483e-38
-0.1598330885 -0.2551817 -0.3511569202 1.771655483e-38
0.3656792045 -0.4808247685 -0.1094944775 1.771655483e-38
0.06398291886 -0.2947873771 -0.4197448194 1.771655483e-38
0.3391435444 -0.3864465952 0.0883204639 1.771655483e-38
-0.05656956136 -0.3275945485 -0.4322868288 1.771655483e-38
0.1409190148 -0.2903243601 -0.408423841 1.771655483e-38
-0.1524769664 -0.3548546731 -0.1495054513 1.771655483e-38
-0.1395699382 -0.2324814647 -0.302629292 1.771655483e-38
-0.153975457 -0.4634314179 -0.1250672936 1.771655483e-38
-0.06026469916 -0.2579778433 -0.4227652848 1.771655483e-38
-0.1070686802 -0.2298923284 -0.4166445732 1.771655483e-38
0.2306079865 -0.4176097214 0.1738054752 1.771655483e-38
-0.1643335521 -0.3140576482 -0.2783881724 1.771655483e-38
-0.06439184397 -0.4828817546 -0.2979218662 1.771655483e-38
0.3607225418 -0.4177954495 -0.4224430025 1.771655483e-38
0.3231519163 -0.43839252 -0.4272639751 1.771655483e-38
-0.001253526658 -0.4874878526 0.07293313742 1.771655483e-38
0.2119049728 -0.4063829184 0.1750112176 1.771655483e-38
-0.04869171232 -0.2904206514 -0.4273892939 1.771655483e-38
0.05807464942 -0.3938751817 -0.4187754691 1.771655483e-38
0.327031523 -0.487339735 0.0528058596 1.771655483e-38
-0.04964587092 -0.4884876609 0.1925412714 1.771655483e-38
-0.09518523514 -0.1777449846 -0.3955685794 1.771655483e-38
0.05656242743 -0.3804811835 -0.4169507027 1.771655483e-38
0.3841233552 -0.4849603176 -0.1807151288 1.771655483e-38
0.300176084 -0.4852115512 -0.1290406138 1.771655483e-38
0.3526487648 -0.4770867825 -0.1432203501 1.771655483e-38
0.350223124 -0.4864886403 0.003591099754 1.771655483e-38
0.3051997125 -0.4866238534 -0.0275847055 1.771655483e-38
0.4310797155 -0.4656217694 0.08257809281 1.771655483e-38
-0.0142761711 -0.484048605 -0.1283956021 1.771655483e-38
-0.1032617688 -0.178809464 -0.3922833502 1.771655483e-38
0.3916512132 -0.4311891794 0.09967631847 1.771655483e-38
-0.09407686442 -0.4824337363 -0.2799960673 1.771655483e-38
0.3991148472 -0.4855368733 -0.2804950476 1.771655483e-38
0.1734022498 -0.3727777898 -0.4151360691 1.771655483e-38
-0.1558971554 -0.4273853004 -0.1450045556 1.771655483e-38
-0.1492221653 -0.299833566 -0.01675394177 1.771655483e-38
-0.1555388272 -0.2799041271 -0.3464691937 1.771655483e-38
-0.155039534 -0.467253089 -0.1411082745 1.771655483e-38
-0.1499950737 -0.2560653389 -0.2248318493 1.771655483e-38
0.4117166698 -0.4435165226 0.09236065298 1.771655483e-38
0.02572504058 -0.4855645299 -0.1912473291 1.771655483e-38
-0.1596702337 -0.4111645222 -0.1426701099 1.771655483e-38
0.3672302365 -0.4735832214 -0.4334386289 1.771655483e-38
-0.1608759463 -0.2758284211 -0.2600210905 1.771655483e-38
-0.1281194538 -0.208078593 -0.4087198377 1.771655483e-38
0.3836235702 -0.446249187 0.06234713644 1.771655483e-38
0.4027574062 -0.4858483672 -0.2004016787 1.771655483e-38
0.2099227309 -0.48938936 0.1706420183 1.771655483e-38
0.03317347541 -0.4908685684 0.1994870007 1.771655483e-38
-0.15650931 -0.2317148149 -0.3554927409 1.771655483e-38
-0.1432439834 -0.4797194302 0.07462675869 1.771655483e-38
0.392504096 -0.485334754 -0.03874459863 1.771655483e-38
-0.09244180471 -0.4826450348 -0.1636511981 1.771655483e-38
-0.1594796032 -0.3109558821 -0.314555645 1.771655483e-38
0.2409270406 -0.4852725565 -0.08902860433 1.771655483e-38
-0.06899148226 -0.4102463722 -0.424954921 1.771655483e-38
-0.1569054723 -0.3861492276 -0.1388081014 1.771655483e-38
-0.1525633484 -0.2899094522 -0.1062918007 1.771655483e-38
-0.1368493587 -0.4789001942 -0.04579924792 1.771655483e-38
-0.1611535847 -0.4146083593 -0.2950980961 1.771655483e-38
-0.1641277224 -0.286038667 0.0934868902 1.771655483e-38
-0.1546553373 -0.3645362854 -0.1765997112 1.771655483e-38
0.2521772683 -0.4865103364 -0.01416262984 1.771655483e-38
-0.02196235023 -0.484687984 -0.2224809229 1.771655483e-38
0.3013697267 -0.3841320574 -0.4149280488 1.771655483e-38
-0.1254131943 -0.1829567403 -0.3901373148 1.771655483e-38
0.3224713504 -0.4131616354 0.0570037961 1.771655483e-38
0.3723279238 -0.4857313335 -0.2498725653 1.771655483e-38
0.0910923928 -0.4907984138 0.2074950933 1.771655483e-38
-0.164137885 -0.2276448607 -0.3870404065 1.771655483e-38
-0.1735152304 -0.4709275961 0.0001343674958 2.06466517e-38
-0.1697009951 -0.2882487476 0.01039269567 2.06466517e-38
0.2187708914 -0.4656733274 0.1436312497 2.06466517e-38
0.3557458818 -0.4705944657 -0.2003683001 2.06466517e-38
-0.1425679475 -0.4331230223 -0.4146067798 2.06466517e-38
-0.04358489066 -0.1898620129 -0.4139879942 2.06466517e-38
-0.1676103771 -0.2666191459 -0.1420307159 2.06466517e-38
0.1321021318 -0.4879743159 0.06337454915 2.06466517e-38
0.4226742983 -0.4813578129 -0.2669937313 2.06466517e-38
0.4068513513 -0.4745742083 -0.4205977619 2.06466517e-38
-0.166894123 -0.2834297121 0.02520881407 2.06466517e-38
-0.06460338086 -0.3848353028 -0.425357461 2.06466517e-38
-0.1676278114 -0.2919364572 -0.02621072903 2.06466517e-38
-0.1101146042 -0.3352847695 -0.0141912885 2.06466517e-38
-0.1205626875 -0.3452131748 -0.1650405675 2.06466517e-38
-0.09647892416 -0.2982701063 -0.3537003398 2.06466517e-38
-0.08833019435 -0.3372169733 -0.4315814078 2.06466517e-38
-0.1658731997 -0.2925209403 -0.05300386995 2.06466517e-38
0.3173684776 -0.4456571937 0.1137558669 2.06466517e-38
-0.06114923209 -0.1837870628 -0.4040377736 2.06466517e-38
0.4201638699 -0.4798711538 -0.3278425634 2.06466517e-38
0.4151138663 -0.4262667596 -0.4100533426 2.06466517e-38
-0.1604089588 -0.36307019 -0.09418152273 2.06466517e-38
-0.1461494416 -0.1980778873 -0.3943904936 2.06466517e-38
-0.07548629493 -0.3622026742 -0.2400412858 2.06466517e-38
0.3332263827 -0.4865808487 0.0741206333 2.06466517e-38
-0.1721650213 -0.3190735281 -0.284371227 2.06466517e-38
0.3073713183 -0.4312005043 0.02936413512 2.06466517e-38
0.06745712459 -0.2007378638 -0.4272873402 2.06466517e-38
-0.1690799147 -0.3531365991 -0.4043545127 2.06466517e-38
-0.06457633525 -0.3014330566 -0.3482917547 2.06466517e-38
0.4157229364 -0.4822445512 -0.194803372 2.06466517e-38
-0.1856524497 -0.4461457431 0.1325107217 2.06466517e-38
0.3665382266 -0.4850378036 -0.08593711257 2.06466517e-38
-0.04295107722 -0.4757311046 -0.40496701 2.06466517e-38
0.2548389435 -0.4848755598 -0.2305296659 2.06466517e-38
-0.1480895132 -0.4273612499 -0.4132321179 2.06466517e-38
-0.1734409034 -0.4162567854 -0.2644744217 2.06466517e-38
-0.1539535224 -0.2901926637 -0.1641493142 2.06466517e-38
-0.1473373324 -0.3317244947 -0.4198338091 2.06466517e-38
0.0002155080438 -0.2165483683 -0.4329715371 2.06466517e-38
-0.08464576304 -0.4799982309 -0.400745362 2.06466517e-38
-0.1214957237 -0.2812284827 -0.4263340831 2.06466517e-38
-0.168976143 -0.4705061316 -0.0747647509 2.06466517e-38
-0.1125795692 -0.3210252523 -0.293513298 2.06466517e-38
0.1531686634 -0.3849490285 -0.4222669601 2.06466517e-38
0.3099236488 -0.4870387018 0.02804410085 2.06466517e-38
0.01240091771 -0.4852140546 -0.1860003471 2.06466517e-38
0.2893217802 -0.323620677 -0.4116138816 2.06466517e-38
-0.1483764648 -0.2830572128 -0.423699975 2.06466517e-38
-0.02702611312 -0.3352973163 -0.434235841 2.06466517e-38
-0.1581901461 -0.3588372469 -0.197977066 2.06466517e-38
0.08867114782 -0.3474245965 -0.4227428138 2.06466517e-38
0.3039821386 -0.4419023395 -0.008702389896 2.06466517e-38
0.3166776001 -0.4870363474 0.07001728565 2.06466517e-38
-0.06614933908 -0.4404217303 -0.4185119867 2.06466517e-38
-0.1711754799 -0.2473404258 -0.4107210934 2.06466517e-38
0.3573281765 -0.465013504 -0.2589246035 2.06466517e-38
0.1562653333 -0.2736583054 -0.428111434 2.06466517e-38
0.3995659053 -0.4506456852 0.089524813 2.06466517e-38
0.01967839524 -0.2899409831 -0.4367657006 2.06466517e-38
0.2192543447 -0.2722670436 -0.4212853312 2.06466517e-38
-0.158541739 -0.3556119204 -0.2063355595 2.06466517e-38
-0.1534896493 -0.2360774279 -0.3808503449 2.06466517e-38
-0.1688708365 -0.438098073 -0.1936339438 2.06466517e-38
0.03220141307 -0.2436914444 -0.4341650009 2.06466517e-38
-0.05453474075 -0.223711729 -0.4295168221 2.06466517e-38
0.264800787 -0.4844801128 0.1261315644 2.06466517e-38
-0.177258119 -0.3086065352 -0.3377141654 2.06466517e-38
-0.1157391071 -0.4799466133 -0.3893071711 2.06466517e-38
0.3419981599 -0.3485303819 -0.415882796 2.06466517e-38
0.3116720021 -0.3706243634 -0.4205689728 2.06466517e-38
-0.06035261601 -0.4853738248 -0.01869015023 2.06466517e-38
0.247820884 -0.4713096321 0.1335488707 2.06466517e-38
0.03766418621 -0.2702647448 -0.43694067 2.06466517e-38
0.1228218228 -0.3480916619 -0.4202779531 2.06466517e-38
0.3191026747 -0.486027807 -0.03088309616 2.06466517e-38
-0.1155145466 -0.4859270155 0.1022765785 2.06466517e-38
-0.03905932605 -0.1845804602 -0.4045951962 2.06466517e-38
0.1262900233 -0.3402278125 -0.4215964973 2.06466517e-38
0.3948713243 -0.4826133251 -0.298235476 2.06466517e-38
0.301020205 -0.4848673344 -0.2406912744 2.06466517e-38
0.3500334322 -0.4574124217 -0.2876698375 2.06466517e-38
0.3451650143 -0.4851639271 -0.09813040495 2.06466517e-38
0.2899564803 -0.4848478436 -0.1364433616 2.06466517e-38
0.447105974 -0.4822871089 0.02000811696 2.06466517e-38
-0.07359208167 -0.4835471511 -0.219019711 2.06466517e-38
-0.05521883443 -0.1840895861 -0.4045790732 2.06466517e-38
0.4366895854 -0.4824027419 0.07110728323 2.06466517e-38
-0.1412494332 -0.4782052636 -0.3706905842 2.06466517e-38
0.4103252888 -0.4777784944 -0.3725529313 2.06466517e-38
0.2279477417 -0.3327613771 -0.4163795412 2.06466517e-38
-0.1718369126 -0.4136143327 -0.189783141 2.06466517e-38
-0.1462798715 -0.306702435 -0.06479648501 2.06466517e-38
-0.1744016558 -0.2676491439 -0.4068472683 2.06466517e-38
-0.1722165495 -0.4458963275 -0.2184444368 2.06466517e-38
-0.1564908326 -0.2678630352 -0.2746912837 2.06466517e-38
0.4446537793 -0.4824076295 0.04957662523 2.06466517e-38
-0.02295958623 -0.4840449691 -0.2828545868 2.06466517e-38
-0.1738057882 -0.3977669775 -0.1825910509 2.06466517e-38
0.3553191721 -0.4171623588 -0.4287537634 2.06466517e-38
-0.172874555 -0.2805249393 -0.3132505417 2.06466517e-38
-0.08022525907 -0.2058463991 -0.4201689959 2.06466517e-38
0.3608616292 -0.467148304 -0.07237234712 2.06466517e-38
0.4170544446 -0.4803349972 -0.3209848106 2.06466517e-38
0.1865429133 -0.4890717268 0.1078512892 2.06466517e-38
-0.02878309786 -0.4897569716 0.1266108155 2.06466517e-38
-0.1677667946 -0.2248967141 -0.3985443413 2.06466517e-38
-0.1695975214 -0.4723305106 -0.03069481254 2.06466517e-38
0.3968265355 -0.4838762283 -0.1547418535 2.06466517e-38
-0.1369037032 -0.4799618721 -0.248131007 2.06466517e-38
-0.1796515435 -0.3041312695 -0.3880217075 2.06466517e-38
0.2261534631 -0.4849092364 -0.2061028928 2.06466517e-38
-0.0508390218 -0.3553709984 -0.4298785627 2.06466517e-38
-0.1671460718 -0.3727319241 -0.1888176352 2.06466517e-38
-0.1506163478 -0.3021742702 -0.1473160982 2.06466517e-38
-0.1726932824 -0.4725289047 -0.1585710347 2.06466517e-38
-0.17718862 -0.4001691937 -0.3367817998 2.06466517e-38
-0.1616896838 -0.2902452946 0.04141335562 2.06466517e-38
-0.1600014865 -0.3629746437 -0.2434095144 2.06466517e-38
0.2290793359 -0.4844424725 -0.1184326261 2.06466517e-38
-0.07323841006 -0.4811432064 -0.3145396113 2.06466517e-38
0.3082818091 -0.336076349 -0.4145263731 2.06466517e-38
-0.08510953188 -0.1842759401 -0.4063356817 2.06466517e-38
0.2986122966 -0.4457333684 -0.03264789283 2.06466517e-38
0.3685942292 -0.4827042222 -0.3503791094 2.06466517e-38
0.05139585212 -0.4917183518 0.1493301243 2.06466517e-38
-0.156460017 -0.2209094763 -0.4086647034 2.06466517e-38
-0.1633214056 -0.4307094216 -0.1566157043 2.348204041e-38
-0.1049684435 -0.3679845333 -0.02552379668 2.348204041e-38
0.1543189883 -0.4864013195 0.1276600659 2.348204041e-38
0.2989792228 -0.368670702 -0.3430879712 2.348204041e-38
-0.1241174787 -0.3413057923 -0.4229469597 2.348204041e-38
0.1439072639 -0.2070645094 -0.4181380272 2.348204041e-38
-0.1357997805 -0.3490506411 -0.1987921894 2.348204041e-38
0.01438107714 -0.4855920076 -0.03366919607 2.348204041e-38
0.3356509805 -0.390006274 -0.3727386892 2.348204041e-38
0.2450766265 -0.3568812311 -0.4164946377 2.348204041e-38
-0.1504717916 -0.3258024752 -0.01782025024 2.348204041e-38
-0.02176475525 -0.3064828217 -0.4262683094 2.348204041e-38
-0.09936217964 -0.3759548366 -0.06320970505 2.348204041e-38
0.01830301061 -0.4197732806 -0.02125921845 2.348204041e-38
0.009752187878 -0.4227819443 -0.2031169683 2.348204041e-38
0.07940725982 -0.3743514419 -0.3560428023 2.348204041e-38
-0.01889873296 -0.2895026505 -0.427709341 2.348204041e-38
-0.1006443352 -0.3793448806 -0.09683130682 2.348204041e-38
0.2955376506 -0.4816883802 0.1220181584 2.348204041e-38
0.1469757408 -0.2107486725 -0.4067592919 2.348204041e-38
0.3268386126 -0.3626181781 -0.3864561319 2.348204041e-38
0.3063609898 -0.2481562793 -0.3989683092 2.348204041e-38
-0.1765413731 -0.365544796 -0.1741568595 2.348204041e-38
-0.05452424288 -0.2065230608 -0.4166192114 2.348204041e-38
0.09397490323 -0.4384428263 -0.2780737281 2.348204041e-38
0.2756033242 -0.4852857888 0.01005398668 2.348204041e-38
-0.1792245656 -0.30993402 -0.3505707383 2.348204041e-38
0.1821353883 -0.3971258998 -0.1182968467 2.348204041e-38
0.2177506089 -0.2337470055 -0.4277769029 2.348204041e-38
-0.1490266472 -0.2940135598 -0.4225951433 2.348204041e-38
0.1207721233 -0.3748919964 -0.339491874 2.348204041e-38
0.3343037963 -0.4076891541 -0.3471021056 2.348204041e-38
-0.1671376526 -0.4032891393 0.02681007795 2.348204041e-38
0.3010812402 -0.4824003577 -0.2593837678 2.348204041e-38
-0.08485595137 -0.379750073 -0.4118126929 2.348204041e-38
0.133178249 -0.4717353582 -0.3950283825 2.348204041e-38
-0.1325221956 -0.3393761814 -0.4232372046 2.348204041e-38
-0.1930742711 -0.3821938336 -0.3209564686 2.348204041e-38
-0.1485542357 -0.3096440434 -0.2393924296 2.348204041e-38
-0.09980349243 -0.284088105 -0.4294320345 2.348204041e-38
0.1467521489 -0.2228467017 -0.4373265505 2.348204041e-38
-0.1048984081 -0.3904079795 -0.4111560583 2.348204041e-38
-0.05044344068 -0.2628862262 -0.4233771861 2.348204041e-38
-0.170325771 -0.4370853603 -0.2015522122 2.348204041e-38
0.04780392721 -0.4049123228 -0.3267680705 2.348204041e-38
0.1206561029 -0.3218010366 -0.416313082 2.348204041e-38
0.238215059 -0.4841359854 -0.0857559368 2.348204041e-38
-0.1220496297 -0.4772513807 -0.3609108925 2.348204041e-38
0.2809605598 -0.3264366388 -0.4190083146 2.348204041e-38
-0.09143266082 -0.2609474063 -0.4250382781 2.348204041e-38
0.07371641695 -0.2811259329 -0.4230601788 2.348204041e-38
-0.1712593883 -0.3467766941 -0.2496569753 2.348204041e-38
0.1198327392 -0.289326936 -0.4229961932 2.348204041e-38
0.2040023655 -0.3836022317 -0.1713675857 2.348204041e-38
0.2507506609 -0.485345006 0.003849562258 2.348204041e-38
-0.05547299236 -0.336292088 -0.4248009026 2.348204041e-38
-0.1350764483 -0.2433051467 -0.4215703607 2.348204041e-38
0.3129639924 -0.3417060673 -0.3714335263 2.348204041e-38
0.2110648155 -0.2738794684 -0.4295747578 2.348204041e-38
0.2988151014 -0.4530014396 0.05384645984 2.348204041e-38
0.1148594767 -0.2617392242 -0.4280507863 2.348204041e-38
0.2641910315 -0.2957884967 -0.4244194627 2.348204041e-38
-0.170199737 -0.3463140428 -0.2538443804 2.348204041e-38
-0.1265297979 -0.280949384 -0.431137383 2.348204041e-38
-0.1842668205 -0.4106376469 -0.2719804645 2.348204041e-38
0.1568755805 -0.242439568 -0.4375616312 2.348204041e-38
0.07025010884 -0.2194717824 -0.4354456067 2.348204041e-38
0.2164571285 -0.488735199 0.1262034625 2.348204041e-38
-0.1768738329 -0.2832480967 -0.387234211 2.348204041e-38
-0.134219259 -0.4013375044 -0.4111678898 2.348204041e-38
0.2792678475 -0.3357256353 -0.4143105745 2.348204041e-38
0.2361378968 -0.3265375197 -0.4116384089 2.348204041e-38
-0.1387488097 -0.4793698192 -0.1621159762 2.348204041e-38
0.2041084021 -0.4883509874 0.1262888014 2.348204041e-38
0.1356022954 -0.2514866292 -0.4330262542 2.348204041e-38
0.1374868751 -0.2915428579 -0.421684444 2.348204041e-38
0.243290484 -0.4839128852 -0.186182633 2.348204041e-38
-0.1583646834 -0.4773510695 -0.02439310029 2.348204041e-38
0.1684499234 -0.2111063898 -0.4086041152 2.348204041e-38
0.1438357085 -0.2874101996 -0.4234281778 2.348204041e-38
0.280261904 -0.44319278 -0.4022424519 2.348204041e-38
0.1866509318 -0.4689628184 -0.3949179947 2.348204041e-38
0.3160641789 -0.3190749884 -0.374004215 2.348204041e-38
0.2715998888 -0.4828298092 -0.2726227343 2.348204041e-38
0.1995410174 -0.4819722176 -0.3040893674 2.348204041e-38
0.3470076919 -0.4542016387 -0.135353297 2.348204041e-38
-0.17965886 -0.4723412991 -0.394403398 2.348204041e-38
0.1526966691 -0.2106791884 -0.408031404 2.348204041e-38
0.3429027498 -0.4604813457 -0.01205542684 2.348204041e-38
-0.1568099856 -0.4072878659 -0.4119720757 2.348204041e-38
0.3205069602 -0.3176539242 -0.3939490914 2.348204041e-38
0.2132233679 -0.3003255725 -0.4212998748 2.348204041e-38
-0.1873538494 -0.3874609172 -0.2587855756 2.348204041e-38
-0.1430339813 -0.3233127594 -0.1397916526 2.348204041e-38
-0.1430298537 -0.2548125684 -0.4161477685 2.348204041e-38
-0.1860416681 -0.4140821695 -0.2997077405 2.348204041e-38
-0.1423389465 -0.3161699176 -0.3603197336 2.348204041e-38
0.3381034732 -0.4502512813 -0.07508239895 2.348204041e-38
-0.1279329807 -0.4580640793 -0.404504329 2.348204041e-38
-0.1902650744 -0.3761441112 -0.2573952973 2.348204041e-38
0.2260986269 -0.3358445764 -0.4077585936 2.348204041e-38
-0.1701883376 -0.2694316804 -0.3850429058 2.348204041e-38
0.04353426024 -0.207542792 -0.4281270802 2.348204041e-38
0.2675556242 -0.3837602735 -0.2409427166 2.348204041e-38
0.3276448846 -0.3621645272 -0.3825590909 2.348204041e-38
0.07295122743 -0.4875007868 0.02885398269 2.348204041e-38
-0.1054751873 -0.4848169088 0.01395601407 2.348204041e-38
-0.1280786246 -0.2247684598 -0.4145076573 2.348204041e-38
-0.1671154946 -0.4349085987 -0.1827245653 2.348204041e-38
0.3244991302 -0.4799971581 -0.3207131326 2.348204041e-38
-0.1964230537 -0.4549238682 -0.3934129477 2.348204041e-38
-0.1616348177 -0.270095557 -0.4056681693 2.348204041e-38
0.1121407449 -0.475851357 -0.3751940429 2.348204041e-38
0.03245176747 -0.2930968404 -0.4216496646 2.348204041e-38
-0.1867578328 -0.371162951 -0.2670347095 2.348204041e-38
-0.1443318725 -0.3151050806 -0.2213233113 2.348204041e-38
-0.1855430007 -0.4440934062 -0.2673079967 2.348204041e-38
-0.191319555 -0.3549013436 -0.3851133585 2.348204041e-38
-0.1515178531 -0.3160440326 0.004778532311 2.348204041e-38
-0.1766833663 -0.3488796353 -0.2841697037 2.348204041e-38
0.1286576688 -0.482504636 -0.2906019688 2.348204041e-38
-0.1427762359 -0.44264853 -0.4100804925 2.348204041e-38
0.2754909098 -0.3286970854 -0.4175494909 2.348204041e-38
0.1059574336 -0.2083776593 -0.4091998041 2.348204041e-38
0.2130528986 -0.376914978 -0.1979099214 2.348204041e-38
0.233596772 -0.4252113998 -0.4208089709 2.348204041e-38
-0.0457178168 -0.4883834124 0.09231242537 2.348204041e-38
-0.1055666804 -0.2205554545 -0.4203930497 2.348204041e-38
-0.1723115891 -0.4679223895 -0.183823809 2.346801622e-38
-0.1258828789 -0.3811856508 -0.1604792178 2.346801622e-38
0.3023032546 -0.488855958 0.1251420528 2.346801622e-38
0.3616065383 -0.2459528446 -0.3701654971 2.346801622e-38
-0.01210660115 -0.3662785888 -0.4059935212 2.346801622e-38
0.1993756294 -0.2230806649 -0.4267925322 2.346801622e-38
-0.1232895553 -0.3572665453 -0.3132455647 2.346801622e-38
0.159567669 -0.4842572808 -0.1086484045 2.346801622e-38
0.361910373 -0.2737468481 -0.3759828806 2.346801622e-38
0.3304565847 -0.2355848849 -0.3898312747 2.346801622e-38
-0.1412001103 -0.3469303846 -0.1568911523 2.346801622e-38
0.1190069169 -0.3319913745 -0.4146870375 2.346801622e-38
-0.1181106865 -0.3914193511 -0.1971558034 2.346801622e-38
0.009266678244 -0.4495511055 -0.147167474 2.346801622e-38
0.01746179536 -0.4490759969 -0.3112041056 2.346801622e-38
0.128093034 -0.3783508539 -0.3667563498 2.346801622e-38
0.119368434 -0.3106706142 -0.4196725786 2.346801622e-38
-0.116183877 -0.3958747387 -0.2328046858 2.346801622e-38
0.3816809058 -0.4680771232 0.06423974782 2.346801622e-38
0.1925061345 -0.2292288095 -0.413246274 2.346801622e-38
0.3582215309 -0.2514753044 -0.3844640553 2.346801622e-38
0.3416540325 -0.1613756567 -0.3969356716 2.346801622e-38
-0.1854314804 -0.3775945008 -0.2432164252 2.346801622e-38
0.009560275823 -0.2351243198 -0.4153493345 2.346801622e-38
0.12437585 -0.4452347755 -0.3413986862 2.346801622e-38
0.3896484077 -0.4800658226 -0.1095726192 2.346801622e-38
-0.1726610065 -0.3284544945 -0.3913206756 2.346801622e-38
0.3069700897 -0.3113679588 -0.2845838964 2.346801622e-38
0.3194865584 -0.2300671488 -0.4143348038 2.346801622e-38
-0.07037936896 -0.3384872079 -0.4181198478 2.346801622e-38
0.1706366986 -0.3833156824 -0.3499821723 2.346801622e-38
0.365329653 -0.2904647291 -0.365750283 2.346801622e-38
-0.1680330932 -0.449333787 -0.02132039145 2.346801622e-38
0.3855620921 -0.428865999 -0.3071837425 2.346801622e-38
0.05992877111 -0.4138393998 -0.4144387245 2.346801622e-38
0.3391434252 -0.4785251617 -0.3780846 2.346801622e-38
-0.02269921266 -0.3657624722 -0.4060826302 2.346801622e-38
-0.1782870889 -0.4313997626 -0.3831506073 2.346801622e-38
-0.1556511521 -0.3244973123 -0.3043515384 2.346801622e-38
0.008971191943 -0.3138854206 -0.423792392 2.346801622e-38
0.2627206743 -0.2423639894 -0.4273166358 2.346801622e-38
0.01939404383 -0.4230876267 -0.4144496024 2.346801622e-38
0.0667886287 -0.2913180292 -0.4229450524 2.346801622e-38
-0.1732199788 -0.4687382281 -0.2437522709 2.346801622e-38
0.08076772094 -0.402151674 -0.3700030446 2.346801622e-38
0.252944231 -0.3511323929 -0.415369302 2.346801622e-38
0.3754389584 -0.4804825783 -0.180887267 2.346801622e-38
0.02993699536 -0.477338016 -0.3802916706 2.346801622e-38
0.3389403522 -0.4100919366 -0.3988008201 2.346801622e-38
0.01805854216 -0.3002025783 -0.4216019213 2.346801622e-38
0.1934691668 -0.3096536398 -0.4182145596 2.346801622e-38
-0.1991217881 -0.3605853915 -0.3380691707 2.346801622e-38
0.2463690937 -0.3306147158 -0.4163956046 2.346801622e-38
0.3190073669 -0.2938602567 -0.3047066927 2.346801622e-38
0.3792399168 -0.4807352424 -0.1087186486 2.346801622e-38
0.0939372927 -0.3598727584 -0.411392957 2.346801622e-38
-0.07543165982 -0.2764903307 -0.420887202 2.346801622e-38
0.3636350334 -0.228363663 -0.3831261992 2.346801622e-38
0.3209224045 -0.3339489102 -0.4157181382 2.346801622e-38
0.3317266107 -0.3913170099 -0.1585308015 2.346801622e-38
0.2379801571 -0.2974710763 -0.4234998226 2.346801622e-38
0.347438246 -0.3578069806 -0.4071233571 2.346801622e-38
-0.199213326 -0.3573847115 -0.3406818211 2.346801622e-38
-0.1098441333 -0.2679663002 -0.4146026373 2.346801622e-38
-0.1818428338 -0.4539349079 -0.3520900011 2.346801622e-38
0.2824323475 -0.266466558 -0.4219299555 2.346801622e-38
0.1859383881 -0.2488200963 -0.4297830462 2.346801622e-38
0.3482910395 -0.4866907597 0.1009573117 2.346801622e-38
-0.150383696 -0.320286423 -0.4089345932 2.346801622e-38
-0.01459912769 -0.4310284555 -0.4107283652 2.346801622e-38
0.3373254538 -0.3182672262 -0.3988685012 2.346801622e-38
0.3237822056 -0.3398937881 -0.405711621 2.346801622e-38
-0.05258083344 -0.4825499356 -0.221080184 2.346801622e-38
0.3402588367 -0.4869221449 0.1176802665 2.346801622e-38
0.2630187273 -0.2921164632 -0.4207622409 2.346801622e-38
0.2648766637 -0.3401089907 -0.4158311784 2.346801622e-38
0.3847329319 -0.4782528281 -0.265676707 2.346801622e-38
-0.1045604348 -0.4842737913 -0.07993991673 2.346801622e-38
0.2085989714 -0.2280016243 -0.4151289165 2.346801622e-38
0.2699790597 -0.3394108117 -0.4160923362 2.346801622e-38
0.3518480957 -0.3344418406 -0.3777684867 2.346801622e-38
0.364518106 -0.4308416843 -0.3770172298 2.346801622e-38
0.3601809144 -0.2160815299 -0.3892013133 2.346801622e-38
0.3872046471 -0.4431293309 -0.3117620051 2.346801622e-38
0.3774760067 -0.4713569283 -0.3308009505 2.346801622e-38
0.3462029397 -0.3669019639 -0.2687349617 2.346801622e-38
-0.04349159822 -0.4657644033 -0.391995579 2.346801622e-38
0.1955099702 -0.2284359634 -0.4148529768 2.346801622e-38
0.3468069136 -0.3838789165 -0.2059848756 2.346801622e-38
-0.04708425701 -0.4349258542 -0.4083175659 2.346801622e-38
0.3521710336 -0.2150218934 -0.389741838 2.346801622e-38
0.3195772171 -0.3732453287 -0.414842546 2.346801622e-38
-0.1845702082 -0.4317778647 -0.3477247655 2.346801622e-38
-0.1494469643 -0.3513815105 -0.2242143154 2.346801622e-38
-0.09212516993 -0.2954113185 -0.4263322949 2.346801622e-38
-0.1794063151 -0.4592348337 -0.3733288944 2.346801622e-38
-0.1300210357 -0.3059372604 -0.3972807229 2.346801622e-38
0.3388192356 -0.3669109643 -0.2455967963 2.346801622e-38
0.01767590642 -0.4527284801 -0.4079667926 2.346801622e-38
-0.1832428277 -0.4175981879 -0.3425766826 2.346801622e-38
0.3208591938 -0.2842118144 -0.4023548961 2.346801622e-38
-0.1580157131 -0.286416024 -0.4075455368 2.346801622e-38
0.1426345855 -0.2400844842 -0.428524226 2.346801622e-38
0.3454607129 -0.2841669321 -0.3241631985 2.346801622e-38
0.3592376113 -0.2502043545 -0.3844415843 2.346801622e-38
0.210488677 -0.4857290685 -0.03967003524 2.346801622e-38
-0.03816921636 -0.4870017767 -0.04869289696 2.346801622e-38
-0.06650973856 -0.2543670535 -0.4199138582 2.346801622e-38
-0.1710302085 -0.4703006744 -0.2076366246 2.346801622e-38
0.3697830141 -0.3893384337 -0.3397045732 2.346801622e-38
-0.09333874285 -0.461524725 -0.3926373124 2.346801622e-38
-0.1170804501 -0.3128883243 -0.4210155904 2.346801622e-38
0.3071748912 -0.4788103104 -0.3644504845 2.346801622e-38
0.1553338468 -0.3212121725 -0.4170378149 2.346801622e-38
-0.189756006 -0.3971955776 -0.3457394838 2.346801622e-38
-0.1577374339 -0.3400073349 -0.2694388926 2.346801622e-38
-0.1708141267 -0.4719586968 -0.3343106508 2.346801622e-38
-0.138671726 -0.3931849003 -0.3953827024 2.346801622e-38
-0.1421341002 -0.335830301 -0.1411039382 2.346801622e-38
-0.1956347525 -0.3647866845 -0.354834497 2.346801622e-38
0.3138489127 -0.4810263515 -0.326033324 2.346801622e-38
-0.01400577091 -0.4475728869 -0.4088285565 2.346801622e-38
0.3342250586 -0.3688469529 -0.3994365036 2.346801622e-38
0.1525097489 -0.2275179476 -0.418748647 2.346801622e-38
0.3264848292 -0.2810489833 -0.3111936152 2.346801622e-38
0.3371419907 -0.3268794119 -0.3872371614 2.346801622e-38
0.0595487617 -0.4905697405 0.03231649101 2.346801622e-38
-0.01776553877 -0.254478246 -0.4130006433 2.346801622e-38
-0.1324602664 -0.4764511287 -0.2663399279 2.345219836e-38
-0.02163602412 -0.4270863831 -0.1829403639 2.345219836e-38
0.2928053737 -0.4180608988 -0.1784439385 2.345219836e-38
0.4379965663 -0.2381272316 -0.3513339758 2.345219836e-38
0.08680829406 -0.3774118423 -0.4065397978 2.345219836e-38
0.3330774903 -0.2470020205 -0.4020934999 2.345219836e-38
-0.05293691903 -0.3739860654 -0.3000011742 2.345219836e-38
0.3019605279 -0.4789549112 -0.2430435419 2.345219836e-38
0.4312554002 -0.2556180358 -0.3612227738 2.345219836e-38
0.3923186958 -0.2252748907 -0.3934069574 2.345219836e-38
-0.1124162376 -0.3818950057 -0.1862972081 2.345219836e-38
0.2213105559 -0.3527995646 -0.4120501578 2.345219836e-38
-0.0007868222892 -0.4346278608 -0.2096109092 2.345219836e-38
0.1383306831 -0.4748613238 -0.1683252454 2.345219836e-38
0.1482749283 -0.441288203 -0.2865202129 2.345219836e-38
0.2478544712 -0.345746696 -0.2951062024 2.345219836e-38
0.2066984475 -0.3239856958 -0.4157122374 2.345219836e-38
0.004834581167 -0.4325574934 -0.2351925671 2.345219836e-38
0.3733384013 -0.3624841571 -0.1971773207 2.345219836e-38
0.3324993551 -0.2551215291 -0.392361939 2.345219836e-38
0.4251955748 -0.2387920022 -0.3712926209 2.345219836e-38
0.3972967267 -0.1727366745 -0.4043262899 2.345219836e-38
-0.178311646 -0.3996524513 -0.3150910735 2.345219836e-38
0.132877782 -0.2642062604 -0.3940873146 2.345219836e-38
0.2491090894 -0.4083801508 -0.2899772227 2.345219836e-38
0.4386528432 -0.4187687337 -0.2247970104 2.345219836e-38
-0.07204775512 -0.3374603987 -0.3948145211 2.345219836e-38
0.4256315231 -0.2547378242 -0.2762815356 2.345219836e-38
0.4191450775 -0.2675513327 -0.4071922898 2.345219836e-38
0.0337244384 -0.3456415832 -0.4160974026 2.345219836e-38
0.288128227 -0.343549341 -0.2848281264 2.345219836e-38
0.4389944375 -0.2615882158 -0.3464695215 2.345219836e-38
-0.1775817424 -0.4707503915 -0.1642750353 2.345219836e-38
0.4456554353 -0.3504974544 -0.3016034365 2.345219836e-38
0.2008456439 -0.4131449759 -0.4033816159 2.345219836e-38
0.4335605502 -0.4029451609 -0.3657365143 2.345219836e-38
0.07583449781 -0.3752878904 -0.40692994 2.345219836e-38
-0.07196089625 -0.4411210716 -0.3860830069 2.345219836e-38
-0.09651943296 -0.3277158439 -0.3252213001 2.345219836e-38
0.1007774174 -0.3301314116 -0.4153516889 2.345219836e-38
0.3835741878 -0.2687157691 -0.4132026732 2.345219836e-38
0.1557243913 -0.4217718542 -0.4057159126 2.345219836e-38
0.151111573 -0.3125523031 -0.414589107 2.345219836e-38
-0.1037244722 -0.4776373506 -0.3181896806 2.345219836e-38
0.2067349553 -0.388405174 -0.3134133816 2.345219836e-38
0.3553571701 -0.3761047721 -0.4167560339 2.345219836e-38
0.4528053403 -0.4320573807 -0.2528730035 2.345219836e-38
0.2183820009 -0.4729973674 -0.3812836111 2.345219836e-38
0.4155568779 -0.3910863101 -0.4122110903 2.345219836e-38
0.1107953042 -0.3162971437 -0.4148324132 2.345219836e-38
0.2804939449 -0.3205944002 -0.4252517521 2.345219836e-38
-0.1258938164 -0.3832874298 -0.3728107512 2.345219836e-38
0.3408376575 -0.3613594472 -0.4227142036 2.345219836e-38
0.4306225479 -0.2524240017 -0.2980422676 2.345219836e-38
0.4355155528 -0.4279114306 -0.2255405486 2.345219836e-38
0.2082101107 -0.3783559799 -0.4055835605 2.345219836e-38
0.04052115604 -0.3053606153 -0.4129253924 2.345219836e-38
0.4304957986 -0.225474 -0.3630925417 2.345219836e-38
0.3982291818 -0.3820722103 -0.4284686744 2.345219836e-38
0.4319576621 -0.3202545643 -0.229065448 2.345219836e-38
0.3228920102 -0.3338284791 -0.4276430607 2.345219836e-38
0.414286375 -0.4208620191 -0.4226572514 2.345219836e-38
-0.1212842017 -0.3801934123 -0.3747882843 2.345219836e-38
0.02313109115 -0.2956189513 -0.3806385696 2.345219836e-38
-0.08932681382 -0.4694022536 -0.3853259981 2.345219836e-38
0.3817868233 -0.3076204658 -0.416678369 2.345219836e-38
0.2990100682 -0.2699153423 -0.4202181697 2.345219836e-38
0.3458776176 -0.4216575027 -0.1868846565 2.345219836e-38
-0.04249645397 -0.3342828453 -0.4058493674 2.345219836e-38
0.1190912873 -0.4302923977 -0.4068958461 2.345219836e-38
0.4176266491 -0.297396481 -0.4135343134 2.345219836e-38
0.4013445675 -0.3130660653 -0.41176036 2.345219836e-38
0.08634592593 -0.4801080525 -0.3037757576 2.345219836e-38
0.3268477321 -0.4163101912 -0.183114171 2.345219836e-38
0.3515486717 -0.331186682 -0.4264423251 2.345219836e-38
0.3588869572 -0.374135226 -0.4203029573 2.345219836e-38
0.4507115185 -0.4109818935 -0.2835457921 2.345219836e-38
-0.03153705969 -0.480360806 -0.2164689004 2.345219836e-38
0.3516902626 -0.2543129325 -0.3929882944 2.345219836e-38
0.3620212674 -0.3761752546 -0.4203427434 2.345219836e-38
0.4266922772 -0.2923071384 -0.3610193729 2.345219836e-38
0.4321910143 -0.3512992263 -0.3578855991 2.345219836e-38
0.4261270463 -0.2160490453 -0.3688028753 2.345219836e-38
0.4464800954 -0.3651511073 -0.304951787 2.345219836e-38
0.4452585876 -0.3964375556 -0.323295325 2.345219836e-38
0.4525365531 -0.2959866226 -0.2818087339 2.345219836e-38
0.1453434378 -0.4643220305 -0.3893457949 2.345219836e-38
0.3376981914 -0.2547558248 -0.3931055367 2.345219836e-38
0.4424434602 -0.3122762144 -0.2515321672 2.345219836e-38
0.09826850891 -0.4343889654 -0.4030580819 2.345219836e-38
0.4142185748 -0.2146186531 -0.3787761629 2.345219836e-38
0.3977797627 -0.4216084182 -0.4149458706 2.345219836e-38
-0.1205055565 -0.4530180097 -0.3828268945 2.345219836e-38
-0.124287948 -0.3729315698 -0.26283741 2.345219836e-38
0.01245595142 -0.3217581809 -0.414642185 2.345219836e-38
-0.0663523823 -0.4684710205 -0.3923523724 2.345219836e-38
-0.03626252711 -0.3064367473 -0.3552840352 2.345219836e-38
0.4501121342 -0.2976566553 -0.2677067518 2.345219836e-38
0.1945049316 -0.4546000361 -0.4013004601 2.345219836e-38
-0.1326202303 -0.4376705587 -0.3845266104 2.345219836e-38
0.3966207802 -0.2727516592 -0.4093112946 2.345219836e-38
-0.05429619178 -0.2995090187 -0.4010316133 2.345219836e-38
0.2564853132 -0.2587693036 -0.4220505953 2.345219836e-38
0.4491909742 -0.2456397116 -0.3211807609 2.345219836e-38
0.4261653125 -0.2375531793 -0.3714362979 2.345219836e-38
0.3233742714 -0.4689112008 -0.2146293968 2.345219836e-38
0.07434593141 -0.4818127155 -0.2067680508 2.345219836e-38
0.06195784733 -0.2765717804 -0.3999246955 2.345219836e-38
-0.1147558391 -0.4786683917 -0.2921944559 2.345219836e-38
0.4390149415 -0.3170644939 -0.3173151016 2.345219836e-38
0.08036275208 -0.4582337141 -0.3899235129 2.345219836e-38
-0.01530111954 -0.3316183388 -0.4158394635 2.345219836e-38
0.4360688329 -0.4385354817 -0.359131664 2.345219836e-38
0.2546578944 -0.3319906592 -0.4208448827 2.345219836e-38
-0.1346742064 -0.414273262 -0.391035378 2.345219836e-38
-0.1134325266 -0.3441396356 -0.3075278401 2.345219836e-38
-0.04898028076 -0.4769352674 -0.3794690669 2.345219836e-38
-0.0185182523 -0.3982276618 -0.3932487965 2.345219836e-38
-0.1246954203 -0.3661980629 -0.1763762236 2.345219836e-38
-0.1100681126 -0.3795406818 -0.3866230547 2.345219836e-38
0.442518115 -0.4496942163 -0.3260285556 2.345219836e-38
0.1564146727 -0.4466257691 -0.4010148942 2.345219836e-38
0.4138277471 -0.3463849723 -0.411321342 2.345219836e-38
0.2910141945 -0.2544569075 -0.3971479535 2.345219836e-38
0.4335461855 -0.2499331683 -0.3113518655 2.345219836e-38
0.4144067466 -0.2872418463 -0.3735556602 2.345219836e-38
0.142849341 -0.4842118025 -0.1761929393 2.345219836e-38
0.09293110669 -0.2782418728 -0.40962255 2.345219836e-38
-0.101776585 -0.4788772464 -0.2819452286 2.343458544e-38
0.006180033088 -0.4676180482 -0.2336895764 2.343458544e-38
0.368681401 -0.4298337102 -0.1608980894 2.343458544e-38
0.4517818093 -0.2462632805 -0.3619245291 2.343458544e-38
0.1629712731 -0.401204288 -0.4128999114 2.343458544e-38
0.3857987225 -0.26357916 -0.4045543373 2.343458544e-38
-0.04591754824 -0.3955038786 -0.3385846615 2.343458544e-38
0.3735206127 -0.478674829 -0.2301092148 2.343458544e-38
0.4499871135 -0.2619762123 -0.3746288717 2.343458544e-38
0.4176173806 -0.2231579125 -0.407697767 2.343458544e-38
-0.1059405655 -0.401681304 -0.2407367229 2.343458544e-38
0.2968555391 -0.3774064183 -0.4168683887 2.343458544e-38
0.02057845518 -0.4690557122 -0.2594975531 2.343458544e-38
0.170395121 -0.4984493554 -0.1977340877 2.343458544e-38
0.1841274351 -0.4520902038 -0.3022369742 2.343458544e-38
0.2801603377 -0.3713705242 -0.3104669154 2.343458544e-38
0.2744432986 -0.357364893 -0.4241341054 2.343458544e-38
0.02324583009 -0.4639726281 -0.2803387344 2.343458544e-38
0.4298488498 -0.3623068631 -0.1941712648 2.343458544e-38
0.3729513288 -0.2714936137 -0.394258678 2.343458544e-38
