# .PCD v0.7 - Point Cloud Data file format
VERSION 0.7
FIELDS x y z rgb
SIZE 4 4 4 4
TYPE F F F F
COUNT 1 1 1 1
WIDTH 830
HEIGHT 1
VIEWPOINT 0 0 0 1 0 0 0
POINTS 830
DATA ascii
-0.2253156602 -0.5087756515 -0.2860530019 1.184631237e-38
-0.2446848452 -0.5062927008 -0.2692260146 1.184631237e-38
-0.2791575193 -0.5049371123 -0.2680434883 1.184631237e-38
-0.2831716835 -0.5160164237 -0.23158288 1.184631237e-38
-0.2939336896 -0.5156806111 -0.2435837984 1.184631237e-38
-0.2908706665 -0.5136983395 -0.2552764416 1.184631237e-38
-0.2693486214 -0.512063086 -0.269528687 1.184631237e-38
-0.2602729201 -0.5119361281 -0.2825536132 1.184631237e-38
-0.2485612631 -0.5103524923 -0.2617743909 1.184631237e-38
-0.2198534012 -0.509055078 -0.2604515553 1.184631237e-38
-0.2532388568 -0.5043090582 -0.2372362614 1.184631237e-38
-0.2925283015 -0.5176927447 -0.2306524813 1.184631237e-38
-0.3043218851 -0.5175341368 -0.2422893345 1.184631237e-38
-0.2992624342 -0.5165671706 -0.2480275631 1.184631237e-38
-0.2813186347 -0.5146324635 -0.2629184723 1.184631237e-38
-0.2550404966 -0.5134145021 -0.2679103315 1.184631237e-38
-0.2417274415 -0.5113561749 -0.2402931154 1.184631237e-38
-0.2204378843 -0.5104897618 -0.2146333158 1.184631237e-38
-0.2230310738 -0.5054388046 -0.1950463355 1.184631237e-38
-0.3304022849 -0.5179240704 -0.2163787186 1.184631237e-38
-0.2922111154 -0.5172977448 -0.2335969508 1.184631237e-38
-0.3050653636 -0.5171120763 -0.2552908957 1.184631237e-38
-0.276835382 -0.5147477388 -0.275020808 1.184631237e-38
-0.2496259212 -0.512755692 -0.2603771389 1.184631237e-38
-0.2359984517 -0.5116237402 -0.2412911654 1.184631237e-38
-0.2142355591 -0.5109451413 -0.2029185891 1.184631237e-38
-0.2400826216 -0.5055221915 -0.1784289479 1.184631237e-38
-0.3821076155 -0.515380919 -0.2056204975 1.184631237e-38
-0.3283514977 -0.5154742002 -0.2341989875 1.184631237e-38
-0.3143241704 -0.5150590539 -0.246794194 1.184631237e-38
-0.3047151864 -0.5147547722 -0.2368814051 1.184631237e-38
-0.2664427459 -0.5127847791 -0.2421761453 1.184631237e-38
-0.2341224849 -0.5126454234 -0.2322381139 1.184631237e-38
-0.2539099455 -0.509344101 -0.1918361485 1.184631237e-38
-0.2782939374 -0.5047998428 -0.1721865833 1.184631237e-38
-0.3130956292 -0.5034793615 -0.2221643031 1.184631237e-38
-0.2994271815 -0.5028992891 -0.268891573 1.184631237e-38
-0.2726396322 -0.5063989162 -0.269198209 1.184631237e-38
-0.2472385466 -0.508250773 -0.2803070247 1.184631237e-38
-0.2922490835 -0.5079466105 -0.2882348299 1.184631237e-38
-0.333776921 -0.507433176 -0.3131058812 1.184631237e-38
-0.3242519498 -0.5058554411 -0.3338327408 1.184631237e-38
-0.2501527965 -0.4713408947 -0.3253542483 1.184631237e-38
-0.2922083735 -0.5084863305 -0.2613874078 1.184631237e-38
-0.3088957071 -0.5096909404 -0.2654522955 1.184631237e-38
-0.318803817 -0.5114954114 -0.2493403852 1.184631237e-38
-0.2669990361 -0.5125129223 -0.2625998855 1.184631237e-38
-0.2875143886 -0.5116460323 -0.2840648592 1.184631237e-38
-0.3188636303 -0.5114408135 -0.2977333069 1.184631237e-38
-0.3333282173 -0.5088374019 -0.3213233054 1.184631237e-38
-0.2857395113 -0.5033019185 -0.3395986855 1.184631237e-38
-0.2986545563 -0.5135570168 -0.2636462152 1.184631237e-38
-0.3158805072 -0.5146079659 -0.2560361028 1.184631237e-38
-0.3178919852 -0.5155853033 -0.2454797328 1.184631237e-38
-0.313126564 -0.5153052807 -0.2676500678 1.184631237e-38
-0.2978365719 -0.5140683651 -0.2980860174 1.184631237e-38
-0.3032183647 -0.5134449601 -0.3216972053 1.184631237e-38
-0.3259493113 -0.5120499134 -0.3140975833 1.184631237e-38
-0.307789892 -0.5050553679 -0.3223528862 1.184631237e-38
-0.3119339943 -0.5159388185 -0.2674201429 1.184631237e-38
-0.3215898871 -0.5173066258 -0.2543403208 1.184631237e-38
-0.3176143765 -0.5178986192 -0.2594328225 1.184631237e-38
-0.3428587615 -0.518433094 -0.2809950113 1.184631237e-38
-0.3321566582 -0.517118454 -0.3114646375 1.184631237e-38
-0.328297466 -0.5153883696 -0.3212782145 1.184631237e-38
-0.3364761174 -0.512814641 -0.2991059422 1.184631237e-38
-0.3174637556 -0.5069205761 -0.2853372395 1.184631237e-38
-0.3348350525 -0.5173490644 -0.2526242435 1.184631237e-38
-0.3308026493 -0.5185490847 -0.2474021018 1.184631237e-38
-0.3283397853 -0.5197847486 -0.2681291699 1.184631237e-38
-0.3538912535 -0.5203642249 -0.2939827144 1.184631237e-38
-0.3557681739 -0.5197754502 -0.3166262209 1.184631237e-38
-0.3596905172 -0.516966939 -0.3012929559 1.184631237e-38
-0.3603956103 -0.5143265128 -0.2900793552 1.184631237e-38
-0.3309001029 -0.508050561 -0.2713534534 1.184631237e-38
-0.3598339856 -0.5166561604 -0.2519016862 1.184631237e-38
-0.350556314 -0.5177598596 -0.2391881645 1.184631237e-38
-0.3512519598 -0.5189893246 -0.2528754473 1.184631237e-38
-0.3610454202 -0.520583868 -0.2714344859 1.184631237e-38
-0.3736331463 -0.519474566 -0.2917954028 1.184631237e-38
-0.3814040422 -0.5168251395 -0.2983442545 1.184631237e-38
-0.3831700981 -0.5153798461 -0.2768112719 1.184631237e-38
-0.3521186411 -0.507795155 -0.2318045199 1.184631237e-38
-0.3654077351 -0.5135383606 -0.2523218393 1.184631237e-38
-0.3687440753 -0.516067028 -0.2314843535 1.184631237e-38
-0.3653785288 -0.5175821781 -0.2229392231 1.184631237e-38
-0.3663425744 -0.5187119246 -0.2222203612 1.184631237e-38
-0.3812070191 -0.5178619027 -0.2626214921 1.184631237e-38
-0.39750579 -0.5168830752 -0.2830914557 1.184631237e-38
-0.4023781717 -0.5131605864 -0.2578043342 1.184631237e-38
-0.3729337752 -0.475761652 -0.2175078988 1.184631237e-38
-0.3443834186 -0.5098531842 -0.2350860536 1.184631237e-38
-0.3663979769 -0.5134788156 -0.2060078681 1.184631237e-38
-0.3725304306 -0.5154972076 -0.2108991146 1.184631237e-38
-0.379281044 -0.5169997811 -0.1985277236 1.184631237e-38
-0.3963712454 -0.5158891678 -0.2278989851 1.184631237e-38
-0.4105979502 -0.5135695934 -0.2670204639 1.184631237e-38
-0.4114833474 -0.5062340498 -0.2263307571 1.184631237e-38
-0.4037397802 -0.4832648635 -0.2221787572 1.184631237e-38
-0.3809351623 -0.3855806589 -0.1963467002 1.184631237e-38
-0.3543769717 -0.4392410219 -0.2141417265 1.184631237e-38
-0.3368398547 -0.4943102598 -0.2421309054 1.184631237e-38
-0.2933671474 -0.497420609 -0.2685179114 1.184631237e-38
-0.3090065718 -0.4988937378 -0.2992869616 1.184631237e-38
-0.2982544005 -0.4918003082 -0.3215344846 1.184631237e-38
-0.255289644 -0.4561542273 -0.303932935 1.184631237e-38
-0.3266980648 -0.4340058565 -0.3216826022 1.184631237e-38
-0.3563432097 -0.4688321948 -0.2373835444 1.184631237e-38
-0.3394908011 -0.4863911867 -0.2485084236 1.184631237e-38
-0.3192927837 -0.5014603138 -0.2528280616 1.184631237e-38
-0.2740318179 -0.502227664 -0.2681417763 1.184631237e-38
-0.2945681512 -0.501088202 -0.2843724787 1.184631237e-38
-0.3066174686 -0.5005109906 -0.3025256097 1.184631237e-38
-0.2989679575 -0.4992402196 -0.311277777 1.184631237e-38
-0.2478220463 -0.4639620781 -0.3381217718 1.184631237e-38
-0.3363654017 -0.4881705046 -0.2520914376 1.184631237e-38
-0.3311985135 -0.5045627952 -0.2352258861 1.184631237e-38
-0.3299776316 -0.5048692226 -0.2522472739 1.184631237e-38
-0.2779939771 -0.5057137012 -0.274271071 1.184631237e-38
-0.2669457793 -0.5043643117 -0.2966295481 1.184631237e-38
-0.2644569278 -0.5031796098 -0.3085922003 1.184631237e-38
-0.283202976 -0.5019785762 -0.3366518021 1.184631237e-38
-0.2639900148 -0.4780730605 -0.3476013541 1.184631237e-38
-0.3359619677 -0.5056969523 -0.2543819249 1.184631237e-38
-0.3427742422 -0.507130444 -0.2430545688 1.184631237e-38
-0.3296546042 -0.5085232258 -0.2659355998 1.184631237e-38
-0.3091026545 -0.5089591146 -0.2849887908 1.184631237e-38
-0.2749753892 -0.5077700019 -0.3070579171 1.184631237e-38
-0.2658585906 -0.5065243244 -0.3403202295 1.184631237e-38
-0.2536979616 -0.5037432313 -0.3004463911 1.184631237e-38
-0.2668754756 -0.4957978725 -0.3161175251 1.184631237e-38
-0.3362074792 -0.5073578358 -0.244695425 1.184631237e-38
-0.3495295644 -0.5090206861 -0.2479328513 1.184631237e-38
-0.3428657949 -0.5103974342 -0.271055758 1.184631237e-38
-0.3537378907 -0.5108883977 -0.295068115 1.184631237e-38
-0.3084149957 -0.5102202296 -0.3138830662 1.184631237e-38
-0.2989935577 -0.5077978373 -0.300072521 1.184631237e-38
-0.2785524726 -0.5054152012 -0.3075120151 1.184631237e-38
-0.2826960087 -0.4975144267 -0.2886280417 1.184631237e-38
-0.3597602248 -0.5065422058 -0.2296275198 1.184631237e-38
-0.3616555929 -0.5090090036 -0.2342915535 1.184631237e-38
-0.3680131137 -0.5102220178 -0.2604480386 1.184631237e-38
-0.3820590675 -0.5103254914 -0.2822333574 1.184631237e-38
-0.375248313 -0.5092438459 -0.2998348176 1.184631237e-38
-0.3420527279 -0.5077601671 -0.3132571876 1.184631237e-38
-0.3210577369 -0.5048707128 -0.3098406196 1.184631237e-38
-0.3039886057 -0.4734152555 -0.2638708055 1.184631237e-38
-0.3773116171 -0.5042278171 -0.2288742065 1.184631237e-38
-0.3828878403 -0.5069419742 -0.2234446108 1.184631237e-38
-0.3743729591 -0.5085414648 -0.2295084596 1.184631237e-38
-0.3772436678 -0.5082765818 -0.2412095964 1.184631237e-38
-0.3944793344 -0.5075121522 -0.2948989868 1.184631237e-38
-0.3779010773 -0.5069939494 -0.3376835585 1.184631237e-38
-0.3631896377 -0.4892726541 -0.2892107368 1.184631237e-38
-0.3198144436 -0.4497079253 -0.2512721121 1.184631237e-38
-0.3536499143 -0.4440378547 -0.1848311424 1.184631237e-38
-0.3772456646 -0.5040246844 -0.2023162395 1.184631237e-38
-0.3903305233 -0.5055204034 -0.2173289657 1.184631237e-38
-0.3889496028 -0.506536603 -0.2272411585 1.184631237e-38
-0.3919234872 -0.505304873 -0.3021863699 1.184631237e-38
-0.4018491805 -0.5032653213 -0.3117631078 1.184631237e-38
-0.3702038229 -0.4671702981 -0.2799896598 1.184631237e-38
-0.3652433157 -0.448503077 -0.2868868709 1.184631237e-38
-0.3143073618 -0.4553144574 -0.2573546171 2.348204041e-38
-0.2953234315 -0.4953695536 -0.2726948559 2.348204041e-38
-0.3015548885 -0.4949476719 -0.2705926895 2.348204041e-38
-0.3130093515 -0.4947978854 -0.2854613364 2.348204041e-38
-0.3468789756 -0.4902004004 -0.2864733636 2.348204041e-38
-0.3344643116 -0.4404435754 -0.2676706612 2.348204041e-38
-0.3517204523 -0.3590394258 -0.330907017 2.348204041e-38
-0.3375099897 -0.1041966751 -0.3277565539 2.348204041e-38
-0.2535682321 -0.5016995668 -0.2581451237 2.348204041e-38
-0.3280286193 -0.5003951192 -0.2562948167 2.348204041e-38
-0.3157396019 -0.4979259968 -0.2642562985 2.348204041e-38
-0.2894033194 -0.4962349534 -0.2766191363 2.348204041e-38
-0.3185260594 -0.4943877459 -0.2908950448 2.348204041e-38
-0.3398293555 -0.4854704142 -0.3184209168 2.348204041e-38
-0.3499008119 -0.3981643319 -0.326061964 2.348204041e-38
-0.3580407798 -0.2496543825 -0.3601213992 2.348204041e-38
-0.2384745479 -0.5021030307 -0.2487897873 2.348204041e-38
-0.2256645262 -0.502951622 -0.2591770291 2.348204041e-38
-0.268133074 -0.5010925531 -0.2705236077 2.348204041e-38
-0.2717081904 -0.4986775517 -0.2883743644 2.348204041e-38
-0.2940981984 -0.4965318441 -0.3220279515 2.348204041e-38
-0.3484526277 -0.4954231381 -0.3439723253 2.348204041e-38
-0.343039602 -0.4558262229 -0.3439653814 2.348204041e-38
-0.3508341014 -0.3233107924 -0.350338906 2.348204041e-38
-0.2608978152 -0.503616035 -0.2428201735 2.348204041e-38
-0.2333926857 -0.5023775101 -0.2553274333 2.348204041e-38
-0.2442488372 -0.5019336939 -0.2720879316 2.348204041e-38
-0.2448948324 -0.5021291971 -0.2979280055 2.348204041e-38
-0.28225407 -0.4999158978 -0.3177797496 2.348204041e-38
-0.3311605453 -0.4973744154 -0.3223527968 2.348204041e-38
-0.3574265838 -0.4930366278 -0.3432003558 2.348204041e-38
-0.3457188308 -0.4052816927 -0.3501635194 2.348204041e-38
-0.2853123248 -0.5048982501 -0.2342039049 2.348204041e-38
-0.2480341792 -0.5031980276 -0.2496962249 2.348204041e-38
-0.256257534 -0.5024226904 -0.2731670737 2.348204041e-38
-0.2667905688 -0.5028854609 -0.2968568206 2.348204041e-38
-0.2930702567 -0.5027368069 -0.3010801375 2.348204041e-38
-0.3019922674 -0.4998899102 -0.3112100661 2.348204041e-38
-0.3525935411 -0.495539844 -0.3399342 2.348204041e-38
-0.3616666198 -0.4862089753 -0.3847310245 2.348204041e-38
-0.2990568876 -0.5056354403 -0.2276009321 2.348204041e-38
-0.2735616565 -0.5042390823 -0.2388425767 2.348204041e-38
-0.2777758837 -0.5030537844 -0.2653616667 2.348204041e-38
-0.2836462259 -0.503087461 -0.2873907983 2.348204041e-38
-0.2823539078 -0.5034148693 -0.2907657921 2.348204041e-38
-0.2790143788 -0.5005672574 -0.333440572 2.348204041e-38
-0.3301978707 -0.4963590503 -0.3316517472 2.348204041e-38
-0.3536965251 -0.4878621697 -0.3620800674 2.348204041e-38
-0.3191061318 -0.5054090023 -0.2193605304 2.348204041e-38
-0.3111556172 -0.5043280721 -0.2226612568 2.348204041e-38
-0.3040992916 -0.5030272007 -0.2522621453 2.348204041e-38
-0.2890702784 -0.5019829273 -0.2618029416 2.348204041e-38
-0.2825266719 -0.502002418 -0.2774828672 2.348204041e-38
-0.291546613 -0.4995692968 -0.317285955 2.348204041e-38
-0.3065606058 -0.495138526 -0.3214768469 2.348204041e-38
-0.3436613977 -0.4881811738 -0.3112855554 2.348204041e-38
-0.3354637027 -0.5043307543 -0.2168969214 2.348204041e-38
-0.342720449 -0.504146874 -0.2043173015 2.348204041e-38
-0.3418472707 -0.5030897856 -0.21800372 2.348204041e-38
-0.3143905103 -0.5008311868 -0.230753094 2.348204041e-38
-0.3118203282 -0.5008998513 -0.2724014819 2.348204041e-38
-0.2865486741 -0.4977377057 -0.3111982346 2.348204041e-38
-0.2823944092 -0.4918766618 -0.3187039793 2.348204041e-38
-0.3215109408 -0.4839365482 -0.29906106 2.348204041e-38
-0.2823088765 -0.5035087466 -0.2720814943 2.348204041e-38
-0.2915700376 -0.5023108721 -0.2777656317 2.348204041e-38
-0.2941959202 -0.5008984208 -0.2755152881 2.348204041e-38
-0.2873684764 -0.4993314743 -0.2780658007 2.348204041e-38
-0.2883922756 -0.5001235008 -0.2910737395 2.348204041e-38
-0.3106956184 -0.4999742508 -0.3014012873 2.348204041e-38
-0.3057327271 -0.4919303656 -0.3007301986 2.348204041e-38
-0.2891411483 -0.4387235045 -0.259472847 2.348204041e-38
-0.2514821589 -0.5064334869 -0.2621258199 2.348204041e-38
-0.2593773007 -0.5073905587 -0.2692439556 2.348204041e-38
-0.299955219 -0.504458487 -0.2760673463 2.348204041e-38
-0.3088963926 -0.5019550323 -0.2797868848 2.348204041e-38
-0.2755256295 -0.4998579025 -0.2945150733 2.348204041e-38
-0.2760885656 -0.4996692538 -0.3101651371 2.348204041e-38
-0.3119618893 -0.4991622567 -0.357685864 2.348204041e-38
-0.298394531 -0.4680581093 -0.3260951042 2.348204041e-38
-0.2631741166 -0.5076943636 -0.2522774339 2.348204041e-38
-0.2266952991 -0.5077865124 -0.2638575435 2.348204041e-38
-0.2344608009 -0.5059319735 -0.2739186883 2.348204041e-38
-0.2602272928 -0.5032365322 -0.2850403488 2.348204041e-38
-0.2369289994 -0.502322495 -0.3124490082 2.348204041e-38
-0.2527544796 -0.5006148219 -0.3438667357 2.348204041e-38
-0.2867257595 -0.5002142191 -0.3469528854 2.348204041e-38
-0.3247732222 -0.4985249043 -0.3599053323 2.348204041e-38
-0.2849183679 -0.5103741884 -0.2374745309 2.348204041e-38
-0.2247273922 -0.5082516074 -0.2558657825 2.348204041e-38
-0.2297586501 -0.5057904124 -0.2758457661 2.348204041e-38
-0.2586174309 -0.5053581595 -0.3061481118 2.348204041e-38
-0.2742606699 -0.5042096376 -0.3294019699 2.348204041e-38
-0.2377892137 -0.5028939843 -0.3194939792 2.348204041e-38
-0.2668355405 -0.5011161566 -0.3398456275 2.348204041e-38
-0.3083378673 -0.5005348921 -0.3649288118 2.348204041e-38
-0.277895689 -0.5117906928 -0.2346343994 2.348204041e-38
-0.231490314 -0.5095590949 -0.2517256439 2.348204041e-38
-0.2357517481 -0.5075265765 -0.2758925855 2.348204041e-38
-0.272346437 -0.5072578788 -0.304772228 2.348204041e-38
-0.3026787043 -0.5065230131 -0.326554209 2.348204041e-38
-0.2787773907 -0.504416585 -0.3096021414 2.348204041e-38
-0.2430830598 -0.5035690069 -0.3293019831 2.348204041e-38
-0.2934531569 -0.4991320372 -0.3725662827 2.348204041e-38
-0.2877064347 -0.5130548477 -0.2453105748 2.348204041e-38
-0.242102325 -0.5107581019 -0.2533551753 2.348204041e-38
-0.2569541931 -0.509411335 -0.276676327 2.348204041e-38
-0.2850421667 -0.5085895061 -0.2943922281 2.348204041e-38
-0.3053784668 -0.5073154569 -0.3099736869 2.348204041e-38
-0.2943768501 -0.5061469078 -0.3233543336 2.348204041e-38
-0.2361368537 -0.5047590733 -0.3232775927 2.348204041e-38
-0.287378639 -0.4995899796 -0.3281822801 2.348204041e-38
-0.3173724115 -0.5123993754 -0.2577455044 2.348204041e-38
-0.2788673639 -0.5112332106 -0.2431347072 2.348204041e-38
-0.2886631489 -0.5098428726 -0.2593767047 2.348204041e-38
-0.3057057559 -0.5081976652 -0.2685033381 2.348204041e-38
-0.3037117124 -0.5062954426 -0.2973017693 2.348204041e-38
-0.2815486491 -0.5057329535 -0.3355963528 2.348204041e-38
-0.2628393173 -0.5043278933 -0.3176732361 2.348204041e-38
-0.3204987943 -0.4985736609 -0.2802784443 2.348204041e-38
-0.3304155767 -0.5110400319 -0.2697544694 2.348204041e-38
-0.3193504214 -0.5109320879 -0.2572261691 2.348204041e-38
-0.3115708828 -0.5103999376 -0.2558680475 2.348204041e-38
-0.3182916641 -0.5080325603 -0.2676481903 2.348204041e-38
-0.29305619 -0.5060722828 -0.3005620241 2.348204041e-38
-0.2565670013 -0.5050475597 -0.3401860893 2.348204041e-38
-0.2842202485 -0.5004901886 -0.3129552007 2.348204041e-38
-0.3405203819 -0.4951524734 -0.2641584873 2.348204041e-38
-0.223756969 -0.4961878657 -0.269302547 2.348204041e-38
-0.2076150924 -0.4966268539 -0.2733297348 2.348204041e-38
-0.2248123884 -0.4958708286 -0.276884228 2.348204041e-38
-0.2425960302 -0.4955960512 -0.2773467302 2.348204041e-38
-0.2642941773 -0.4963431954 -0.2767056227 2.348204041e-38
-0.2846648097 -0.4972646236 -0.30562222 2.348204041e-38
-0.2381056845 -0.4666031003 -0.291475445 2.348204041e-38
-0.2331154943 -0.4336448908 -0.2337623537 2.348204041e-38
-0.2234727442 -0.5003587008 -0.2753140628 2.348204041e-38
-0.2287934721 -0.5005506277 -0.2735318542 2.348204041e-38
-0.2392081022 -0.5005745292 -0.2794549465 2.348204041e-38
-0.2426823378 -0.4984023571 -0.2825235426 2.348204041e-38
-0.2384572625 -0.4973426461 -0.2906080186 2.348204041e-38
-0.2484766245 -0.4966871142 -0.3050021529 2.348204041e-38
-0.2725648582 -0.4971814752 -0.374045521 2.348204041e-38
-0.2568031549 -0.4088942409 -0.2898846269 2.348204041e-38
-0.2381811142 -0.5027728081 -0.2707628012 2.348204041e-38
-0.2072413117 -0.5021548867 -0.272726357 2.348204041e-38
-0.2348394692 -0.5013839602 -0.2740748227 2.348204041e-38
-0.237793684 -0.4998335242 -0.28593871 2.348204041e-38
-0.2073100209 -0.4988350868 -0.3076072931 2.348204041e-38
-0.214280501 -0.4967659712 -0.3265857697 2.348204041e-38
-0.2458120286 -0.4962364435 -0.3202863932 2.348204041e-38
-0.2758077979 -0.4890145659 -0.3120337427 2.348204041e-38
-0.2544449866 -0.5036084056 -0.2595209479 2.348204041e-38
-0.1932461262 -0.5031129122 -0.2609182 2.348204041e-38
-0.2073395252 -0.5013878942 -0.276720047 2.348204041e-38
-0.2495040894 -0.5009714365 -0.2969629765 2.348204041e-38
-0.2455077469 -0.4997878075 -0.307123363 2.348204041e-38
-0.2124594748 -0.4981879592 -0.3033750653 2.348204041e-38
-0.2210115194 -0.4969513416 -0.3034136593 2.348204041e-38
-0.2762632966 -0.4966849089 -0.2984968126 2.348204041e-38
-0.2721253335 -0.5061696172 -0.2538969815 2.348204041e-38
-0.2058452368 -0.5044834018 -0.2509615719 2.348204041e-38
-0.2214373946 -0.5031324625 -0.2672706246 2.348204041e-38
-0.2566269934 -0.5028082132 -0.2886134684 2.348204041e-38
-0.2786411345 -0.5013065338 -0.2990367115 2.348204041e-38
-0.2492316961 -0.4994274378 -0.2879780829 2.348204041e-38
-0.211148113 -0.4981333017 -0.2849197388 2.348204041e-38
-0.2604305148 -0.4959576726 -0.2630170882 2.348204041e-38
-0.281613946 -0.5084527731 -0.2624246478 2.348204041e-38
-0.2267057598 -0.506149292 -0.2423104346 2.348204041e-38
-0.2376755178 -0.5051758885 -0.2554907501 2.348204041e-38
-0.2622301877 -0.5040940046 -0.2752815187 2.348204041e-38
-0.2779348791 -0.5023889542 -0.2935932577 2.348204041e-38
-0.2571982741 -0.5002154708 -0.2935142219 2.348204041e-38
-0.2215864062 -0.4992853999 -0.2591944635 2.348204041e-38
-0.2564935386 -0.4955406189 -0.2457128167 2.348204041e-38
-0.2937344313 -0.5091904402 -0.2908706963 2.348204041e-38
-0.2764116526 -0.5074478984 -0.2582916915 2.348204041e-38
-0.258182615 -0.5054324269 -0.242328167 2.348204041e-38
-0.2669958472 -0.5035203099 -0.2729937732 2.348204041e-38
-0.2711254358 -0.5016099215 -0.2818210423 2.348204041e-38
-0.265710324 -0.4995697737 -0.2849666476 2.348204041e-38
-0.2509042621 -0.4977224469 -0.2590890825 2.348204041e-38
-0.2899918556 -0.4951971173 -0.2425300479 2.348204041e-38
-0.3495212793 -0.5056841373 -0.2830815315 2.348204041e-38
-0.295663625 -0.5074811578 -0.2782287896 2.348204041e-38
-0.3039591312 -0.5056836009 -0.2641012371 2.348204041e-38
-0.2765442133 -0.5025972128 -0.2592876852 2.348204041e-38
-0.272821337 -0.500015974 -0.2747775614 2.348204041e-38
-0.2810185552 -0.4988816977 -0.2734571099 2.348204041e-38
-0.2777124047 -0.4973435998 -0.2485806942 2.348204041e-38
-0.3082906902 -0.4928113222 -0.2314884365 2.348204041e-38
-0.2245253921 -0.4908812642 -0.2631745934 2.348204041e-38
-0.2056774497 -0.4926131964 -0.2745693922 2.348204041e-38
-0.1921136826 -0.4933242798 -0.2804644406 2.348204041e-38
-0.2053945661 -0.4932123423 -0.2841054201 2.348204041e-38
-0.2469679415 -0.4940521717 -0.2805976272 2.348204041e-38
-0.2549040616 -0.4949714541 -0.3076723218 2.348204041e-38
-0.2190718353 -0.4274364412 -0.3336689472 2.348204041e-38
-0.2066849172 -0.4105144441 -0.2613303065 2.348204041e-38
-0.2287453115 -0.4946772456 -0.2755423188 2.348204041e-38
-0.2314100266 -0.495280683 -0.2697562575 2.348204041e-38
-0.2150120139 -0.4959246516 -0.2762447298 2.348204041e-38
-0.2027783096 -0.4949611425 -0.2806645334 2.348204041e-38
-0.199721843 -0.4946870208 -0.2930140495 2.348204041e-38
-0.2330004871 -0.4941208363 -0.3009776175 2.348204041e-38
-0.252479434 -0.4911456704 -0.3398106396 2.348204041e-38
-0.2271122932 -0.3767154515 -0.2919053733 2.348204041e-38
-0.2271576524 -0.4974141717 -0.2644643486 2.348204041e-38
-0.2690334618 -0.4968360066 -0.2598148584 2.348204041e-38
-0.2614693642 -0.4961801767 -0.2651357651 2.348204041e-38
-0.22511217 -0.4944142699 -0.2769457698 2.348204041e-38
-0.1916393638 -0.4948592782 -0.2995219529 2.348204041e-38
-0.1891181618 -0.4945330024 -0.305508703 2.348204041e-38
-0.2327100635 -0.494109869 -0.2964900732 2.348204041e-38
-0.2250779569 -0.470415175 -0.2783112824 2.348204041e-38
-0.2433348894 -0.4987930655 -0.2478731275 2.348204041e-38
-0.2565841079 -0.4979686737 -0.2504175603 2.348204041e-38
-0.2695326507 -0.4972515106 -0.2608542442 2.348204041e-38
-0.2687737942 -0.4970006943 -0.2960172296 2.348204041e-38
-0.2303936481 -0.4962504506 -0.2988473475 2.348204041e-38
-0.1933854818 -0.4959403276 -0.2828647494 2.348204041e-38
-0.2100298107 -0.4960124493 -0.2657527924 2.348204041e-38
-0.2523921728 -0.494056046 -0.235419631 2.348204041e-38
-0.2597789764 -0.5016160607 -0.2354183197 2.348204041e-38
-0.2506859899 -0.5007765293 -0.2426218987 2.348204041e-38
-0.2733560801 -0.4997178912 -0.2644794285 2.348204041e-38
-0.2763597667 -0.4996090531 -0.2908451855 2.348204041e-38
-0.2522872984 -0.4980790615 -0.2894442677 2.348204041e-38
-0.2248651683 -0.4975786209 -0.2658022046 2.348204041e-38
-0.1757540107 -0.4969683886 -0.2202329338 2.348204041e-38
-0.2389731407 -0.4941871762 -0.1804925352 2.348204041e-38
-0.2658975124 -0.5050570965 -0.2504661977 2.348204041e-38
-0.2669964135 -0.5031349659 -0.2428075373 2.348204041e-38
-0.2847099304 -0.5017476082 -0.2726209462 2.348204041e-38
-0.2874341607 -0.5003301501 -0.2933765054 2.348204041e-38
-0.2478763461 -0.499040246 -0.276281476 2.348204041e-38
-0.2256624103 -0.4984787107 -0.2321778536 2.348204041e-38
-0.1980282217 -0.4977420568 -0.180059582 2.348204041e-38
-0.2316491008 -0.4956386685 -0.1501415968 2.348204041e-38
-0.2928280532 -0.5061807036 -0.2752144933 2.348204041e-38
-0.279812485 -0.5045973659 -0.2800903916 2.348204041e-38
-0.306488663 -0.5016484857 -0.2740346193 2.348204041e-38
-0.2934549153 -0.4990467429 -0.2700136006 2.348204041e-38
-0.251737088 -0.4982718825 -0.2470024228 2.348204041e-38
-0.2348172367 -0.4973447323 -0.2090571374 2.348204041e-38
-0.2205467224 -0.49690938 -0.1866648495 2.348204041e-38
-0.2525367141 -0.493945241 -0.1480716765 2.348204041e-38
-0.3341416121 -0.5034012794 -0.2845253944 2.348204041e-38
-0.3050014973 -0.5035530925 -0.2783136368 2.348204041e-38
-0.3078604639 -0.5012739897 -0.2454685867 2.348204041e-38
-0.279517442 -0.4977660179 -0.2326265275 2.348204041e-38
-0.2582831383 -0.4964970946 -0.2274188995 2.348204041e-38
-0.2501828372 -0.4954054356 -0.2095143795 2.348204041e-38
-0.2319220901 -0.4949895144 -0.1849149019 2.348204041e-38
-0.215298146 -0.4862369299 -0.1537514776 2.348204041e-38
-0.201941371 -0.4918234944 -0.2543618381 2.348204041e-38
-0.1807943732 -0.4920269847 -0.258743763 2.348204041e-38
-0.1720742881 -0.4920969009 -0.2637880147 2.348204041e-38
-0.1862171292 -0.4924345016 -0.263520807 2.348204041e-38
-0.2293845117 -0.4929862618 -0.256970495 2.348204041e-38
-0.244854182 -0.4932304621 -0.2751730084 2.348204041e-38
-0.209833622 -0.4143859148 -0.2547775507 2.348204041e-38
-0.2103291154 -0.3598054647 -0.2306219637 2.348204041e-38
-0.1948852837 -0.4958041906 -0.2587597966 2.348204041e-38
-0.2077990621 -0.4956109524 -0.2547917366 2.348204041e-38
-0.2101410031 -0.4953017235 -0.2645150721 2.348204041e-38
-0.1984935403 -0.4940410256 -0.2656200528 2.348204041e-38
-0.1857254207 -0.4933823943 -0.257350415 2.348204041e-38
-0.2151579857 -0.4931429625 -0.2776284218 2.348204041e-38
-0.237270236 -0.4901496172 -0.3256283998 2.348204041e-38
-0.2319684029 -0.3779276907 -0.2763102055 2.348204041e-38
-0.1995705664 -0.4979039431 -0.2490958571 2.348204041e-38
-0.1744555533 -0.4967698455 -0.2535769939 2.348204041e-38
-0.1983806789 -0.4953457117 -0.2584019899 2.348204041e-38
-0.1964959353 -0.4938520789 -0.270465076 2.348204041e-38
-0.1892500669 -0.4933041334 -0.2572252154 2.348204041e-38
-0.1885287464 -0.4930084944 -0.282423526 2.348204041e-38
-0.2247869968 -0.4934221506 -0.2822518945 2.348204041e-38
-0.2177924514 -0.4561419487 -0.242505759 2.348204041e-38
-0.2092735171 -0.4996891618 -0.2343441546 2.348204041e-38
-0.1717329919 -0.4984692931 -0.2454318106 2.348204041e-38
-0.1803507507 -0.4965957403 -0.2555119395 2.348204041e-38
-0.2131883353 -0.4961192012 -0.2616474628 2.348204041e-38
-0.2010674477 -0.4949234128 -0.2567949593 2.348204041e-38
-0.1745099276 -0.4933094978 -0.2634073794 2.348204041e-38
-0.1997999251 -0.4926552176 -0.2552954555 2.348204041e-38
-0.2469398975 -0.4928811193 -0.217612505 2.348204041e-38
-0.221404314 -0.5020478964 -0.2211274505 2.348204041e-38
-0.1762794256 -0.4996559024 -0.2366441786 2.348204041e-38
-0.1923957765 -0.4983887076 -0.2481628358 2.348204041e-38
-0.2206141055 -0.4982066154 -0.2632789016 2.348204041e-38
-0.2252319455 -0.4965524673 -0.2632272243 2.348204041e-38
-0.1895631403 -0.4938289523 -0.2431836426 2.348204041e-38
-0.157555759 -0.4915888906 -0.234405756 2.348204041e-38
-0.2377090156 -0.4915423393 -0.1793939322 2.348204041e-38
-0.2382743955 -0.5041132569 -0.2170309126 2.348204041e-38
-0.1897804439 -0.5011299253 -0.2276670933 2.348204041e-38
-0.2019749582 -0.4997063875 -0.2385310531 2.348204041e-38
-0.2137209177 -0.4993000627 -0.2576363087 2.348204041e-38
-0.224093467 -0.497364223 -0.2491731048 2.348204041e-38
-0.1965086311 -0.4946228266 -0.222404629 2.348204041e-38
-0.1747398973 -0.492072165 -0.1814728081 2.348204041e-38
-0.2329235077 -0.4916377068 -0.1308395416 2.348204041e-38
-0.2571053505 -0.5052114725 -0.2324955165 2.348204041e-38
-0.2535218596 -0.5031248927 -0.2268734872 2.348204041e-38
-0.2258275449 -0.5005437732 -0.2289935052 2.348204041e-38
-0.2225547433 -0.4988954663 -0.2319776416 2.348204041e-38
-0.2178243995 -0.4968575239 -0.2248554826 2.348204041e-38
-0.204472959 -0.4943686128 -0.2102248073 2.348204041e-38
-0.2307647169 -0.4933295846 -0.1497210711 2.348204041e-38
-0.2579490244 -0.4926418662 -0.1278645247 2.348204041e-38
-0.314411521 -0.5028755665 -0.2298927903 2.348204041e-38
-0.2806350291 -0.5025178194 -0.2025220394 2.348204041e-38
-0.2684960067 -0.5004194975 -0.1814112514 2.348204041e-38
-0.2613033652 -0.4984192848 -0.1733879596 2.348204041e-38
-0.2530803382 -0.4966001511 -0.1869150102 2.348204041e-38
-0.2756270766 -0.4942499399 -0.1821044087 2.348204041e-38
-0.2656061947 -0.4938660264 -0.1387744695 2.348204041e-38
-0.272469312 -0.4916853309 -0.1279421151 2.348204041e-38
-0.2273671329 -0.4902190566 -0.24087587 2.348204041e-38
-0.202315852 -0.4911906123 -0.2475622296 2.348204041e-38
-0.1948984861 -0.492210865 -0.2618969977 2.348204041e-38
-0.2109349668 -0.492923677 -0.2625901103 2.348204041e-38
-0.2437858582 -0.4939454198 -0.2586001456 2.348204041e-38
-0.2538532019 -0.4939066172 -0.2787051499 2.348204041e-38
-0.2164978385 -0.4253517985 -0.2430412471 2.348204041e-38
-0.2024254799 -0.3918697238 -0.2443759739 2.348204041e-38
-0.2393904328 -0.4968032837 -0.2565028369 2.348204041e-38
-0.2331918776 -0.4962021708 -0.2555832565 2.348204041e-38
-0.220185101 -0.4955455661 -0.2611310482 2.348204041e-38
-0.2185665369 -0.4947868586 -0.2622330189 2.348204041e-38
-0.2036907375 -0.4949292541 -0.2547993362 2.348204041e-38
-0.2330821157 -0.4952319264 -0.2728502154 2.348204041e-38
-0.251891911 -0.4931566715 -0.338144809 2.348204041e-38
-0.2236937284 -0.3875791132 -0.2747315764 2.348204041e-38
-0.2477668822 -0.5001637936 -0.2534101009 2.348204041e-38
-0.2667486072 -0.4988462329 -0.2534782887 2.348204041e-38
-0.2400372326 -0.4970511198 -0.2579126358 2.348204041e-38
-0.218149215 -0.4956517816 -0.2663768232 2.348204041e-38
-0.2042366564 -0.4952319264 -0.2566151023 2.348204041e-38
-0.2123156786 -0.4948479533 -0.2729481161 2.348204041e-38
-0.243091017 -0.4955947399 -0.2903516889 2.348204041e-38
-0.2203116715 -0.4622347355 -0.242547065 2.348204041e-38
-0.2558177412 -0.503462255 -0.244241327 2.348204041e-38
-0.2628857195 -0.500908494 -0.2437974215 2.348204041e-38
-0.2594867647 -0.4987034202 -0.2535332441 2.348204041e-38
-0.2382758856 -0.4973507524 -0.2741624415 2.348204041e-38
-0.2124533951 -0.4960369468 -0.2413626015 2.348204041e-38
-0.1918416917 -0.4943194985 -0.2566720843 2.348204041e-38
-0.2321469784 -0.4947293401 -0.2596539557 2.348204041e-38
-0.2583606541 -0.4935637116 -0.2222974002 2.348204041e-38
-0.2645901442 -0.5066016912 -0.2287515998 2.348204041e-38
-0.2778829634 -0.5036646128 -0.2391884327 2.348204041e-38
-0.2724768817 -0.5019193888 -0.248932898 2.348204041e-38
-0.2597045302 -0.4998257756 -0.260253191 2.348204041e-38
-0.2201372683 -0.4976599813 -0.2541815042 2.348204041e-38
-0.1892007142 -0.4945505857 -0.2312559187 2.348204041e-38
-0.175740242 -0.4931277633 -0.2371556163 2.348204041e-38
-0.2494274676 -0.4925124049 -0.1822688431 2.348204041e-38
-0.2774484754 -0.5104393363 -0.2228942215 2.348204041e-38
-0.295650661 -0.5065146685 -0.2266501486 2.348204041e-38
-0.2946940362 -0.5044659376 -0.2477000058 2.348204041e-38
-0.2598635256 -0.501963377 -0.2606552541 2.348204041e-38
-0.2138710022 -0.4997580051 -0.2465146482 2.348204041e-38
-0.1938830316 -0.4958615303 -0.2127033472 2.348204041e-38
-0.1762225777 -0.4931130409 -0.1867592037 2.348204041e-38
-0.2200643122 -0.4917989373 -0.1580193043 2.348204041e-38
-0.3029014766 -0.5102339983 -0.2432626784 2.348204041e-38
-0.3025897741 -0.5087255239 -0.2541695237 2.348204041e-38
-0.3053678274 -0.5056224465 -0.252240032 2.348204041e-38
-0.2651099861 -0.5024223328 -0.2446473837 2.348204041e-38
-0.2214223146 -0.5000550747 -0.2267494202 2.348204041e-38
-0.21801126 -0.4965842962 -0.2078850269 2.348204041e-38
-0.214604944 -0.4946790338 -0.1621199399 2.348204041e-38
-0.1945438534 -0.4914633632 -0.151657939 2.348204041e-38
-0.344809711 -0.506972909 -0.2390125394 2.348204041e-38
-0.329693377 -0.50736624 -0.2147832215 2.348204041e-38
-0.2990976274 -0.5048424006 -0.2094580233 2.348204041e-38
-0.269071728 -0.5015941858 -0.2071702778 2.348204041e-38
-0.2535813153 -0.4988215566 -0.2045282125 2.348204041e-38
-0.2490342855 -0.495277822 -0.1950493753 2.348204041e-38
-0.214896366 -0.4939545393 -0.1622250974 2.348204041e-38
-0.1724943519 -0.4759343863 -0.1698228419 2.348204041e-38
-0.2115179896 -0.4493862391 -0.2026213109 2.348204041e-38
-0.2379354239 -0.4868761897 -0.23563236 2.348204041e-38
-0.2349880934 -0.4935743809 -0.2366617024 2.348204041e-38
-0.2309163809 -0.4958793521 -0.2570400536 2.348204041e-38
-0.2679124773 -0.4960215092 -0.2402217984 2.348204041e-38
-0.2454691231 -0.4953725934 -0.2288694084 2.348204041e-38
-0.1983811706 -0.3925140798 -0.2255365252 2.348204041e-38
-0.1533898711 -0.345371604 -0.2089030445 2.348204041e-38
-0.2246119082 -0.4908103943 -0.2284016013 2.348204041e-38
-0.2294574678 -0.4982489944 -0.2431223094 2.348204041e-38
-0.2287534773 -0.4992466569 -0.2509448826 2.348204041e-38
-0.2182430923 -0.4994620681 -0.2662580609 2.348204041e-38
-0.2275825739 -0.499827683 -0.2475767732 2.348204041e-38
-0.2489443123 -0.5010319948 -0.2766714096 2.348204041e-38
-0.2190928161 -0.4867473841 -0.2955529094 2.348204041e-38
-0.1989515871 -0.3669375777 -0.2399335206 2.348204041e-38
-0.2075108886 -0.5041745901 -0.2390147448 2.348204041e-38
-0.2487585843 -0.5035897493 -0.2198601663 2.348204041e-38
-0.2516389191 -0.5022813082 -0.2362260222 2.348204041e-38
-0.2369630635 -0.501983285 -0.253742218 2.348204041e-38
-0.2313941121 -0.5016772747 -0.2331362069 2.348204041e-38
-0.2448507249 -0.5024555326 -0.2645298839 2.348204041e-38
-0.2784228325 -0.5002170801 -0.2728156447 2.348204041e-38
-0.1967009008 -0.4375517964 -0.2144674361 2.348204041e-38
-0.2234088182 -0.5081345439 -0.218569994 2.348204041e-38
-0.2563461959 -0.5057865381 -0.2147918344 2.348204041e-38
-0.2746815979 -0.5052749515 -0.2257220447 2.348204041e-38
-0.2534658313 -0.5044877529 -0.2533242106 2.348204041e-38
-0.2164499462 -0.5044316053 -0.2332645059 2.348204041e-38
-0.2207642198 -0.502892077 -0.2143631279 2.348204041e-38
-0.2525274158 -0.5002758503 -0.2388921678 2.348204041e-38
-0.2961036563 -0.4947583675 -0.1645395905 2.348204041e-38
-0.2359213829 -0.5112090707 -0.2284412682 2.348204041e-38
-0.2616347075 -0.5091723204 -0.2293725312 2.348204041e-38
-0.2749041617 -0.5084275603 -0.2393158674 2.348204041e-38
-0.2578045428 -0.5069037676 -0.233060807 2.348204041e-38
-0.2288091481 -0.5050824285 -0.2132413387 2.348204041e-38
-0.2213279903 -0.5022930503 -0.1908998489 2.348204041e-38
-0.2182487547 -0.4988985658 -0.1966041476 2.348204041e-38
-0.3245715201 -0.4952164292 -0.1460403502 2.348204041e-38
-0.2675411403 -0.5121272206 -0.2209064662 2.348204041e-38
-0.2681222856 -0.5120815039 -0.2486433983 2.348204041e-38
-0.2814154327 -0.5104236603 -0.2481780946 2.348204041e-38
-0.2747153342 -0.5084493756 -0.2259230912 2.348204041e-38
-0.233697623 -0.5052838326 -0.1901108325 2.348204041e-38
-0.2191096246 -0.5024476051 -0.1953608245 2.348204041e-38
-0.2487547398 -0.498524487 -0.1526561975 2.348204041e-38
-0.2682681084 -0.4924971461 -0.1253200471 2.348204041e-38
-0.3097782731 -0.5101091862 -0.224739641 2.348204041e-38
-0.2976070642 -0.5113820434 -0.2261249423 2.348204041e-38
-0.2836016715 -0.5110979676 -0.1985634267 2.348204041e-38
-0.2606577873 -0.5083745122 -0.1844871342 2.348204041e-38
-0.259234935 -0.5048635602 -0.1807557195 2.348204041e-38
-0.249548763 -0.5022380352 -0.1848352551 2.348204041e-38
-0.2317926884 -0.4974534512 -0.1444860399 2.348204041e-38
-0.1702028811 -0.4145101607 -0.1474843323 2.348204041e-38
-0.3464563787 -0.50770998 -0.1744544506 2.348204041e-38
-0.344825685 -0.507349968 -0.1463721395 2.348204041e-38
-0.3154135346 -0.5072646141 -0.1236317456 2.348204041e-38
-0.2895849049 -0.5060867071 -0.104254961 2.348204041e-38
-0.2845251858 -0.5027167797 -0.1437190771 2.348204041e-38
-0.2807766795 -0.5009093285 -0.1786553115 2.348204041e-38
-0.2160854638 -0.4937134385 -0.150747925 2.348204041e-38
-0.1281363666 -0.2746885419 -0.1861770153 2.348204041e-38
-0.07554402947 -0.3450739384 -0.226067245 2.348204041e-38
-0.1567297429 -0.3528014421 -0.2365318835 2.348204041e-38
-0.2205739617 -0.4529423118 -0.2560044825 2.348204041e-38
-0.2378975749 -0.4721825123 -0.2559593618 2.348204041e-38
-0.2124492526 -0.4685296416 -0.2445849478 2.348204041e-38
-0.1543153226 -0.4260542989 -0.2570587099 2.348204041e-38
-0.1456468105 -0.4302648008 -0.265519917 2.348204041e-38
-0.06344301999 -0.3480450511 -0.2317936122 2.348204041e-38
-0.07353846729 -0.3613264263 -0.2166294158 2.348204041e-38
-0.1659449339 -0.4568844438 -0.2169491649 2.348204041e-38
-0.2258836925 -0.4863974452 -0.2480537295 2.348204041e-38
-0.2369515896 -0.4863498211 -0.2317207754 2.348204041e-38
-0.2607387304 -0.4883804917 -0.2348543406 2.348204041e-38
-0.2219294012 -0.4850381017 -0.2552998662 2.348204041e-38
-0.1682227105 -0.4076840281 -0.2941864133 2.348204041e-38
-0.1240029484 -0.4232995212 -0.271325171 2.348204041e-38
-0.1490963399 -0.4799945354 -0.2040364146 2.348204041e-38
-0.2157127261 -0.4895963073 -0.2201340199 2.348204041e-38
-0.2564404309 -0.4912748337 -0.2434126437 2.348204041e-38
-0.2387070954 -0.4923285842 -0.2267230749 2.348204041e-38
-0.2476456463 -0.4904131889 -0.2365857661 2.348204041e-38
-0.2424715757 -0.489027977 -0.25869596 2.348204041e-38
-0.2341739237 -0.4933056831 -0.2482329011 2.348204041e-38
-0.2031572163 -0.4461608529 -0.2476862371 2.348204041e-38
-0.1645245403 -0.4924955368 -0.2076104581 2.348204041e-38
-0.205378592 -0.4933513999 -0.2061510384 2.348204041e-38
-0.2507282794 -0.4936090708 -0.2187111676 2.348204041e-38
-0.2613380849 -0.4941747785 -0.1971755624 2.348204041e-38
-0.2326948941 -0.4930945039 -0.1932674497 2.348204041e-38
-0.242135793 -0.4895911813 -0.2222160101 2.348204041e-38
-0.2695740163 -0.490478754 -0.2193035781 2.348204041e-38
-0.2428223491 -0.4896969199 -0.2301006615 2.348204041e-38
-0.1491951793 -0.4949864745 -0.1997013688 2.348204041e-38
-0.2086355537 -0.495871067 -0.204922989 2.348204041e-38
-0.2525137663 -0.4951363206 -0.208206892 2.348204041e-38
-0.260928601 -0.4942185283 -0.1782741547 2.348204041e-38
-0.2283588946 -0.4929424524 -0.1767853945 2.348204041e-38
-0.2158150971 -0.4899027944 -0.1942997128 2.348204041e-38
-0.2703533769 -0.4912884235 -0.1745640785 2.348204041e-38
-0.2444322705 -0.4863651395 -0.202819109 2.348204041e-38
-0.1646204293 -0.4950428009 -0.1843298823 2.348204041e-38
-0.2313004732 -0.4970363379 -0.2101754248 2.348204041e-38
-0.2687469125 -0.4959432483 -0.183174789 2.348204041e-38
-0.2606434822 -0.4945653081 -0.1614681184 2.348204041e-38
-0.227455616 -0.4923668504 -0.152633518 2.348204041e-38
-0.2187691629 -0.4915433526 -0.1645897031 2.348204041e-38
-0.2319267392 -0.491320312 -0.1450877637 2.348204041e-38
-0.2081883699 -0.457246542 -0.1724525839 2.348204041e-38
-0.1589543074 -0.4940974712 -0.1867989749 2.348204041e-38
-0.2531208098 -0.4968796968 -0.1804759502 2.348204041e-38
-0.2850313485 -0.4973592758 -0.1576504707 2.348204041e-38
-0.2632642984 -0.4954851866 -0.1329648793 2.348204041e-38
-0.2270349562 -0.4937614202 -0.1329060048 2.348204041e-38
-0.1913325042 -0.4919018745 -0.1471333802 2.348204041e-38
-0.1544340551 -0.4644810557 -0.1519207209 2.348204041e-38
-0.1397368908 -0.3696324825 -0.1673522741 2.348204041e-38
-0.1125709563 -0.4944881201 -0.2108940482 2.348204041e-38
-0.2648338974 -0.4988756776 -0.1851896793 2.348204041e-38
-0.2813948393 -0.4960269332 -0.1442764401 2.348204041e-38
-0.271101892 -0.4936972857 -0.1218470037 2.348204041e-38
-0.2168616652 -0.4911931753 -0.1334592402 2.348204041e-38
-0.1752654314 -0.4887605906 -0.149856329 2.348204041e-38
-0.108384423 -0.3867579103 -0.1885136366 2.348204041e-38
-0.08800945431 -0.319058001 -0.188918978 2.348204041e-38
0.2217174768 -0.07388604432 -0.1855992377 2.341805152e-38
0.1854802072 -0.0789911896 -0.1866388619 2.341805152e-38
0.1924368441 -0.07214617729 -0.1911095977 2.341805152e-38
0.1984664798 -0.09360227734 -0.1991235018 2.341805152e-38
0.2392280996 -0.1080213562 -0.1862844676 2.341805152e-38
0.2522516251 -0.07554169744 -0.15544267 2.341805152e-38
0.2640018761 -0.05215936899 -0.1334739923 2.341805152e-38
0.2718255818 -0.02645163238 -0.1214804575 2.341805152e-38
0.305624485 -0.05702157319 -0.1794749945 2.341805152e-38
0.2393158078 -0.08034674823 -0.1838529408 2.341805152e-38
0.2309664488 -0.08585152775 -0.1868520081 2.341805152e-38
0.2280654907 -0.1255802214 -0.1882776916 2.341805152e-38
0.2111605704 -0.1417881697 -0.1877656132 2.341805152e-38
0.2142945826 -0.162269637 -0.1890347004 2.341805152e-38
0.212960124 -0.1124448255 -0.1518560201 2.341805152e-38
0.2329017818 -0.07382167876 -0.1493912786 2.341805152e-38
0.3562394083 -0.0784368813 -0.1558037698 2.341805152e-38
0.2899166644 -0.1445149183 -0.1678934991 2.341805152e-38
0.2568760812 -0.1643663943 -0.182721287 2.341805152e-38
0.2152361274 -0.1636323333 -0.1870725751 2.341805152e-38
0.2185633481 -0.2138418406 -0.1772197187 2.341805152e-38
0.239770025 -0.2213487476 -0.1788647175 2.341805152e-38
0.2247771621 -0.2053034157 -0.147420153 2.341805152e-38
0.2127448916 -0.09942594171 -0.177869007 2.341805152e-38
0.3914539814 -0.2242750078 -0.1451460719 2.341805152e-38
0.3308260143 -0.2422523648 -0.1660926044 2.341805152e-38
0.2676801383 -0.2635350823 -0.1741728783 2.341805152e-38
0.2262704372 -0.2889411747 -0.1716584563 2.341805152e-38
0.2357593477 -0.2851943672 -0.1772798002 2.341805152e-38
0.2454895079 -0.2389134169 -0.1671954393 2.341805152e-38
0.2594799697 -0.2331666648 -0.1319578439 2.341805152e-38
0.2285565436 -0.1672802866 -0.1599444449 2.341805152e-38
0.4612027705 -0.2830371261 -0.1441143751 2.341805152e-38
0.3943143189 -0.286323607 -0.1620254368 2.341805152e-38
0.3200019896 -0.2883162498 -0.1748078614 2.341805152e-38
0.2464915514 -0.29615435 -0.1754939556 2.341805152e-38
0.2284545898 -0.2755536735 -0.1752765477 2.341805152e-38
0.2331730425 -0.2008835524 -0.1700769663 2.341805152e-38
0.2481672466 -0.2037370354 -0.1527970433 2.341805152e-38
0.2250486016 -0.1630069315 -0.1617614329 2.341805152e-38
0.4830873907 -0.2585237026 -0.1571566761 2.341805152e-38
0.4332443178 -0.2677859068 -0.1615412235 2.341805152e-38
0.3632315397 -0.2603029609 -0.1724468768 2.341805152e-38
0.3033224344 -0.2788813114 -0.1908741295 2.341805152e-38
0.2554393113 -0.2437112033 -0.1814412475 2.341805152e-38
0.2370825112 -0.1723017693 -0.1801274866 2.341805152e-38
0.2494574785 -0.17251876 -0.164519459 2.341805152e-38
0.2083911598 -0.1655263156 -0.16250287 2.341805152e-38
0.4688833654 -0.185128212 -0.1802848279 2.341805152e-38
0.4535593688 -0.2122409493 -0.1735067666 2.341805152e-38
0.4015871584 -0.2239248008 -0.1902586222 2.341805152e-38
0.339989692 -0.2376335859 -0.1945864111 2.341805152e-38
0.2823503613 -0.1685921848 -0.1916983724 2.341805152e-38
0.2835272253 -0.1751808226 -0.1947170496 2.341805152e-38
0.2729460597 -0.1518450528 -0.1894341409 2.341805152e-38
0.2280324996 -0.1550732404 -0.165105015 2.341805152e-38
0.4683353603 -0.1412385553 -0.2053605616 2.341805152e-38
0.4571130574 -0.1561582386 -0.2018761337 2.341805152e-38
0.4441407025 -0.2194914669 -0.2178294957 2.341805152e-38
0.3980375826 -0.2612123191 -0.2416654229 2.341805152e-38
0.3628172278 -0.2021655887 -0.2340717316 2.341805152e-38
0.356813401 -0.1674449742 -0.2288040519 2.341805152e-38
0.3339962661 -0.1454891562 -0.2166069746 2.341805152e-38
0.2771515846 -0.1376490742 -0.1760277748 2.341805152e-38
0.09541425854 -0.02348677814 -0.1812746823 2.341805152e-38
0.08328088373 -0.01406298578 -0.2007094771 2.341805152e-38
0.08299895376 -0.04761950672 -0.2197791934 2.341805152e-38
0.0845714584 -0.09657344222 -0.223433286 2.341805152e-38
0.1191582903 -0.1384924054 -0.1955561191 2.341805152e-38
0.111580573 -0.0231449008 -0.1524952352 2.341805152e-38
0.1308110058 0.0008523613214 -0.156581223 2.341805152e-38
0.1371769011 0.03643269837 -0.1402194947 2.341805152e-38
0.1225833371 -0.09457784146 -0.1832098514 2.341805152e-38
0.1245684996 -0.1327637583 -0.2011400759 2.341805152e-38
0.1490308642 -0.1546071768 -0.210770756 2.341805152e-38
0.1421524584 -0.1569748074 -0.2208343148 2.341805152e-38
0.1237454787 -0.1738122404 -0.1735161841 2.341805152e-38
0.1130129471 -0.212487027 -0.2101197839 2.341805152e-38
0.08770357817 -0.07363196462 -0.1840445101 2.341805152e-38
0.1188300923 0.003904029727 -0.1560370028 2.341805152e-38
0.1296387017 -0.1727662981 -0.1756785363 2.341805152e-38
0.1542385519 -0.2295645624 -0.1865854859 2.341805152e-38
0.1670521796 -0.2702712417 -0.2044359595 2.341805152e-38
0.169790417 -0.3523100019 -0.1829459965 2.341805152e-38
0.1727257371 -0.3671613038 -0.1239061952 2.341805152e-38
0.1307355762 -0.2719642818 -0.1760181338 2.341805152e-38
0.1063267514 -0.2429722399 -0.1771148443 2.341805152e-38
0.1004826054 -0.06695508957 -0.184904635 2.341805152e-38
0.1784907281 -0.2746605575 -0.1733623147 2.341805152e-38
0.1741300225 -0.3077014089 -0.1755758673 2.341805152e-38
0.1775592566 -0.4011624753 -0.1621812284 2.341805152e-38
0.1758179665 -0.4191604853 -0.1360124201 2.341805152e-38
0.1831537783 -0.4217120707 -0.1642830074 2.341805152e-38
0.1709337831 -0.378981173 -0.1675020754 2.341805152e-38
0.1294016242 -0.2760797441 -0.1685972959 2.341805152e-38
0.1151157096 -0.1867301911 -0.1806082875 2.341805152e-38
0.2294078171 -0.3618495762 -0.144614026 2.341805152e-38
0.1902388036 -0.3537777066 -0.1612738073 2.341805152e-38
0.1751129329 -0.4039984941 -0.1456628293 2.341805152e-38
0.1668840647 -0.4164505303 -0.1508399844 2.341805152e-38
0.1658039391 -0.4184612632 -0.1795451194 2.341805152e-38
0.1730102897 -0.3783718944 -0.1697373539 2.341805152e-38
0.1596612632 -0.256700635 -0.161737904 2.341805152e-38
0.1516638994 -0.1888964623 -0.1954113692 2.341805152e-38
0.2408517599 -0.3366996646 -0.1619588733 2.341805152e-38
0.2034652531 -0.3417555094 -0.1611555219 2.341805152e-38
0.1760171056 -0.3692338467 -0.1776587218 2.341805152e-38
0.1690912545 -0.4074130952 -0.203831315 2.341805152e-38
0.1610475779 -0.4133871794 -0.2030418664 2.341805152e-38
0.1623816192 -0.2821331024 -0.1822552979 2.341805152e-38
0.1541507244 -0.2022036314 -0.1776893437 2.341805152e-38
0.1323466897 -0.09437170625 -0.1971499622 2.341805152e-38
0.2316578031 -0.2459584922 -0.1790629625 2.341805152e-38
0.2216624022 -0.2851270437 -0.1815214902 2.341805152e-38
0.1701826453 -0.2819449306 -0.2120616734 2.341805152e-38
0.1518725455 -0.302878201 -0.2291645408 2.341805152e-38
0.1433319449 -0.3211632669 -0.2099824846 2.341805152e-38
0.1284810603 -0.1987681091 -0.2153104842 2.341805152e-38
0.1240939125 -0.1450299025 -0.2140526772 2.341805152e-38
0.09517259151 -0.0875519067 -0.193842411 2.341805152e-38
0.2313577533 -0.171762228 -0.200223133 2.341805152e-38
0.2108118236 -0.2276196778 -0.1946698874 2.341805152e-38
0.1834806502 -0.2555270791 -0.2189051807 2.341805152e-38
0.1534813046 -0.2796459794 -0.2486762106 2.341805152e-38
0.1323037446 -0.2914476097 -0.2507690191 2.341805152e-38
0.1347835362 -0.1960453838 -0.2443678677 2.341805152e-38
0.1152186915 -0.1122864932 -0.2448720634 2.341805152e-38
0.07139246911 -0.06338709593 -0.2161240578 2.341805152e-38
0.03745978326 -0.02395519614 -0.1592615843 2.341805152e-38
0.01291274279 -0.04235221446 -0.1860989332 2.341805152e-38
-0.003946371377 -0.03404793143 -0.2064989656 2.341805152e-38
-0.02315498888 -0.03118959069 -0.2201504409 2.341805152e-38
-0.02929892018 -0.04702544212 -0.2343694866 2.341805152e-38
-0.002808406949 -0.002630189061 -0.1971831769 2.341805152e-38
-0.007870398462 0.05603796244 -0.1641445458 2.341805152e-38
-0.06418259442 0.127314195 -0.1808435619 2.341805152e-38
0.0440730378 -0.1212999672 -0.1465690434 2.341805152e-38
0.02964115888 -0.179476589 -0.165686965 2.341805152e-38
0.02318853885 -0.2247773856 -0.2195031941 2.341805152e-38
0.03380135447 -0.2738085091 -0.2408285737 2.341805152e-38
0.03455556184 -0.2887452841 -0.2391561568 2.341805152e-38
0.01677387953 -0.2869125307 -0.2119156867 2.341805152e-38
-0.000985532999 -0.1903868169 -0.1826684475 2.341805152e-38
-0.005442656577 0.02837355435 -0.2041824758 2.341805152e-38
0.04928786308 -0.249215126 -0.15277946 2.341805152e-38
0.05541677028 -0.3051044941 -0.185703218 2.341805152e-38
0.05616026372 -0.3636015356 -0.2235672176 2.341805152e-38
0.06435400993 -0.4282389283 -0.2082473338 2.341805152e-38
0.0681624189 -0.4304286242 -0.2050447613 2.341805152e-38
0.05669979006 -0.4170328379 -0.1614862382 2.341805152e-38
0.02056095004 -0.3348975778 -0.191138953 2.341805152e-38
0.008947066963 -0.1346208304 -0.1977680027 2.341805152e-38
0.07305481285 -0.3412996233 -0.1693047732 2.341805152e-38
0.07786469907 -0.4131246209 -0.1853840053 2.341805152e-38
0.06883407384 -0.4381703734 -0.1735148132 2.341805152e-38
