# .PCD v0.7 - Point Cloud Data file format
VERSION 0.7
FIELDS x y z rgb
SIZE 4 4 4 4
TYPE F F F F
COUNT 1 1 1 1
WIDTH 830
HEIGHT 1
VIEWPOINT 0 0 0 1 0 0 0
POINTS 830
DATA ascii
0.1611472666 -0.4817459881 -0.03513041884 8.906165387e-39
0.3068222404 -0.1914535463 -0.2592526078 8.906165387e-39
-0.07263082266 -0.438713789 -0.2670634985 8.906165387e-39
-0.1870549917 0.05692625046 -0.1155261919 8.906165387e-39
0.1300426126 -0.1302783638 -0.2656889856 8.906165387e-39
-0.01253008842 -0.483122766 -0.2051445246 8.906165387e-39
-0.01154151186 0.05190733075 -0.09085746855 8.906165387e-39
-0.04513036832 -0.4752881527 -0.02744997106 8.906165387e-39
0.3211586475 -0.2932446897 -0.2474380881 8.906165387e-39
-0.2132200748 -0.4837374687 -0.1135488078 8.906165387e-39
-0.01053924859 -0.3525177538 -0.2643263936 8.906165387e-39
-0.1740418226 0.01397305727 -0.2666347027 8.906165387e-39
0.3179545999 -0.2948981225 -0.08098115027 8.906165387e-39
-0.0998993516 -0.4790820479 -0.2295237333 8.906165387e-39
-0.08969152719 0.01565313339 -0.2516336739 8.906165387e-39
-0.09742479026 0.04705125093 -0.1610712707 8.906165387e-39
-0.2123761028 -0.4701105356 -0.26924178 8.906165387e-39
0.2291231602 -0.05304402113 -0.1966551989 8.906165387e-39
-0.2696951032 -0.480625391 -0.1016335711 8.906165387e-39
0.1330117881 -0.1640207767 -0.2525868714 8.906165387e-39
0.3093298078 -0.4185864925 -0.1895931661 8.906165387e-39
-0.2211600244 -0.3131929636 -0.2150066793 8.906165387e-39
-0.1167730093 -0.4756891429 -0.03565044701 8.906165387e-39
-0.1879957616 0.02271410823 -0.2635508776 8.906165387e-39
0.3075521588 -0.4202365875 -0.1906243861 8.906165387e-39
0.3073345721 -0.4108028114 -0.2553652823 8.906165387e-39
-0.003089055419 -0.484690845 -0.1528861374 8.906165387e-39
-0.3128683567 -0.3277287781 -0.2550899088 8.906165387e-39
0.1652587652 -0.08540697396 -0.2663221955 8.906165387e-39
-0.1816167384 0.04939121008 -0.1808416694 8.906165387e-39
-0.04529885203 -0.2716105878 -0.2691813111 8.906165387e-39
0.1096758395 -0.1594779938 -0.265517056 8.906165387e-39
0.0425160937 -0.4277457297 -0.2673797607 8.906165387e-39
0.1316901296 -0.187318787 -0.2625122964 8.906165387e-39
0.3223322034 -0.2654381692 -0.1018150672 8.906165387e-39
-0.3295456469 -0.09296435118 -0.2437477559 8.906165387e-39
0.259726584 -0.1911278367 -0.2715705335 8.906165387e-39
-0.2380721718 -0.4628000259 -0.2730900049 8.906165387e-39
-0.2949842811 -0.2282824963 -0.2447794229 8.906165387e-39
-0.3199475408 -0.00778695941 -0.2551387846 8.906165387e-39
0.1243640035 -0.1672618836 -0.2635321319 8.906165387e-39
-0.315131247 -0.4332710505 -0.2759138644 8.906165387e-39
-0.008078165352 -0.477637291 -0.2428160161 8.906165387e-39
0.02825094387 -0.3108842075 -0.2627255619 8.906165387e-39
-0.2699561715 -0.01027181745 -0.1808157414 8.906165387e-39
0.3266312182 -0.2357086837 -0.2181545198 8.906165387e-39
-0.2701741755 0.06356856227 -0.1587879658 8.906165387e-39
-0.08790563792 0.05541172624 -0.07651976496 8.906165387e-39
-0.1770568788 -0.3055311739 -0.1841142923 8.906165387e-39
0.07025393844 -0.4671409428 -0.259311378 8.906165387e-39
0.04732713476 -0.4217417836 -0.2675914168 8.906165387e-39
-0.3504743278 -0.4638635516 -0.2440692931 1.184631237e-38
-0.330093056 -0.002462685108 -0.2770550549 1.184631237e-38
0.3203167021 -0.3018919528 -0.2460459918 1.184631237e-38
-0.2102722824 -0.4633547664 -0.2695347369 1.184631237e-38
0.1874961406 -0.4548104703 0.1820547283 1.184631237e-38
-0.1788765937 -0.009940057993 -0.2651714385 1.184631237e-38
0.01965888962 -0.473380357 -0.2601957917 1.184631237e-38
-0.2804306746 0.01606062055 -0.2752996683 1.184631237e-38
-0.2783437967 -0.3296331763 -0.2312323898 1.184631237e-38
-0.1361512244 -0.4250346124 0.1822542548 1.184631237e-38
-0.1236393303 -0.04229360819 -0.2615455687 1.184631237e-38
-0.2705986202 -0.2099951953 -0.2246553749 1.184631237e-38
0.1781081706 -0.4550606608 0.1832163632 1.184631237e-38
0.200251475 -0.4226644039 -0.2770849168 1.184631237e-38
-0.2376770824 -0.4695256352 -0.2687929571 1.184631237e-38
0.03575230762 -0.1383913606 -0.2717487514 1.184631237e-38
0.1449014544 -0.4826042652 -0.193915084 1.184631237e-38
0.2347308844 -0.4729781747 -0.1118230447 1.184631237e-38
-0.2512727678 -0.163211301 -0.2767628133 1.184631237e-38
-0.188300848 -0.05547243357 -0.2683888376 1.184631237e-38
-0.2880480886 0.0699403882 -0.1921861321 1.184631237e-38
-0.1281886101 -0.483522743 -0.2196640223 1.184631237e-38
-0.043635346 -0.272228539 -0.2661682665 1.184631237e-38
-0.1158158183 -0.4822279215 -0.2282924801 1.184631237e-38
-0.07908108085 -0.3077471256 -0.2665290236 1.184631237e-38
0.3068946004 -0.4405327737 -0.1193403527 1.184631237e-38
0.2685545683 -0.3370402157 -0.2814340889 1.184631237e-38
-0.0761173293 -0.4320731163 0.1995620579 1.184631237e-38
-0.2951136529 -0.4027274847 -0.2450886816 1.184631237e-38
-0.2815994918 -0.2078327537 -0.2754514515 1.184631237e-38
0.08497528732 -0.4844201803 -0.1113171801 1.184631237e-38
0.3099734187 -0.3166083694 -0.2612710893 1.184631237e-38
0.32843104 -0.390386045 -0.140264526 1.184631237e-38
-0.1682658643 -0.3872726262 -0.2670257986 1.184631237e-38
-0.3147246242 -0.446729213 -0.2427493483 1.184631237e-38
0.07483835518 -0.3965786397 -0.2746377587 1.184631237e-38
0.1793905199 0.02498754859 -0.1986299455 1.184631237e-38
-0.1435400099 -0.4526870847 -0.002147570252 1.184631237e-38
-0.243225351 -0.2845413685 -0.2175019383 1.184631237e-38
0.03753146902 -0.4836024046 0.01509496011 1.184631237e-38
-0.1530638933 -0.2186938077 -0.2660327256 1.184631237e-38
0.1136360914 -0.2905127704 -0.2723643482 1.184631237e-38
-0.3232766986 -0.2802699804 -0.2703126669 1.184631237e-38
-0.2386886775 0.04479274154 -0.1804854572 1.184631237e-38
-0.166129753 -0.4684579968 -0.08200784028 1.184631237e-38
-0.2107462138 -0.3751390576 -0.272639066 1.184631237e-38
-0.2192043066 -0.4002162218 -0.2171497643 1.184631237e-38
-0.1559872478 -0.4811826944 -0.2297068685 1.184631237e-38
0.08502036333 -0.3843473792 -0.2757886648 1.184631237e-38
-0.1254896224 -0.3042927384 -0.2683191895 1.184631237e-38
0.1635894924 -0.004667013884 -0.2304142863 1.184631237e-38
0.019591216 -0.2515858114 -0.2642600238 1.184631237e-38
0.2520179451 -0.3996130824 0.09746716917 1.184631237e-38
-0.08907151222 -0.2395608872 -0.265956223 1.184631237e-38
-0.2100012451 -0.4483653009 0.01704825461 1.184631237e-38
-0.2983653545 -0.4800124168 -0.2621879578 1.184631237e-38
0.2257053107 -0.4817012548 0.01683702134 1.184631237e-38
-0.2775896192 -0.4790301919 -0.04304195195 1.184631237e-38
-0.3334603906 -0.4767324328 -0.2288293988 1.184631237e-38
0.1758835614 -0.4829214513 -0.1066078022 1.184631237e-38
0.3097758293 -0.4379214048 -0.1340700835 1.184631237e-38
-0.3240883052 -0.4696031213 -0.2719893754 1.184631237e-38
-0.3374794126 -0.4599754214 -0.2778732777 1.184631237e-38
-0.162825197 -0.4356081784 0.1029231697 1.184631237e-38
-0.0955503732 -0.3009479642 -0.267042309 1.184631237e-38
-0.3988244534 -0.4327085018 -0.2782557309 1.184631237e-38
-0.3426104784 0.04716652632 -0.2762532234 1.184631237e-38
-0.2816492021 0.06426307559 -0.208516717 1.184631237e-38
-0.2942227423 -0.2697882354 -0.2364812046 1.184631237e-38
0.2752210796 -0.3288395405 -0.007424613461 1.184631237e-38
-0.2255176753 -0.4836137295 -0.174656868 1.184631237e-38
-0.2413581312 -0.4753415287 -0.08449935168 1.184631237e-38
-0.2757130265 0.06415218115 -0.2162155658 1.184631237e-38
-0.2263451666 -0.07366640866 -0.2734591365 1.184631237e-38
-0.3137693405 -0.4829217792 -0.1550295204 1.184631237e-38
-0.1098059043 -0.4386456013 0.1389550865 1.184631237e-38
-0.05566151813 -0.1501408666 -0.2625732124 1.184631237e-38
0.1201768816 -0.4811602235 0.1491606832 1.184631237e-38
0.3165324926 -0.2843350172 -0.2515359223 1.184631237e-38
-0.07636838406 -0.4744759798 -0.261425972 1.184631237e-38
-0.3357203007 -0.0003204345703 -0.2408386618 1.184631237e-38
0.1663798541 -0.1979678869 -0.2710258961 1.184631237e-38
-0.05296479538 -0.4845596254 -0.09797627479 1.184631237e-38
-0.2294375002 0.06376722455 -0.218525961 1.184631237e-38
-0.02680117823 -0.4524637461 0.1461540163 1.184631237e-38
0.3283374012 -0.3879195452 -0.2401298732 1.184631237e-38
-0.1276915818 -0.4458771944 0.0753147006 1.184631237e-38
-0.09092901647 -0.3448997438 -0.2676196694 1.184631237e-38
-0.2504705489 0.005744099617 -0.2731225789 1.184631237e-38
0.3079843223 -0.3751977682 0.006660882384 1.184631237e-38
-0.1063443571 -0.4847536087 -0.1298878044 1.184631237e-38
-0.2105055451 0.02847445011 -0.2673014104 1.184631237e-38
-0.3115257919 0.05816751719 -0.254678458 1.184631237e-38
-0.1830242127 -0.4838386774 -0.196175009 1.184631237e-38
0.1814166009 -0.02824223042 -0.2340609878 1.184631237e-38
-0.1479742229 -0.4369874001 0.1136378348 1.184631237e-38
0.07141199708 -0.1274369359 -0.2489536554 1.184631237e-38
0.2658020854 -0.465780139 -0.07808613032 1.184631237e-38
-0.2039288878 -0.4781058431 -0.1570712477 1.184631237e-38
-0.07248277217 -0.4448849559 0.1467614025 1.184631237e-38
-0.2808485031 0.02833396196 -0.2759287059 1.184631237e-38
0.2622722685 -0.4669698179 -0.07865646482 1.184631237e-38
0.2446469814 -0.4648630917 -0.2013024092 1.184631237e-38
-0.03809432685 -0.4836178124 -0.02849866636 1.184631237e-38
-0.3905968666 -0.4696808457 -0.2692850828 1.184631237e-38
0.1951340884 -0.1562519968 -0.2710225582 1.184631237e-38
-0.3781895339 0.05883434415 -0.2592797279 1.184631237e-38
-0.02528277785 -0.2647348344 -0.2653290629 1.184631237e-38
0.1494510919 -0.2251280546 -0.2682038546 1.184631237e-38
0.02470983192 -0.4752738476 -0.2567772865 1.184631237e-38
0.1741506755 -0.2518135607 -0.2707472444 1.184631237e-38
0.3029048443 -0.3574293852 -0.03269319236 1.184631237e-38
-0.3407563269 -0.3501111269 -0.2638700902 1.184631237e-38
0.2897595167 -0.2843825221 -0.2753925323 1.184631237e-38
-0.1929466873 -0.4811814427 -0.2312822193 1.184631237e-38
-0.3904848993 -0.3927107453 -0.2835196257 1.184631237e-38
-0.3298044503 -0.2306298912 -0.2679047287 1.184631237e-38
0.1666128039 -0.2332175374 -0.2699452043 1.184631237e-38
-0.272839129 -0.4796775281 -0.249318555 1.184631237e-38
-0.04101167992 -0.4846068323 -0.1568371952 1.184631237e-38
-0.0541574955 -0.3069310188 -0.2650588155 1.184631237e-38
-0.248822391 -0.403998673 -0.2286799997 1.184631237e-38
0.3277961016 -0.3189880848 -0.1773733795 1.184631237e-38
-0.286106497 -0.2874171734 -0.2318440825 1.184631237e-38
-0.3003017604 0.06344354153 -0.2117078453 1.184631237e-38
-0.151355505 -0.4766509533 -0.1170466915 1.184631237e-38
0.02613191679 -0.4838429689 -0.1939524114 1.184631237e-38
0.03107675537 -0.473244071 -0.2607904673 1.184631237e-38
-0.3429428637 -0.4676681161 -0.231252715 1.478322936e-38
-0.3356775343 0.01212087274 -0.277859211 1.478322936e-38
0.3150505424 -0.3184434175 -0.2398365289 1.478322936e-38
-0.3089818954 -0.4589813352 -0.2762166262 1.478322936e-38
0.1660951525 -0.45582515 0.1859545261 1.478322936e-38
-0.1755751967 0.01523071527 -0.2594660819 1.478322936e-38
-0.07520904392 -0.4717861414 -0.2595935762 1.478322936e-38
-0.2904668748 0.03201323748 -0.2744373083 1.478322936e-38
-0.2736835182 -0.3527869284 -0.2188827097 1.478322936e-38
-0.2019113898 -0.4230148494 0.1782345772 1.478322936e-38
-0.124435097 -0.01187333465 -0.2565437257 1.478322936e-38
-0.2717228234 -0.2423397005 -0.2076190412 1.478322936e-38
0.153411746 -0.4570370913 0.1860299706 1.478322936e-38
0.1483341306 -0.4394121766 -0.2679243982 1.478322936e-38
-0.3294410706 -0.4687472582 -0.2741244137 1.478322936e-38
0.01147190854 -0.1660012156 -0.2666850388 1.478322936e-38
0.09514668584 -0.4840771258 -0.1969157308 1.478322936e-38
0.1929498166 -0.4843777716 -0.1215835288 1.478322936e-38
-0.2803980112 -0.1026175767 -0.2766304314 1.478322936e-38
-0.2107301503 -0.01470902562 -0.265740633 1.478322936e-38
-0.2859553099 0.07171964645 -0.1800630689 1.478322936e-38
-0.2082407624 -0.4816379845 -0.2235806733 1.478322936e-38
-0.1214625686 -0.3386486769 -0.2607539296 1.478322936e-38
-0.1991823763 -0.480050385 -0.2340252548 1.478322936e-38
-0.1498814374 -0.3508880734 -0.2627963722 1.478322936e-38
0.2852306962 -0.4561813474 -0.1223574802 1.478322936e-38
0.2473592609 -0.3512149751 -0.2747226655 1.478322936e-38
-0.1414426863 -0.4278970957 0.18056117 1.478322936e-38
-0.2826010585 -0.3963896334 -0.2279735655 1.478322936e-38
-0.2988750041 -0.1490752548 -0.2758972347 1.478322936e-38
0.02990761027 -0.4849098921 -0.1192425266 1.478322936e-38
0.3011158705 -0.3359553516 -0.2577004433 1.478322936e-38
0.3247974813 -0.4041797519 -0.1359996796 1.478322936e-38
-0.2564111948 -0.3474663198 -0.2654003203 1.478322936e-38
-0.3008925021 -0.4480150342 -0.2167029232 1.478322936e-38
-0.004493184388 -0.412494719 -0.2663257718 1.478322936e-38
0.2017825991 0.04074653983 -0.1731263697 1.478322936e-38
-0.1928993165 -0.4572550058 -0.0006165858358 1.478322936e-38
-0.2502737641 -0.3041008711 -0.1966657639 1.478322936e-38
-0.0130593814 -0.4839416742 0.0029811766 1.478322936e-38
-0.1801787466 -0.1537529379 -0.2662806213 1.478322936e-38
0.06140804663 -0.3119175732 -0.2636593878 1.478322936e-38
-0.3230962753 -0.2519211173 -0.2709632814 1.478322936e-38
-0.2483797073 0.01440918446 -0.1587381959 1.478322936e-38
-0.2193434685 -0.4817950428 -0.08077380061 1.478322936e-38
-0.273986131 -0.3290159404 -0.2704909146 1.478322936e-38
-0.2392221689 -0.4055757523 -0.1831412613 1.478322936e-38
-0.2336634547 -0.4786488414 -0.2328202277 1.478322936e-38
0.007340256125 -0.4003286064 -0.2684776485 1.478322936e-38
-0.147499904 -0.2643427253 -0.2667997181 1.478322936e-38
0.1806393117 0.01981005073 -0.2201675475 1.478322936e-38
-0.0519428812 -0.2779232264 -0.2599707544 1.478322936e-38
0.2681593895 -0.4020190239 0.1371983141 1.478322936e-38
-0.1194028407 -0.174898684 -0.2646475732 1.478322936e-38
-0.2874039114 -0.4587690234 0.0299661085 1.478322936e-38
-0.3643752038 -0.4847130775 -0.2665174007 1.478322936e-38
0.1778688729 -0.4831709862 0.01232806221 1.478322936e-38
-0.3427908719 -0.4835300446 -0.02208604477 1.478322936e-38
-0.3222160637 -0.4772523046 -0.2049944997 1.478322936e-38
0.1291249394 -0.4846909046 -0.1165129021 1.478322936e-38
0.2860390246 -0.4558226466 -0.1347629577 1.478322936e-38
-0.3739742339 -0.4587477446 -0.2795186639 1.478322936e-38
-0.3738858998 -0.4303005934 -0.2844001949 1.478322936e-38
-0.2277215719 -0.4409451187 0.1093982235 1.478322936e-38
-0.1138266027 -0.2552377582 -0.2661235332 1.478322936e-38
-0.4026927948 -0.4064778984 -0.2778426409 1.478322936e-38
-0.3370286822 0.05106341839 -0.2736640871 1.478322936e-38
-0.2680416107 0.06944680214 -0.1956386268 1.478322936e-38
-0.2867530882 -0.2901680171 -0.2310201973 1.478322936e-38
0.2834885418 -0.3193273842 0.04083737731 1.478322936e-38
-0.2872264683 -0.4820870757 -0.1776010692 1.478322936e-38
-0.3157933652 -0.4837253392 -0.07352337986 1.478322936e-38
-0.2575364113 0.06883659959 -0.1989522576 1.478322936e-38
-0.2499936819 -0.03163453937 -0.2733521163 1.478322936e-38
-0.3766935766 -0.491994679 -0.1561960429 1.478322936e-38
-0.1693468839 -0.4325324297 0.1437322199 1.478322936e-38
-0.08915573359 -0.09319530427 -0.2639435828 1.478322936e-38
0.06814147532 -0.4822973013 0.1336354464 1.478322936e-38
0.308298409 -0.3007258177 -0.2456103712 1.478322936e-38
-0.1715416014 -0.4720128477 -0.2647034526 1.478322936e-38
-0.3241540194 -0.0157828331 -0.2278984934 1.478322936e-38
0.1478254795 -0.2192998528 -0.2619096339 1.478322936e-38
-0.1170185357 -0.4856716394 -0.09843640774 1.478322936e-38
-0.2043391168 0.06741547585 -0.1990751773 1.478322936e-38
-0.09423032403 -0.4485666156 0.1313179284 1.478322936e-38
0.3151506186 -0.412715286 -0.2458054274 1.478322936e-38
-0.1770673096 -0.4425516725 0.07435546815 1.478322936e-38
-0.1215428561 -0.3044141829 -0.2651870549 1.478322936e-38
-0.2591610849 0.02776408195 -0.2719946206 1.478322936e-38
0.3128042221 -0.3820892572 0.03284596652 1.478322936e-38
-0.1818198711 -0.485693872 -0.1318091005 1.478322936e-38
-0.1885093004 0.03690904379 -0.2613502145 1.478322936e-38
-0.2862766981 0.06221672893 -0.2485966831 1.478322936e-38
-0.2463338077 -0.4829325676 -0.2012545615 1.478322936e-38
0.1977604479 -0.001832455397 -0.2263657898 1.478322936e-38
-0.2114883363 -0.4364330769 0.1188658774 1.478322936e-38
0.061009828 -0.08756403625 -0.2458982915 1.478322936e-38
0.2296031266 -0.4790080488 -0.09079642594 1.478322936e-38
-0.2323947102 -0.4678814113 -0.1063263044 1.478322936e-38
-0.134521246 -0.4396320581 0.1370370537 1.478322936e-38
-0.2886099219 0.04073491693 -0.273792237 1.478322936e-38
0.2252971977 -0.4804241657 -0.0910371542 1.478322936e-38
0.2044917792 -0.4831037819 -0.2053151131 1.478322936e-38
-0.09316258132 -0.4843040705 -0.04008983076 1.478322936e-38
-0.4162937999 -0.4569957852 -0.2703771889 1.478322936e-38
0.1819034368 -0.1780139506 -0.2672147155 1.478322936e-38
-0.3697855473 0.06144335866 -0.2586820722 1.478322936e-38
-0.1015718281 -0.3235267401 -0.2602675855 1.478322936e-38
0.1231399328 -0.2443897128 -0.2584300935 1.478322936e-38
-0.06771987677 -0.4736084938 -0.2567748129 1.478322936e-38
0.1450981051 -0.2742506266 -0.2639939487 1.478322936e-38
0.3062014282 -0.3609619439 -0.01765376143 1.478322936e-38
-0.3256059587 -0.3439066708 -0.2594696581 1.478322936e-38
0.2795066535 -0.3039639294 -0.272472769 1.478322936e-38
-0.2688029408 -0.4781515896 -0.2288178653 1.478322936e-38
-0.3812830448 -0.3654583395 -0.2776616812 1.478322936e-38
-0.3319915235 -0.2189669907 -0.2700002789 1.478322936e-38
0.1404813081 -0.2540011406 -0.2608706057 1.478322936e-38
-0.3468691707 -0.4858730137 -0.2518704236 1.478322936e-38
-0.1095556617 -0.4853631258 -0.1554002017 1.478322936e-38
-0.06811313331 -0.2546744943 -0.263651669 1.478322936e-38
-0.2623077631 -0.4014168978 -0.1946036965 1.478322936e-38
0.3262636065 -0.3364508152 -0.1727645397 1.478322936e-38
-0.2800082862 -0.3112891018 -0.2230684012 1.478322936e-38
-0.2922305465 0.06855139136 -0.2006555498 1.478322936e-38
-0.1914822757 -0.4621851444 -0.06045132875 1.478322936e-38
-0.04111524671 -0.4848448932 -0.1979354918 1.478322936e-38
-0.06110669672 -0.4717513323 -0.2586196065 1.478322936e-38
-0.3595780134 -0.3890826404 -0.2563114166 1.771655483e-38
-0.3271496296 0.02975532413 -0.2780822814 1.771655483e-38
0.3025977314 -0.3493778706 -0.2464555651 1.771655483e-38
-0.3585139811 -0.4085564315 -0.2825101912 1.771655483e-38
-0.01822517812 -0.4806615412 0.1198725253 1.771655483e-38
-0.07719810307 0.01879057288 -0.2567488253 1.771655483e-38
-0.1582410932 -0.4616090059 -0.2655685544 1.771655483e-38
-0.2451582402 0.04236656427 -0.2671441436 1.771655483e-38
-0.3139498234 -0.3070015609 -0.2388923913 1.771655483e-38
-0.3037499487 -0.4387247264 0.1370873451 1.771655483e-38
-0.02117170393 -0.003410369158 -0.2505465746 1.771655483e-38
-0.2921080291 -0.2046701461 -0.2294261903 1.771655483e-38
-0.03194134682 -0.4784891009 0.1195866987 1.771655483e-38
0.07115717232 -0.4461061358 -0.2553631067 1.771655483e-38
-0.3741761446 -0.42274037 -0.2858419716 1.771655483e-38
-0.02366581187 -0.2161229551 -0.2655017972 1.771655483e-38
0.03619505838 -0.4805107713 -0.2276408523 1.771655483e-38
0.1218497306 -0.483902216 -0.162727952 1.771655483e-38
-0.2674089372 -0.05888110399 -0.271630317 1.771655483e-38
-0.1522368938 0.009467929602 -0.2572111487 1.771655483e-38
-0.2908955812 0.08010110259 -0.1911135018 1.771655483e-38
-0.2861027718 -0.4761033654 -0.2521047592 1.771655483e-38
-0.1564807445 -0.3410552442 -0.2619651556 1.771655483e-38
-0.2790134251 -0.4739767015 -0.2611101866 1.771655483e-38
-0.1412237585 -0.3224881887 -0.2629935145 1.771655483e-38
0.2326103896 -0.4836319387 -0.1634646058 1.771655483e-38
0.1803956628 -0.3643096983 -0.2645586729 1.771655483e-38
-0.2319717705 -0.4281771779 0.1378375888 1.771655483e-38
-0.3205872178 -0.3473496139 -0.2493510097 1.771655483e-38
-0.3089644909 -0.08679398894 -0.2747423351 1.771655483e-38
-0.04167872295 -0.484759897 -0.1639525443 1.771655483e-38
0.2708729506 -0.3587945402 -0.2597003877 1.771655483e-38
0.32627213 -0.4521935582 -0.1774452925 1.771655483e-38
-0.2498542219 -0.2867155969 -0.2623374462 1.771655483e-38
-0.3283955753 -0.3859989345 -0.2380481213 1.771655483e-38
-0.09144215286 -0.4168534279 -0.2595698237 1.771655483e-38
0.2598343194 0.03973188996 -0.1749667972 1.771655483e-38
-0.2844775915 -0.481392473 -0.04267219454 1.771655483e-38
-0.2754034698 -0.266490072 -0.2225227505 1.771655483e-38
-0.1206029654 -0.4846454263 -0.07150641084 1.771655483e-38
-0.1625716984 -0.1202095449 -0.2606320381 1.771655483e-38
-0.02342799492 -0.3241865635 -0.2552960813 1.771655483e-38
-0.3468929231 -0.1866045594 -0.2778543532 1.771655483e-38
-0.2721603513 0.03478059173 -0.1662718952 1.771655483e-38
-0.3156839907 -0.4837435484 -0.1216774806 1.771655483e-38
-0.2570595741 -0.2606814504 -0.2634368837 1.771655483e-38
-0.2691959739 -0.3712236285 -0.2103137821 1.771655483e-38
-0.3258645236 -0.4786286354 -0.2568947673 1.771655483e-38
-0.07836958021 -0.411400497 -0.2574397326 1.771655483e-38
-0.1078447849 -0.2365339994 -0.2612628639 1.771655483e-38
0.2648973763 0.01973462105 -0.2055365145 1.771655483e-38
-0.1163350493 -0.3543114364 -0.2622681558 1.771655483e-38
0.251337558 -0.4602980018 0.1030395478 1.771655483e-38
-0.09261697531 -0.1451939195 -0.2563017607 1.771655483e-38
-0.3803185523 -0.4853446186 -0.0114372354 1.771655483e-38
-0.4182007611 -0.4524117112 -0.2854388952 1.771655483e-38
0.06823138893 -0.483815372 -0.0681155622 1.771655483e-38
-0.4040773809 -0.4839698076 -0.05426870286 1.771655483e-38
-0.3421351314 -0.4092239738 -0.2333245128 1.771655483e-38
0.05889977887 -0.484095782 -0.1596164256 1.771655483e-38
0.2363350838 -0.483255595 -0.1786874682 1.771655483e-38
-0.3874696195 -0.4006735981 -0.2880427241 1.771655483e-38
-0.3661851883 -0.3606026173 -0.2853398621 1.771655483e-38
-0.3365448117 -0.4586701393 0.06168114394 1.771655483e-38
-0.07226162404 -0.2304290533 -0.2591153979 1.771655483e-38
-0.398360461 -0.3349019289 -0.2791634202 1.771655483e-38
-0.3010649979 0.05646842718 -0.2737689316 1.771655483e-38
-0.2498921156 0.07920026779 -0.2017803937 1.771655483e-38
-0.3276120424 -0.2495265901 -0.2523700595 1.771655483e-38
0.3139485121 -0.3774563372 -0.01338928752 1.771655483e-38
-0.401627779 -0.487883985 -0.2136293501 1.771655483e-38
-0.4134738147 -0.4860857129 -0.1131537929 1.771655483e-38
-0.2287232131 0.07783177495 -0.2026245445 1.771655483e-38
-0.223504886 -0.001634597778 -0.2632284164 1.771655483e-38
-0.4433881342 -0.4918375909 -0.184679538 1.771655483e-38
-0.2608424723 -0.4427799284 0.08745068312 1.771655483e-38
-0.02650523372 -0.0746499449 -0.25107342 1.771655483e-38
-0.08005596697 -0.4795939326 0.04921516031 1.771655483e-38
0.2945174277 -0.3284711838 -0.2497762293 1.771655483e-38
-0.2506940365 -0.4633625746 -0.2719071209 1.771655483e-38
-0.3506003618 0.03918150067 -0.2423695773 1.771655483e-38
0.08130961657 -0.2206484377 -0.2507131696 1.771655483e-38
-0.2016918212 -0.4851869941 -0.1459171921 1.771655483e-38
-0.1674643457 0.074734658 -0.2051425576 1.771655483e-38
-0.1828231812 -0.4448491335 0.07617864013 1.771655483e-38
0.2820875347 -0.4372834861 -0.248797372 1.771655483e-38
-0.273593992 -0.4615494609 0.01806892827 1.771655483e-38
-0.06544988602 -0.292553544 -0.2598689198 1.771655483e-38
-0.1937034428 0.03792837262 -0.261554122 1.771655483e-38
0.3341629803 -0.4370466173 -0.03470423073 1.771655483e-38
-0.2479484081 -0.4844056666 -0.1817604005 1.771655483e-38
-0.08777153492 0.04384252429 -0.2570828199 1.771655483e-38
-0.2507015467 0.0722578764 -0.2524796426 1.771655483e-38
-0.3489528 -0.4820355773 -0.2325199395 1.771655483e-38
0.2785530984 0.002349734306 -0.2139031142 1.771655483e-38
-0.3159526289 -0.4538855255 0.0692807585 1.771655483e-38
0.1565131098 -0.07806640863 -0.2393183857 1.771655483e-38
0.145556882 -0.4838847518 -0.136129573 1.771655483e-38
-0.2610364258 -0.4438038766 -0.1412234902 1.771655483e-38
-0.2190119624 -0.4393464625 0.08231314272 1.771655483e-38
-0.232735008 0.04516968131 -0.2659515738 1.771655483e-38
0.1406835616 -0.4838814139 -0.1366848052 1.771655483e-38
0.1596193612 -0.4804158807 -0.2340372652 1.771655483e-38
-0.1894775033 -0.4856849909 -0.09233879298 1.771655483e-38
-0.4221196175 -0.3933543861 -0.2797159553 1.771655483e-38
0.1242647171 -0.1825342476 -0.2553361654 1.771655483e-38
-0.3609119952 0.07285100222 -0.2611679137 1.771655483e-38
-0.1536720842 -0.3496417105 -0.2623188794 1.771655483e-38
0.05243008211 -0.2457709461 -0.2532450557 1.771655483e-38
-0.1519999206 -0.465688765 -0.2652618289 1.771655483e-38
0.07508447766 -0.2767589986 -0.252793014 1.771655483e-38
0.3295911252 -0.4099275172 -0.06617169827 1.771655483e-38
-0.3631437719 -0.2790126503 -0.2695047855 1.771655483e-38
0.2293015271 -0.3174200952 -0.264683485 1.771655483e-38
-0.3701390922 -0.483384788 -0.2566925287 1.771655483e-38
-0.3770164847 -0.314973712 -0.2749083638 1.771655483e-38
-0.3603470027 -0.1529351473 -0.2758872509 1.771655483e-38
0.06864248216 -0.2552544177 -0.2514689863 1.771655483e-38
-0.4185414314 -0.4779015779 -0.2804985344 1.771655483e-38
-0.197378397 -0.4845585823 -0.2070269883 1.771655483e-38
-0.01349363104 -0.2368131727 -0.2568520606 1.771655483e-38
-0.2967419326 -0.3638027608 -0.215578258 1.771655483e-38
0.3352280259 -0.3969067335 -0.1960917115 1.771655483e-38
-0.3211637735 -0.2682076693 -0.2440193146 1.771655483e-38
-0.2822465301 0.07811522484 -0.208899051 1.771655483e-38
-0.2154646516 -0.4535226822 -0.09816191345 1.771655483e-38
-0.1324953139 -0.4802233279 -0.2365921885 1.771655483e-38
-0.1452207863 -0.4615285695 -0.2640847266 1.771655483e-38
-0.2867156267 -0.3081029058 -0.215143159 2.06466517e-38
-0.2947641611 0.02648633718 -0.268340975 2.06466517e-38
0.3145499527 -0.3777834475 -0.2308873683 2.06466517e-38
-0.2940768301 -0.3094138801 -0.2653377354 2.06466517e-38
0.07534556091 -0.4850768745 0.1628669798 2.06466517e-38
-0.03159146011 0.03203204274 -0.2497243732 2.06466517e-38
-0.2176155001 -0.4450150132 -0.2576809227 2.06466517e-38
-0.2175939977 0.04646641016 -0.2598946095 2.06466517e-38
-0.2896005511 -0.216306448 -0.1798923016 2.06466517e-38
-0.3074021339 -0.4471075237 0.1381580234 2.06466517e-38
0.02281328663 0.01096698642 -0.2445382625 2.06466517e-38
-0.3205271661 -0.03342315555 -0.1689574122 2.06466517e-38
0.0621210672 -0.485188514 0.1601739228 2.06466517e-38
0.05237837508 -0.4386460185 -0.2530664504 2.06466517e-38
-0.302289784 -0.3119468391 -0.2616488934 2.06466517e-38
0.008287150413 -0.3884664178 -0.2541409433 2.06466517e-38
0.03826272115 -0.4818813205 -0.216104269 2.06466517e-38
0.1271798313 -0.4846480489 -0.1346546412 2.06466517e-38
-0.2464465648 -0.02772003412 -0.2691979706 2.06466517e-38
-0.1104444712 0.02009174228 -0.2543891668 2.06466517e-38
-0.2899667025 0.07842582464 -0.1566422582 2.06466517e-38
-0.3138875961 -0.4585616589 -0.2451724261 2.06466517e-38
-0.09623991698 -0.2806557715 -0.256464839 2.06466517e-38
-0.3056693971 -0.458571136 -0.2543761134 2.06466517e-38
-0.07574447244 -0.2635027766 -0.2554363012 2.06466517e-38
0.229009971 -0.4841023088 -0.1205731109 2.06466517e-38
0.1784874648 -0.3998630047 -0.2636549771 2.06466517e-38
-0.2316527665 -0.4650268555 0.1340528429 2.06466517e-38
-0.2798094451 -0.2626174986 -0.1943877488 2.06466517e-38
-0.2870560586 -0.042227 -0.2684109211 2.06466517e-38
-0.02752830088 -0.4852061868 -0.1539438963 2.06466517e-38
0.2851535082 -0.3874151707 -0.2529129982 2.06466517e-38
0.3111055791 -0.4636973441 -0.1413663477 2.06466517e-38
-0.2033823282 -0.2289426327 -0.2589485943 2.06466517e-38
-0.2749085426 -0.3155786991 -0.1897402555 2.06466517e-38
-0.1766031682 -0.3754214644 -0.2507728636 2.06466517e-38
0.3007851839 0.05516415834 -0.1529607922 2.06466517e-38
-0.296538204 -0.4610502124 -0.02908855118 2.06466517e-38
-0.2907643616 -0.1709092855 -0.15438959 2.06466517e-38
-0.072575517 -0.4851897061 -0.04965360463 2.06466517e-38
-0.1269386262 -0.06169503927 -0.2557707131 2.06466517e-38
-0.08835136145 -0.3585602939 -0.2517006993 2.06466517e-38
-0.3158134818 -0.07196041942 -0.2556113303 2.06466517e-38
-0.2994944155 0.07373970747 -0.1209922209 2.06466517e-38
-0.3158806562 -0.4628411531 -0.1105764434 2.06466517e-38
-0.2099767625 -0.2119131982 -0.2637427449 2.06466517e-38
-0.2711164355 -0.2860425115 -0.1400289536 2.06466517e-38
-0.3333806396 -0.429325819 -0.251006037 2.06466517e-38
-0.1674793363 -0.3722123206 -0.2505541146 2.06466517e-38
-0.07155328989 -0.1586782485 -0.2536455393 2.06466517e-38
0.3115388453 0.03651222587 -0.1912456304 2.06466517e-38
-0.1158843338 -0.3135834634 -0.2562445104 2.06466517e-38
0.3100155294 -0.4542177618 0.1925371289 2.06466517e-38
-0.04956902936 -0.07983487844 -0.2496163398 2.06466517e-38
-0.3230746388 -0.4100743532 -0.02620840259 2.06466517e-38
-0.3205890357 -0.3222309351 -0.2499234527 2.06466517e-38
0.09188978374 -0.4847038984 -0.03212279826 2.06466517e-38
-0.3019847572 -0.4046480358 -0.06860791147 2.06466517e-38
-0.2777117193 -0.3364115357 -0.191580385 2.06466517e-38
0.06236379221 -0.4852539301 -0.1402801871 2.06466517e-38
0.2338316292 -0.4834543467 -0.1362047344 2.06466517e-38
-0.3058855534 -0.2954396307 -0.2551366091 2.06466517e-38
-0.2955446541 -0.2713775635 -0.2568421662 2.06466517e-38
-0.3265176713 -0.4438585043 0.05339151621 2.06466517e-38
-0.03686891496 -0.144075349 -0.252019763 2.06466517e-38
-0.3128676116 -0.2690623701 -0.2459266335 2.06466517e-38
-0.2769031525 0.05736094713 -0.2626434565 2.06466517e-38
-0.229358077 0.07711744308 -0.1653655469 2.06466517e-38
-0.3064915836 -0.1545690745 -0.1908224821 2.06466517e-38
0.3109825552 -0.3799917102 0.09323649108 2.06466517e-38
-0.3541920483 -0.4109478593 -0.1962242424 2.06466517e-38
-0.3306502104 -0.3967668414 -0.1174185947 2.06466517e-38
-0.2110228539 0.0768982172 -0.1693958491 2.06466517e-38
-0.1830768883 0.01530861855 -0.2613598108 2.06466517e-38
-0.324088484 -0.3664792776 -0.1713205725 2.06466517e-38
-0.279966116 -0.4652842581 0.08894011378 2.06466517e-38
0.02233161405 -0.03811529279 -0.2403692454 2.06466517e-38
-0.01930180192 -0.4847857058 0.08481086791 2.06466517e-38
0.3105347157 -0.3590657711 -0.2365522534 2.06466517e-38
-0.2847401798 -0.4163115621 -0.2646278143 2.06466517e-38
-0.3280556202 0.06892895699 -0.1916107237 2.06466517e-38
0.0993719101 -0.2766162157 -0.2489507645 2.06466517e-38
-0.1864986718 -0.4844909906 -0.1503895223 2.06466517e-38
-0.146965459 0.07623955607 -0.167807281 2.06466517e-38
-0.1647076011 -0.477909714 0.08421411365 2.06466517e-38
0.3020775318 -0.4574633241 -0.235826984 2.06466517e-38
-0.2882462442 -0.4632507265 0.03078414313 2.06466517e-38
-0.02267887071 -0.2158152759 -0.2515686452 2.06466517e-38
-0.1639332473 0.04334548116 -0.2552797794 2.06466517e-38
0.3177048266 -0.4395413697 0.04290498048 2.06466517e-38
-0.2570411563 -0.4789201021 -0.1807951033 2.06466517e-38
-0.05518672615 0.05052652955 -0.2488620132 2.06466517e-38
-0.2284636348 0.07220908999 -0.2273649126 2.06466517e-38
-0.350971818 -0.4415404201 -0.2207324058 2.06466517e-38
0.3255387843 0.02194568515 -0.1976938993 2.06466517e-38
-0.3158883452 -0.4500123262 0.06949430704 2.06466517e-38
0.198270306 -0.04613471031 -0.2366851419 2.06466517e-38
0.1599652767 -0.4848898649 -0.09961288422 2.06466517e-38
-0.2456245124 -0.4119877219 -0.1068799272 2.06466517e-38
-0.2192046493 -0.479041785 0.0814339146 2.06466517e-38
-0.2074348927 0.04968979955 -0.2574710548 2.06466517e-38
0.1556575149 -0.4849102497 -0.1005062535 2.06466517e-38
0.1561931372 -0.4814260602 -0.2112641931 2.06466517e-38
-0.1636545211 -0.4854046702 -0.08886198699 2.06466517e-38
-0.3187880218 -0.3005135953 -0.2436815947 2.06466517e-38
0.1463867277 -0.226338774 -0.2479732186 2.06466517e-38
-0.3201788962 0.06852802634 -0.2303357571 2.06466517e-38
-0.1084994748 -0.2856262624 -0.2568832636 2.06466517e-38
0.04217218235 -0.3270140588 -0.2538157105 2.06466517e-38
-0.2034830004 -0.450343132 -0.2561267316 2.06466517e-38
0.06320443749 -0.3391563594 -0.2509334087 2.06466517e-38
0.3142985702 -0.4237551093 -0.003275157884 2.06466517e-38
-0.3057943881 -0.1834904253 -0.2436527163 2.06466517e-38
0.2427420169 -0.3516181707 -0.2608698905 2.06466517e-38
-0.3406993449 -0.3982502818 -0.2449570447 2.06466517e-38
-0.316680789 -0.2247655094 -0.2495171875 2.06466517e-38
-0.3321187496 -0.04326912761 -0.2576123476 2.06466517e-38
0.06571763754 -0.3200451136 -0.2517020702 2.06466517e-38
-0.3265456557 -0.3279775679 -0.2475254089 2.06466517e-38
-0.1926870942 -0.4805585742 -0.207376346 2.06466517e-38
0.01354296878 -0.1445192993 -0.2498029619 2.06466517e-38
-0.2740277946 -0.2819429338 -0.1573308706 2.06466517e-38
0.3270958066 -0.4178646207 -0.1747446209 2.06466517e-38
-0.3001303077 -0.1768744886 -0.182064414 2.06466517e-38
-0.2663526833 0.07805129886 -0.1747113317 2.06466517e-38
-0.2287255824 -0.4390619397 -0.08823507279 2.06466517e-38
-0.12548621 -0.4775657058 -0.226610139 2.06466517e-38
-0.2008298635 -0.4465751052 -0.2561877966 2.06466517e-38
-0.3199219704 -0.2192226648 -0.2065534592 2.348204041e-38
-0.2932709455 0.06422996521 -0.2642168701 2.348204041e-38
0.2936215103 -0.4216648042 -0.2263088077 2.348204041e-38
-0.3121151626 -0.2578359246 -0.2629255652 2.348204041e-38
-0.03685426712 -0.4851280451 0.126374349 2.348204041e-38
0.02600412443 0.05597007275 -0.2411718816 2.348204041e-38
-0.3052929342 -0.3929186761 -0.2658958137 2.348204041e-38
-0.1690379679 0.06302091479 -0.2524321973 2.348204041e-38
-0.3614879251 0.03539475799 -0.1546467394 2.348204041e-38
-0.3252285719 -0.4223731756 0.09518535435 2.348204041e-38
0.09170241654 0.03736567497 -0.2401342541 2.348204041e-38
-0.3407229185 0.07877078652 -0.1147880033 2.348204041e-38
-0.05151488259 -0.4851654172 0.1254199147 2.348204041e-38
-0.06509299576 -0.4327816367 -0.2499385625 2.348204041e-38
-0.3205956221 -0.2563203573 -0.2588791251 2.348204041e-38
-0.02605733648 -0.3876229525 -0.2504675686 2.348204041e-38
-0.0427894704 -0.4775895476 -0.2195263803 2.348204041e-38
0.07158112526 -0.4846614003 -0.1493313909 2.348204041e-38
-0.2718964517 0.02261602879 -0.2666400373 2.348204041e-38
-0.06017172709 0.04622858763 -0.2500083148 2.348204041e-38
-0.2477857918 0.08233180642 -0.08008728176 2.348204041e-38
-0.3568485379 -0.3913532794 -0.2478706092 2.348204041e-38
-0.0969504267 -0.2673424184 -0.2562032044 2.348204041e-38
-0.3525347412 -0.3864296377 -0.2561109066 2.348204041e-38
-0.07823897153 -0.2366771698 -0.2543385327 2.348204041e-38
0.1756530255 -0.4840157628 -0.1329306364 2.348204041e-38
0.1061313301 -0.4334185123 -0.2583940327 2.348204041e-38
-0.3004208207 -0.4601620138 0.1227966771 2.348204041e-38
-0.3400047123 -0.1282242984 -0.1767197102 2.348204041e-38
-0.3156366944 0.00515627861 -0.2685620785 2.348204041e-38
-0.1116315052 -0.4833709002 -0.174512729 2.348204041e-38
0.2402699441 -0.424808532 -0.2483568639 2.348204041e-38
0.2757557333 -0.4830639958 -0.1379585564 2.348204041e-38
-0.2271216363 -0.1723596454 -0.2641898394 2.348204041e-38
-0.317514509 -0.2095898688 -0.1771948934 2.348204041e-38
-0.242117703 -0.3320617974 -0.2534928024 2.348204041e-38
0.300154537 0.06428828835 -0.1308105886 2.348204041e-38
-0.3641370535 -0.4446621835 -0.05958406627 2.348204041e-38
-0.3508677781 0.07915964723 -0.1070125028 2.348204041e-38
-0.1796037704 -0.4853005707 -0.08032540977 2.348204041e-38
-0.1227498204 -0.002020865679 -0.2503390312 2.348204041e-38
-0.1754483283 -0.3308498263 -0.255839467 2.348204041e-38
-0.3609942198 0.0036008358 -0.2614136338 2.348204041e-38
-0.2851408422 0.08332797885 -0.04333371669 2.348204041e-38
-0.3705009222 -0.4327732027 -0.1275522858 2.348204041e-38
-0.2404146194 -0.1417561024 -0.2679304183 2.348204041e-38
-0.3367240131 -0.06391173601 -0.1296062022 2.348204041e-38
-0.3498446643 -0.3514231443 -0.2454627603 2.348204041e-38
-0.2350618094 -0.329577893 -0.2538372874 2.348204041e-38
-0.07833906263 -0.07594031096 -0.2490533143 2.348204041e-38
0.3211666942 0.04954880476 -0.1815507859 2.348204041e-38
-0.1026396155 -0.3152534962 -0.2580079138 2.348204041e-38
0.2305254787 -0.4851422012 0.1602535099 2.348204041e-38
-0.03799127042 -0.0285307467 -0.244308129 2.348204041e-38
-0.3210765421 -0.4048640132 -0.07597510517 2.348204041e-38
-0.3368164003 -0.2735925913 -0.2506496906 2.348204041e-38
0.02166461572 -0.4851621389 -0.05954225361 2.348204041e-38
-0.2968884408 -0.4086414576 -0.1142259315 2.348204041e-38
-0.3094319403 -0.2533694506 -0.1818753481 2.348204041e-38
0.01105929539 -0.484783411 -0.1554076672 2.348204041e-38
0.1804008931 -0.4834554791 -0.1456819624 2.348204041e-38
-0.3323644996 -0.2132325768 -0.2569152713 2.348204041e-38
-0.3287530243 -0.1697930098 -0.2560457885 2.348204041e-38
-0.3341096938 -0.3962004483 0.002564258873 2.348204041e-38
-0.03725504503 -0.07978868484 -0.2464984208 2.348204041e-38
-0.3466964066 -0.1671841741 -0.2494204789 2.348204041e-38
-0.2218576819 0.07034495473 -0.2492868751 2.348204041e-38
-0.141094014 0.07827913761 -0.09125403315 2.348204041e-38
-0.3623218834 0.07196643949 -0.1601120085 2.348204041e-38
0.3321363926 -0.4214680791 0.07832997292 2.348204041e-38
-0.3637630343 -0.3306369781 -0.1963117868 2.348204041e-38
-0.3320146501 -0.3840452433 -0.1468132734 2.348204041e-38
-0.1178341955 0.07759535313 -0.09475953132 2.348204041e-38
-0.1697427481 0.04803234339 -0.2544730008 2.348204041e-38
-0.3319975138 -0.3504797518 -0.1924990267 2.348204041e-38
-0.3306650221 -0.4460446239 0.07748093456 2.348204041e-38
0.08997498453 -0.01184412837 -0.2378976494 2.348204041e-38
-0.1266992092 -0.4853664935 0.04413278773 2.348204041e-38
0.2860318124 -0.4021230638 -0.2333117276 2.348204041e-38
-0.3299788535 -0.3439265192 -0.2669494748 2.348204041e-38
-0.3222584426 0.08086916804 -0.1476892233 2.348204041e-38
0.03124109283 -0.3331955671 -0.2519399822 2.348204041e-38
-0.2823530734 -0.4792369008 -0.1693288237 2.348204041e-38
-0.04958052933 0.07581114769 -0.09360198677 2.348204041e-38
-0.2494350821 -0.4796236753 0.0621117875 2.348204041e-38
0.2432446331 -0.4742735028 -0.225364849 2.348204041e-38
-0.3494629264 -0.4448941052 0.007399685681 2.348204041e-38
-0.02283513919 -0.1217672974 -0.2482791692 2.348204041e-38
-0.1055902243 0.06072196364 -0.2492199093 2.348204041e-38
0.3021600842 -0.4655907154 0.003176575527 2.348204041e-38
-0.352540195 -0.4634349942 -0.1924267411 2.348204041e-38
0.004264678806 0.06381070614 -0.238831535 2.348204041e-38
-0.1325139254 0.07409727573 -0.1663597375 2.348204041e-38
-0.3636192977 -0.3613884747 -0.2179463804 2.348204041e-38
0.3360180259 0.0408448875 -0.1918362826 2.348204041e-38
-0.3367440403 -0.419614464 0.02557826601 2.348204041e-38
0.2754772902 -0.0169890523 -0.2349804491 2.348204041e-38
0.09904257953 -0.4847969413 -0.1184963807 2.348204041e-38
-0.2818041742 -0.3115965128 -0.1165793464 2.348204041e-38
-0.2935300171 -0.4675039351 0.07353278995 2.348204041e-38
-0.1471796483 0.06435373425 -0.249273017 2.348204041e-38
0.09468096495 -0.484804213 -0.1195832565 2.348204041e-38
0.1007143855 -0.479670912 -0.2071643174 2.348204041e-38
-0.2522792518 -0.4839517772 -0.1131789461 2.348204041e-38
-0.342782408 -0.2240683138 -0.2429497093 2.348204041e-38
0.1007824242 -0.2729747891 -0.2412709147 2.348204041e-38
-0.2788202167 0.0754262507 -0.1909462512 2.348204041e-38
-0.105825454 -0.2825677693 -0.2570828795 2.348204041e-38
-0.05391465127 -0.3564577103 -0.2545374334 2.348204041e-38
-0.3000888526 -0.41146487 -0.2651656866 2.348204041e-38
-0.03613921255 -0.3663095832 -0.2525319457 2.348204041e-38
0.3231664598 -0.4544183016 -0.02286257409 2.348204041e-38
-0.3606752157 -0.05327239633 -0.2246167213 2.348204041e-38
0.1956028938 -0.3919582069 -0.2552178204 2.348204041e-38
-0.3495588303 -0.3223527074 -0.2422279567 2.348204041e-38
-0.3495793343 -0.1228563637 -0.253105402 2.348204041e-38
-0.3738357425 0.03672504425 -0.2587660253 2.348204041e-38
-0.02704218961 -0.3625545502 -0.2532422841 2.348204041e-38
-0.3416383266 -0.2921621501 -0.2463811785 2.348204041e-38
-0.3021495044 -0.4703220427 -0.2143748552 2.348204041e-38
0.01989898458 -0.09271603823 -0.2432225794 2.348204041e-38
-0.3367134333 -0.09660434723 -0.1474137008 2.348204041e-38
0.3330996633 -0.4566640258 -0.1708998233 2.348204041e-38
-0.3618464768 0.07247492671 -0.1513109058 2.348204041e-38
-0.1926566958 0.07929793 -0.106436573 2.348204041e-38
-0.2602527142 -0.3401788473 -0.1001223549 2.348204041e-38
-0.2591073811 -0.4656452537 -0.2388564497 2.348204041e-38
-0.2976842821 -0.4005562067 -0.2650784254 2.348204041e-38
-0.3064165413 -0.3452109396 -0.1714544594 2.346801622e-38
-0.3797102869 0.02091655135 -0.2594961524 2.346801622e-38
0.3129876256 -0.4681212306 -0.1888865829 2.346801622e-38
-0.3517063558 -0.3433259726 -0.2499920875 2.346801622e-38
0.05838162079 -0.4855135381 0.1785189807 2.346801622e-38
-0.2271707654 0.05305674672 -0.2604392171 2.346801622e-38
-0.2512190044 -0.4670854211 -0.2523481846 2.346801622e-38
-0.3354254365 0.04222995043 -0.2644054592 2.346801622e-38
-0.3000074625 -0.259106487 -0.1601294577 2.346801622e-38
-0.3155140281 -0.4699852467 0.1482622325 2.346801622e-38
-0.1764898598 0.04461112618 -0.2541446686 2.346801622e-38
-0.3407359421 -0.06088927388 -0.1473902613 2.346801622e-38
0.04259018973 -0.4855643511 0.1777300239 2.346801622e-38
0.001634143293 -0.4643138349 -0.23473306 2.346801622e-38
-0.3528810441 -0.3441770673 -0.2411136478 2.346801622e-38
-0.09451241791 -0.3589665592 -0.2459518164 2.346801622e-38
-0.00331331417 -0.4855366945 -0.161377579 2.346801622e-38
0.1140091568 -0.4850478172 -0.08150491863 2.346801622e-38
-0.3274686635 -0.05197513103 -0.2632083595 2.346801622e-38
-0.2789222598 0.02673175931 -0.2652023733 2.346801622e-38
-0.3292145729 0.07794091105 -0.09811433405 2.346801622e-38
-0.3344557285 -0.4714813828 -0.2050312161 2.346801622e-38
-0.2450484633 -0.3304473758 -0.2559683621 2.346801622e-38
-0.3311311603 -0.4716626406 -0.2177090943 2.346801622e-38
-0.2380464673 -0.3113965392 -0.2569371462 2.346801622e-38
0.2150050849 -0.4845810235 -0.0653013438 2.346801622e-38
0.1413498074 -0.45943892 -0.2454204112 2.346801622e-38
-0.2483738214 -0.4840971231 0.1688974798 2.346801622e-38
-0.2939700186 -0.3097940385 -0.1650258005 2.346801622e-38
-0.3501887918 -0.07859767973 -0.25827384 2.346801622e-38
-0.07003958523 -0.4859470725 -0.1008139327 2.346801622e-38
0.2593490779 -0.4756210446 -0.2234693617 2.346801622e-38
0.2938770056 -0.4844821095 -0.07306295633 2.346801622e-38
-0.2973189056 -0.3035087883 -0.2612051368 2.346801622e-38
-0.2914189398 -0.3525022864 -0.1577536762 2.346801622e-38
-0.1989429593 -0.4274877906 -0.2508060038 2.346801622e-38
0.1295119077 0.08059644699 -0.1148339435 2.346801622e-38
-0.3286271989 -0.4736612141 0.006580619141 2.346801622e-38
-0.3104304969 -0.1726799905 -0.1347741634 2.346801622e-38
-0.09982532263 -0.4855971038 -0.002297976986 2.346801622e-38
-0.254835844 -0.09431524575 -0.256852597 2.346801622e-38
-0.1118506789 -0.4006833136 -0.2484131902 2.346801622e-38
-0.3647315204 -0.1306194812 -0.2493794709 2.346801622e-38
-0.336096108 0.0773525238 -0.08049295098 2.346801622e-38
-0.3422003686 -0.4649232924 -0.06926254183 2.346801622e-38
-0.3012834489 -0.2927296758 -0.2632423043 2.346801622e-38
-0.2794362605 -0.3162852824 -0.1414747238 2.346801622e-38
-0.3595350981 -0.4623094797 -0.2143324167 2.346801622e-38
-0.185563609 -0.423632741 -0.247968629 2.346801622e-38
-0.2145024687 -0.266029954 -0.2552349269 2.346801622e-38
0.1006197035 0.06625109911 -0.187926203 2.346801622e-38
-0.2291735262 -0.3646891415 -0.2523255646 2.346801622e-38
0.3095508814 -0.4856028557 0.1911609471 2.346801622e-38
-0.2072140425 -0.1135156155 -0.2516088188 2.346801622e-38
-0.3405576646 -0.4301099777 0.005887895823 2.346801622e-38
-0.3509174585 -0.3455806971 -0.2111293674 2.346801622e-38
0.08755856752 -0.4853919446 0.01477247197 2.346801622e-38
-0.3267919123 -0.4024605155 -0.04010527581 2.346801622e-38
-0.2960182428 -0.3743211925 -0.1500061154 2.346801622e-38
0.04668556526 -0.4851757288 -0.08698322624 2.346801622e-38
0.2153141052 -0.4847964644 -0.07563866675 2.346801622e-38
-0.3453293443 -0.3155923784 -0.235944882 2.346801622e-38
-0.3446189463 -0.2887959182 -0.2439658493 2.346801622e-38
-0.3387153447 -0.4568336606 0.08485864103 2.346801622e-38
-0.1946845353 -0.2393871546 -0.2525484562 2.346801622e-38
-0.3466308713 -0.2887074053 -0.2202525735 2.346801622e-38
-0.3640219569 0.06454864144 -0.2534298897 2.346801622e-38
-0.2914041579 0.08017790318 -0.1108401641 2.346801622e-38
-0.3154156506 -0.2032912672 -0.1704220474 2.346801622e-38
0.3219941556 -0.3930937648 0.1035712287 2.346801622e-38
-0.3643566072 -0.439458251 -0.1456032544 2.346801622e-38
-0.3492123485 -0.4133719206 -0.07918580621 2.346801622e-38
-0.2836788595 0.07992163301 -0.117155008 2.346801622e-38
-0.3103784621 -0.001521766186 -0.2664167881 2.346801622e-38
-0.3495407104 -0.3629782498 -0.1302603036 2.346801622e-38
-0.300531894 -0.4823734164 0.1251403689 2.346801622e-38
-0.1718483418 -0.01790076494 -0.2500851452 2.346801622e-38
-0.03870956972 -0.4857266545 0.1243329868 2.346801622e-38
0.3150245249 -0.4535480738 -0.1985017955 2.346801622e-38
-0.3293812275 -0.4627916813 -0.257243067 2.346801622e-38
-0.3600672781 0.06840965152 -0.1495672762 2.346801622e-38
0.09943142533 -0.4027455151 -0.2411252707 2.346801622e-38
-0.2319008112 -0.4859739244 -0.1102755293 2.346801622e-38
-0.2494568527 0.08034917712 -0.1218943074 2.346801622e-38
-0.195884943 -0.4867396355 0.1389511228 2.346801622e-38
0.2564072609 -0.4832743406 -0.1832457781 2.346801622e-38
-0.3174773455 -0.4777502418 0.06861905754 2.346801622e-38
-0.1932529658 -0.2969247997 -0.253613025 2.346801622e-38
-0.305056721 0.04700174928 -0.2649073601 2.346801622e-38
0.3329039514 -0.4609954059 0.06945620477 2.346801622e-38
-0.2886301279 -0.4826281667 -0.1361536682 2.346801622e-38
-0.2363414317 0.06240263581 -0.2564614415 2.346801622e-38
-0.3033388555 0.07711964846 -0.1824904233 2.346801622e-38
-0.3595000207 -0.4637963772 -0.1785379201 2.346801622e-38
0.1181649417 0.05610623956 -0.195088774 2.346801622e-38
-0.3308786154 -0.4644093513 0.09906298667 2.346801622e-38
-0.01771082729 -0.01461979747 -0.2355246693 2.346801622e-38
0.148641333 -0.4847063422 -0.05196397752 2.346801622e-38
-0.255260855 -0.4368515909 -0.09544817358 2.346801622e-38
-0.2440102398 -0.4871501029 0.1333574802 2.346801622e-38
-0.3285811543 0.05279436707 -0.2623445392 2.346801622e-38
0.1438156515 -0.4847332537 -0.05284912139 2.346801622e-38
0.1185409278 -0.4848172367 -0.1483585685 2.346801622e-38
-0.2010995448 -0.486068964 -0.04413452744 2.346801622e-38
-0.3487756252 -0.3045269251 -0.2060998529 2.346801622e-38
0.182228148 -0.3647406399 -0.2376753241 2.346801622e-38
-0.3578850925 0.07132783532 -0.188335523 2.346801622e-38
-0.2476608157 -0.342607677 -0.2553684711 2.346801622e-38
0.01880087331 -0.407313168 -0.2441836149 2.346801622e-38
-0.2397090942 -0.4706425369 -0.2463421375 2.346801622e-38
0.03710546717 -0.4204706848 -0.2500090003 2.346801622e-38
0.3353667557 -0.4422973394 0.01735766605 2.346801622e-38
-0.3259179294 -0.2354052961 -0.2171997279 2.346801622e-38
0.2414908856 -0.4628051519 -0.2385579795 2.346801622e-38
-0.3667776883 -0.4471647739 -0.2022734731 2.346801622e-38
-0.3445836306 -0.2723639607 -0.2268186957 2.346801622e-38
-0.3660861552 -0.09093716741 -0.2470395714 2.346801622e-38
0.04373985901 -0.4147395492 -0.2464349121 2.346801622e-38
-0.3539698422 -0.3693775237 -0.2005587816 2.346801622e-38
-0.2323747128 -0.48387748 -0.1499000192 2.346801622e-38
-0.1612250805 -0.2340530902 -0.2495838255 2.346801622e-38
-0.2854363024 -0.3164313436 -0.1473009884 2.346801622e-38
0.3321667314 -0.4604174197 -0.1065563336 2.346801622e-38
-0.3091649413 -0.2231683731 -0.1636962146 2.346801622e-38
-0.3126911819 0.07967877388 -0.1173878685 2.346801622e-38
-0.2416657507 -0.4515152872 -0.07343461365 2.346801622e-38
-0.179672569 -0.4843425155 -0.1873583794 2.346801622e-38
-0.2370164841 -0.4681656063 -0.2517172396 2.346801622e-38
-0.3475908339 -0.3509886563 -0.2138566822 2.345219836e-38
-0.4005561173 -0.02152749896 -0.2557035685 2.345219836e-38
0.2383836359 -0.4803548455 -0.2028523386 2.345219836e-38
-0.3857539296 -0.3488088846 -0.2363615483 2.345219836e-38
-0.02972850949 -0.4852154255 0.1492061913 2.345219836e-38
-0.3049039841 0.02857920527 -0.2511405945 2.345219836e-38
-0.3198503554 -0.4608492851 -0.2421435565 2.345219836e-38
-0.3826620579 0.00590056181 -0.2583657503 2.345219836e-38
-0.3204897344 -0.3034951687 -0.2136095166 2.345219836e-38
-0.3248918056 -0.4666579962 0.09288080782 2.345219836e-38
-0.2670633197 0.01188227534 -0.2468741089 2.345219836e-38
