# .PCD v0.7 - Point Cloud Data file format
VERSION 0.7
FIELDS x y z rgb
SIZE 4 4 4 4
TYPE F F F F
COUNT 1 1 1 1
WIDTH 836
HEIGHT 1
VIEWPOINT 0 0 0 1 0 0 0
POINTS 836
DATA ascii
0.1284797043 -0.2029703408 -0.4255974591 2.348204041e-38
0.2601938248 -0.3184805512 -0.2285310924 2.348204041e-38
0.2568822503 -0.4081469476 -0.3570433259 2.348204041e-38
0.2591751814 -0.4687689841 -0.356040448 2.348204041e-38
0.2413353622 -0.4838342667 -0.3821881711 2.348204041e-38
0.2316929996 -0.4803892076 -0.4088258445 2.348204041e-38
0.2412332296 -0.3939088881 -0.4327451885 2.348204041e-38
0.2568561435 -0.226852268 -0.424798876 2.348204041e-38
0.2088790834 -0.185295105 -0.4401587844 2.348204041e-38
0.2542731762 -0.3633388281 0.2059645653 2.348204041e-38
0.05402216315 -0.4470148683 0.2210936099 2.348204041e-38
-0.03918304667 -0.4806415141 0.2146888226 2.348204041e-38
-0.07137130201 -0.4861944318 0.2121845037 2.348204041e-38
-0.04347988218 -0.484914422 0.1717475355 2.348204041e-38
0.07258897275 -0.4035971761 0.0777682364 2.348204041e-38
0.09544542432 -0.3035543859 -0.1694995612 2.348204041e-38
0.09499725699 -0.2396181822 -0.3467516899 2.348204041e-38
0.1284150183 -0.4669265151 0.2192937434 2.348204041e-38
-0.01290996373 -0.4867331982 0.2239535451 2.348204041e-38
-0.04374092072 -0.4866472483 0.1934727281 2.348204041e-38
-0.06065242365 -0.4868906438 0.1112108603 2.348204041e-38
-0.07083725184 -0.4874707758 0.02513535693 2.348204041e-38
-0.03864578903 -0.488122046 -0.05149178952 2.348204041e-38
0.05554013699 -0.3704365194 -0.3194907904 2.348204041e-38
0.07451115549 -0.2696835101 -0.3951437175 2.348204041e-38
0.06095558405 -0.4858865142 0.2055456489 2.348204041e-38
-0.03581244498 -0.4867482185 0.1966477334 2.348204041e-38
-0.06947609782 -0.4866992831 0.14659971 2.348204041e-38
-0.05875857919 -0.487187922 0.03496965021 2.348204041e-38
-0.05578242987 -0.4878425896 -0.02947526798 2.348204041e-38
-0.05923720449 -0.4891878963 -0.05004855245 2.348204041e-38
-0.02749460749 -0.4795804024 -0.2764933407 2.348204041e-38
0.04692849517 -0.3208682537 -0.3816411197 2.348204041e-38
0.05189401656 -0.4859936833 0.1905854642 2.348204041e-38
-0.03905662522 -0.4869386554 0.1708456427 2.348204041e-38
-0.05054105818 -0.4865798056 0.1316687316 2.348204041e-38
-0.0465021953 -0.487077415 0.04002754763 2.348204041e-38
-0.03077041544 -0.4876978099 -0.01593715325 2.348204041e-38
-0.02832268737 -0.4882004261 -0.05539213866 2.348204041e-38
-0.04541777819 -0.4896372557 -0.2108389139 2.348204041e-38
-0.004847157747 -0.4357829392 -0.3703640401 2.348204041e-38
0.06867921352 -0.4860469699 0.1714684218 2.348204041e-38
-0.02576909959 -0.4871012866 0.1610369086 2.348204041e-38
-0.01918916032 -0.4865359962 0.1217297688 2.348204041e-38
-0.01936341077 -0.4873002768 0.03454421833 2.348204041e-38
-0.002151690423 -0.4878622293 -0.004847968929 2.348204041e-38
-0.01402708143 -0.4886575341 -0.07084929198 2.348204041e-38
-0.01916331053 -0.4878252745 -0.1747678369 2.348204041e-38
-0.04782727361 -0.4659000039 -0.3054259121 2.348204041e-38
0.07920350879 -0.4819361269 0.1577918082 2.348204041e-38
-0.009860185906 -0.4870353341 0.1437824667 2.348204041e-38
0.008549772203 -0.4867812693 0.1248125434 2.348204041e-38
-0.004880741239 -0.4878352284 0.05325662717 2.348204041e-38
0.0007393583655 -0.4887809455 0.0006340810796 2.348204041e-38
-0.007713032886 -0.48873052 -0.141956374 2.348204041e-38
-0.008597642183 -0.4876759648 -0.1732497811 2.348204041e-38
-0.01026356407 -0.4165088534 -0.3562937081 2.348204041e-38
0.07279588282 -0.4770239592 0.157890901 2.348204041e-38
0.00813049078 -0.4871168733 0.1427388191 2.348204041e-38
0.02312409505 -0.487369597 0.1269221008 2.348204041e-38
0.03428489715 -0.4882370234 0.05380953476 2.348204041e-38
0.0185254775 -0.4890546799 -0.07572326064 2.348204041e-38
0.01514074579 -0.4881714582 -0.1634831131 2.348204041e-38
0.02978182212 -0.483450532 -0.2420969307 2.348204041e-38
0.05337706208 -0.3240168095 -0.4339409471 2.348204041e-38
0.1016330272 -0.44075495 0.1602180451 2.348204041e-38
0.01850315556 -0.4872997403 0.1378528476 2.348204041e-38
0.02039040998 -0.4878974855 0.1032234356 2.348204041e-38
0.04457519203 -0.4885441661 -0.01501378324 2.348204041e-38
0.04445090145 -0.4881355464 -0.1227600127 2.348204041e-38
0.03323337436 -0.4871277213 -0.210548088 2.348204041e-38
0.06373163313 -0.4002782702 -0.3597433865 2.348204041e-38
0.08506084234 -0.2538796961 -0.4395168722 2.348204041e-38
0.1861527264 -0.2942755222 0.2235780954 2.348204041e-38
0.1184795797 -0.4105756879 0.2273097932 2.348204041e-38
-0.02392383665 -0.4709047973 0.2316680551 2.348204041e-38
-0.07095909119 -0.4837905765 0.2016974688 2.348204041e-38
-0.1127771959 -0.4528800249 0.1777106673 2.348204041e-38
-0.05644416809 -0.3244443238 0.1213632897 2.348204041e-38
-0.05822474509 -0.2256559283 -0.001128803473 2.348204041e-38
-0.04420658946 -0.194322899 -0.170925647 2.348204041e-38
0.2290605009 -0.4436120987 0.2359594405 2.348204041e-38
0.07570645213 -0.4859670103 0.2661460936 2.348204041e-38
-0.04764891043 -0.4873030782 0.2237504274 2.348204041e-38
-0.07308638841 -0.4870531559 0.1735408753 2.348204041e-38
-0.0879213661 -0.4855390489 0.1101694629 2.348204041e-38
-0.09590300173 -0.4115199745 -0.06636210531 2.348204041e-38
-0.05657229573 -0.2655516863 -0.1649817824 2.348204041e-38
-0.05918557569 -0.2050936818 -0.264878124 2.348204041e-38
0.1468946934 -0.4852688909 0.2276064903 2.348204041e-38
0.02714167163 -0.4865217209 0.2365342826 2.348204041e-38
-0.04901090264 -0.487090081 0.1863821 2.348204041e-38
-0.06931743026 -0.4871586859 0.1356733143 2.348204041e-38
-0.09934468567 -0.4872855544 0.02340929955 2.348204041e-38
-0.1011003181 -0.4872450531 -0.08074449003 2.348204041e-38
-0.0746718049 -0.3698403835 -0.204564482 2.348204041e-38
-0.05917847157 -0.2465386689 -0.2957742512 2.348204041e-38
0.1278166324 -0.4855511785 0.1921851337 2.348204041e-38
0.0157282874 -0.4868157804 0.1843444109 2.348204041e-38
-0.05233250558 -0.4872432649 0.1390434355 2.348204041e-38
-0.06377840042 -0.4871291816 0.1099587977 2.348204041e-38
-0.08407369256 -0.4870419502 0.02148262411 2.348204041e-38
-0.09400323033 -0.4877463579 -0.07693640888 2.348204041e-38
-0.1097012684 -0.4780007005 -0.1885334104 2.348204041e-38
-0.07598418742 -0.3407366872 -0.3194633722 2.348204041e-38
0.1399922222 -0.4857722521 0.1798321605 2.348204041e-38
0.02204082906 -0.4870281219 0.1521714926 2.348204041e-38
-0.03336649016 -0.4872431457 0.119903706 2.348204041e-38
-0.04194879532 -0.486939311 0.0946733579 2.348204041e-38
-0.060183011 -0.487043649 0.008336894214 2.348204041e-38
-0.08119218051 -0.4877924323 -0.07273169607 2.348204041e-38
-0.1101041883 -0.484438777 -0.209656626 2.348204041e-38
-0.08594609052 -0.4556336105 -0.2981063128 2.348204041e-38
0.1535616219 -0.4790621996 0.1671421677 2.348204041e-38
0.04035752267 -0.4872302413 0.1428729296 2.348204041e-38
0.0005509629846 -0.4871325791 0.117720522 2.348204041e-38
-0.02833777666 -0.487136662 0.09766889364 2.348204041e-38
-0.04278620332 -0.4876013398 0.03276668489 2.348204041e-38
-0.06512979418 -0.4878944755 -0.08596874028 2.348204041e-38
-0.09049968421 -0.483168602 -0.2750970125 2.348204041e-38
-0.0924635157 -0.4385438561 -0.3470958769 2.348204041e-38
0.1729386449 -0.4627053738 0.1702681184 2.348204041e-38
0.05133766681 -0.487364918 0.1373538673 2.348204041e-38
0.02393934131 -0.4874524772 0.1504418254 2.348204041e-38
0.007256325334 -0.4873780608 0.09477519244 2.348204041e-38
-0.03683641553 -0.4882377684 0.01805296913 2.348204041e-38
-0.0346859321 -0.4876140356 -0.2087585032 2.348204041e-38
-0.0653782934 -0.4800969362 -0.3478365839 2.348204041e-38
-0.06921513379 -0.3637092412 -0.4169804454 2.348204041e-38
0.1988170892 -0.4198186696 0.161345914 2.348204041e-38
0.06943225861 -0.4873642325 0.1281371713 2.348204041e-38
0.04177688062 -0.4877560735 0.111239396 2.348204041e-38
0.02349025384 -0.4875574112 0.05721497908 2.348204041e-38
0.007986534387 -0.4876357615 -0.1365073472 2.348204041e-38
0.003000289202 -0.4836719036 -0.3101792634 2.348204041e-38
-0.01446299627 -0.4291830659 -0.4249774814 2.348204041e-38
-0.01574914716 -0.2921391428 -0.4222830236 2.348204041e-38
0.1233613044 -0.3400249481 0.2667985857 2.348204041e-38
0.07764910907 -0.4340890646 0.2682799101 2.348204041e-38
-0.006548682228 -0.4837832451 0.2539383471 2.348204041e-38
-0.1117610857 -0.4788564742 0.2313794345 2.348204041e-38
-0.1234968305 -0.3894751668 0.1934708655 2.348204041e-38
-0.1126349494 -0.269413203 0.1538746506 2.348204041e-38
-0.1204109937 -0.2398402989 0.04028886557 2.348204041e-38
-0.1269668341 -0.2227627188 -0.1742210686 2.348204041e-38
0.1811510175 -0.4699677527 0.2849127948 2.348204041e-38
0.08027006686 -0.486713022 0.2895875275 2.348204041e-38
-0.02586011775 -0.4878644347 0.2415006906 2.348204041e-38
-0.07881477475 -0.4873355627 0.2095324993 2.348204041e-38
-0.1286886036 -0.4608855844 0.1362875998 2.348204041e-38
-0.1267327666 -0.3207767904 0.01620224491 2.348204041e-38
-0.1171494424 -0.2426632792 -0.124903731 2.348204041e-38
-0.1394505799 -0.2349296808 -0.3076979816 2.348204041e-38
0.1709730178 -0.4852530956 0.2605495751 2.348204041e-38
0.06017205119 -0.4871706069 0.2677509487 2.348204041e-38
-0.03272826225 -0.4879009128 0.2209960967 2.348204041e-38
-0.07178898156 -0.4877124727 0.1703528166 2.348204041e-38
-0.1268641949 -0.4880590141 0.1125032753 2.348204041e-38
-0.1593103707 -0.4374013543 -0.008718260564 2.348204041e-38
-0.1170635372 -0.3061964512 -0.1429471225 2.348204041e-38
-0.1440942436 -0.2497813255 -0.3445195258 2.348204041e-38
0.1418112367 -0.4856516123 0.2377096713 2.348204041e-38
0.04411872476 -0.4874360561 0.2256386876 2.348204041e-38
-0.03630516306 -0.4879305065 0.1798152924 2.348204041e-38
-0.06231493503 -0.4878501892 0.1366850436 2.348204041e-38
-0.107542403 -0.4879610837 0.1039884016 2.348204041e-38
-0.1478992105 -0.477646172 0.004358026665 2.348204041e-38
-0.1389826685 -0.3814741671 -0.08179729432 2.348204041e-38
-0.143851757 -0.2874060273 -0.3489438891 2.348204041e-38
0.1370959282 -0.4842339158 0.2032915801 2.348204041e-38
0.03840436041 -0.4873574078 0.1918606907 2.348204041e-38
-0.02241381258 -0.4878802299 0.1410148442 2.348204041e-38
-0.04666369408 -0.4876553714 0.1143287346 2.348204041e-38
-0.08824198693 -0.4877125621 0.09545396268 2.348204041e-38
-0.1301941276 -0.4859551787 -0.003073839936 2.348204041e-38
-0.1508309692 -0.4606792033 -0.02701887861 2.348204041e-38
-0.1465075016 -0.3641222417 -0.247760728 2.348204041e-38
0.1443253905 -0.469557941 0.1907362044 2.348204041e-38
0.04004367441 -0.4874028563 0.1542029977 2.348204041e-38
-0.01685244776 -0.4878374338 0.1196237579 2.348204041e-38
-0.0406627804 -0.4877583385 0.1206228733 2.348204041e-38
-0.08265432715 -0.4877641201 0.09846501052 2.348204041e-38
-0.1265094429 -0.4851589799 -0.0101312967 2.348204041e-38
-0.1362463534 -0.4722759724 -0.1185571328 2.348204041e-38
-0.1493586898 -0.3946160674 -0.2753501236 2.348204041e-38
0.1596992016 -0.4200693369 0.1612886935 2.348204041e-38
0.04468005151 -0.4855774939 0.1337875426 2.348204041e-38
-0.01516378485 -0.4878039062 0.1323754191 2.348204041e-38
-0.04214780405 -0.4880545735 0.1540342122 2.348204041e-38
-0.07861254364 -0.4877595305 0.06044810638 2.348204041e-38
-0.1231043711 -0.4840341806 -0.03607211262 2.348204041e-38
-0.1202461794 -0.4268633723 -0.2380654216 2.348204041e-38
-0.1439715326 -0.3253364861 -0.4117524922 2.348204041e-38
0.1625773013 -0.3705376387 0.1275356859 2.348204041e-38
0.05775985122 -0.441742599 0.1124822795 2.348204041e-38
0.0008856281638 -0.4791581929 0.1346409321 2.348204041e-38
-0.02278540656 -0.487644732 0.1099380776 2.348204041e-38
-0.04273160174 -0.4870449305 -0.0003690118901 2.348204041e-38
-0.07003758848 -0.4561239779 -0.2501357198 2.348204041e-38
-0.09441530704 -0.3545272946 -0.3586359322 2.348204041e-38
-0.1146627441 -0.2706231773 -0.432513833 2.348204041e-38
0.09738852084 -0.3622098267 0.2918697298 2.348204041e-38
0.05492212623 -0.3778819442 0.307821542 2.348204041e-38
-0.05485087633 -0.4541464448 0.3039706051 2.348204041e-38
-0.1050481349 -0.4586117864 0.2995622456 2.348204041e-38
-0.1260933876 -0.354847014 0.2463697344 2.348204041e-38
-0.1439422071 -0.2582186162 0.1818813831 2.348204041e-38
-0.1460721642 -0.2490580529 0.145941332 2.348204041e-38
-0.1536179483 -0.2293652147 -0.09517621249 2.348204041e-38
0.1623405665 -0.3940089345 0.3141437471 2.348204041e-38
0.04243588448 -0.4793329835 0.3229596317 2.348204041e-38
-0.05030938983 -0.4870595932 0.3040241599 2.348204041e-38
-0.1333086044 -0.4879404604 0.264895469 2.348204041e-38
-0.1429674923 -0.4065605402 0.1917294562 2.348204041e-38
-0.1411103457 -0.2902010083 0.1551118493 2.348204041e-38
-0.1462586969 -0.2331708372 -0.05197872221 2.348204041e-38
-0.1555500627 -0.2347339988 -0.2262408137 2.348204041e-38
0.1306729168 -0.4753504395 0.3099107444 2.348204041e-38
0.02551772445 -0.4864989519 0.3131093681 2.348204041e-38
-0.07533659041 -0.4878053069 0.2895094752 2.348204041e-38
-0.1226849556 -0.4879180193 0.2453015894 2.348204041e-38
-0.1480752826 -0.4763454795 0.1693798602 2.348204041e-38
-0.1620154232 -0.3276925087 0.07794760913 2.348204041e-38
-0.1444679499 -0.2703358233 -0.1129551604 2.348204041e-38
-0.1519788653 -0.2533630431 -0.3226239681 2.348204041e-38
0.1009351462 -0.4852229655 0.2869892716 2.348204041e-38
0.007225546986 -0.4869426489 0.2881317139 2.348204041e-38
-0.06934273243 -0.4876343906 0.2620923221 2.348204041e-38
-0.1233440787 -0.487678051 0.2321913391 2.348204041e-38
-0.1477915198 -0.4880109727 0.1486501694 2.348204041e-38
-0.1580381393 -0.4399314523 0.05161844566 2.348204041e-38
-0.1427854449 -0.3229688704 -0.1274741888 2.348204041e-38
-0.1590016335 -0.2700285912 -0.3833662271 2.348204041e-38
0.0921138674 -0.4854716659 0.2687729895 2.348204041e-38
-0.001414237544 -0.4870586693 0.2596997023 2.348204041e-38
-0.06210748106 -0.4874699712 0.2362351418 2.348204041e-38
-0.1170198172 -0.487619698 0.1775049418 2.348204041e-38
-0.1386296153 -0.4876248837 0.122502245 2.348204041e-38
-0.1532532126 -0.4853799045 0.04919648543 2.348204041e-38
-0.1640987098 -0.3930462003 -0.07576864213 2.348204041e-38
-0.1712158471 -0.323106885 -0.404810518 2.348204041e-38
0.08591781557 -0.4743925929 0.2493515462 2.348204041e-38
-0.004094881937 -0.487226963 0.2287397087 2.348204041e-38
-0.06027295068 -0.4873996377 0.1892763823 2.348204041e-38
-0.1085234433 -0.4874593019 0.1346359402 2.348204041e-38
-0.1312966347 -0.4866655767 0.11182262 2.348204041e-38
-0.1502559185 -0.4705204964 0.0354317911 2.348204041e-38
-0.1615497619 -0.4200719893 -0.1533808708 2.348204041e-38
-0.1858917475 -0.3284420371 -0.4117586911 2.348204041e-38
0.09132549167 -0.4415689111 0.2156925946 2.348204041e-38
-0.01193553209 -0.4872118235 0.190393284 2.348204041e-38
-0.06083958969 -0.4871522784 0.158119604 2.348204041e-38
-0.09819673002 -0.487003088 0.1502056271 2.348204041e-38
-0.1131069213 -0.4835223258 0.07057853043 2.348204041e-38
-0.1302980483 -0.4487554133 -0.04048315063 2.348204041e-38
-0.1502097398 -0.3493084908 -0.3073965907 2.348204041e-38
-0.1782407016 -0.2642657161 -0.4211556315 2.348204041e-38
0.09924599528 -0.3907328844 0.1800016612 2.348204041e-38
-0.01545610465 -0.4671249986 0.1583548486 2.348204041e-38
-0.05513557047 -0.4869164824 0.172519967 2.348204041e-38
-0.05752741173 -0.4863489866 0.1254172921 2.348204041e-38
-0.09156623483 -0.479036808 -0.004094323143 2.348204041e-38
-0.1040553227 -0.3745708466 -0.2744991183 2.348204041e-38
-0.1312578917 -0.3056524396 -0.3970477879 2.348204041e-38
-0.15975146 -0.2379668206 -0.4303016067 2.348204041e-38
-0.04903323203 -0.3618106842 0.314604193 2.348204041e-38
-0.08295108378 -0.3767692149 0.3631202281 2.348204041e-38
-0.1145153567 -0.379717499 0.4014858603 2.348204041e-38
-0.1329841018 -0.4096741676 0.3946088552 2.348204041e-38
-0.129220888 -0.3412388265 0.4048148394 2.348204041e-38
-0.1258145273 -0.2792820036 0.4109756351 2.348204041e-38
-0.1278989017 -0.286726445 0.375931859 2.348204041e-38
-0.1499063671 -0.266346246 0.3066036701 2.348204041e-38
0.02321732789 -0.3918886185 0.3619376719 2.348204041e-38
0.002293229103 -0.4119482934 0.4355710745 2.348204041e-38
-0.06407374144 -0.4749340415 0.4196524918 2.348204041e-38
-0.1126124561 -0.4813920259 0.3878811002 2.348204041e-38
-0.1281792521 -0.449934423 0.3850047886 2.348204041e-38
-0.1430856586 -0.3015287519 0.3702844679 2.348204041e-38
-0.1417039782 -0.2610385418 0.3162215948 2.348204041e-38
-0.1594335139 -0.2649914026 0.2817574441 2.348204041e-38
0.09931454062 -0.4336362481 0.4226391613 2.348204041e-38
0.01457871497 -0.4851808548 0.4168187678 2.348204041e-38
-0.06987829506 -0.4871703386 0.4074059427 2.348204041e-38
-0.124572441 -0.487480402 0.396949172 2.348204041e-38
-0.1517223418 -0.4817867875 0.3674823046 2.348204041e-38
-0.1518005133 -0.3716830015 0.3276897967 2.348204041e-38
-0.1534584761 -0.2633802593 0.2955502272 2.348204041e-38
-0.1482115984 -0.2664814293 0.2332284749 2.348204041e-38
0.07638186216 -0.48502177 0.385483861 2.348204041e-38
-0.02026458085 -0.486907661 0.3909721971 2.348204041e-38
-0.09326888621 -0.4883655906 0.3845207989 2.348204041e-38
-0.1372305453 -0.4886502624 0.3742565811 2.348204041e-38
-0.1519155055 -0.4846886396 0.3612065613 2.348204041e-38
-0.1709610373 -0.448361516 0.3221047521 2.348204041e-38
-0.1502604038 -0.3165946007 0.2813809812 2.348204041e-38
-0.1466523707 -0.2687047422 0.1758007109 2.348204041e-38
0.0480767414 -0.4858557582 0.3579015434 2.348204041e-38
-0.03091678768 -0.4875150919 0.3737899661 2.348204041e-38
-0.102265045 -0.4886857569 0.3683135211 2.348204041e-38
-0.1401139945 -0.4890476167 0.3628890514 2.348204041e-38
-0.1589185894 -0.4885810316 0.3506241143 2.348204041e-38
-0.1702120304 -0.4839411378 0.3368447423 2.348204041e-38
-0.1722420901 -0.3888324499 0.2471441627 2.348204041e-38
-0.1446727812 -0.3171656132 0.1278452277 2.348204041e-38
0.031441845 -0.4790153503 0.3288390934 2.348204041e-38
-0.04582295194 -0.4879251122 0.3545635641 2.348204041e-38
-0.10060177 -0.4889007807 0.3554018736 2.348204041e-38
-0.136916101 -0.4889929295 0.3564793169 2.348204041e-38
-0.157416448 -0.4887934625 0.3407101929 2.348204041e-38
-0.1638117284 -0.4852905273 0.315856874 2.348204041e-38
-0.1793589592 -0.4697275758 0.2809046209 2.348204041e-38
-0.1654226929 -0.3698858023 0.05085422471 2.348204041e-38
0.02697581798 -0.4601452947 0.3098104 2.348204041e-38
-0.05195583403 -0.4791805148 0.3408467472 2.348204041e-38
-0.1135862768 -0.4888872504 0.3550332487 2.348204041e-38
-0.1384339035 -0.48856318 0.3524526954 2.348204041e-38
-0.1461187601 -0.4881827831 0.3359758854 2.348204041e-38
-0.1605934054 -0.4843158722 0.3312437832 2.348204041e-38
-0.1551825404 -0.4561495185 0.284181565 2.348204041e-38
-0.1750050932 -0.3974089622 0.07351970673 2.348204041e-38
0.01747871935 -0.416562438 0.3041273654 2.348204041e-38
-0.08271461725 -0.4644399881 0.3384179473 2.348204041e-38
-0.1318700314 -0.4777402878 0.3459525406 2.348204041e-38
-0.13907139 -0.4807937145 0.3187068701 2.348204041e-38
-0.1421347857 -0.4860546589 0.297236681 2.348204041e-38
-0.145422861 -0.470682621 0.3335232437 2.348204041e-38
-0.1468907595 -0.4122577906 0.2205365151 2.348204041e-38
-0.1796606928 -0.3231446743 -0.07522944361 2.348204041e-38
0.4152704477 -0.3665828407 -0.1485805511 2.341805152e-38
0.3724195957 -0.4181083441 -0.2420027554 2.341805152e-38
0.3156895339 -0.4691117704 -0.2418948859 2.341805152e-38
0.2550087273 -0.4848690629 -0.2282493263 2.341805152e-38
0.2010843754 -0.48561728 -0.2179688811 2.341805152e-38
0.09600752592 -0.4865252376 -0.2234454006 2.341805152e-38
-0.05447949469 -0.4375858307 -0.2793363333 2.341805152e-38
-0.1684841067 -0.3477284014 -0.3895181119 2.341805152e-38
0.436748147 -0.4590377808 -0.2004976422 2.341805152e-38
0.3511397839 -0.4859843552 -0.2277611941 2.341805152e-38
0.3138788939 -0.4868308902 -0.2332604527 2.341805152e-38
0.2626897097 -0.4877225161 -0.2394486964 2.341805152e-38
0.2206193209 -0.4882178307 -0.2373925149 2.341805152e-38
0.1784741282 -0.4882794023 -0.2435839027 2.341805152e-38
0.070591636 -0.4882531464 -0.282404691 2.341805152e-38
-0.174890995 -0.4314230382 -0.3945578039 2.341805152e-38
0.4203071296 -0.4857546985 -0.1978812963 2.341805152e-38
0.3537911773 -0.4869201779 -0.2458150983 2.341805152e-38
0.31367594 -0.4883388877 -0.2373898476 2.341805152e-38
0.2859629989 -0.4889680147 -0.243683055 2.341805152e-38
0.2588580549 -0.4892638326 -0.2543494403 2.341805152e-38
0.2389847934 -0.4891083539 -0.2659613788 2.341805152e-38
0.1672500074 -0.4882009029 -0.3143573105 2.341805152e-38
-0.05599351227 -0.4825199544 -0.384329617 2.341805152e-38
0.4464245141 -0.4856701493 -0.205794692 2.341805152e-38
0.3583739698 -0.4870080054 -0.2401460707 2.341805152e-38
0.3233492672 -0.4880769849 -0.2497159988 2.341805152e-38
0.2941301167 -0.4889395833 -0.2529605031 2.341805152e-38
0.2686383128 -0.4894134998 -0.2730993032 2.341805152e-38
0.2535524964 -0.4892793894 -0.2960093617 2.341805152e-38
0.2216719091 -0.487685442 -0.3318742812 2.341805152e-38
0.06512615085 -0.4883141518 -0.407099694 2.341805152e-38
0.4556149244 -0.4854641557 -0.2171369046 2.341805152e-38
0.3868866563 -0.4862751365 -0.248738274 2.341805152e-38
0.3383562267 -0.4872896671 -0.2580169737 2.341805152e-38
0.3070176542 -0.4881178737 -0.2656594515 2.341805152e-38
0.2802325189 -0.4888048768 -0.2823646665 2.341805152e-38
0.2630550265 -0.4887074828 -0.3131454289 2.341805152e-38
0.2425867319 -0.4869794548 -0.372513473 2.341805152e-38
0.1036527008 -0.4863568544 -0.4481613934 2.341805152e-38
0.4580006003 -0.4625935853 -0.236722514 2.341805152e-38
0.427567482 -0.485317111 -0.2654837072 2.341805152e-38
0.371727407 -0.4857150912 -0.2888687253 2.341805152e-38
0.3289459944 -0.4868863821 -0.2961032391 2.341805152e-38
0.3005356789 -0.487836957 -0.3035877943 2.341805152e-38
0.278832227 -0.4880448282 -0.3387322128 2.341805152e-38
0.2472957671 -0.4860516191 -0.4101940691 2.341805152e-38
0.1367705762 -0.4294357598 -0.4336877763 2.341805152e-38
0.4419250786 -0.3747832775 -0.2611111701 2.341805152e-38
0.4451872706 -0.4780392051 -0.3044056892 2.341805152e-38
0.43384251 -0.484192729 -0.3348554373 2.341805152e-38
0.3936557472 -0.4846383333 -0.3493514657 2.341805152e-38
0.3467598557 -0.4858496189 -0.3594439328 2.341805152e-38
0.3169990182 -0.4861117601 -0.3908157051 2.341805152e-38
0.3064202964 -0.4410946071 -0.4128341973 2.341805152e-38
0.243647486 -0.3613829017 -0.4255788624 2.341805152e-38
0.4391451478 -0.3133491576 -0.2992471159 2.341805152e-38
0.4465052783 -0.3900655508 -0.3427732587 2.341805152e-38
0.4490851164 -0.4795176983 -0.3812610507 2.341805152e-38
0.4478289783 -0.4838393033 -0.3851109445 2.341805152e-38
0.4449293315 -0.4716916084 -0.3923299909 2.341805152e-38
0.4543227255 -0.4216561913 -0.4001838565 2.341805152e-38
0.4204982221 -0.3645631373 -0.4077480435 2.341805152e-38
0.3309890032 -0.2976637185 -0.4248846173 2.341805152e-38
0.3655309677 -0.4749067128 -0.06261909008 2.341805152e-38
0.2951325476 -0.4866190553 -0.1143613383 2.341805152e-38
0.2508198321 -0.4870857596 -0.1513538659 2.341805152e-38
0.2217644751 -0.4875736833 -0.1487008631 2.341805152e-38
0.181172654 -0.4877879322 -0.1491086632 2.341805152e-38
0.134775281 -0.4884377718 -0.1669260412 2.341805152e-38
0.1055607051 -0.4874529839 -0.2199948877 2.341805152e-38
-0.1423473656 -0.3861082792 -0.3592164516 2.341805152e-38
0.3491390049 -0.4874352813 -0.06348069012 2.341805152e-38
0.2824924886 -0.4892002642 -0.1175248474 2.341805152e-38
0.2408026457 -0.4894961715 -0.1614209563 2.341805152e-38
0.2049198151 -0.4895132482 -0.1600848734 2.341805152e-38
0.1864880919 -0.4900050461 -0.1625106335 2.341805152e-38
0.1650608629 -0.4902893305 -0.1777735054 2.341805152e-38
0.09872823954 -0.4899895489 -0.2435977012 2.341805152e-38
-0.02747025341 -0.4675754607 -0.325645119 2.341805152e-38
0.3683974743 -0.4875990152 -0.07614136487 2.341805152e-38
0.3003445268 -0.4895231426 -0.1008524522 2.341805152e-38
0.2556999028 -0.4901607931 -0.1554535627 2.341805152e-38
0.2189474404 -0.4903134704 -0.1627476364 2.341805152e-38
0.2029510289 -0.4907763004 -0.1691045761 2.341805152e-38
0.1734138876 -0.4914045632 -0.1924218833 2.341805152e-38
0.1193392277 -0.4902524948 -0.2397464067 2.341805152e-38
0.024200093 -0.4882944822 -0.3099713624 2.341805152e-38
0.3872385025 -0.4876825213 -0.06818851829 2.341805152e-38
0.3175078332 -0.4894379973 -0.09530039877 2.341805152e-38
0.2711253464 -0.4901750088 -0.1488115937 2.341805152e-38
0.2309912741 -0.4907166362 -0.1644933224 2.341805152e-38
0.2077983618 -0.4914038181 -0.183626771 2.341805152e-38
0.1870735884 -0.4916116595 -0.2094191611 2.341805152e-38
0.1393979639 -0.4898677766 -0.2553321719 2.341805152e-38
0.04943523556 -0.4900259376 -0.3224978745 2.341805152e-38
0.3913942575 -0.4874592423 -0.07100577652 2.341805152e-38
0.3316260874 -0.4885555506 -0.1318602115 2.341805152e-38
0.2795494199 -0.4899433851 -0.170693621 2.341805152e-38
0.2456995547 -0.4905523658 -0.1828791797 2.341805152e-38
0.2151596397 -0.4912823439 -0.2135018706 2.341805152e-38
0.1886171252 -0.4913873672 -0.2332271188 2.341805152e-38
0.1445611119 -0.4890269339 -0.2806900442 2.341805152e-38
0.0364613086 -0.4806500673 -0.3420439363 2.341805152e-38
0.4183512926 -0.4797313809 -0.09123040736 2.341805152e-38
0.3419968784 -0.4878054261 -0.1384284794 2.341805152e-38
0.2950622141 -0.4887886345 -0.1810204536 2.341805152e-38
0.2607738972 -0.4896067083 -0.2060915828 2.341805152e-38
0.235052377 -0.4900949299 -0.2440758795 2.341805152e-38
0.1968829036 -0.4897569716 -0.2756959498 2.341805152e-38
0.1340544075 -0.4875100255 -0.3286439478 2.341805152e-38
0.02455501258 -0.3693678379 -0.4302503765 2.341805152e-38
0.4097978771 -0.3873435855 -0.08318008482 2.341805152e-38
0.3972754776 -0.4866306186 -0.1437904686 2.341805152e-38
0.3402507901 -0.4869293571 -0.1987567693 2.341805152e-38
0.2843024135 -0.4881011248 -0.2301137298 2.341805152e-38
0.2494091094 -0.4885191619 -0.2757960558 2.341805152e-38
0.2140996307 -0.4847146869 -0.3503011465 2.341805152e-38
0.1588334739 -0.4006563723 -0.4193054438 2.341805152e-38
0.06709562987 -0.3183369935 -0.4518316984 2.341805152e-38
0.3968564868 -0.2895311713 -0.1447056234 2.341805152e-38
0.403724283 -0.4059895277 -0.2182637155 2.341805152e-38
0.3922284842 -0.4835492671 -0.2735172808 2.341805152e-38
0.3434035182 -0.4856295586 -0.3162929118 2.341805152e-38
0.3180064559 -0.4578386545 -0.3592528403 2.341805152e-38
0.3119139373 -0.3980749249 -0.3955009282 2.341805152e-38
0.2723166347 -0.3398972452 -0.4297370315 2.341805152e-38
0.1665346473 -0.2499104291 -0.4502605498 2.341805152e-38
0.3154352307 -0.4872162938 -0.02120069414 2.341805152e-38
0.251830101 -0.4888284206 -0.06715054065 2.341805152e-38
0.2087591887 -0.4887502789 -0.09783949703 2.341805152e-38
0.1853724718 -0.4884765148 -0.09828527272 2.341805152e-38
0.1643281877 -0.4884402454 -0.1033910215 2.341805152e-38
0.1534949243 -0.4884836674 -0.1371245384 2.341805152e-38
0.1852122694 -0.4901170731 -0.2011221498 2.341805152e-38
-0.005808858201 -0.4249562621 -0.3268939853 2.341805152e-38
0.3201691508 -0.4894218147 -0.01743873954 2.341805152e-38
0.2439931333 -0.4911668897 -0.07936093211 2.341805152e-38
0.2028796673 -0.4908082485 -0.1153888851 2.341805152e-38
0.1740071923 -0.4904294014 -0.1156510189 2.341805152e-38
0.1548003703 -0.4906257689 -0.1282926053 2.341805152e-38
0.1553758681 -0.4908227921 -0.1692560315 2.341805152e-38
0.1460837722 -0.490204215 -0.221445471 2.341805152e-38
0.1208768636 -0.4842547178 -0.2962365746 2.341805152e-38
0.3379274905 -0.4897377491 -0.04367485642 2.341805152e-38
0.2690393329 -0.4914728105 -0.07539538294 2.341805152e-38
0.2185314596 -0.4914010763 -0.1036296412 2.341805152e-38
0.1954737902 -0.4911259413 -0.1145072728 2.341805152e-38
0.1634373367 -0.4914453924 -0.1335746497 2.341805152e-38
0.1490492374 -0.4919530749 -0.1782893836 2.341805152e-38
0.1283276081 -0.4911507964 -0.2223998755 2.341805152e-38
0.1095252037 -0.4903939366 -0.2654365003 2.341805152e-38
0.3632872999 -0.4890570343 -0.05237673223 2.341805152e-38
0.2823005319 -0.4914219379 -0.06328622997 2.341805152e-38
0.2311007679 -0.4916679859 -0.1042936891 2.341805152e-38
0.2114967555 -0.4915433526 -0.119419463 2.341805152e-38
0.1883986741 -0.4920156896 -0.1303547025 2.341805152e-38
0.1584790498 -0.4926922023 -0.1734775603 2.341805152e-38
0.1202745885 -0.4911084771 -0.2162376791 2.341805152e-38
0.0845252201 -0.4910253286 -0.2542211711 2.341805152e-38
0.3858876824 -0.4884898961 -0.03220092878 2.341805152e-38
0.2944771051 -0.4909071922 -0.04455345497 2.341805152e-38
0.2447032034 -0.4914090633 -0.1046716347 2.341805152e-38
0.2227269113 -0.4912753403 -0.1288727224 2.341805152e-38
0.2061914802 -0.4916403294 -0.1568816155 2.341805152e-38
0.1788194925 -0.4920331538 -0.1862947792 2.341805152e-38
0.1298398077 -0.490193367 -0.2351563722 2.341805152e-38
0.06554058939 -0.4903352857 -0.2670526803 2.341805152e-38
0.4018427432 -0.4879183173 -0.0133906398 2.341805152e-38
0.3166828156 -0.4893442988 -0.06157904863 2.341805152e-38
0.2603760064 -0.4908143878 -0.1286557317 2.341805152e-38
0.2347992063 -0.4908665121 -0.153821826 2.341805152e-38
0.2163434327 -0.4910042882 -0.1904159635 2.341805152e-38
0.1874319464 -0.4907230139 -0.222976312 2.341805152e-38
0.1375852078 -0.4887641668 -0.2692429721 2.341805152e-38
0.03821861744 -0.4411430955 -0.3431215286 2.341805152e-38
0.3927492201 -0.487675488 -0.01129811816 2.341805152e-38
0.3357300758 -0.488601923 -0.08930473775 2.341805152e-38
0.2768175602 -0.4895598292 -0.1366582513 2.341805152e-38
0.2481743991 -0.4902942181 -0.1828809381 2.341805152e-38
0.2153275162 -0.4902520776 -0.2261073291 2.341805152e-38
0.1782044172 -0.4892434478 -0.2642359138 2.341805152e-38
0.1384628117 -0.4583928585 -0.3216328025 2.341805152e-38
0.06237550825 -0.3242268264 -0.40849787 2.341805152e-38
0.4115392566 -0.4209529161 -0.05779234692 2.341805152e-38
0.374463886 -0.4867368937 -0.1318326145 2.341805152e-38
0.3144987822 -0.4876281619 -0.1696216464 2.341805152e-38
0.2671974897 -0.4882634282 -0.2157322466 2.341805152e-38
0.2287372649 -0.4884653091 -0.2757472694 2.341805152e-38
0.2197988033 -0.4495702982 -0.3166765571 2.341805152e-38
0.1897289902 -0.347058475 -0.4125028551 2.341805152e-38
0.09372988343 -0.2490163594 -0.4449735582 2.341805152e-38
0.03175415099 -0.4891199768 0.2836450934 2.341805152e-38
0.0176377371 -0.4916780591 0.2350729108 2.341805152e-38
0.01873815432 -0.493825376 0.1575368047 2.341805152e-38
0.02218546718 -0.4946106672 0.1387597769 2.341805152e-38
0.0428750962 -0.4947921634 0.1240274981 2.341805152e-38
0.07398142666 -0.4938932061 0.1596054733 2.341805152e-38
0.1642993391 -0.4925676882 0.1250971705 2.341805152e-38
0.1411049664 -0.4890727103 -0.07204213738 2.341805152e-38
0.1459620297 -0.4910689592 0.2034230679 2.341805152e-38
0.1043711901 -0.4928289056 0.1620346159 2.341805152e-38
0.08751864731 -0.4941862822 0.105842717 2.341805152e-38
0.0881132409 -0.4946971536 0.09022020549 2.341805152e-38
0.08559689671 -0.4952455461 0.0800685361 2.341805152e-38
0.07645016909 -0.4950126112 0.1080989987 2.341805152e-38
0.1375219375 -0.4934785962 0.1410810351 2.341805152e-38
0.1894369274 -0.4928602874 0.05409139395 2.341805152e-38
0.224109143 -0.4907925427 0.1648873985 2.341805152e-38
0.1705720276 -0.4924381673 0.1468045115 2.341805152e-38
0.153047502 -0.4938299656 0.09022183716 2.341805152e-38
0.1433990449 -0.4942948818 0.05893088877 2.341805152e-38
0.1239503324 -0.4949251413 0.03931118548 2.341805152e-38
0.1144915521 -0.4946112037 0.0699961409 2.341805152e-38
0.1242838055 -0.4935102463 0.1037421152 2.341805152e-38
0.1815566868 -0.4913660884 0.1142677292 2.341805152e-38
0.2657023072 -0.490555346 0.1461601704 2.341805152e-38
0.2038263828 -0.4918891788 0.1401882768 2.341805152e-38
0.1844065189 -0.4931679368 0.09944060445 2.341805152e-38
0.1733005792 -0.4935518801 0.06751114875 2.341805152e-38
0.1615793258 -0.4937590361 0.02601197362 2.341805152e-38
0.1450956911 -0.4936234057 0.0163526237 2.341805152e-38
0.1457363516 -0.4923875332 0.08005978912 2.341805152e-38
0.1614076942 -0.4905876517 0.0822416544 2.341805152e-38
0.2876333594 -0.4898387194 0.1353385448 2.341805152e-38
0.2372594774 -0.4912497997 0.1369279474 2.341805152e-38
0.2095452547 -0.4923093319 0.1138128936 2.341805152e-38
0.1898423582 -0.4925580025 0.07911359519 2.341805152e-38
0.1751826853 -0.4926915467 0.04507445544 2.341805152e-38
0.1570715308 -0.4923074245 0.007407704368 2.341805152e-38
0.1593734175 -0.4909398556 0.09910079837 2.341805152e-38
0.1477891803 -0.4894134104 0.05800230801 2.341805152e-38
0.3219071627 -0.4884137809 0.1112477556 2.341805152e-38
0.2602666914 -0.49002105 0.1045410782 2.341805152e-38
0.2323168218 -0.4910613298 0.1033429354 2.341805152e-38
0.204749614 -0.4911696613 0.0781821683 2.341805152e-38
0.1886769831 -0.4914327264 0.05914983898 2.341805152e-38
0.1790774018 -0.4908625484 0.03860061988 2.341805152e-38
0.1748463213 -0.4895428121 0.09591248631 2.341805152e-38
0.1448401213 -0.4875669479 0.02571845427 2.341805152e-38
0.3547096252 -0.4869352579 0.088174209 2.341805152e-38
0.2878955603 -0.4881755412 0.05016191676 2.341805152e-38
0.2490786314 -0.4893450439 0.05392021313 2.341805152e-38
0.2228225172 -0.4900324941 0.09068638086 2.341805152e-38
0.2061709613 -0.4902017415 0.07390215993 2.341805152e-38
0.1902624667 -0.4891282618 0.09171837568 2.341805152e-38
0.1855201721 -0.4864989519 0.02035179734 2.341805152e-38
0.1369984299 -0.4890252948 -0.04499320313 2.341805152e-38
0.3762603104 -0.4858510494 0.01590626873 2.341805152e-38
0.3536360264 -0.4860264063 0.003537435317 2.341805152e-38
0.2737323046 -0.4876688123 0.01275855023 2.341805152e-38
0.2359367609 -0.4885280728 0.04405744374 2.341805152e-38
0.22791031 -0.4883201122 0.07800418884 2.341805152e-38
0.2212477326 -0.4872089028 0.02651755884 2.341805152e-38
0.2124874592 -0.483708024 -0.08545875549 2.341805152e-38
0.1554118544 -0.3991225362 -0.1774785519 2.341805152e-38
-0.007310373709 -0.4819865823 0.404820621 2.341805152e-38
-0.05817190558 -0.4901487231 0.3819304705 2.341805152e-38
-0.06015194207 -0.4916809201 0.3423539102 2.341805152e-38
-0.04856787622 -0.4921756089 0.3192151785 2.341805152e-38
-0.04250960797 -0.4923551977 0.3081893623 2.341805152e-38
-0.02717771195 -0.4917594194 0.2987210453 2.341805152e-38
0.007837288082 -0.4910575449 0.2758144736 2.341805152e-38
-0.01248441823 -0.4427822828 0.1405991316 2.341805152e-38
0.0676477924 -0.4903715849 0.3143720925 2.341805152e-38
-0.005382021889 -0.4916202426 0.3216831386 2.341805152e-38
-0.02584219165 -0.492395401 0.3230563104 2.341805152e-38
-0.02099955082 -0.4928431213 0.3084474802 2.341805152e-38
-0.01438918523 -0.492860347 0.2980860174 2.341805152e-38
0.006616789848 -0.4923815727 0.2768571079 2.341805152e-38
0.06806129962 -0.4917105436 0.293976754 2.341805152e-38
0.0347982794 -0.4893501997 0.2192311585 2.341805152e-38
0.1351512969 -0.4903306365 0.2550879717 2.341805152e-38
0.04126295447 -0.4913442731 0.2725049853 2.341805152e-38
0.007996313274 -0.492216289 0.2947291136 2.341805152e-38
0.01594125107 -0.4927558303 0.2882039845 2.341805152e-38
0.03548724204 -0.4927195609 0.2658528984 2.341805152e-38
0.0423316136 -0.492490083 0.2529395819 2.341805152e-38
0.05227915943 -0.4919144511 0.2547268569 2.341805152e-38
0.08385960758 -0.4911397696 0.2192723751 2.341805152e-38
0.1876495779 -0.489977181 0.2391611189 2.341805152e-38
0.08160917461 -0.4910485446 0.2501424253 2.341805152e-38
0.04132978618 -0.4919598103 0.2634117305 2.341805152e-38
0.04439703375 -0.4926974177 0.2480882406 2.341805152e-38
0.05490610749 -0.4927563071 0.2172503322 2.341805152e-38
0.05463402718 -0.4921742082 0.2091571987 2.341805152e-38
0.06010879576 -0.4914521575 0.2266910374 2.341805152e-38
0.1052445769 -0.4906640649 0.1818200946 2.341805152e-38
0.2294633985 -0.4895040989 0.2145105004 2.341805152e-38
0.1285299361 -0.4908051491 0.2316579372 2.341805152e-38
0.07552690059 -0.491546452 0.2450044602 2.341805152e-38
0.0574093461 -0.492305249 0.2304855138 2.341805152e-38
0.06089573354 -0.4924000502 0.2015416771 2.341805152e-38
0.04761809856 -0.49169451 0.2116359174 2.341805152e-38
0.05299215764 -0.4910031557 0.2433001548 2.341805152e-38
0.08791091293 -0.4891801178 0.1581647098 2.341805152e-38
0.253123641 -0.4885041118 0.1955186725 2.341805152e-38
0.1728972197 -0.4901491404 0.2124086916 2.341805152e-38
0.1111014932 -0.4908412099 0.2226056904 2.341805152e-38
0.07127273828 -0.4913274348 0.2077024579 2.341805152e-38
0.06365063787 -0.4917277396 0.2012780756 2.341805152e-38
0.04741682857 -0.4909338057 0.2492110133 2.341805152e-38
0.03416487575 -0.4896470308 0.2068925202 2.341805152e-38
0.06425985694 -0.4871577621 0.1316998154 2.341805152e-38
0.277760148 -0.4816932082 0.1652425379 2.341805152e-38
0.2096481472 -0.4890747666 0.168015644 2.341805152e-38
0.1444937736 -0.4899216592 0.1888802946 2.341805152e-38
0.08722370863 -0.4909194708 0.2240493745 2.341805152e-38
0.06055577844 -0.491314441 0.2455825806 2.341805152e-38
0.04296036065 -0.4905030131 0.2759827971 2.341805152e-38
0.03160892427 -0.4870246649 0.1568146348 2.341805152e-38
0.04612223059 -0.4889762402 0.1061735824 2.341805152e-38
0.3084971011 -0.419311136 0.113145873 2.341805152e-38
0.2586678863 -0.4836401939 0.09879888594 2.341805152e-38
0.1921748072 -0.4886446595 0.1405850798 2.341805152e-38
0.129839614 -0.4896746278 0.1892224997 2.341805152e-38
0.08464602381 -0.4898638725 0.2503148019 2.341805152e-38
0.06344222277 -0.4880749285 0.2103876621 2.341805152e-38
0.109356299 -0.4815712571 0.09336345643 2.341805152e-38
0.1332183182 -0.4072655439 -0.04147903621 2.341805152e-38
0.01511313766 -0.413248837 0.33780545 2.341805152e-38
-0.05252402276 -0.4869978428 0.3860421479 2.341805152e-38
-0.07211816311 -0.4896154702 0.3323253393 2.341805152e-38
-0.09210821986 -0.4906744659 0.2882170379 2.341805152e-38
-0.09657066315 -0.4907587171 0.2788529992 2.341805152e-38
-0.094337143 -0.4902662039 0.2859427035 2.341805152e-38
-0.0881030336 -0.484818846 0.2786435187 2.341805152e-38
-0.1510758996 -0.3584733903 0.1141823977 2.341805152e-38
0.05082515627 -0.4878691733 0.3083489537 2.341805152e-38
-0.01597112976 -0.4903301299 0.2919046283 2.341805152e-38
-0.06087981537 -0.4915391207 0.2965485752 2.341805152e-38
-0.05024198815 -0.4916662276 0.2749337256 2.341805152e-38
-0.05240851641 -0.4919013083 0.2653108537 2.341805152e-38
-0.05291964486 -0.4916193485 0.2525348365 2.341805152e-38
-0.05625686422 -0.491350323 0.2700566351 2.341805152e-38
-0.1023070961 -0.4662892818 0.1729199886 2.341805152e-38
0.06144696474 -0.489695102 0.2257293761 2.341805152e-38
-0.006432820112 -0.490668714 0.2389124185 2.341805152e-38
-0.0262154825 -0.491417408 0.2683781683 2.341805152e-38
-0.0114992056 -0.4919612408 0.2590528131 2.341805152e-38
-0.02208195254 -0.4922742248 0.2376413643 2.341805152e-38
-0.02802054211 -0.4917304814 0.2233629227 2.341805152e-38
0.006872888654 -0.4907009006 0.2466676682 2.341805152e-38
-0.04640321061 -0.4895247221 0.1790875345 2.341805152e-38
0.1056076437 -0.4892787337 0.2156167924 2.341805152e-38
0.0244018957 -0.4902952015 0.228767097 2.341805152e-38
-0.001293255016 -0.4911728501 0.2598367035 2.341805152e-38
0.00866676122 -0.4919606149 0.2470551431 2.341805152e-38
0.00332582742 -0.4923203588 0.2154800445 2.341805152e-38
0.01141773537 -0.4913534522 0.2149741799 2.341805152e-38
0.02276259288 -0.4902020097 0.2060111612 2.341805152e-38
0.005071561784 -0.489199996 0.1691619903 2.341805152e-38
0.1359852105 -0.4884836972 0.2052624226 2.341805152e-38
0.0605205223 -0.4897566438 0.2170176357 2.341805152e-38
0.01284649223 -0.4908849001 0.2488064766 2.341805152e-38
0.01599567011 -0.4917906523 0.2346208543 2.341805152e-38
0.007515091449 -0.492036283 0.2118008584 2.341805152e-38
0.01021430269 -0.4911954999 0.2004069239 2.341805152e-38
0.02300136909 -0.4895460904 0.1932662427 2.341805152e-38
0.03370416164 -0.4869896173 0.1630657613 2.341805152e-38
0.1645736098 -0.4876824021 0.2013128847 2.341805152e-38
0.09007303417 -0.489156127 0.2089369446 2.341805152e-38
0.02356936783 -0.4903433621 0.2316797674 2.341805152e-38
0.02326887846 -0.491187036 0.230112657 2.341805152e-38
0.005949087441 -0.4915069342 0.2152663618 2.341805152e-38
-0.0144246649 -0.4909270406 0.2078985423 2.341805152e-38
0.007524587214 -0.4892502129 0.2015258968 2.341805152e-38
0.02127384022 -0.4870793223 0.1690940857 2.341805152e-38
0.2452591658 -0.4501330256 0.1704978347 2.341805152e-38
0.1128256023 -0.4884247184 0.1564706713 2.341805152e-38
0.04713198543 -0.4894260168 0.1718606204 2.341805152e-38
0.02664344758 -0.4900693297 0.2052272856 2.341805152e-38
-0.009358828887 -0.4909909964 0.2289745808 2.341805152e-38
-0.0253583882 -0.4904285669 0.212423265 2.341805152e-38
0.01709780097 -0.4857431054 0.2104448378 2.341805152e-38
0.01046070829 -0.4863526225 0.1845536679 2.341805152e-38
0.2791140974 -0.3828201294 0.142828539 2.341805152e-38
0.162719205 -0.4611955881 0.1309297383 2.341805152e-38
0.08299040794 -0.4886171222 0.1453439742 2.341805152e-38
0.03427947313 -0.4895734787 0.2023093104 2.341805152e-38
-0.009453264996 -0.4898917079 0.203274563 2.341805152e-38
0.04387845099 -0.488211751 0.1995150745 2.341805152e-38
0.1271567941 -0.4830127954 0.1626597792 2.341805152e-38
0.09227661043 -0.4242419004 0.07020162791 2.341805152e-38
0.1902559251 -0.2948177159 0.2563655674 2.341805152e-38
0.1222453862 -0.3254696727 0.2701815665 2.341805152e-38
0.002977594733 -0.4130120873 0.3107176125 2.341805152e-38
-0.05407211185 -0.4878336191 0.280071348 2.341805152e-38
-0.1046697646 -0.487232089 0.2593828142 2.341805152e-38
-0.1409676224 -0.486207664 0.260720104 2.341805152e-38
-0.1338107884 -0.3896719813 0.25881055 2.341805152e-38
-0.1351679862 -0.2701025903 0.04649086297 2.341805152e-38
0.2297615707 -0.3365306556 0.2305989563 2.341805152e-38
0.1422089338 -0.436308682 0.2912477851 2.341805152e-38
0.04200166464 -0.4866410494 0.2787685394 2.341805152e-38
-0.02676175535 -0.4878956974 0.2483609319 2.341805152e-38
-0.05485638976 -0.4881126881 0.2320034802 2.341805152e-38
-0.06158428267 -0.4874780774 0.221371904 2.341805152e-38
-0.1399927735 -0.4845924377 0.1627614945 2.341805152e-38
-0.1512340903 -0.3054969013 -0.06115471572 2.341805152e-38
0.2391763031 -0.4294752479 0.2266147286 2.341805152e-38
0.08700362593 -0.4855045974 0.2668698728 2.341805152e-38
0.01886131987 -0.4873274863 0.2523936927 2.341805152e-38
-0.005854055285 -0.4880221784 0.2180936337 2.341805152e-38
-0.02514474466 -0.4885507822 0.2089658976 2.341805152e-38
-0.05038239807 -0.4880913794 0.1939329505 2.341805152e-38
-0.05834320933 -0.4891861677 0.1174095348 2.341805152e-38
-0.1518137306 -0.4396296144 -0.03609519824 2.341805152e-38
0.1811797768 -0.4852879345 0.2228098065 2.341805152e-38
0.08719874918 -0.4863131046 0.2495093048 2.341805152e-38
0.009388782084 -0.4876348972 0.2211330831 2.341805152e-38
0.002472277731 -0.4885590672 0.189278394 2.341805152e-38
-0.01470433176 -0.4887963235 0.1818426996 2.341805152e-38
-0.04437182471 -0.4885058999 0.1913212538 2.341805152e-38
-0.03094654717 -0.4878178835 0.09332320094 2.341805152e-38
-0.08388338238 -0.4857184887 0.04007050768 2.341805152e-38
0.1837297976 -0.4855912924 0.2153567523 2.341805152e-38
0.09190487117 -0.4865612388 0.2257077098 2.341805152e-38
0.02705715224 -0.4876393676 0.1993088722 2.341805152e-38
-0.00947861746 -0.4889571071 0.1887040287 2.341805152e-38
-0.01994521357 -0.4890055656 0.1720684916 2.341805152e-38
-0.04725988209 -0.4884737432 0.1801549196 2.341805152e-38
-0.01761244982 -0.4873492718 0.07194894552 2.341805152e-38
-0.06404903531 -0.4866296649 0.07097023726 2.341805152e-38
0.1995681673 -0.4732369483 0.2072004825 2.341805152e-38
0.09559772909 -0.4864051044 0.2125030011 2.341805152e-38
0.04779770225 -0.4875690639 0.2096520066 2.341805152e-38
0.001666415483 -0.4888957441 0.1976635903 2.341805152e-38
-0.04154199362 -0.4891614318 0.1791138202 2.341805152e-38
-0.0502473563 -0.4885585904 0.1641939431 2.341805152e-38
-0.02394289151 -0.4899879694 0.07193947583 2.341805152e-38
-0.1166913211 -0.4362455606 0.03385791183 2.341805152e-38
0.2362050712 -0.3939293623 0.2185028493 2.341805152e-38
0.1114078015 -0.4854181409 0.2140113711 2.341805152e-38
0.0706268996 -0.4875105619 0.2093491107 2.341805152e-38
0.02218814939 -0.4885500968 0.2006046325 2.341805152e-38
-0.03144424781 -0.4888042212 0.176566124 2.341805152e-38
-0.05025868863 -0.4858914614 0.1528208703 2.341805152e-38
-0.01976548135 -0.4397020638 0.05467657372 2.341805152e-38
-0.1187223941 -0.3390524983 -0.006529956125 2.341805152e-38
0.2318145037 -0.3165713549 0.198029235 2.341805152e-38
0.2004734874 -0.4182120264 0.1862527877 2.341805152e-38
0.09214924276 -0.4870117009 0.1976023763 2.341805152e-38
0.04349864274 -0.4877334535 0.1931056529 2.341805152e-38
-0.008950510994 -0.487823844 0.1393699646 2.341805152e-38
0.01166141406 -0.4501643777 0.06564169377 2.341805152e-38
0.1114340723 -0.3586049676 0.04670207202 2.341805152e-38
0.02701211721 -0.2530649304 -0.05414907634 2.341805152e-38
0.1409019828 -0.2905619144 0.266643703 2.341805152e-38
0.08338414133 -0.3044834733 0.2875607312 2.341805152e-38
0.01479421556 -0.3294783533 0.2888451219 2.341805152e-38
-0.03152983263 -0.419675827 0.2570888996 2.341805152e-38
-0.07911901176 -0.4865719676 0.2458800077 2.341805152e-38
-0.108678937 -0.4513478875 0.211098209 2.341805152e-38
-0.1062593758 -0.2827401161 0.171643272 2.341805152e-38
-0.1364606023 -0.2279116213 0.0823630318 2.341805152e-38
0.1590640545 -0.3088649511 0.2537101507 2.341805152e-38
0.1187494695 -0.374355197 0.3068270087 2.341805152e-38
0.01251842454 -0.4554688931 0.2491740584 2.341805152e-38
-0.03988276049 -0.4877420664 0.2110303938 2.341805152e-38
-0.06034562737 -0.4873947501 0.2089344412 2.341805152e-38
-0.0871867165 -0.4882804155 0.2057800144 2.341805152e-38
-0.1222010553 -0.3924275935 0.08190329373 2.341805152e-38
-0.1469016969 -0.2361291796 0.01975279301 2.341805152e-38
0.1923723668 -0.3829715848 0.2489237487 2.341805152e-38
0.05212775618 -0.4727905691 0.2448491156 2.341805152e-38
0.001244280487 -0.487244308 0.211205408 2.341805152e-38
-0.03663635626 -0.4879741669 0.1937310994 2.341805152e-38
-0.04884923995 -0.4878278971 0.1960488856 2.341805152e-38
-0.0571392104 -0.487483561 0.1868326962 2.341805152e-38
-0.09895988554 -0.4893764257 0.06829895824 2.341805152e-38
-0.142934978 -0.3154473901 0.0322978124 2.341805152e-38
0.1572666913 -0.4618459344 0.2373197228 2.341805152e-38
0.0439074859 -0.4864553511 0.2235245705 2.341805152e-38
-0.0002968125045 -0.4875868857 0.1806135923 2.341805152e-38
-0.03191096336 -0.4881238043 0.173438251 2.341805152e-38
-0.04259932786 -0.4879680276 0.1725800484 2.341805152e-38
-0.05672657862 -0.4877088368 0.1693741679 2.341805152e-38
-0.06551389396 -0.488694191 0.0766357556 2.341805152e-38
-0.1253820658 -0.4334658682 0.01410073601 2.341805152e-38
0.156827867 -0.4726499617 0.2119460255 2.341805152e-38
0.03767675906 -0.4870399237 0.1991641223 2.341805152e-38
0.004600398242 -0.487875104 0.1711725146 2.341805152e-38
-0.03352954984 -0.4881924391 0.1710848659 2.341805152e-38
-0.04179757088 -0.4882246256 0.1727701277 2.341805152e-38
-0.05880042538 -0.487998426 0.1465552747 2.341805152e-38
-0.06844865531 -0.4804524481 0.07527210563 2.341805152e-38
-0.1212533191 -0.4154227376 0.04704172537 2.341805152e-38
0.1735785455 -0.4411668181 0.1975006461 2.341805152e-38
0.0678518042 -0.4829313755 0.1863653958 2.341805152e-38
0.03511530906 -0.4875648618 0.1775857061 2.341805152e-38
-0.01668774709 -0.4879711866 0.1711818576 2.341805152e-38
-0.04773981124 -0.4882951379 0.1647833586 2.341805152e-38
-0.05994599685 -0.4852073789 0.1115502864 2.341805152e-38
-0.07698348165 -0.403414309 0.083925955 2.341805152e-38
-0.119896397 -0.3259012401 0.06034560874 2.341805152e-38
0.1809105128 -0.3785174191 0.2006610185 2.341805152e-38
0.1265745163 -0.4543133378 0.1807677746 2.341805152e-38
0.06706205755 -0.4833470583 0.1806543618 2.341805152e-38
0.004043743014 -0.487749517 0.1743749678 2.341805152e-38
-0.03723070025 -0.4880024195 0.146514833 2.341805152e-38
-0.04812199622 -0.4258203506 0.1301858574 2.341805152e-38
-0.06226667017 -0.3384617567 0.1136967018 2.341805152e-38
-0.1058797091 -0.2542754114 0.04577405378 2.341805152e-38
0.1841057092 -0.2831772268 0.1928450912 2.341805152e-38
0.1596071571 -0.3887076974 0.1814475507 2.341805152e-38
0.1223870069 -0.4572605491 0.1578720212 2.341805152e-38
