# .PCD v0.7 - Point Cloud Data file format
VERSION 0.7
FIELDS x y z rgb
SIZE 4 4 4 4
TYPE F F F F
COUNT 1 1 1 1
WIDTH 846
HEIGHT 1
VIEWPOINT 0 0 0 1 0 0 0
POINTS 846
DATA ascii
0.0815654248 -0.2516011298 0.2472826988 3.015101038e-39
0.3590810597 -0.1958068311 0.0931160301 3.015101038e-39
0.3797732592 -0.2514154911 0.08817860484 3.015101038e-39
0.0751497522 -0.3451320529 0.1125951558 3.015101038e-39
0.08380118012 -0.3684424758 0.3537234366 3.015101038e-39
0.05932123214 -0.3702222109 0.08739665151 3.015101038e-39
0.09390280396 -0.0712839067 0.2833279073 3.015101038e-39
0.09754831344 -0.3531224132 0.09425580502 3.015101038e-39
0.07558841258 -0.3114036918 0.1099427789 3.015101038e-39
0.1178149953 -0.3643858731 0.1601292491 3.015101038e-39
0.08391130716 -0.205461517 0.1166588664 3.015101038e-39
0.1067354828 -0.08754369617 0.2648313642 3.015101038e-39
0.08025164902 -0.2933582366 0.1877352297 3.015101038e-39
0.1506441087 -0.3000572324 0.1306641847 3.015101038e-39
0.07916574925 -0.3434387743 0.08776023984 3.015101038e-39
0.08887194097 -0.08444003761 0.2477527857 3.015101038e-39
0.3011538386 -0.1309364438 0.1058867276 3.015101038e-39
0.1611040384 -0.14374502 0.1199510098 3.015101038e-39
0.08494686335 -0.3869304955 0.2916733325 3.015101038e-39
0.07505854964 -0.2138933092 0.3715410233 3.015101038e-39
0.3748135865 -0.2475367785 0.08338057995 3.015101038e-39
0.07788672298 -0.1663426906 0.284250468 3.015101038e-39
0.1232728288 -0.2770185173 0.09450908005 5.962428276e-39
0.07730150968 -0.29241696 0.1740279049 5.962428276e-39
0.09514991194 -0.1396816671 0.1188240796 5.962428276e-39
0.07759318501 -0.3648224473 0.2640134096 5.962428276e-39
0.3394333422 -0.1964351237 0.08993910253 5.962428276e-39
0.06711072475 -0.1694901437 0.3644170761 5.962428276e-39
0.09373016655 -0.1473410428 0.100531742 5.962428276e-39
0.3943229616 -0.2480964661 0.0904288888 5.962428276e-39
0.09443057328 -0.1470942199 0.1243190467 5.962428276e-39
0.2242292911 -0.2432396412 0.09356991947 5.962428276e-39
0.06634539366 -0.4194948971 0.1559431255 5.962428276e-39
0.07331590354 -0.1772505343 0.2755227387 5.962428276e-39
0.08898171037 -0.1741456091 0.2075529993 5.962428276e-39
0.09676080942 -0.06590309739 0.1944069713 5.962428276e-39
0.1402961612 -0.1168510765 0.08656479418 5.962428276e-39
0.3729550242 -0.1971582919 0.08419211209 5.962428276e-39
0.09340187162 -0.1359742284 0.1996658146 5.962428276e-39
0.08426660299 -0.2573491037 0.09746797383 5.962428276e-39
0.08581706136 -0.3162819743 0.1626037508 5.962428276e-39
0.06227624416 -0.4187323451 0.1484626681 5.962428276e-39
0.08818493038 -0.2556383014 0.1993968189 5.962428276e-39
0.08979151398 -0.4199447632 0.09524379671 5.962428276e-39
0.09349332005 -0.1593585312 0.3147114515 5.962428276e-39
0.07254263014 -0.4161965847 0.1900493056 5.962428276e-39
0.2521692216 -0.1423851997 0.1060058475 5.962428276e-39
0.06538151205 -0.2725878358 0.2964435518 5.962428276e-39
0.09356164932 -0.2009545118 0.1631934494 5.962428276e-39
0.05441624671 -0.2542797923 0.3801665902 5.962428276e-39
0.1600651145 -0.3160616755 0.09536863863 5.962428276e-39
0.185558036 -0.08033743501 0.09155736864 5.962428276e-39
0.3137891293 -0.2491950691 0.0970749706 5.962428276e-39
0.05750593543 -0.1930713356 0.3774080276 5.962428276e-39
0.29692626 -0.3461714089 0.07960094512 5.962428276e-39
0.2565847933 -0.1302490681 0.09956300259 5.962428276e-39
0.1413802356 -0.2458402812 0.1119726896 5.962428276e-39
0.1742895544 -0.1529773176 0.09223558009 5.962428276e-39
0.2301668078 -0.1436389685 0.09883180261 5.962428276e-39
0.2492215037 -0.3641944528 0.06417281926 5.962428276e-39
0.2415480912 -0.304699868 0.09421095252 5.962428276e-39
0.1074314788 -0.06225550175 0.196361348 5.962428276e-39
0.1314860582 -0.2897785306 0.09234541655 5.962428276e-39
0.2595436871 -0.2689007223 0.09371674061 5.962428276e-39
0.3898768127 -0.1949097514 0.09182924032 5.962428276e-39
0.2840788364 -0.2231677175 0.09921172261 5.962428276e-39
0.1783415079 -0.1443651468 0.09985430539 5.962428276e-39
0.1398143023 -0.3849360347 0.09540121257 5.962428276e-39
0.09076289833 -0.1901707053 0.09815454483 5.962428276e-39
0.3770425022 -0.1817023754 0.09321136773 5.962428276e-39
0.3871468306 -0.2818632722 0.08034740388 5.962428276e-39
0.2206551135 -0.1105555296 0.1164543629 5.962428276e-39
0.4016562998 -0.2643115819 0.0849738121 5.962428276e-39
0.1029567793 -0.1029962301 0.3058163226 5.962428276e-39
0.08148635179 -0.3855322301 0.2169343829 5.962428276e-39
0.06317427754 -0.1860702634 0.3710608184 5.962428276e-39
0.08638821542 -0.2723316848 0.09607695043 5.962428276e-39
0.08902255446 -0.3274385333 0.1819169223 5.962428276e-39
0.07777108252 -0.3305992186 0.1011168808 5.962428276e-39
0.07136884332 -0.2014564723 0.2539427578 5.962428276e-39
0.129501313 -0.2601678967 0.09359519184 5.962428276e-39
0.2268605083 -0.2999319434 0.09645742178 5.962428276e-39
0.1016729847 -0.101975739 0.3068753481 5.962428276e-39
0.2354502082 -0.08648362756 0.09470912814 5.962428276e-39
0.08084455878 -0.2744146585 0.1132693291 5.962428276e-39
0.05097463727 -0.248884052 0.387388438 5.962428276e-39
0.2843599916 -0.1670188308 0.08785739541 5.962428276e-39
0.1910468936 -0.3243295848 0.1167337745 5.962428276e-39
0.2476568818 -0.133969605 0.1042803973 5.962428276e-39
0.3287470341 -0.1878888607 0.08434738964 5.962428276e-39
0.2264405191 -0.2167946696 0.09231132269 5.962428276e-39
0.08538514376 -0.3348301947 0.162409693 5.962428276e-39
0.2365630865 -0.2310128212 0.09446418285 5.962428276e-39
0.07041436434 -0.4164023399 0.09072376788 5.962428276e-39
0.2521786988 -0.2392219007 0.09933495522 5.962428276e-39
0.08343695849 -0.06956529617 0.2160462588 5.962428276e-39
0.1919284314 -0.1299601346 0.09690707922 5.962428276e-39
0.08860460669 -0.4160245359 0.07726811618 5.962428276e-39
0.06455776095 -0.4185029268 0.1552285254 5.962428276e-39
0.3853231072 -0.2177020609 0.09650453925 5.962428276e-39
0.1060073972 -0.08409243822 0.2688505054 5.962428276e-39
0.06083660573 -0.1801923364 0.3733229041 5.962428276e-39
0.1111271456 -0.1954639554 0.1547750086 5.962428276e-39
0.1749633104 -0.3047273159 0.09489709139 5.962428276e-39
0.333185792 -0.1284178942 0.1021507829 5.962428276e-39
0.2080915123 -0.3044572175 0.09409983456 5.962428276e-39
0.2918244004 -0.09150068462 0.1099631041 5.962428276e-39
0.09905406088 -0.07110098004 0.1390200257 5.962428276e-39
0.1063923612 -0.07301792502 0.2303441316 5.962428276e-39
0.1667033285 -0.3690167665 0.1142482907 5.962428276e-39
0.08734423667 -0.07839256525 0.3128985763 5.962428276e-39
0.09601323307 -0.07256135345 0.1842930168 5.962428276e-39
0.2859093547 -0.1356260926 0.0888427496 5.962428276e-39
0.08915285021 -0.1344786733 0.1894876659 5.962428276e-39
0.06388100982 -0.418677181 0.1323913485 5.962428276e-39
0.2654685974 -0.2179605961 0.09962792695 5.962428276e-39
0.2624576092 -0.3244262338 0.09934161603 5.962428276e-39
0.1837492734 -0.2989245951 0.09422756732 5.962428276e-39
0.09083665162 -0.29069978 0.09451712668 5.962428276e-39
0.269921422 -0.1506449431 0.1050126255 5.962428276e-39
0.304551065 -0.06674161553 0.09702956676 5.962428276e-39
0.09537496418 -0.1570124328 0.3311232328 5.962428276e-39
0.3257892132 -0.1151370853 0.1007961184 5.962428276e-39
0.0567952767 -0.2216923088 0.3841893971 5.962428276e-39
0.1100307927 -0.1821273565 0.1605007052 5.962428276e-39
0.08550555259 -0.3312569857 0.0889056474 5.962428276e-39
0.2925260067 -0.2848312259 0.09879125655 5.962428276e-39
0.3429607451 -0.1269051582 0.1011051685 5.962428276e-39
0.08201496303 -0.2686774731 0.2410023957 5.962428276e-39
0.3715125918 -0.1706805974 0.0989125371 5.962428276e-39
0.3980333209 -0.223701328 0.08895580471 5.962428276e-39
0.07940080017 -0.3585823178 0.1106137186 5.962428276e-39
0.07168427855 -0.3441438079 0.3678105772 5.962428276e-39
0.06821031868 -0.3862452507 0.08200283349 5.962428276e-39
0.08428753912 -0.07297983766 0.2680312991 5.962428276e-39
0.1089944914 -0.366471082 0.09194734693 5.962428276e-39
0.07927233726 -0.321906656 0.1071297526 5.962428276e-39
0.1366991848 -0.352558881 0.1508354545 5.962428276e-39
0.08495342731 -0.2191636562 0.1160461009 5.962428276e-39
0.1081973836 -0.0814679563 0.2556512654 5.962428276e-39
0.08078736812 -0.2896451056 0.1683127135 5.962428276e-39
0.1830788702 -0.2892335057 0.1063079238 5.962428276e-39
0.07296590507 -0.3568297625 0.0879585892 5.962428276e-39
0.08016176522 -0.09525169432 0.2248920202 5.962428276e-39
0.3229716122 -0.1139631867 0.1003054082 5.962428276e-39
0.1675266773 -0.1283728033 0.1230644137 5.962428276e-39
0.07665818185 -0.3627986908 0.3126321137 5.962428276e-39
0.06513299048 -0.1954562068 0.3739742339 5.962428276e-39
0.3964287341 -0.2223652601 0.0842768997 5.962428276e-39
0.07387902588 -0.1693506688 0.2590172291 5.962428276e-39
0.1156078652 -0.2951696515 0.09749929607 8.906165387e-39
0.06288478523 -0.2706807256 0.1984199286 8.906165387e-39
0.09588331729 -0.1725666225 0.142206341 8.906165387e-39
0.07215262204 -0.4017534852 0.3350614607 8.906165387e-39
0.3210024238 -0.1717733145 0.09005615115 8.906165387e-39
0.07125711441 -0.1573064923 0.3653944731 8.906165387e-39
0.09501548856 -0.1759970635 0.1180085838 8.906165387e-39
0.4067531228 -0.2334297299 0.08367477357 8.906165387e-39
0.09597864747 -0.1805818975 0.147712335 8.906165387e-39
0.2372082472 -0.1837040633 0.09258174896 8.906165387e-39
0.08276115358 -0.3751542866 0.2423997074 8.906165387e-39
0.0696413964 -0.162138924 0.281957835 8.906165387e-39
0.08703210205 -0.1747478843 0.2143413424 8.906165387e-39
0.1025947928 -0.08662372828 0.2113113105 8.906165387e-39
0.1403545588 -0.1382430941 0.08973304927 8.906165387e-39
0.3586152494 -0.1687830389 0.07972475141 8.906165387e-39
0.09604808688 -0.1784550548 0.2125780135 8.906165387e-39
0.08264398575 -0.2897865176 0.1146329343 8.906165387e-39
0.08361058682 -0.3678852022 0.1879687309 8.906165387e-39
0.08668188751 -0.3783168793 0.2251128405 8.906165387e-39
0.08661251515 -0.3031042218 0.221336171 8.906165387e-39
0.1402539015 -0.3864805996 0.1237262636 8.906165387e-39
0.08625550568 -0.2106774598 0.3163245916 8.906165387e-39
0.07665655762 -0.3598414063 0.2816235125 8.906165387e-39
0.2214777321 -0.1182584018 0.0998570919 8.906165387e-39
0.05801399052 -0.264690876 0.3163117468 8.906165387e-39
0.09325484186 -0.246311307 0.1832592934 8.906165387e-39
0.05668479204 -0.2380319834 0.3812727332 8.906165387e-39
0.1614255905 -0.3202092648 0.09790845215 8.906165387e-39
0.1798760295 -0.08699138463 0.09611356258 8.906165387e-39
0.3652642667 -0.219489485 0.09133704007 8.906165387e-39
0.06449851394 -0.1777360141 0.375608176 8.906165387e-39
0.3549660146 -0.3027564287 0.07247609645 8.906165387e-39
0.2504091263 -0.1469929814 0.1051615775 8.906165387e-39
0.1310998052 -0.2291205525 0.1270074248 8.906165387e-39
0.1770570576 -0.1812138259 0.09594453871 8.906165387e-39
0.2190096974 -0.1620096862 0.1045516282 8.906165387e-39
0.2981264293 -0.3422483802 0.07972715795 8.906165387e-39
0.3059047759 -0.2508991957 0.09539680183 8.906165387e-39
0.105686754 -0.05925154686 0.2172582597 8.906165387e-39
0.1191033199 -0.3274093866 0.0942799747 8.906165387e-39
0.3127807379 -0.2160560787 0.09805507958 8.906165387e-39
0.3841235638 -0.1702198982 0.08805964887 8.906165387e-39
0.2758019865 -0.249242872 0.1028483957 8.906165387e-39
0.158227101 -0.1386479288 0.1024814844 8.906165387e-39
0.1792784333 -0.3621712625 0.1465760767 8.906165387e-39
0.08906472474 -0.2204290479 0.1124897152 8.906165387e-39
0.3622802794 -0.1539935321 0.08805988729 8.906165387e-39
0.4059552252 -0.2675175071 0.07496803254 8.906165387e-39
0.1949305087 -0.078853935 0.1164889634 8.906165387e-39
0.4074198008 -0.2472020686 0.07817043364 8.906165387e-39
0.1006275415 -0.09553939104 0.3114385307 8.906165387e-39
0.07746044546 -0.4008013606 0.3211853504 8.906165387e-39
0.06777211279 -0.1764531434 0.3713233173 8.906165387e-39
0.0833094418 -0.3017112911 0.1092314422 8.906165387e-39
0.07467955351 -0.317119658 0.2092319876 8.906165387e-39
0.07777453959 -0.384457171 0.1228013337 8.906165387e-39
0.07217065245 -0.1887941658 0.2644748986 8.906165387e-39
0.1209365055 -0.2798912227 0.09669403732 8.906165387e-39
0.2176339477 -0.271243006 0.0965757668 8.906165387e-39
0.09927701205 -0.1033954471 0.3135950863 8.906165387e-39
0.2267336398 -0.08440615237 0.1007320136 8.906165387e-39
0.08356842399 -0.3097672164 0.1379463822 8.906165387e-39
0.05538689345 -0.2300911248 0.3868522048 8.906165387e-39
0.2736831605 -0.1468411237 0.08526681364 8.906165387e-39
0.1743539125 -0.3150828183 0.137239188 8.906165387e-39
0.217010498 -0.1112615317 0.09940040112 8.906165387e-39
0.3166728318 -0.1648679525 0.08346699923 8.906165387e-39
0.2399822474 -0.1582162529 0.09118972719 8.906165387e-39
0.08180813491 -0.3833232224 0.1884947419 8.906165387e-39
0.2154306024 -0.2166829109 0.09915815294 8.906165387e-39
0.1029220894 -0.4161636233 0.114935711 8.906165387e-39
0.2449822128 -0.2697562575 0.1018399 8.906165387e-39
0.0770130083 -0.06734648347 0.2183054537 8.906165387e-39
0.1943817437 -0.1496702284 0.09883326292 8.906165387e-39
0.1357518286 -0.4018024206 0.09236830473 8.906165387e-39
0.08485925198 -0.3747868538 0.2384977192 8.906165387e-39
0.3972068727 -0.2050840557 0.09359191358 8.906165387e-39
0.1021490246 -0.08170159161 0.2843857408 8.906165387e-39
0.06743718684 -0.1675424129 0.3716351688 8.906165387e-39
0.1027082652 -0.1894475371 0.1586098224 8.906165387e-39
0.1980574876 -0.3155138791 0.1001640707 8.906165387e-39
0.3392917514 -0.09298756719 0.09898103774 8.906165387e-39
0.2324638218 -0.2770598531 0.09583100677 8.906165387e-39
0.2883192897 -0.06017616391 0.1023532003 8.906165387e-39
0.1005294695 -0.08466582 0.163626343 8.906165387e-39
0.1057442725 -0.08183461428 0.2446355522 8.906165387e-39
0.1716741771 -0.3495987058 0.15618819 8.906165387e-39
0.08130525798 -0.08158327639 0.3097500801 8.906165387e-39
0.1016175151 -0.09587496519 0.2040293366 8.906165387e-39
0.2748095095 -0.1144337505 0.08886174858 8.906165387e-39
0.08712744713 -0.129443571 0.1948571801 8.906165387e-39
0.09569641203 -0.3825174272 0.1962567419 8.906165387e-39
0.2572363615 -0.2415109873 0.1031796038 8.906165387e-39
0.2354624271 -0.2382544428 0.09544430673 8.906165387e-39
0.1786983311 -0.3032786846 0.09868395329 8.906165387e-39
0.08464583755 -0.3185198009 0.1043485701 8.906165387e-39
0.2459127903 -0.1248443872 0.1005486101 8.906165387e-39
0.3324075639 -0.05934119225 0.09850989282 8.906165387e-39
0.08595117927 -0.1982312202 0.3295553029 8.906165387e-39
0.3570461869 -0.117221579 0.09602157772 8.906165387e-39
0.05812651664 -0.1993832886 0.3829164803 8.906165387e-39
0.1034417748 -0.1767002493 0.162662819 8.906165387e-39
0.07392331213 -0.3803087175 0.09483346343 8.906165387e-39
0.2812696993 -0.3041525185 0.1006467044 8.906165387e-39
0.364716351 -0.1314545125 0.09443324804 8.906165387e-39
0.08031944185 -0.3201704323 0.2650672793 8.906165387e-39
0.362826407 -0.1426540762 0.0956441164 8.906165387e-39
0.3991193771 -0.2054589987 0.0878238827 8.906165387e-39
0.07332700491 -0.4142074585 0.1407700628 8.906165387e-39
0.05735311657 -0.2617791891 0.3922741711 8.906165387e-39
0.0858130753 -0.4122531116 0.09648345411 8.906165387e-39
0.07380384952 -0.0728687644 0.2687850296 8.906165387e-39
0.1281773299 -0.3799668252 0.09489089251 8.906165387e-39
0.07914883643 -0.3761723638 0.1301307678 8.906165387e-39
0.1186383441 -0.3451757431 0.1828367859 8.906165387e-39
0.08864589036 -0.2602716386 0.1413378567 8.906165387e-39
0.1050737202 -0.07184523344 0.2689871788 8.906165387e-39
0.06597943604 -0.2672399879 0.1916303188 8.906165387e-39
0.1583055705 -0.2730901539 0.1223405153 8.906165387e-39
0.09536510706 -0.3983944356 0.08943584561 8.906165387e-39
0.07712052763 -0.08742558956 0.2268462181 8.906165387e-39
0.3544796407 -0.1140150577 0.09626500309 8.906165387e-39
0.1514449865 -0.1041648537 0.1200918704 8.906165387e-39
0.05552157015 -0.3169049323 0.38249138 8.906165387e-39
0.06182746589 -0.1721500009 0.3704522252 8.906165387e-39
0.3923072815 -0.194206655 0.0818182677 8.906165387e-39
0.0703329891 -0.1607505977 0.2645670474 8.906165387e-39
0.1117773429 -0.3277575076 0.09834489226 1.184631237e-38
0.07886247337 -0.2462998182 0.1594604999 1.184631237e-38
0.09621157497 -0.1902699172 0.1468965858 1.184631237e-38
0.06465886533 -0.3732844889 0.3535480201 1.184631237e-38
0.2785937488 -0.1226454079 0.09073218703 1.184631237e-38
0.07007521391 -0.1328170598 0.3426923454 1.184631237e-38
0.09489458054 -0.1926910877 0.1269055456 1.184631237e-38
0.3645272553 -0.2011031061 0.08114142716 1.184631237e-38
0.09555564821 -0.2005867809 0.1516139209 1.184631237e-38
0.2548730373 -0.1457332969 0.1007779837 1.184631237e-38
0.08602710813 -0.3648405671 0.2623782456 1.184631237e-38
0.06692474335 -0.1451871842 0.2344527245 1.184631237e-38
0.07925467938 -0.1584642529 0.1726475805 1.184631237e-38
0.09754112363 -0.1004196852 0.2132368535 1.184631237e-38
0.1357128024 -0.1551509798 0.0898526758 1.184631237e-38
0.3149060011 -0.1380588561 0.08626879752 1.184631237e-38
0.09280807525 -0.2079995871 0.210433051 1.184631237e-38
0.08052522689 -0.3153655529 0.1227089912 1.184631237e-38
0.07542824 -0.4094251394 0.1978204101 1.184631237e-38
0.09331052005 -0.3648221493 0.2451892048 1.184631237e-38
0.08066327125 -0.3431707621 0.2273171097 1.184631237e-38
0.1764356047 -0.3629408479 0.1435071528 1.184631237e-38
0.07778418064 -0.2456375062 0.3122774065 1.184631237e-38
0.08097528666 -0.3508237004 0.2908598781 1.184631237e-38
0.1952599883 -0.07875525951 0.09328308702 1.184631237e-38
0.06214758754 -0.2485785931 0.2730791569 1.184631237e-38
0.08915415406 -0.2767943442 0.1849159002 1.184631237e-38
0.05714276433 -0.2216016948 0.356166929 1.184631237e-38
0.181418702 -0.3422179818 0.09739838541 1.184631237e-38
0.1701448709 -0.08968901634 0.0924565047 1.184631237e-38
0.3731943667 -0.2187604904 0.08591140807 1.184631237e-38
0.06488021463 -0.1637315005 0.3582311869 1.184631237e-38
0.3709411323 -0.2868609428 0.07305511087 1.184631237e-38
0.2318810523 -0.158867687 0.1069971621 1.184631237e-38
0.1477094144 -0.1958665103 0.1143636703 1.184631237e-38
0.1694892049 -0.2017826438 0.09342239797 1.184631237e-38
0.2137078494 -0.1795201451 0.1045902073 1.184631237e-38
0.3255392313 -0.317851603 0.08001564443 1.184631237e-38
0.3433775008 -0.2298575491 0.0914362371 1.184631237e-38
0.1003569588 -0.05207410455 0.2187579125 1.184631237e-38
0.1145117357 -0.3672100008 0.0924423635 1.184631237e-38
0.3461972177 -0.2004827261 0.09389130771 1.184631237e-38
0.3466103971 -0.1390596181 0.08972525597 1.184631237e-38
0.2598600388 -0.2682763636 0.1035922915 1.184631237e-38
0.1643742919 -0.1100192964 0.09143377841 1.184631237e-38
0.1840483993 -0.3489048481 0.1383304596 1.184631237e-38
0.0893259272 -0.2453568131 0.1206862628 1.184631237e-38
0.323202759 -0.1255293787 0.08594368398 1.184631237e-38
0.3714280725 -0.2477340698 0.07478789985 1.184631237e-38
0.1484385133 -0.05763295293 0.1133909672 1.184631237e-38
0.3632619381 -0.2175856233 0.07807578146 1.184631237e-38
0.09621932358 -0.09205542505 0.3156839013 1.184631237e-38
0.06198837608 -0.3712621927 0.356226325 1.184631237e-38
0.06751833856 -0.1565667838 0.3491409123 1.184631237e-38
0.07852657139 -0.3288159072 0.1172315031 1.184631237e-38
0.0713102296 -0.2817470133 0.1759868115 1.184631237e-38
0.07814288884 -0.4158761799 0.1320000738 1.184631237e-38
0.06875711679 -0.1740627587 0.2182665318 1.184631237e-38
0.1177967116 -0.3022541404 0.09808149934 1.184631237e-38
0.22387743 -0.2306186259 0.09781509638 1.184631237e-38
0.09341891855 -0.108683005 0.3145923018 1.184631237e-38
0.2205203772 -0.08074243367 0.1024561971 1.184631237e-38
0.07938381284 -0.3451604247 0.1405217648 1.184631237e-38
0.0575946942 -0.2189714611 0.3650013208 1.184631237e-38
0.2506023645 -0.09826697409 0.07918153703 1.184631237e-38
0.1604231447 -0.2795298398 0.1133349687 1.184631237e-38
0.1934122592 -0.07418385148 0.09286054969 1.184631237e-38
0.2748832703 -0.1177458167 0.08701209724 1.184631237e-38
0.2563605905 -0.1196134835 0.1006658077 1.184631237e-38
0.07352057099 -0.4299911261 0.2034861147 1.184631237e-38
0.2192712873 -0.178176105 0.08917763829 1.184631237e-38
0.1528139561 -0.3856871724 0.1248540282 1.184631237e-38
0.2347067297 -0.2918801308 0.1014709473 1.184631237e-38
0.07173785567 -0.05914768577 0.1813521385 1.184631237e-38
0.1909063756 -0.175773859 0.09590770304 1.184631237e-38
0.1885152906 -0.3789643943 0.09865377843 1.184631237e-38
0.09057818353 -0.3615805507 0.2607541382 1.184631237e-38
0.3605194986 -0.1734758317 0.09099672735 1.184631237e-38
0.09868236631 -0.07713878155 0.2881614864 1.184631237e-38
0.06706762314 -0.1539555788 0.3536575437 1.184631237e-38
0.1071581319 -0.1630818844 0.1340141147 1.184631237e-38
0.2481010258 -0.3213320374 0.09543082118 1.184631237e-38
0.3040802777 -0.07075032592 0.09862732887 1.184631237e-38
0.2660399973 -0.2424563766 0.09617680311 1.184631237e-38
0.255312115 -0.04768687487 0.1016227007 1.184631237e-38
0.09891067445 -0.09266135097 0.1676326692 1.184631237e-38
0.09894325584 -0.0903493464 0.2441129535 1.184631237e-38
0.1713767052 -0.3277481496 0.1309218258 1.184631237e-38
0.07461423427 -0.06447523832 0.2798044384 1.184631237e-38
0.09684752673 -0.1092203557 0.2060103267 1.184631237e-38
0.247158736 -0.06922337413 0.08786642551 1.184631237e-38
0.0813427493 -0.1101721376 0.1650673896 1.184631237e-38
0.1126228943 -0.3625163138 0.2138149291 1.184631237e-38
0.2430186272 -0.2600107491 0.1037943214 1.184631237e-38
0.2169000655 -0.1731772572 0.09466089308 1.184631237e-38
0.2041995078 -0.326046735 0.09775167704 1.184631237e-38
0.08196407557 -0.3590913117 0.1089057773 1.184631237e-38
0.2098641992 -0.09244957566 0.09480535984 1.184631237e-38
0.333982259 -0.06857204437 0.09591364861 1.184631237e-38
0.07863157243 -0.2339944839 0.3241488636 1.184631237e-38
0.3514633179 -0.1215763241 0.09299471974 1.184631237e-38
0.05990055203 -0.1851876974 0.3641313016 1.184631237e-38
0.09712991863 -0.1508003026 0.1389185637 1.184631237e-38
0.08542890847 -0.401037842 0.09917739034 1.184631237e-38
0.2607423365 -0.3112942278 0.1010207385 1.184631237e-38
0.3559900522 -0.1080555022 0.09655748308 1.184631237e-38
0.07372145355 -0.3676214218 0.2728500366 1.184631237e-38
0.3279333711 -0.1125216484 0.09116600454 1.184631237e-38
0.3588579595 -0.1689495146 0.08386985958 1.184631237e-38
0.07506977022 -0.418063283 0.1485224068 1.184631237e-38
0.0482204482 -0.2181445807 0.3781631291 1.184631237e-38
0.1281297952 -0.4096235931 0.1112289131 1.184631237e-38
0.0661136955 -0.06188908219 0.2227667123 1.184631237e-38
0.1620190442 -0.3891783059 0.09193611145 1.184631237e-38
0.07738035172 -0.4095882773 0.1398039609 1.184631237e-38
0.1108660176 -0.316318959 0.1566461176 1.184631237e-38
0.08577976376 -0.2867375314 0.1450757831 1.184631237e-38
0.09957924485 -0.06376394629 0.2728673816 1.184631237e-38
0.08336197585 -0.243237257 0.1532419473 1.184631237e-38
0.1616469771 -0.2443294376 0.1046548784 1.184631237e-38
0.1218218133 -0.4025134444 0.09285694361 1.184631237e-38
0.07315339148 -0.07020893693 0.1881199777 1.184631237e-38
0.3505365551 -0.1227614284 0.09251728654 1.184631237e-38
0.1272995323 -0.08964473009 0.1180637479 1.184631237e-38
0.05082570016 -0.3046045899 0.3661099672 1.184631237e-38
0.05882903934 -0.1529335678 0.3535703719 1.184631237e-38
0.3406202197 -0.1653646231 0.08570224047 1.184631237e-38
0.067814596 -0.1464195549 0.2185163796 1.184631237e-38
0.1249594763 -0.3303212821 0.09769375622 1.478322936e-38
0.1366244853 -0.2381179184 0.1314472109 1.478322936e-38
0.09739935398 -0.1843643934 0.1429097205 1.478322936e-38
0.0637909919 -0.3844119608 0.3370914459 1.478322936e-38
0.3573364317 -0.09852352738 0.0866971761 1.478322936e-38
0.07020240277 -0.1291873157 0.316853255 1.478322936e-38
0.09917807579 -0.18984963 0.1225499958 1.478322936e-38
0.377307564 -0.1682673544 0.08284558356 1.478322936e-38
0.0970704034 -0.1946754307 0.1469496191 1.478322936e-38
0.2830490172 -0.1248719841 0.09654986858 1.478322936e-38
0.09901604056 -0.3566266894 0.2354819179 1.478322936e-38
0.08004830778 -0.1481907964 0.2100009769 1.478322936e-38
0.09734416753 -0.156901747 0.1541620642 1.478322936e-38
0.09251151979 -0.09403002262 0.2066981345 1.478322936e-38
0.1471800655 -0.1507804692 0.09238345921 1.478322936e-38
0.3615286648 -0.1006820798 0.08490539342 1.478322936e-38
0.09017807245 -0.1960212588 0.2064322382 1.478322936e-38
0.08992956579 -0.3089062274 0.1148052067 1.478322936e-38
0.07317331433 -0.4070036113 0.1910693347 1.478322936e-38
0.1142492071 -0.3559317589 0.2130627334 1.478322936e-38
0.07951840013 -0.3326885402 0.221567601 1.478322936e-38
0.213192001 -0.3490053415 0.1126874834 1.478322936e-38
0.07348799706 -0.2326814234 0.3054503798 1.478322936e-38
0.09158290178 -0.3449842632 0.2600132823 1.478322936e-38
0.2572707534 -0.06116184592 0.09107682109 1.478322936e-38
0.07300532609 -0.2510806918 0.2353198826 1.478322936e-38
0.09042419493 -0.2708398104 0.1781840622 1.478322936e-38
0.0622067675 -0.2202115357 0.3232823312 1.478322936e-38
0.2282964289 -0.3455685973 0.09575763345 1.478322936e-38
0.1829099655 -0.08876939118 0.09482873976 1.478322936e-38
0.3830733299 -0.1897044033 0.08640575409 1.478322936e-38
0.06271699071 -0.1631328166 0.3350674808 1.478322936e-38
0.3859811127 -0.2626624107 0.07274357229 1.478322936e-38
0.244304657 -0.1600992978 0.107515648 1.478322936e-38
0.2140976191 -0.1858994365 0.09935638309 1.478322936e-38
0.181879729 -0.2051390409 0.09391240776 1.478322936e-38
0.2253284007 -0.1833405942 0.1052490622 1.478322936e-38
0.3699378669 -0.3048149347 0.07060213387 1.478322936e-38
0.365028739 -0.2149908245 0.08685822785 1.478322936e-38
0.09651785344 -0.04443365335 0.2100614905 1.478322936e-38
0.1303781867 -0.367726028 0.09215278924 1.478322936e-38
0.3673624694 -0.1938177794 0.08944901824 1.478322936e-38
0.3709101379 -0.1057099998 0.09009423852 1.478322936e-38
0.2664505541 -0.2686550319 0.1049748659 1.478322936e-38
0.2217013836 -0.09286385775 0.07701604068 1.478322936e-38
0.2380811572 -0.3276102245 0.1086424738 1.478322936e-38
0.09651585668 -0.2423983663 0.1143552065 1.478322936e-38
0.3604648113 -0.09078857303 0.08967284858 1.478322936e-38
0.3819057643 -0.2165189981 0.07509107888 1.478322936e-38
0.2225130796 -0.03710198402 0.1152368635 1.478322936e-38
0.3788423836 -0.184115991 0.07748244703 1.478322936e-38
0.0929627344 -0.07634404302 0.3111690283 1.478322936e-38
0.06353648752 -0.3785635233 0.3363431692 1.478322936e-38
0.06696794182 -0.1535884887 0.3241122067 1.478322936e-38
0.09088055789 -0.3224537969 0.110210821 1.478322936e-38
0.1142181829 -0.275298655 0.1405523866 1.478322936e-38
0.08082597703 -0.4056041837 0.1200104654 1.478322936e-38
0.08602379262 -0.1748687178 0.1934786737 1.478322936e-38
0.130704537 -0.3014293313 0.09736701846 1.478322936e-38
0.2450414598 -0.2051787376 0.09732469916 1.478322936e-38
0.09018637985 -0.09166544676 0.3103883266 1.478322936e-38
0.229263261 -0.07933089137 0.1020294279 1.478322936e-38
0.08230686933 -0.3359138966 0.1343013346 1.478322936e-38
0.05888569355 -0.2159808129 0.3339423537 1.478322936e-38
0.3202924132 -0.08056594431 0.07935558259 1.478322936e-38
0.2379295826 -0.2681080997 0.09633566439 1.478322936e-38
0.2530395091 -0.05993586779 0.0897950232 1.478322936e-38
0.3450544178 -0.08452123404 0.08394566178 1.478322936e-38
0.2848362923 -0.1078514308 0.09528152645 1.478322936e-38
0.07068307698 -0.425114125 0.1948037595 1.478322936e-38
0.2845912278 -0.167468816 0.07796640694 1.478322936e-38
0.1863564849 -0.3785480261 0.1025991142 1.478322936e-38
0.2509954572 -0.2987042367 0.1017121375 1.478322936e-38
0.07999173552 -0.05163735151 0.1762232333 1.478322936e-38
0.2016943544 -0.1786984205 0.09813962877 1.478322936e-38
0.2302672714 -0.3665504754 0.08304841071 1.478322936e-38
0.1067077816 -0.3522954583 0.2271922082 1.478322936e-38
0.37322703 -0.1394122839 0.0923448801 1.478322936e-38
0.09379144013 -0.06323760748 0.281734854 1.478322936e-38
0.06544794887 -0.149794355 0.3293791115 1.478322936e-38
0.1365140378 -0.1523256749 0.1182016581 1.478322936e-38
0.2839721441 -0.3007739186 0.08924718201 1.478322936e-38
0.3450759947 -0.04513436556 0.09600734711 1.478322936e-38
0.2939473093 -0.2207309604 0.09558585286 1.478322936e-38
0.2957040966 -0.03411629796 0.09791913629 1.478322936e-38
0.09639510512 -0.08701962233 0.1647995114 1.478322936e-38
0.09050995857 -0.08052098751 0.2375779301 1.478322936e-38
0.2372039855 -0.3077110648 0.1054186672 1.478322936e-38
0.08033425361 -0.06017708778 0.2655020356 1.478322936e-38
0.09303402156 -0.1035747081 0.1990262568 1.478322936e-38
0.3286666274 -0.04672601819 0.08721613884 1.478322936e-38
0.09279052168 -0.1084486395 0.1509224772 1.478322936e-38
0.1406574249 -0.3579362035 0.1822986156 1.478322936e-38
0.2541967034 -0.2665317655 0.104996711 1.478322936e-38
0.2352083921 -0.1532773376 0.09400756657 1.478322936e-38
0.2475858629 -0.3329296112 0.09640306234 1.478322936e-38
0.09300000966 -0.3543945551 0.102231428 1.478322936e-38
0.2768222392 -0.05749976635 0.1001792252 1.478322936e-38
0.3532568216 -0.07550859451 0.09307983518 1.478322936e-38
0.07418026775 -0.2194904387 0.3171153665 1.478322936e-38
0.3687610924 -0.09420360625 0.09260953963 1.478322936e-38
0.05816508085 -0.1850732416 0.3402536809 1.478322936e-38
0.1243407354 -0.1402491927 0.1243975013 1.478322936e-38
0.1111065224 -0.394156754 0.0929261148 1.478322936e-38
0.2696826458 -0.3169206977 0.1016545594 1.478322936e-38
0.3717911839 -0.07902532816 0.09520316124 1.478322936e-38
0.07341377437 -0.3506665528 0.2639449537 1.478322936e-38
0.3595488966 -0.07879120111 0.0935228914 1.478322936e-38
0.3741414547 -0.1347814947 0.08819071949 1.478322936e-38
0.08709258586 -0.4090576172 0.135797292 1.478322936e-38
0.04619374126 -0.2195235342 0.3546943665 1.478322936e-38
0.1620781422 -0.3982338905 0.09328815341 1.478322936e-38
0.07543332875 -0.05917719007 0.2120829672 1.478322936e-38
0.19940418 -0.3917371333 0.08914062381 1.478322936e-38
0.08276221901 -0.3991963863 0.1287126392 1.478322936e-38
0.1678534746 -0.2990136743 0.1262120306 1.478322936e-38
0.08856891841 -0.28155303 0.140672043 1.478322936e-38
0.09543167055 -0.0507298708 0.2670756578 1.478322936e-38
0.1432874948 -0.2344441414 0.1272944957 1.478322936e-38
0.2470836937 -0.2324434221 0.0910449028 1.478322936e-38
0.1515315622 -0.3962515891 0.089965716 1.478322936e-38
0.08402180672 -0.07154625654 0.1765391231 1.478322936e-38
0.3675590456 -0.0961868912 0.09219112992 1.478322936e-38
0.1870729029 -0.07312586904 0.1229733825 1.478322936e-38
0.05726059526 -0.3033546805 0.3384027183 1.478322936e-38
0.05459415168 -0.1511930823 0.3359919786 1.478322936e-38
0.3717221916 -0.1302172393 0.08700951934 1.478322936e-38
0.08227229863 -0.1492235512 0.1949854195 1.478322936e-38
0.1390755028 -0.3284783065 0.09463940561 1.771655483e-38
0.1667151153 -0.2385956347 0.1088282019 1.771655483e-38
0.1047290191 -0.1675325483 0.1366829425 1.771655483e-38
0.06490302831 -0.3886867762 0.3324121237 1.771655483e-38
0.3829668462 -0.08608694375 0.08474735916 1.771655483e-38
0.07665386051 -0.1320762932 0.3026086986 1.771655483e-38
0.1102318242 -0.1765233427 0.1165664941 1.771655483e-38
0.3979595304 -0.1410624832 0.08775284886 1.771655483e-38
0.1029072404 -0.1785524786 0.1409328431 1.771655483e-38
0.3126737773 -0.1107647568 0.09239447117 1.771655483e-38
0.1243708208 -0.3567737341 0.1904773116 1.771655483e-38
0.08760976046 -0.1508089155 0.1812289357 1.771655483e-38
0.1151552424 -0.1564523876 0.1293991804 1.771655483e-38
0.09183522314 -0.07786363363 0.2004664689 1.771655483e-38
0.1666715443 -0.1399647892 0.09131801128 1.771655483e-38
0.38060987 -0.07949218154 0.09199203551 1.771655483e-38
0.09146798402 -0.1835419983 0.196582064 1.771655483e-38
0.107353434 -0.3022157848 0.1071381867 1.771655483e-38
0.07848419994 -0.3994416595 0.1711975485 1.771655483e-38
0.1481795013 -0.3555789292 0.1693858802 1.771655483e-38
0.07971804589 -0.3214308918 0.2099498659 1.771655483e-38
0.2612558901 -0.3430519998 0.09441515803 1.771655483e-38
0.07481164485 -0.2028384209 0.3058199883 1.771655483e-38
0.1118297204 -0.3457464278 0.2151378244 1.771655483e-38
0.2715886235 -0.04816871881 0.09950466454 1.771655483e-38
0.07956004888 -0.2523936033 0.2036030293 1.771655483e-38
0.09311127663 -0.2637262046 0.1697962433 1.771655483e-38
0.07024733722 -0.2217856944 0.2970472574 1.771655483e-38
0.2833442092 -0.3371954262 0.09303084016 1.771655483e-38
0.2082362622 -0.08260455728 0.09374053776 1.771655483e-38
0.3993857205 -0.1637068987 0.08726477623 1.771655483e-38
0.06492695957 -0.1611645073 0.32271415 1.771655483e-38
0.4075978696 -0.2389934957 0.07321690023 1.771655483e-38
0.2724986374 -0.1540108174 0.1056271642 1.771655483e-38
0.2475317717 -0.1847164929 0.07833128422 1.771655483e-38
0.2023827434 -0.1951760203 0.09537008405 1.771655483e-38
0.2533930838 -0.1762284786 0.1023718417 1.771655483e-38
0.4005265236 -0.2961958647 0.06613942981 1.771655483e-38
0.3867589533 -0.1861981899 0.085533306 1.771655483e-38
0.09735590219 -0.03704592586 0.2046456486 1.771655483e-38
0.1615821272 -0.3519877195 0.09187403321 1.771655483e-38
0.3861878216 -0.162570864 0.08946788311 1.771655483e-38
0.3866242766 -0.08186928928 0.09536880255 1.771655483e-38
0.2932664156 -0.269120723 0.1026440859 1.771655483e-38
0.2452467084 -0.08653739095 0.06214223057 1.771655483e-38
0.2835838497 -0.3238520026 0.09276708961 1.771655483e-38
0.1159296557 -0.2319572866 0.1107224971 1.771655483e-38
0.3804129064 -0.0664986372 0.09801726043 1.771655483e-38
0.4024438262 -0.1886630356 0.07804136723 1.771655483e-38
0.2271129638 -0.02521756291 0.1142678261 1.771655483e-38
0.3998450041 -0.1564012766 0.08067287505 1.771655483e-38
0.09177586436 -0.05763655901 0.3153355122 1.771655483e-38
0.06585841626 -0.3766530752 0.3230476379 1.771655483e-38
0.07405398786 -0.1552515328 0.309115082 1.771655483e-38
0.1063101366 -0.317666173 0.102716133 1.771655483e-38
0.1611690521 -0.2752349079 0.1114553362 1.771655483e-38
0.09852840006 -0.3988170922 0.1021541804 1.771655483e-38
0.09775485843 -0.1766093373 0.1644307822 1.771655483e-38
0.1477867365 -0.2946773469 0.09527778625 1.771655483e-38
0.2706564069 -0.1739592105 0.09518237412 1.771655483e-38
0.0895357877 -0.06662625074 0.316177547 1.771655483e-38
0.2538270354 -0.07466512918 0.1012626737 1.771655483e-38
0.09345475584 -0.325625509 0.11549896 1.771655483e-38
0.06578668207 -0.2160583138 0.3145096898 1.771655483e-38
0.3449238837 -0.07555359602 0.07624389231 1.771655483e-38
0.2879497707 -0.2601259351 0.07886807621 1.771655483e-38
0.2657955885 -0.04810643196 0.09775452316 1.771655483e-38
0.3674968481 -0.06884345412 0.08340478688 1.771655483e-38
0.3132948577 -0.09764005244 0.09027463198 1.771655483e-38
0.07774202526 -0.4169037342 0.1734090447 1.771655483e-38
0.3075873554 -0.1615622342 0.06980457157 1.771655483e-38
0.2307389677 -0.3704822361 0.08564296365 1.771655483e-38
0.2706730068 -0.2901194096 0.09883001447 1.771655483e-38
0.08427713066 -0.04571264982 0.1571778357 1.771655483e-38
0.2248646617 -0.1701283604 0.09915578365 1.771655483e-38
0.2796557248 -0.350869596 0.07758224756 1.771655483e-38
0.1373870671 -0.351577282 0.1805929691 1.771655483e-38
0.393371582 -0.1129826605 0.09393106401 1.771655483e-38
0.0945032239 -0.04534196854 0.2801530361 1.771655483e-38
0.06896650791 -0.1479403377 0.3171111345 1.771655483e-38
0.16090253 -0.1482023895 0.09362955391 1.771655483e-38
0.3153252006 -0.2617513239 0.08649237454 1.771655483e-38
0.3597156405 -0.03672593832 0.09957183897 1.771655483e-38
0.3232717216 -0.1800016761 0.09383714199 1.771655483e-38
0.3087712228 -0.03108930588 0.0985147655 1.771655483e-38
0.09725037962 -0.06990543008 0.1530397236 1.771655483e-38
0.08834537864 -0.06172713637 0.2339495122 1.771655483e-38
0.2832335234 -0.3006341457 0.08916179836 1.771655483e-38
0.08157413453 -0.05954912305 0.2459864169 1.771655483e-38
0.09276147932 -0.08740350604 0.1915686429 1.771655483e-38
0.3474889398 -0.03846552968 0.08275939524 1.771655483e-38
0.1077530086 -0.1097649485 0.1294555217 1.771655483e-38
0.1826229244 -0.3551678956 0.1445614845 1.771655483e-38
0.2798891068 -0.2596441209 0.1030963808 1.771655483e-38
0.2612273395 -0.1385090351 0.09283706546 1.771655483e-38
0.2863532603 -0.3080321252 0.0978949815 1.771655483e-38
0.1123642996 -0.347566247 0.09636899829 1.771655483e-38
0.2911690474 -0.04214677215 0.1060801446 1.771655483e-38
0.3722499907 -0.06181797385 0.09141467512 1.771655483e-38
0.07309573144 -0.1892497689 0.3207772076 1.771655483e-38
0.3880012333 -0.07802760601 0.09229126573 1.771655483e-38
0.05965144187 -0.1883599609 0.3282406628 1.771655483e-38
0.1470414251 -0.1377889961 0.09937994182 1.771655483e-38
0.1455471516 -0.3847062588 0.09050934017 1.771655483e-38
0.28880319 -0.3125080764 0.1013821959 1.771655483e-38
0.3865590692 -0.06224995852 0.09544679523 1.771655483e-38
0.07402911782 -0.3287132084 0.2584676743 1.771655483e-38
0.3803698421 -0.058876127 0.09912542999 1.771655483e-38
0.3930444717 -0.1096078157 0.09275987744 1.771655483e-38
0.1108166948 -0.4011800587 0.1112183928 1.771655483e-38
0.0470598042 -0.2274974287 0.3447934687 1.771655483e-38
0.2021657228 -0.3911585808 0.08309811354 1.771655483e-38
0.07831981778 -0.0554793179 0.1922003031 1.771655483e-38
0.2455106974 -0.3807973266 0.08987569809 1.771655483e-38
0.09117867053 -0.3911224306 0.1079960018 1.771655483e-38
0.224198103 -0.2942348719 0.1013280153 1.771655483e-38
0.0972218737 -0.2707616985 0.1275496632 1.771655483e-38
0.09704826772 -0.03660434484 0.2644042075 1.771655483e-38
0.1726496816 -0.2340696454 0.1055759639 1.771655483e-38
0.2833607197 -0.2260672301 0.07746514678 1.771655483e-38
0.1862771362 -0.3857775033 0.08813819289 1.771655483e-38
0.0914799571 -0.07240712643 0.1551272273 1.771655483e-38
0.3880212903 -0.08007645607 0.09180895984 1.771655483e-38
0.1974519193 -0.0594663918 0.1266061366 1.771655483e-38
0.06848215312 -0.3041919172 0.3071652949 1.771655483e-38
0.05467974395 -0.1498551816 0.3284865618 1.771655483e-38
0.3888431489 -0.1075317264 0.09201219678 1.771655483e-38
0.09141741693 -0.1517617106 0.166951105 1.771655483e-38
0.1292376518 -0.3506079316 0.09552851319 2.06466517e-38
0.1787522286 -0.2148886323 0.09356993437 2.06466517e-38
0.09954232723 -0.1776482165 0.138452366 2.06466517e-38
0.06636468321 -0.3814467788 0.3219417334 2.06466517e-38
0.3566485941 -0.06061637402 0.08935239911 2.06466517e-38
0.08267906308 -0.1157598495 0.2704827785 2.06466517e-38
0.1048775762 -0.1875823587 0.1196056455 2.06466517e-38
0.3876881897 -0.122642532 0.0904931277 2.06466517e-38
0.09791976959 -0.1881923527 0.1423065066 2.06466517e-38
0.31189394 -0.102033928 0.09873510897 2.06466517e-38
0.1348861605 -0.3388136923 0.167921111 2.06466517e-38
0.09020414948 -0.1356699616 0.146345377 2.06466517e-38
0.1093592718 -0.1271509528 0.10879758 2.06466517e-38
0.08459191769 -0.07987469435 0.1987610459 2.06466517e-38
0.1488345265 -0.1456020474 0.09288418293 2.06466517e-38
0.3601167202 -0.06277173758 0.0969825834 2.06466517e-38
0.08850191534 -0.1855542064 0.1960694492 2.06466517e-38
0.09540039301 -0.3098067641 0.1055919677 2.06466517e-38
0.07738795877 -0.4036382139 0.1654059589 2.06466517e-38
0.1591421664 -0.3395546675 0.1553237289 2.06466517e-38
0.07887040079 -0.3199653029 0.2036440223 2.06466517e-38
0.2648277581 -0.3287981451 0.09413674474 2.06466517e-38
0.07879835367 -0.1975881308 0.3035253584 2.06466517e-38
0.1213292256 -0.3327181935 0.1852892488 2.06466517e-38
0.243948549 -0.03795525432 0.1011146754 2.06466517e-38
0.08927217871 -0.2298468351 0.1691444069 2.06466517e-38
0.09091663361 -0.262311101 0.1753553897 2.06466517e-38
0.07885957509 -0.2140576243 0.2586044073 2.06466517e-38
0.2882521451 -0.3237731457 0.09664258361 2.06466517e-38
0.1893309206 -0.08610244095 0.09148785472 2.06466517e-38
0.3873353899 -0.1524818987 0.09518055618 2.06466517e-38
0.07413567603 -0.151172176 0.3029159009 2.06466517e-38
0.3983570933 -0.228918165 0.08375443518 2.06466517e-38
0.2596820891 -0.1559988409 0.1105586886 2.06466517e-38
0.2431483567 -0.1641582549 0.07769365609 2.06466517e-38
0.1843006164 -0.199459523 0.09484598041 2.06466517e-38
0.2419305146 -0.1799402833 0.1044293642 2.06466517e-38
0.4007658362 -0.283162117 0.07172891498 2.06466517e-38
0.380503267 -0.1742735654 0.0920355022 2.06466517e-38
0.09101334214 -0.03524267673 0.2074632049 2.06466517e-38
0.1685516983 -0.3528626859 0.09491628408 2.06466517e-38
0.3784256577 -0.1537671536 0.09589827061 2.06466517e-38
0.3801051676 -0.06782656908 0.09786966443 2.06466517e-38
0.2772613764 -0.2703377604 0.1097763181 2.06466517e-38
0.2297651172 -0.0550583303 0.06201045588 2.06466517e-38
0.2853793204 -0.3089642227 0.09378041327 2.06466517e-38
0.1053832844 -0.2427479625 0.1093152314 2.06466517e-38
0.3597667515 -0.05361798406 0.09800960124 2.06466517e-38
0.3898737133 -0.1709156185 0.08610697091 2.06466517e-38
0.2010160536 -0.02490565181 0.1185679287 2.06466517e-38
0.3887434602 -0.1383147836 0.0879111588 2.06466517e-38
0.09137991816 -0.0550327301 0.3252761066 2.06466517e-38
0.06834559143 -0.368811965 0.3115089536 2.06466517e-38
0.08030794561 -0.1389771104 0.2768736482 2.06466517e-38
0.0956697613 -0.3293710649 0.101140216 2.06466517e-38
0.1690006405 -0.2516322434 0.09957508743 2.06466517e-38
0.09851048887 -0.3963291943 0.1088317186 2.06466517e-38
0.09713467956 -0.1575119048 0.1280060261 2.06466517e-38
0.1320148557 -0.3157221377 0.09681878984 2.06466517e-38
0.2732085288 -0.1525547653 0.1019126028 2.06466517e-38
0.08731018752 -0.06407013535 0.3240329921 2.06466517e-38
0.2384251952 -0.07616364956 0.09994916618 2.06466517e-38
0.08707220107 -0.3340247571 0.11879538 2.06466517e-38
0.07520277798 -0.2062129378 0.2802715003 2.06466517e-38
0.3280543983 -0.04739123583 0.07947400212 2.06466517e-38
0.278067559 -0.2465914488 0.08438524604 2.06466517e-38
0.2404678464 -0.03599798679 0.1007888019 2.06466517e-38
0.3303545415 -0.04700443149 0.08911082149 2.06466517e-38
0.3107236624 -0.0879753828 0.09812350571 2.06466517e-38
0.07394515723 -0.4207105339 0.1664120406 2.06466517e-38
0.2886674702 -0.1328140199 0.07282736897 2.06466517e-38
0.2423306108 -0.3517374992 0.0923409164 2.06466517e-38
0.2624384165 -0.2895186543 0.1070671082 2.06466517e-38
0.08345927298 -0.03317451477 0.134064436 2.06466517e-38
0.2112251967 -0.1753916293 0.09692052007 2.06466517e-38
0.2892028987 -0.331684202 0.08097451925 2.06466517e-38
0.1502154022 -0.337500304 0.1608571857 2.06466517e-38
0.3852113187 -0.09475582838 0.09868818521 2.06466517e-38
0.09136022627 -0.04517042637 0.2892493606 2.06466517e-38
0.07698076218 -0.1383011937 0.2982181907 2.06466517e-38
0.1512539685 -0.1191870123 0.09025521576 2.06466517e-38
0.3190718889 -0.2400148213 0.08907555044 2.06466517e-38
0.3284300864 -0.03264507651 0.1067489386 2.06466517e-38
0.3250451088 -0.1693364233 0.09566259384 2.06466517e-38
0.2799913585 -0.02675679326 0.1090710014 2.06466517e-38
0.09197189659 -0.07603317499 0.1530060023 2.06466517e-38
0.08166663349 -0.06331792474 0.2391387075 2.06466517e-38
0.2796676159 -0.2847691178 0.09057724476 2.06466517e-38
0.08555172384 -0.03813004494 0.2027805448 2.06466517e-38
0.08731021732 -0.0908279866 0.1848384291 2.06466517e-38
0.313190341 -0.02759096026 0.08972331882 2.06466517e-38
0.1043123454 -0.0757381916 0.11344634 2.06466517e-38
0.1880529821 -0.3409351408 0.1386263967 2.06466517e-38
0.2700068355 -0.263060838 0.1093214899 2.06466517e-38
0.2594881952 -0.1202680022 0.09935443103 2.06466517e-38
0.2874977887 -0.2904043198 0.09484490752 2.06466517e-38
0.09742318094 -0.3605850637 0.09398709238 2.06466517e-38
0.2637037635 -0.03786417842 0.1067895591 2.06466517e-38
0.3656515181 -0.05722332001 0.09834320843 2.06466517e-38
0.07638185471 -0.1841080636 0.3195205927 2.06466517e-38
0.3802773952 -0.07111138105 0.09615261853 2.06466517e-38
0.07005209476 -0.1764661819 0.306553632 2.06466517e-38
0.1356042773 -0.1081207991 0.09383925796 2.06466517e-38
0.1472131163 -0.3908735216 0.09058769047 2.06466517e-38
0.2699042261 -0.2870592773 0.1083166748 2.06466517e-38
0.3781643808 -0.05540180206 0.09965090454 2.06466517e-38
0.07641717046 -0.3201574981 0.2539803386 2.06466517e-38
0.3600563407 -0.04541519284 0.1035313606 2.06466517e-38
0.3859560788 -0.09588965774 0.09313464165 2.06466517e-38
0.1123783067 -0.3983623683 0.1193325371 2.06466517e-38
0.05403652787 -0.2208856791 0.3248264194 2.06466517e-38
0.2169125825 -0.3703633547 0.08301707357 2.06466517e-38
0.08415477723 -0.03952756524 0.159277454 2.06466517e-38
0.2609769702 -0.3604026437 0.0880278796 2.06466517e-38
0.08496445417 -0.3999317884 0.1139604896 2.06466517e-38
0.2179112583 -0.2746640146 0.09983326495 2.06466517e-38
0.0943512544 -0.27314803 0.1312520206 2.06466517e-38
0.09444782138 -0.03311383724 0.2732155919 2.06466517e-38
0.1849063784 -0.2108258754 0.09239678085 2.06466517e-38
0.2729113102 -0.2082572132 0.08011355996 2.06466517e-38
0.2071023732 -0.3831830323 0.08644129336 2.06466517e-38
0.09447796643 -0.0453671813 0.1360916793 2.06466517e-38
0.3797145188 -0.07373574376 0.09644153714 2.06466517e-38
0.1734358519 -0.05932849646 0.1243515164 2.06466517e-38
0.07769189775 -0.297865808 0.2719587982 2.06466517e-38
0.06083691865 -0.141719535 0.3103559911 2.06466517e-38
0.3814621568 -0.09166395664 0.09741044044 2.06466517e-38
0.09174016863 -0.1351608783 0.1352537721 2.06466517e-38
0.1495659351 -0.2389137447 0.1022949517 2.348204041e-38
0.2309051007 -0.2148272395 0.1135976762 2.348204041e-38
0.1084853485 -0.1079952866 0.1399728358 2.348204041e-38
0.07425450534 -0.3716320395 0.2672536671 2.348204041e-38
0.3983767331 -0.05379638076 0.1107935905 2.348204041e-38
0.08283060044 -0.1448644698 0.2598807812 2.348204041e-38
0.1158903763 -0.1132390499 0.1188103259 2.348204041e-38
0.4264312983 -0.1543875486 0.1130685359 2.348204041e-38
0.1071646735 -0.116427809 0.1446410865 2.348204041e-38
0.3246913254 -0.1680699438 0.1045845002 2.348204041e-38
0.1218207404 -0.3407202661 0.166452527 2.348204041e-38
0.1172837391 -0.130845651 0.1566639096 2.348204041e-38
0.1624793857 -0.1038012207 0.1265795827 2.348204041e-38
0.08917800337 -0.03867715597 0.2096921653 2.348204041e-38
0.1746923625 -0.07789024711 0.09657931328 2.348204041e-38
0.3940143585 -0.08012771606 0.1136179119 2.348204041e-38
0.08931722492 -0.1144850254 0.2036468983 2.348204041e-38
0.1154897735 -0.2264291644 0.1144278795 2.348204041e-38
0.0867613405 -0.2907009721 0.170465976 2.348204041e-38
0.1455555558 -0.3397105634 0.1553215384 2.348204041e-38
0.08676212281 -0.2359659821 0.2071073353 2.348204041e-38
0.2551521957 -0.329125911 0.1060243696 2.348204041e-38
0.07736465335 -0.1276961118 0.3109537959 2.348204041e-38
0.1249023601 -0.3118715286 0.1759572923 2.348204041e-38
0.344699502 -0.03376588225 0.1184144467 2.348204041e-38
0.1226489171 -0.2401317954 0.1588426977 2.348204041e-38
0.09707591683 -0.1740933508 0.1768425256 2.348204041e-38
0.08470243216 -0.2295939922 0.2501356006 2.348204041e-38
0.2411099076 -0.3015734553 0.1015574783 2.348204041e-38
0.2207425386 -0.04174470901 0.09737211466 2.348204041e-38
0.4083144665 -0.1750183254 0.1139967144 2.348204041e-38
0.06846249104 -0.1748512685 0.2734677494 2.348204041e-38
0.426129818 -0.2348552942 0.09840495884 2.348204041e-38
0.2862473428 -0.08910208941 0.1137922853 2.348204041e-38
0.2969019711 -0.1603361517 0.09701792896 2.348204041e-38
0.2089435309 -0.1072610915 0.1003196239 2.348204041e-38
0.2658508122 -0.1076836288 0.109404102 2.348204041e-38
0.4175764024 -0.27493608 0.08552077413 2.348204041e-38
0.3872109652 -0.2139096856 0.1025590301 2.348204041e-38
0.09950689971 -0.03480476141 0.2104997337 2.348204041e-38
0.1556427777 -0.268517971 0.1031520516 2.348204041e-38
0.3894194067 -0.1901360452 0.1080507636 2.348204041e-38
0.4032902122 -0.09481559694 0.1188664734 2.348204041e-38
0.303681463 -0.1961695999 0.1111776829 2.348204041e-38
0.2850727439 -0.04915648699 0.08386151493 2.348204041e-38
0.3036466241 -0.2958195806 0.1146232486 2.348204041e-38
0.1218902245 -0.1585551351 0.1123527437 2.348204041e-38
0.3952522278 -0.07706484199 0.119584322 2.348204041e-38
0.4425308108 -0.1951427162 0.1059209853 2.348204041e-38
0.3035038114 -0.0609870255 0.1330303997 2.348204041e-38
0.4308284521 -0.1671422571 0.1066850871 2.348204041e-38
0.1010514721 -0.05492174625 0.3083076775 2.348204041e-38
0.07085634023 -0.3962830007 0.2330988199 2.348204041e-38
0.08025448024 -0.165244922 0.2640320957 2.348204041e-38
0.1147329733 -0.2384427488 0.1097516119 2.348204041e-38
0.2331041098 -0.2510586381 0.1162964851 2.348204041e-38
