# .PCD v0.7 - Point Cloud Data file format
VERSION 0.7
FIELDS x y z rgb
SIZE 4 4 4 4
TYPE F F F F
COUNT 1 1 1 1
WIDTH 852
HEIGHT 1
VIEWPOINT 0 0 0 1 0 0 0
POINTS 852
DATA ascii
0.2514796853 -0.2348181754 0.1340127587 3.015101038e-39
0.33614856 -0.213800922 0.07214128971 3.015101038e-39
0.1000824273 -0.01381471753 0.2816645503 3.015101038e-39
0.211475879 -0.2389395088 0.1382664442 3.015101038e-39
0.09002843499 -0.3024032414 0.337639153 3.015101038e-39
0.1600576639 -0.2190517932 0.1995774508 3.015101038e-39
0.0989754498 -0.1195138991 0.26076895 3.015101038e-39
0.3595500886 -0.343783319 0.1208906844 3.015101038e-39
0.1082935855 -0.1609434932 0.184363991 3.015101038e-39
0.1001321673 -0.09144297242 0.2693616748 3.015101038e-39
0.09678267688 -0.3369308412 0.2101514488 3.015101038e-39
0.09752012044 -0.04370367527 0.300634712 3.015101038e-39
0.3957161307 -0.1856413186 0.1078484431 3.015101038e-39
0.3056673408 -0.200855732 0.1281819642 3.015101038e-39
0.08051691204 -0.1891689897 0.3458702266 3.015101038e-39
0.100807339 -0.01943227649 0.2606648207 3.015101038e-39
0.409583807 -0.2488869131 0.115235813 3.015101038e-39
0.3472149968 -0.245946303 0.0759280324 3.015101038e-39
0.1429014504 0.03814715147 0.1526767612 3.015101038e-39
0.2248849571 -0.06839124858 0.1549174041 3.015101038e-39
0.3781990707 -0.2167407423 0.1197522432 3.015101038e-39
0.3902162313 -0.2367536873 0.09534255415 3.015101038e-39
0.09675128013 -0.2394581139 0.2581241131 5.962428276e-39
0.3038891852 -0.1796884686 0.07322749496 5.962428276e-39
0.1059615687 -0.190169692 0.1947790682 5.962428276e-39
0.3836225867 -0.2874113023 0.1329957545 5.962428276e-39
0.3264420927 -0.0520619899 0.137333855 5.962428276e-39
0.1137307584 -0.09108892083 0.1769150048 5.962428276e-39
0.1980197132 -0.2552805841 0.1403335631 5.962428276e-39
0.130872488 -0.1243693233 0.1552145034 5.962428276e-39
0.1160847619 -0.177504316 0.2579030991 5.962428276e-39
0.3192794621 -0.08122415841 0.1378762424 5.962428276e-39
0.11497242 0.0465888381 0.1413379312 5.962428276e-39
0.1031861976 -0.005063951015 0.2915104926 5.962428276e-39
0.1121622398 -0.09952397645 0.1780419201 5.962428276e-39
0.3125371337 -0.3402711451 0.1334264278 5.962428276e-39
0.09079508483 -0.04961761832 0.1923923045 5.962428276e-39
0.09873076528 -0.06639383733 0.1826315224 5.962428276e-39
0.2868571579 -0.2354240119 0.07775136828 5.962428276e-39
0.1558453739 -0.3006937206 0.1391359568 5.962428276e-39
0.2594115734 -0.1924371719 0.1358332038 5.962428276e-39
0.2138249576 -0.3376365304 0.1055387631 5.962428276e-39
0.1134950742 -0.1540200114 0.2662131786 5.962428276e-39
0.3117923439 -0.3645409942 0.1174119115 5.962428276e-39
0.103727214 -0.2516723275 0.1491860747 5.962428276e-39
0.2094225287 -0.08452780545 0.1536878943 5.962428276e-39
0.09653799981 -0.0665460825 0.1891572326 5.962428276e-39
0.2907553017 -0.04708996415 0.1398393959 5.962428276e-39
0.3236157298 -0.3394519687 0.1330000907 5.962428276e-39
0.1591133177 -0.3756398857 0.1074045226 5.962428276e-39
0.1045479998 -0.1467804313 0.2457761317 5.962428276e-39
0.1737109423 -0.01870936155 0.1481574476 5.962428276e-39
0.1111459285 -0.05969457328 0.1780151427 5.962428276e-39
0.09404237568 0.03774937987 0.1871172786 5.962428276e-39
0.1171402112 -0.1535846591 0.223208487 5.962428276e-39
0.1424920857 -0.3492622972 0.1391414702 5.962428276e-39
0.0877038762 -0.3144357204 0.1692556888 5.962428276e-39
0.2911500037 -0.1769513488 0.07138164341 5.962428276e-39
0.1572307646 -0.3697861731 0.1160421595 5.962428276e-39
0.3716682494 -0.0830039978 0.1138621122 5.962428276e-39
0.3709957004 -0.2896246612 0.1344118118 5.962428276e-39
0.1100897789 0.05416053534 0.150749445 5.962428276e-39
0.2247787416 -0.1300083697 0.07285687327 5.962428276e-39
0.1002446339 0.0479260385 0.1814941615 5.962428276e-39
0.1000424698 -0.2459117621 0.1938931048 5.962428276e-39
0.1693470478 -0.2522120774 0.1244917661 5.962428276e-39
0.390576601 -0.1354537606 0.1142977178 5.962428276e-39
0.1177703813 -0.07155892253 0.1654090583 5.962428276e-39
0.3033522666 -0.2677825093 0.1360519826 5.962428276e-39
0.2089419663 -0.1046797633 0.07560040057 5.962428276e-39
0.2729711533 -0.2388021499 0.1360419989 5.962428276e-39
0.1653770804 -0.09186479449 0.1136185005 5.962428276e-39
0.09066596627 -0.104820624 0.3287439048 5.962428276e-39
0.1016849726 -0.08462490141 0.2858692408 5.962428276e-39
0.2938567996 -0.3158857226 0.09753495455 5.962428276e-39
0.3692906499 -0.2517022789 0.09587885439 5.962428276e-39
0.1620145142 -0.3406590223 0.1255933046 5.962428276e-39
0.124578096 -0.0925733 0.1566017121 5.962428276e-39
0.1028398126 -0.009517014027 0.2840298414 5.962428276e-39
0.093707636 -0.05546739697 0.3250418901 5.962428276e-39
0.3513550758 -0.2795176804 0.1353637129 5.962428276e-39
0.2286257744 0.002513289452 0.1460496187 5.962428276e-39
0.2949311137 -0.1328449398 0.14180848 5.962428276e-39
0.3483009934 -0.3076722324 0.104279466 5.962428276e-39
0.1014834195 0.005642354488 0.2545978725 5.962428276e-39
0.1938970387 -0.364407897 0.119728066 5.962428276e-39
0.1112080216 0.0092844069 0.1595174372 5.962428276e-39
0.1981397569 -0.1622470617 0.09837792814 5.962428276e-39
0.09731519967 -0.03969869018 0.3172816932 5.962428276e-39
0.2194605768 -0.1330346614 0.07484677434 5.962428276e-39
0.09383491427 -0.1576929986 0.3047136366 5.962428276e-39
0.1010424867 -0.05299127102 0.3034931719 5.962428276e-39
0.348518163 -0.3412941694 0.1318190396 5.962428276e-39
0.2511587143 -0.1484706551 0.1449134648 5.962428276e-39
0.3935157359 -0.2514130175 0.1153812855 5.962428276e-39
0.3109642267 -0.2818903923 0.1354893148 5.962428276e-39
0.2493335605 -0.1604868174 0.1421701014 5.962428276e-39
0.1040023118 -0.3013394475 0.136137411 5.962428276e-39
0.1100012437 -0.1883984506 0.1640636772 5.962428276e-39
0.09884011 -0.2414517999 0.2956805527 5.962428276e-39
0.08797869831 -0.3237225115 0.1392930746 5.962428276e-39
0.2768023312 -0.09027539194 0.07290053368 5.962428276e-39
0.1864676774 0.02108189464 0.1401288658 5.962428276e-39
0.1073018909 -0.031412974 0.1824743748 5.962428276e-39
0.09481339902 0.04028478265 0.1911494583 5.962428276e-39
0.1222539172 -0.2572645545 0.2414291054 5.962428276e-39
0.1664896309 -0.09996810555 0.1543240398 5.962428276e-39
0.2592136562 -0.09084671736 0.1489716172 5.962428276e-39
0.3940452337 -0.3006544709 0.1296755075 5.962428276e-39
0.1082559898 -0.1151296049 0.2044602484 5.962428276e-39
0.1112138405 -0.189007923 0.1582590938 5.962428276e-39
0.3011912405 -0.1033198833 0.07427221537 5.962428276e-39
0.3553583622 -0.3184261322 0.1099630371 5.962428276e-39
0.09815368056 0.01794940233 0.2293791771 5.962428276e-39
0.3008113503 -0.2193027437 0.07447943836 5.962428276e-39
0.3096291721 -0.07969392836 0.1399998367 5.962428276e-39
0.09959770739 -0.0978859067 0.2970979214 5.962428276e-39
0.3055109382 -0.144328922 0.07455191016 5.962428276e-39
0.09364545345 -0.1182779074 0.3157157302 5.962428276e-39
0.1837289929 0.03596046567 0.137648195 5.962428276e-39
0.1037668437 -0.09086228907 0.1899521947 5.962428276e-39
0.1152832359 -0.01291954517 0.1628717929 5.962428276e-39
0.2986398041 -0.3581159413 0.1243930534 5.962428276e-39
0.0910558328 -0.04428352416 0.1815421134 5.962428276e-39
0.1136730388 -0.2857936025 0.2364790142 5.962428276e-39
0.3774792254 -0.0856154114 0.114319399 5.962428276e-39
0.2993150949 -0.198186323 0.07232907414 5.962428276e-39
0.3504726887 -0.2606600821 0.1355355531 5.962428276e-39
0.2289423048 -0.2004537731 0.1410788 5.962428276e-39
0.3300515413 -0.2293830663 0.07430027425 5.962428276e-39
0.09985295683 0.00841152668 0.2395042777 5.962428276e-39
0.2001895905 -0.2055059522 0.1438702643 5.962428276e-39
0.098356314 -0.2768732011 0.3114819527 5.962428276e-39
0.1493934095 -0.2279426008 0.1669588834 5.962428276e-39
0.1083850861 -0.1068589836 0.2170501053 5.962428276e-39
0.323197484 -0.3010991216 0.1338402182 5.962428276e-39
0.115886353 -0.1369517744 0.1640680879 5.962428276e-39
0.1081244871 -0.077000916 0.2244158983 5.962428276e-39
0.08763064444 -0.3153143227 0.1750926077 5.962428276e-39
0.1017658189 -0.02349689603 0.2636577487 5.962428276e-39
0.3963701427 -0.2097111642 0.1134441271 5.962428276e-39
0.2861289382 -0.1754859537 0.1352740675 5.962428276e-39
0.09127371013 -0.1726819575 0.3257761598 5.962428276e-39
0.1017579213 6.008148193e-05 0.2168785334 5.962428276e-39
0.4018755555 -0.2923629284 0.1307891905 5.962428276e-39
0.3352282047 -0.2570548654 0.08060184121 5.962428276e-39
0.137667805 0.04942497611 0.1362145096 5.962428276e-39
0.1996647716 -0.05198609829 0.1543857455 5.962428276e-39
0.3653641641 -0.1993030012 0.1287154108 5.962428276e-39
0.3815382123 -0.2409546524 0.09894762188 5.962428276e-39
0.09994154423 -0.2166922837 0.2382210046 8.906165387e-39
0.2648053467 -0.1558044702 0.07400842011 8.906165387e-39
0.1063344404 -0.1653757542 0.1803609133 8.906165387e-39
0.3486220837 -0.2873367369 0.1379869878 8.906165387e-39
0.2977860272 -0.04123167694 0.1384160221 8.906165387e-39
0.1077392995 -0.07708796859 0.1731049716 8.906165387e-39
0.182780534 -0.226002261 0.1424110234 8.906165387e-39
0.1166054383 -0.09830708802 0.1548170894 8.906165387e-39
0.1313872039 -0.2044897825 0.2195129395 8.906165387e-39
0.2929192781 -0.07324421406 0.1390324533 8.906165387e-39
0.1060988158 0.05407094955 0.1499399841 8.906165387e-39
0.09635227174 0.00186508894 0.2696462274 8.906165387e-39
0.1418074667 -0.1038321108 0.1599814743 8.906165387e-39
0.2834978104 -0.303717196 0.1400782168 8.906165387e-39
0.1131468713 -0.05256018043 0.1742507815 8.906165387e-39
0.12328697 -0.06605251133 0.1665395647 8.906165387e-39
0.2558857501 -0.2185948491 0.07367563248 8.906165387e-39
0.1620359123 -0.3097302616 0.1281400919 8.906165387e-39
0.2451491058 -0.1857244074 0.1402293593 8.906165387e-39
0.2054243982 -0.364675343 0.1082975343 8.906165387e-39
0.1250129938 -0.1797935069 0.225735113 8.906165387e-39
0.2790446281 -0.3584864736 0.1228223443 8.906165387e-39
0.1020940766 -0.2176562846 0.1474655718 8.906165387e-39
0.1869744062 -0.06674741209 0.1552176327 8.906165387e-39
0.1213992909 -0.06834755838 0.1713036001 8.906165387e-39
0.2634457946 -0.04072533548 0.1403373778 8.906165387e-39
0.2904294431 -0.3081090152 0.1394285858 8.906165387e-39
0.148114264 -0.3665931821 0.119081229 8.906165387e-39
0.1072435305 -0.1274355948 0.2277019471 8.906165387e-39
0.1543106437 -0.006354391575 0.1521001309 8.906165387e-39
0.1058731675 -0.04879748821 0.1718887091 8.906165387e-39
0.07945129275 0.04360309243 0.1830635816 8.906165387e-39
0.1441379189 -0.1739800125 0.1890801787 8.906165387e-39
0.1450691819 -0.349373579 0.1271224618 8.906165387e-39
0.08837107569 -0.2609513402 0.1577557921 8.906165387e-39
0.255087465 -0.1544816792 0.07183421403 8.906165387e-39
0.1471280754 -0.3304430246 0.1280352771 8.906165387e-39
0.3298398554 -0.1126722991 0.1179583967 8.906165387e-39
0.3436048329 -0.2881035805 0.1400139779 8.906165387e-39
0.1037428901 0.05842521787 0.1568642259 8.906165387e-39
0.2113260329 -0.1117480844 0.07435823977 8.906165387e-39
0.08929312974 0.05016103387 0.1793359667 8.906165387e-39
0.1053152978 -0.2200317383 0.1781260669 8.906165387e-39
0.1817402542 -0.2464430779 0.1120510921 8.906165387e-39
0.3488610387 -0.1775579154 0.1150447205 8.906165387e-39
0.1114651263 -0.05840983987 0.1613153964 8.906165387e-39
0.2826782763 -0.2524350882 0.1417941749 8.906165387e-39
0.2002266645 -0.08647371829 0.08195664734 8.906165387e-39
0.2545785308 -0.2225790024 0.1390644312 8.906165387e-39
0.1775248945 -0.08686852455 0.1178267822 8.906165387e-39
0.08832016587 -0.09033158422 0.3050793707 8.906165387e-39
0.09611266851 -0.07064372301 0.2656139135 8.906165387e-39
0.2695663869 -0.338935256 0.1037763134 8.906165387e-39
0.3249138892 -0.2540440261 0.09726546705 8.906165387e-39
0.1638331711 -0.3563075662 0.1170073301 8.906165387e-39
0.1143688038 -0.07694245875 0.156572789 8.906165387e-39
0.09801522642 -0.001394689083 0.2635323703 8.906165387e-39
0.08570634574 -0.04473014176 0.3015069664 8.906165387e-39
0.3249062598 -0.273486048 0.1408267319 8.906165387e-39
0.2120139599 0.003286153078 0.1472684741 8.906165387e-39
0.2780402303 -0.11727193 0.1482108533 8.906165387e-39
0.3130904734 -0.3335291743 0.108625859 8.906165387e-39
0.09313233942 0.01454645395 0.2376736104 8.906165387e-39
0.1813791692 -0.3159616888 0.130201757 8.906165387e-39
0.099265486 0.01613688469 0.1600466818 8.906165387e-39
0.1980389655 -0.1594318897 0.09149142355 8.906165387e-39
0.08951511234 -0.02904865146 0.2948791087 8.906165387e-39
0.2096954286 -0.118085891 0.07651666552 8.906165387e-39
0.09559584409 -0.1452693343 0.2878093123 8.906165387e-39
0.09763074666 -0.0403868109 0.2832607031 8.906165387e-39
0.3106526434 -0.3214256763 0.1360430717 8.906165387e-39
0.2357766032 -0.1359261721 0.1462782025 8.906165387e-39
0.34906286 -0.2998059988 0.1249438897 8.906165387e-39
0.2901053131 -0.2665450871 0.1414044499 8.906165387e-39
0.2343478501 -0.1491946429 0.1454068422 8.906165387e-39
0.1036063358 -0.2566402555 0.1350691319 8.906165387e-39
0.108221136 -0.1568852663 0.1612433791 8.906165387e-39
0.1000792608 -0.219882369 0.2737309933 8.906165387e-39
0.09715313464 -0.2738935649 0.1351023018 8.906165387e-39
0.2432314456 -0.07346075773 0.07450591773 8.906165387e-39
0.1746888161 0.02251711488 0.1466240585 8.906165387e-39
0.09928249568 -0.02227023244 0.1762658954 8.906165387e-39
0.08446725458 0.04442712665 0.1866723895 8.906165387e-39
0.1268643141 -0.2829841077 0.2041283846 8.906165387e-39
0.1495286226 -0.08143126965 0.159244284 8.906165387e-39
0.2392903268 -0.07620972395 0.1497108936 8.906165387e-39
0.3469234109 -0.3410865366 0.1338817179 8.906165387e-39
0.1371855736 -0.1270806938 0.1772901863 8.906165387e-39
0.1071692631 -0.156257838 0.1563733667 8.906165387e-39
0.264159292 -0.08689014614 0.07851694524 8.906165387e-39
0.3169044256 -0.3511160016 0.1186990067 8.906165387e-39
0.08724112064 0.02583524585 0.2152499408 8.906165387e-39
0.2585701346 -0.1994907856 0.07311088592 8.906165387e-39
0.2840942442 -0.07206362486 0.1394116729 8.906165387e-39
0.09654588252 -0.08304366469 0.2780871689 8.906165387e-39
0.267470032 -0.1216833144 0.07657420635 8.906165387e-39
0.0939065367 -0.1046623141 0.2966703176 8.906165387e-39
0.1696752906 0.03614103794 0.1438091099 8.906165387e-39
0.1309864819 -0.09490437806 0.1703944355 8.906165387e-39
0.1051810533 -0.006242603064 0.1597295552 8.906165387e-39
0.2632241547 -0.3314730227 0.1364838183 8.906165387e-39
0.1137313396 -0.04379303753 0.1678750962 8.906165387e-39
0.1167097911 -0.3139306903 0.2011869103 8.906165387e-39
0.3405833542 -0.132672444 0.1187047437 8.906165387e-39
0.2580677271 -0.1769550145 0.07245120406 8.906165387e-39
0.3219157457 -0.2592901587 0.139808625 8.906165387e-39
0.2116649151 -0.1828986704 0.1427224874 8.906165387e-39
0.2807746232 -0.2092889249 0.07783454657 8.906165387e-39
0.0890648663 0.01841628551 0.2231291831 8.906165387e-39
0.177921176 -0.1787753105 0.1478695869 8.906165387e-39
0.09874162823 -0.2402900755 0.2849777937 8.906165387e-39
0.1678339243 -0.2312778831 0.1437853873 8.906165387e-39
0.1034573987 -0.09117873013 0.2037824541 8.906165387e-39
0.3009071946 -0.2800481319 0.1407474279 8.906165387e-39
0.1093052775 -0.1103520542 0.1606920958 8.906165387e-39
0.1004891545 -0.06316958368 0.2077548504 8.906165387e-39
0.08791218698 -0.2644036412 0.1624138653 8.906165387e-39
0.09546133876 -0.01083987951 0.240853548 8.906165387e-39
0.3548609614 -0.2537445128 0.126777783 8.906165387e-39
0.2633942366 -0.1693185568 0.1424995214 8.906165387e-39
0.08937012404 -0.1550116837 0.3014814258 8.906165387e-39
0.08759800345 0.01195022464 0.2008946091 8.906165387e-39
0.3588171303 -0.3455591798 0.1344379932 8.906165387e-39
0.293620497 -0.2422581315 0.08283870667 8.906165387e-39
0.131354481 0.05143627524 0.1479844302 8.906165387e-39
0.1795710027 -0.03870040178 0.154150635 8.906165387e-39
0.342495352 -0.2023148835 0.138623029 8.906165387e-39
0.3332839906 -0.2505391836 0.1044199392 8.906165387e-39
0.1134668067 -0.3396322131 0.2904585004 1.184631237e-38
0.1980969906 -0.1386270672 0.07463827729 1.184631237e-38
0.09683741629 -0.2540057898 0.210962519 1.184631237e-38
0.3302472234 -0.2856728733 0.137632221 1.184631237e-38
0.2773063779 -0.03657649457 0.137788564 1.184631237e-38
0.1006729826 -0.1527208686 0.1782708913 1.184631237e-38
0.1255005598 -0.2892835438 0.137673527 1.184631237e-38
0.1044424176 -0.1833554506 0.1517874449 1.184631237e-38
0.1098297834 -0.1245334148 0.270023942 1.184631237e-38
0.2667518854 -0.07935217023 0.1394719481 1.184631237e-38
0.1040145308 0.02342364192 0.1414737999 1.184631237e-38
0.1028869003 -0.02837970853 0.2864142656 1.184631237e-38
0.08872509003 -0.03277857602 0.2037646472 1.184631237e-38
0.2581557333 -0.3544959724 0.130435884 1.184631237e-38
0.08300925791 -0.001424401999 0.2167519033 1.184631237e-38
0.08446680754 -0.01311358809 0.2089758813 1.184631237e-38
0.1794548035 -0.189147085 0.08364761621 1.184631237e-38
0.1243609861 -0.2468607724 0.1916579306 1.184631237e-38
0.1978622973 -0.2239502817 0.1418583095 1.184631237e-38
0.1543785334 -0.2979685068 0.1246239245 1.184631237e-38
0.1097810194 -0.09831368923 0.2740625143 1.184631237e-38
0.2534160018 -0.3386425376 0.114567101 1.184631237e-38
0.08429310471 -0.3270679116 0.1619785279 1.184631237e-38
0.1624560058 -0.1062403321 0.1512200534 1.184631237e-38
0.08620154113 -0.01428306103 0.214879021 1.184631237e-38
0.2349485159 -0.04474033415 0.1403791904 1.184631237e-38
0.2729955018 -0.3548317552 0.1312754601 1.184631237e-38
0.1614151299 -0.3546971679 0.1276786476 1.184631237e-38
0.1017975062 -0.2171674222 0.2508473992 1.184631237e-38
0.1446723938 -0.03373211622 0.143811509 1.184631237e-38
0.1016943455 -0.1112713218 0.1804168373 1.184631237e-38
0.09059833735 0.01215082407 0.1890430301 1.184631237e-38
0.1004457325 -0.1013385206 0.2388035208 1.184631237e-38
0.1271645427 -0.2791558504 0.1850263774 1.184631237e-38
0.0996402055 -0.3518886566 0.2123835236 1.184631237e-38
0.1871565878 -0.1335360557 0.07489787042 1.184631237e-38
0.1235568896 -0.383248657 0.1199536026 1.184631237e-38
0.3274953067 -0.09185522795 0.1034213454 1.184631237e-38
0.3183570206 -0.2906709015 0.1381754875 1.184631237e-38
0.09888260067 0.03979864717 0.1442771554 1.184631237e-38
0.1438223422 -0.08397938311 0.09835018218 1.184631237e-38
0.09126414359 0.026940763 0.1827237159 1.184631237e-38
0.09887102991 -0.3391721547 0.2325389832 1.184631237e-38
0.1259771585 -0.2057418078 0.1687274873 1.184631237e-38
0.3435038626 -0.152228117 0.109047398 1.184631237e-38
0.1056574285 -0.1221169084 0.1684007794 1.184631237e-38
0.2429677546 -0.2911911011 0.1391593963 1.184631237e-38
0.1334020197 -0.06312979758 0.1049542055 1.184631237e-38
0.2067192197 -0.26506266 0.1404177994 1.184631237e-38
0.1000774205 -0.05052216351 0.1520573199 1.184631237e-38
0.1028210223 -0.1714972258 0.3115075827 1.184631237e-38
0.1022867337 -0.1523242295 0.2796057463 1.184631237e-38
0.1995242834 -0.2928088307 0.1040471494 1.184631237e-38
0.2712712288 -0.2416977882 0.09141651541 1.184631237e-38
0.1340279281 -0.2816451192 0.1628872603 1.184631237e-38
0.105273746 -0.1526267976 0.1589974612 1.184631237e-38
0.1045716777 -0.04230336845 0.2791909873 1.184631237e-38
0.10106498 -0.10556449 0.3173429072 1.184631237e-38
0.2930158079 -0.2865486741 0.1398914456 1.184631237e-38
0.1875703931 -0.002977788448 0.1427609026 1.184631237e-38
0.2328184843 -0.1411624849 0.1433339119 1.184631237e-38
0.2613517046 -0.2928360105 0.1049080938 1.184631237e-38
0.1031193808 -0.02570727468 0.2526878119 1.184631237e-38
0.1432912946 -0.3800373077 0.1206126213 1.184631237e-38
0.1005877107 -0.02464523911 0.1625548005 1.184631237e-38
0.1233991757 -0.1159310937 0.1279640198 1.184631237e-38
0.1038015634 -0.08442667127 0.3114916682 1.184631237e-38
0.1407363415 -0.08782622218 0.1025616676 1.184631237e-38
0.1080148816 -0.2298439592 0.2936088741 1.184631237e-38
0.1052401364 -0.1090863198 0.3015836775 1.184631237e-38
0.3056638241 -0.3547978997 0.1317701042 1.184631237e-38
0.189163506 -0.1702697873 0.1454977244 1.184631237e-38
0.3480432928 -0.2823149562 0.1102053821 1.184631237e-38
0.2538406849 -0.3057959676 0.1391487718 1.184631237e-38
0.189555496 -0.1858078539 0.1452969015 1.184631237e-38
0.08049763739 -0.3569271863 0.1374175549 1.184631237e-38
0.09801471233 -0.2483658493 0.1677628011 1.184631237e-38
0.1165489927 -0.3342942297 0.312435627 1.184631237e-38
0.08578054607 -0.3659589589 0.1569999158 1.184631237e-38
0.1754935086 -0.05209861696 0.07049922645 1.184631237e-38
0.1571033895 0.005454212427 0.1384710968 1.184631237e-38
0.1005418673 -0.07309564948 0.1825434417 1.184631237e-38
0.09138996899 0.01651823521 0.1923160255 1.184631237e-38
0.1118518412 -0.1997186691 0.2631778419 1.184631237e-38
0.1358611584 -0.1424224377 0.1477702856 1.184631237e-38
0.1971361041 -0.09815691411 0.1470264494 1.184631237e-38
0.3574519157 -0.32316643 0.1291002929 1.184631237e-38
0.09483788162 -0.0500600934 0.2249672711 1.184631237e-38
0.09922742099 -0.244744435 0.1601171494 1.184631237e-38
0.1949613988 -0.06421108544 0.07436835766 1.184631237e-38
0.2789187133 -0.306221962 0.1068624407 1.184631237e-38
0.09953511506 -0.01520043612 0.2312658131 1.184631237e-38
0.187795341 -0.1749081314 0.07564632595 1.184631237e-38
0.2557933629 -0.07902272046 0.1411821842 1.184631237e-38
0.1039387509 -0.1670879126 0.288970381 1.184631237e-38
0.1999849081 -0.1006943733 0.07518844306 1.184631237e-38
0.1048547402 -0.1897063255 0.3011949062 1.184631237e-38
0.147479713 0.0253046453 0.1341582239 1.184631237e-38
0.08905740082 -0.02665358782 0.2150629312 1.184631237e-38
0.1033991948 -0.04831302166 0.1641282886 1.184631237e-38
0.2477864921 -0.36654073 0.1265307814 1.184631237e-38
0.07903914154 0.004361867905 0.2066303492 1.184631237e-38
0.114594318 -0.2226493508 0.262062639 1.184631237e-38
0.3376547396 -0.1016130745 0.1065600812 1.184631237e-38
0.1892538071 -0.1549572349 0.07539092004 1.184631237e-38
0.2911753356 -0.2661648095 0.140234977 1.184631237e-38
0.164898932 -0.2336182743 0.1438470781 1.184631237e-38
0.2112137079 -0.1926395744 0.07575995475 1.184631237e-38
0.100401096 -0.02608892322 0.2397639751 1.184631237e-38
0.1318759024 -0.2396542132 0.1440154314 1.184631237e-38
0.1194798723 -0.3434981406 0.3255432546 1.184631237e-38
0.1134129912 -0.17632249 0.2143428773 1.184631237e-38
0.09960691631 -0.174503848 0.2262946963 1.184631237e-38
0.2669650614 -0.3200287223 0.1376571953 1.184631237e-38
0.1006784514 -0.2045083344 0.1657030731 1.184631237e-38
0.09860010445 -0.1376705468 0.2288249135 1.184631237e-38
0.1023486704 -0.3507150412 0.226153791 1.184631237e-38
0.1015688777 -0.0670017302 0.2611017823 1.184631237e-38
0.3558771014 -0.2380058914 0.1142262667 1.184631237e-38
0.2249806523 -0.1950729489 0.1405156404 1.184631237e-38
0.1092025563 -0.2406028211 0.3075566292 1.184631237e-38
0.0975311026 -0.03682504594 0.2185208648 1.184631237e-38
0.3618628383 -0.3125139177 0.1308553517 1.184631237e-38
0.2179548442 -0.2249969095 0.08391234279 1.184631237e-38
0.1126646623 0.03548559546 0.1301434338 1.184631237e-38
0.1629440188 -0.06905467808 0.1513873339 1.184631237e-38
0.321973443 -0.2008270025 0.1360532641 1.184631237e-38
0.2945359051 -0.2413264513 0.09362462908 1.184631237e-38
0.1149389669 -0.3510880768 0.2884792984 1.478322936e-38
0.1793959439 -0.1338690966 0.07307094336 1.478322936e-38
0.09989283234 -0.2698363662 0.2137565017 1.478322936e-38
0.3148128092 -0.2949918807 0.1369820535 1.478322936e-38
0.2654250264 -0.03709541261 0.1351919174 1.478322936e-38
0.09742692858 -0.1736679375 0.179672882 1.478322936e-38
0.1071326807 -0.3098583817 0.134536162 1.478322936e-38
0.09978877008 -0.2029064894 0.1533301324 1.478322936e-38
0.1036165878 -0.1175424457 0.2653976679 1.478322936e-38
0.2529733479 -0.07939475775 0.1385829151 1.478322936e-38
0.1032761782 0.00756508112 0.1451706141 1.478322936e-38
0.1064028591 -0.04520787299 0.2841611207 1.478322936e-38
0.08888731152 -0.0260784626 0.202639401 1.478322936e-38
0.2442936301 -0.3660783768 0.1291124225 1.478322936e-38
0.08167984337 0.004197478294 0.2165968269 1.478322936e-38
0.08317453414 -0.007641851902 0.2080194801 1.478322936e-38
0.166372776 -0.1832762063 0.0861929208 1.478322936e-38
0.1210851297 -0.2439701557 0.1957120597 1.478322936e-38
0.1775683165 -0.2394602597 0.1422886848 1.478322936e-38
0.1444394588 -0.2988035679 0.1343144774 1.478322936e-38
0.10322465 -0.09182775021 0.2693405747 1.478322936e-38
0.2322383821 -0.3427104652 0.1147287488 1.478322936e-38
0.08672662079 -0.3446175158 0.1650044024 1.478322936e-38
0.1524228156 -0.1177313626 0.1521361321 1.478322936e-38
0.08484999835 -0.008723258972 0.213923797 1.478322936e-38
0.2194188237 -0.04806983471 0.1403817981 1.478322936e-38
0.2602067888 -0.3657109439 0.1296008378 1.478322936e-38
0.1502217054 -0.3544588685 0.1288419217 1.478322936e-38
0.1032001972 -0.2337075174 0.249234125 1.478322936e-38
0.1352766156 -0.0467812717 0.144434154 1.478322936e-38
0.09826692194 -0.1303474158 0.1809680611 1.478322936e-38
0.09352508932 -0.002166330814 0.193508327 1.478322936e-38
0.0988625735 -0.09607389569 0.2361280769 1.478322936e-38
0.1199841574 -0.2779774368 0.1908500493 1.478322936e-38
0.1023063287 -0.3613481522 0.222837314 1.478322936e-38
0.1707311571 -0.1282103658 0.07494074106 1.478322936e-38
0.1174155548 -0.390489012 0.1186477691 1.478322936e-38
0.3038766384 -0.09259386361 0.1003260389 1.478322936e-38
0.3030231595 -0.297858566 0.1375530362 1.478322936e-38
0.09884142876 0.0237313807 0.1478450894 1.478322936e-38
0.1313025057 -0.0814832896 0.1017348617 1.478322936e-38
0.09548673034 0.0116083324 0.1886932999 1.478322936e-38
0.1012846529 -0.351654917 0.2364803553 1.478322936e-38
0.1161395758 -0.2017896771 0.1732182652 1.478322936e-38
0.3168546855 -0.1585491747 0.1067841202 1.478322936e-38
0.1021377593 -0.1435743868 0.1704023778 1.478322936e-38
0.2243607938 -0.3064289093 0.1376002729 1.478322936e-38
0.1220933273 -0.06152537465 0.1087441668 1.478322936e-38
0.1870748699 -0.2792435884 0.1406758726 1.478322936e-38
0.09365767986 -0.04414603114 0.1534775794 1.478322936e-38
0.1012528166 -0.1896651387 0.3077928722 1.478322936e-38
0.103200987 -0.1704949737 0.276076138 1.478322936e-38
0.1797668934 -0.2952222228 0.1042212397 1.478322936e-38
0.2438710332 -0.2409909368 0.09010554105 1.478322936e-38
0.1251289845 -0.2816214263 0.1686924249 1.478322936e-38
0.1016484201 -0.1725588739 0.1608581096 1.478322936e-38
0.1088288203 -0.05858698487 0.2792773247 1.478322936e-38
0.1026590317 -0.1215748042 0.3140544891 1.478322936e-38
0.2769013345 -0.2983630002 0.1396631449 1.478322936e-38
0.1728674471 -0.008869349957 0.1418164968 1.478322936e-38
0.215708822 -0.1465561241 0.1419581771 1.478322936e-38
0.2334164977 -0.2966302335 0.1048524603 1.478322936e-38
0.1056139544 -0.04057778418 0.2537555993 1.478322936e-38
0.1308085024 -0.3888525367 0.1185434908 1.478322936e-38
0.1004539505 -0.0382193625 0.165847674 1.478322936e-38
0.1164904609 -0.1131485701 0.130271703 1.478322936e-38
0.1070412323 -0.09988611937 0.3089129031 1.478322936e-38
0.1285942793 -0.08559302986 0.1059400141 1.478322936e-38
0.1086783186 -0.2446812093 0.2918446362 1.478322936e-38
0.1063762382 -0.1277403384 0.2990877926 1.478322936e-38
0.2955639362 -0.3671258688 0.1308440566 1.478322936e-38
0.171187669 -0.1827560216 0.1463837624 1.478322936e-38
0.3224722445 -0.2811211944 0.1097822413 1.478322936e-38
0.2359131575 -0.3215059638 0.1361983418 1.478322936e-38
0.1707704961 -0.199542731 0.1465662122 1.478322936e-38
0.07904001325 -0.3662789464 0.1350861639 1.478322936e-38
0.09698145092 -0.2642706335 0.1694480628 1.478322936e-38
0.115852356 -0.3454945683 0.3094649315 1.478322936e-38
0.08748228848 -0.373724103 0.1616027802 1.478322936e-38
0.1583877206 -0.04650278389 0.07145544887 1.478322936e-38
0.1510966122 -0.006577759981 0.139106214 1.478322936e-38
0.09733920544 -0.09095387161 0.1847943515 1.478322936e-38
0.09418035299 0.002497106791 0.1954078227 1.478322936e-38
0.1073933691 -0.1927301884 0.2612080872 1.478322936e-38
0.125239104 -0.1596390605 0.1471838057 1.478322936e-38
0.1788518727 -0.1027870327 0.1465180516 1.478322936e-38
0.3434991837 -0.3344637752 0.1273728758 1.478322936e-38
0.09289354831 -0.04426494241 0.2233734429 1.478322936e-38
0.09730291367 -0.2609510422 0.1621453762 1.478322936e-38
0.1754776835 -0.05801704526 0.0723907724 1.478322936e-38
0.2529398203 -0.3085756004 0.1080695465 1.478322936e-38
0.1012796387 -0.02897879481 0.2338734567 1.478322936e-38
0.1730100513 -0.1693914831 0.07787420601 1.478322936e-38
0.2397951484 -0.08011731505 0.1408466995 1.478322936e-38
0.1041695252 -0.1841963381 0.2853833139 1.478322936e-38
0.1805639267 -0.0941375792 0.0726557672 1.478322936e-38
0.1055809632 -0.2066966593 0.2974255681 1.478322936e-38
0.1416859329 0.01578214765 0.1345464885 1.478322936e-38
0.08789370209 -0.02131947875 0.2136581689 1.478322936e-38
0.1021565124 -0.06382893026 0.1672196835 1.478322936e-38
0.2356042862 -0.3775967658 0.1242730245 1.478322936e-38
0.0774923265 0.01058399677 0.2079369873 1.478322936e-38
0.1092235819 -0.2191473097 0.2595874071 1.478322936e-38
0.3176806569 -0.1057427377 0.1036228761 1.478322936e-38
0.1734710336 -0.1499271691 0.07602831721 1.478322936e-38
0.2749512494 -0.2796261609 0.1401024759 1.478322936e-38
0.1454300582 -0.2495264262 0.1435429156 1.478322936e-38
0.192019254 -0.1874022186 0.07535218447 1.478322936e-38
0.1025282741 -0.03994175792 0.2417557091 1.478322936e-38
0.1228524521 -0.2558261156 0.1438032389 1.478322936e-38
0.1170707121 -0.3274517953 0.3213700056 1.478322936e-38
0.1103743017 -0.1719492972 0.2121185809 1.478322936e-38
0.09839270264 -0.1955345869 0.2251745611 1.478322936e-38
0.2543752789 -0.3351107538 0.1353262961 1.478322936e-38
0.09846755117 -0.2217169553 0.1674112529 1.478322936e-38
0.09653779119 -0.1567630619 0.2269504517 1.478322936e-38
0.1044482663 -0.3609034121 0.2375139594 1.478322936e-38
0.1033632904 -0.08614009619 0.2602516413 1.478322936e-38
0.331598103 -0.2412314564 0.1122040376 1.478322936e-38
0.2062833607 -0.2087752521 0.1412154436 1.478322936e-38
0.1080713719 -0.2534327209 0.3046070933 1.478322936e-38
0.09826818109 -0.05109646916 0.2213550061 1.478322936e-38
0.3484933972 -0.3225679696 0.1305463612 1.478322936e-38
0.1977713108 -0.2205017805 0.08222617954 1.478322936e-38
0.1110695302 0.02043816447 0.1344090849 1.478322936e-38
0.1540682018 -0.08170923591 0.1508993208 1.478322936e-38
0.3076842725 -0.2060480565 0.1363015175 1.478322936e-38
0.2664203644 -0.2404780388 0.0903667137 1.478322936e-38
0.1105124801 -0.3366030157 0.274112463 1.771655483e-38
0.1735602319 -0.1469130963 0.07047277689 1.771655483e-38
0.1013382524 -0.2605198324 0.2005978227 1.771655483e-38
0.3002739847 -0.2910047174 0.1392147839 1.771655483e-38
0.2539222836 -0.03622853756 0.1354208887 1.771655483e-38
0.09954605997 -0.176125288 0.1746801734 1.771655483e-38
0.106610246 -0.2993469238 0.1342942417 1.771655483e-38
0.1012740135 -0.1992309391 0.1514130533 1.771655483e-38
0.1019198895 -0.1342697293 0.2513357401 1.771655483e-38
0.2411797047 -0.07805725932 0.1382415593 1.771655483e-38
0.1029471979 -0.006240516901 0.1438236237 1.771655483e-38
0.1061937511 -0.05457463861 0.2775734961 1.771655483e-38
0.09292858094 -0.0378254354 0.1964777559 1.771655483e-38
0.2162380517 -0.3692861199 0.1265059412 1.771655483e-38
0.08318618685 -0.004776000977 0.2108291835 1.771655483e-38
0.08491473645 -0.01701581478 0.2027251422 1.771655483e-38
0.161280781 -0.1990589201 0.08620398492 1.771655483e-38
0.1154081225 -0.2568516135 0.1877309978 1.771655483e-38
0.1660578549 -0.2329020202 0.145347625 1.771655483e-38
0.1371673346 -0.3117810488 0.129869312 1.771655483e-38
0.10186667 -0.1069043279 0.2559375167 1.771655483e-38
0.2055891454 -0.3751675189 0.1163894534 1.771655483e-38
0.0886997655 -0.333519429 0.1560252011 1.771655483e-38
0.1476993561 -0.1166171134 0.1519692093 1.771655483e-38
0.08607439697 -0.01961168647 0.2083233744 1.771655483e-38
0.2062816918 -0.04746969044 0.1406785995 1.771655483e-38
0.2325373888 -0.3694749773 0.1285134554 1.771655483e-38
0.1352627277 -0.3829032481 0.1242216676 1.771655483e-38
0.1021432206 -0.2297594249 0.237341851 1.771655483e-38
0.132222414 -0.05160969496 0.1439228058 1.771655483e-38
0.0996838361 -0.1340702325 0.1761135459 1.771655483e-38
0.09630808234 -0.01562991738 0.1893062294 1.771655483e-38
0.1008813903 -0.1122659147 0.2237300277 1.771655483e-38
0.1135025322 -0.3041937947 0.1800648868 1.771655483e-38
0.09706176072 -0.3601476848 0.2027912587 1.771655483e-38
0.1661601067 -0.1418615133 0.07540212572 1.771655483e-38
0.08771130443 -0.3918472528 0.1148321778 1.771655483e-38
0.2867676616 -0.1091987044 0.100778468 1.771655483e-38
0.287401557 -0.2966745794 0.1394347847 1.771655483e-38
0.09946851432 0.01148876548 0.1480596662 1.771655483e-38
0.1289905906 -0.09525999427 0.1007360667 1.771655483e-38
0.0977434814 0.0005189180374 0.184911415 1.771655483e-38
0.09882244468 -0.3411282301 0.2155008912 1.771655483e-38
0.1151445359 -0.2160441279 0.1652889252 1.771655483e-38
0.3042081594 -0.1777467579 0.1085087657 1.771655483e-38
0.103276059 -0.1474921256 0.1676716357 1.771655483e-38
0.2044990361 -0.2991009355 0.1396059245 1.771655483e-38
0.1209658459 -0.07330287993 0.1068322957 1.771655483e-38
0.1717805862 -0.2748711109 0.1423344612 1.771655483e-38
0.09542712569 -0.05421321094 0.1445887387 1.771655483e-38
0.09612063318 -0.1860771179 0.3020059168 1.771655483e-38
0.1032509506 -0.1709722579 0.2669031918 1.771655483e-38
0.1628282368 -0.3089704216 0.1027347669 1.771655483e-38
0.230178833 -0.2545657456 0.09159131348 1.771655483e-38
0.1185171828 -0.30376634 0.1613856852 1.771655483e-38
0.1021741778 -0.1699909568 0.1590741128 1.771655483e-38
0.1094988361 -0.06724070013 0.2716699243 1.771655483e-38
0.09896039963 -0.1273219585 0.3053145707 1.771655483e-38
0.2615538538 -0.295470953 0.1414391398 1.771655483e-38
0.1628220379 -0.0125015378 0.1390548646 1.771655483e-38
0.203730911 -0.1421786398 0.1424056143 1.771655483e-38
0.217717886 -0.3145172596 0.1074969247 1.771655483e-38
0.1075964272 -0.05030010641 0.2482901663 1.771655483e-38
0.1022273675 -0.3900110424 0.1145381182 1.771655483e-38
0.1020128503 -0.04232744873 0.162098363 1.771655483e-38
0.1166491136 -0.1298359185 0.1263692379 1.771655483e-38
0.1039829478 -0.1071015 0.3002369404 1.771655483e-38
0.126938343 -0.09968812764 0.1048630103 1.771655483e-38
0.1062796041 -0.238266021 0.2828632891 1.771655483e-38
0.106407918 -0.1316893101 0.2905953825 1.771655483e-38
0.2680480182 -0.3703973293 0.1317217648 1.771655483e-38
0.160580337 -0.175907895 0.1476411223 1.771655483e-38
0.3098116517 -0.3050528169 0.1114360839 1.771655483e-38
0.2174588442 -0.3126922548 0.1382450461 1.771655483e-38
0.1593677402 -0.1924685985 0.1483892798 1.771655483e-38
0.08092353493 -0.3560680151 0.1288551986 1.771655483e-38
0.09907830507 -0.2585446835 0.1654539257 1.771655483e-38
0.1090355664 -0.3325246871 0.2959106266 1.771655483e-38
0.08114865422 -0.3678796887 0.1490161419 1.771655483e-38
0.1533402503 -0.05525626242 0.06893949956 1.771655483e-38
0.1466569006 -0.01286765933 0.1373894513 1.771655483e-38
0.1000251472 -0.09449148178 0.1784925163 1.771655483e-38
0.09633997828 -0.009010314941 0.1918654889 1.771655483e-38
0.1075658649 -0.2112007439 0.246581316 1.771655483e-38
0.1212314889 -0.1570166349 0.147163704 1.771655483e-38
0.1695250273 -0.1012731791 0.1462667286 1.771655483e-38
0.3291169107 -0.3592405915 0.1324016303 1.771655483e-38
0.09561523795 -0.06114171445 0.2134649754 1.771655483e-38
0.1001601294 -0.2554913759 0.1602427661 1.771655483e-38
0.1675781012 -0.06580467522 0.06790842116 1.771655483e-38
0.2332901657 -0.3323419988 0.1111130565 1.771655483e-38
0.1031776443 -0.03887146711 0.2263109535 1.771655483e-38
0.1680980921 -0.1843799055 0.07824966311 1.771655483e-38
0.2264509499 -0.07942184806 0.1403861344 1.771655483e-38
0.103664346 -0.1840956956 0.2764702737 1.771655483e-38
0.1734666228 -0.1077673435 0.06814374775 1.771655483e-38
0.1026713252 -0.2033358812 0.2908336818 1.771655483e-38
0.1377918124 0.006976723671 0.1320542395 1.771655483e-38
0.08955220878 -0.03513889015 0.2074176669 1.771655483e-38
0.1040115505 -0.06756560504 0.1629291326 1.771655483e-38
0.1979313493 -0.3796004951 0.1196247712 1.771655483e-38
0.07946636528 0.0007003247738 0.2014348805 1.771655483e-38
0.1101188436 -0.2436962724 0.2452438176 1.771655483e-38
0.3034758866 -0.1291601658 0.1056470647 1.771655483e-38
0.1681420207 -0.1641926616 0.07571984082 1.771655483e-38
0.2583660185 -0.2741467059 0.1412348598 1.771655483e-38
0.1334229112 -0.2449301183 0.1465563476 1.771655483e-38
0.184532851 -0.2018555403 0.07328806818 1.771655483e-38
0.1045304611 -0.04915912449 0.2339307964 1.771655483e-38
0.1203477159 -0.2513663769 0.1460945904 1.771655483e-38
0.1117649227 -0.338668853 0.3087500632 1.771655483e-38
0.1108273864 -0.1857947856 0.1990440935 1.771655483e-38
0.09814476222 -0.1970268041 0.2123001516 1.771655483e-38
0.2347498834 -0.3275984824 0.1371002495 1.771655483e-38
0.1018228829 -0.217281267 0.1643751711 1.771655483e-38
0.09749957174 -0.1589676589 0.2146410346 1.771655483e-38
0.09992612153 -0.3579203188 0.2156809717 1.771655483e-38
0.1049773023 -0.0911218673 0.2505935431 1.771655483e-38
0.3220303655 -0.2639549971 0.1157581508 1.771655483e-38
0.1966144145 -0.2020096779 0.1424161494 1.771655483e-38
0.1027288139 -0.2479083538 0.2951208651 1.771655483e-38
0.1011140868 -0.05873371661 0.2115938365 1.771655483e-38
0.3337495327 -0.3463270068 0.1358579397 1.771655483e-38
0.189494431 -0.2347931266 0.08151175827 1.771655483e-38
0.1124131233 0.009632885456 0.1340139657 1.771655483e-38
0.1481967866 -0.08419281244 0.1502899081 1.771655483e-38
0.2977519929 -0.2044470757 0.1392710507 1.771655483e-38
0.2534841001 -0.2534855008 0.09268125147 1.771655483e-38
0.1163450927 -0.3325696588 0.2549213171 2.06466517e-38
0.1672765911 -0.1574097574 0.07642102242 2.06466517e-38
0.1066261157 -0.2632429302 0.1873881668 2.06466517e-38
0.2813940048 -0.2884669304 0.1371120512 2.06466517e-38
0.2428388894 -0.03977915645 0.1318117082 2.06466517e-38
0.1022649258 -0.1790236235 0.1683298796 2.06466517e-38
0.107854642 -0.2953844965 0.1319930255 2.06466517e-38
0.1043200642 -0.1978234798 0.1449258626 2.06466517e-38
0.1053083166 -0.1505749971 0.2452715933 2.06466517e-38
0.2281709015 -0.07632747293 0.1339311004 2.06466517e-38
0.1044401303 -0.01795116067 0.1365137547 2.06466517e-38
0.1082178131 -0.06430004537 0.2641764879 2.06466517e-38
0.1008993015 -0.05165053904 0.1930868328 2.06466517e-38
0.1985919774 -0.3637179732 0.1237811148 2.06466517e-38
0.08600117266 -0.01769289374 0.2089068741 2.06466517e-38
0.09133905172 -0.02963761985 0.2009430826 2.06466517e-38
0.1573306322 -0.2119351327 0.09138698876 2.06466517e-38
0.1145152524 -0.2804783583 0.1872107089 2.06466517e-38
0.1564165652 -0.2298052758 0.1436746269 2.06466517e-38
0.1325465441 -0.3296461999 0.1291119605 2.06466517e-38
0.102048941 -0.1244917959 0.246382311 2.06466517e-38
0.1773305833 -0.3976948261 0.1156369597 2.06466517e-38
0.09487719834 -0.3201150298 0.1516072899 2.06466517e-38
0.1430248916 -0.1192388088 0.1458016932 2.06466517e-38
0.09074255079 -0.03217022121 0.2056179047 2.06466517e-38
0.1955110431 -0.04934643209 0.1360211372 2.06466517e-38
0.2118935585 -0.3664707839 0.1246383488 2.06466517e-38
0.118957676 -0.3959148824 0.1233565658 2.06466517e-38
0.1069262251 -0.2347171903 0.2204338312 2.06466517e-38
0.1319122314 -0.05772405863 0.1381727159 2.06466517e-38
0.1027979702 -0.1386248469 0.1694572419 2.06466517e-38
0.1006834358 -0.02862799168 0.1788498014 2.06466517e-38
0.1047771648 -0.1265491843 0.219002679 2.06466517e-38
0.1094629392 -0.3297491074 0.1742073894 2.06466517e-38
0.09839340299 -0.3648850322 0.1860472858 2.06466517e-38
0.160155803 -0.1523551792 0.08175310493 2.06466517e-38
0.08658441901 -0.3837988377 0.1135439724 2.06466517e-38
0.2601277828 -0.1295444816 0.1024941728 2.06466517e-38
0.2685812712 -0.2955477238 0.1373761892 2.06466517e-38
0.1033391953 0.001807749271 0.1410215795 2.06466517e-38
0.127176255 -0.1038667709 0.1093427613 2.06466517e-38
0.1002063826 -0.00804400444 0.1740389019 2.06466517e-38
0.1013713554 -0.3359787166 0.1966947913 2.06466517e-38
0.1184423789 -0.232781738 0.1676534861 2.06466517e-38
0.2807847559 -0.1970396042 0.1092819422 2.06466517e-38
0.1041492447 -0.1508532315 0.1616173536 2.06466517e-38
0.1895521283 -0.2960195839 0.1365682483 2.06466517e-38
0.1195410863 -0.08004190028 0.1130989939 2.06466517e-38
0.1603879035 -0.2718962133 0.1393058449 2.06466517e-38
0.102560766 -0.06111520529 0.1483374834 2.06466517e-38
0.09852428734 -0.195271343 0.285572648 2.06466517e-38
0.1035645381 -0.1754034758 0.2486510128 2.06466517e-38
0.1542797387 -0.3262626529 0.1056575403 2.06466517e-38
0.2119098306 -0.2712740302 0.09329594672 2.06466517e-38
0.1127653793 -0.3264066577 0.1570313424 2.06466517e-38
0.1044914201 -0.1730361581 0.1524103731 2.06466517e-38
0.1108304933 -0.07708568871 0.2568411231 2.06466517e-38
0.1028211042 -0.1378738731 0.2885214388 2.06466517e-38
0.2440366745 -0.2925744355 0.1372570693 2.06466517e-38
0.1537624896 -0.0167311132 0.1314355433 2.06466517e-38
0.1945599318 -0.1413498372 0.1392773986 2.06466517e-38
0.19563815 -0.3407892287 0.1087322012 2.06466517e-38
0.1098364666 -0.05917479098 0.2336587012 2.06466517e-38
0.09421333671 -0.3828935325 0.1124338657 2.06466517e-38
0.102582328 -0.05031816661 0.1522948742 2.06466517e-38
0.1207022741 -0.1414009929 0.1303953826 2.06466517e-38
0.1062385216 -0.1177134514 0.2833607495 2.06466517e-38
0.1253136098 -0.1086489856 0.1122173443 2.06466517e-38
0.1081836596 -0.2414686233 0.2669365406 2.06466517e-38
0.1095515937 -0.1408727616 0.2743414342 2.06466517e-38
0.2402210832 -0.3779229522 0.127015084 2.06466517e-38
0.1515708864 -0.1731454134 0.1436068714 2.06466517e-38
0.2896630764 -0.3356901705 0.1142524257 2.06466517e-38
0.201405704 -0.3107928634 0.1357374638 2.06466517e-38
0.1493329406 -0.1897154748 0.1447699964 2.06466517e-38
0.08835504949 -0.3459577858 0.124791868 2.06466517e-38
0.1049372777 -0.2555820644 0.1598390639 2.06466517e-38
0.1119633093 -0.3284727037 0.2803609073 2.06466517e-38
0.082281515 -0.3631159663 0.1402716041 2.06466517e-38
0.1472338438 -0.06480994821 0.07399469614 2.06466517e-38
0.1416779459 -0.01756349206 0.1311435401 2.06466517e-38
0.1030312926 -0.1002127528 0.1692965478 2.06466517e-38
0.1004926264 -0.02123963833 0.1814526618 2.06466517e-38
0.1092827842 -0.2356421649 0.2372435629 2.06466517e-38
0.1169947162 -0.1568297446 0.1396719515 2.06466517e-38
0.162250787 -0.1031431407 0.1422918737 2.06466517e-38
0.3038540483 -0.375850141 0.1296411604 2.06466517e-38
0.1011785269 -0.07718843222 0.2085657865 2.06466517e-38
0.1048308015 -0.2520517409 0.1545277536 2.06466517e-38
0.159157306 -0.07583321631 0.06882741302 2.06466517e-38
0.2066936493 -0.3620098233 0.1114989296 2.06466517e-38
0.1062110364 -0.04852683842 0.2107421756 2.06466517e-38
0.1624630988 -0.195818603 0.08495052159 2.06466517e-38
0.2128629982 -0.07771117985 0.1357508004 2.06466517e-38
0.1056626812 -0.1887436658 0.2585784197 2.06466517e-38
0.1666346192 -0.1180037111 0.07098412514 2.06466517e-38
0.1033616886 -0.2094246149 0.2741995752 2.06466517e-38
0.1361137331 0.0001488029957 0.1265126765 2.06466517e-38
0.09697110206 -0.04736509919 0.203634724 2.06466517e-38
0.104079999 -0.07267461717 0.1538223624 2.06466517e-38
0.1599294543 -0.3882416487 0.1128767282 2.06466517e-38
0.08347006142 -0.008438467979 0.2008170635 2.06466517e-38
0.1094600856 -0.2679432929 0.2370835096 2.06466517e-38
0.2804273069 -0.1484558284 0.1084483862 2.06466517e-38
0.1624520421 -0.1747346818 0.08203487098 2.06466517e-38
0.2416205704 -0.2706809044 0.1375082135 2.06466517e-38
0.1264505088 -0.2424769104 0.1453849673 2.06466517e-38
0.1759029925 -0.2135921568 0.07822480053 2.06466517e-38
0.1069023833 -0.05846272409 0.2184054404 2.06466517e-38
0.1171135232 -0.2496664375 0.1419284046 2.06466517e-38
0.1132182106 -0.341026783 0.2917042971 2.06466517e-38
0.1148956195 -0.2014120072 0.1941485852 2.06466517e-38
0.1009882763 -0.2000193 0.1968395859 2.06466517e-38
0.2164755166 -0.323179841 0.1345310658 2.06466517e-38
0.105567731 -0.2161256224 0.1578480005 2.06466517e-38
0.09876029938 -0.1644071639 0.1995515525 2.06466517e-38
0.1003944203 -0.3673424423 0.196677804 2.06466517e-38
0.1069797277 -0.1002563238 0.2330429405 2.06466517e-38
0.3002142906 -0.2922882736 0.1172800288 2.06466517e-38
0.1860457957 -0.1997348368 0.1393631399 2.06466517e-38
0.1035761982 -0.2496220767 0.2815313339 2.06466517e-38
0.1038140133 -0.06876397133 0.1949326247 2.06466517e-38
0.3061127365 -0.3642104268 0.1335123479 2.06466517e-38
0.1785184145 -0.2468096018 0.08356353641 2.06466517e-38
0.1151915118 -0.0003944933414 0.1285609603 2.06466517e-38
0.1444405019 -0.08804692328 0.1441731155 2.06466517e-38
0.2863351107 -0.2040124536 0.1380901635 2.06466517e-38
0.2293305397 -0.2707424462 0.0960457921 2.06466517e-38
0.1134175658 -0.3141282797 0.2266955227 2.348204041e-38
0.1722633541 -0.1764807403 0.07127822936 2.348204041e-38
0.10812556 -0.2564519942 0.1752894968 2.348204041e-38
0.2827712297 -0.2813606858 0.1358464062 2.348204041e-38
0.2443484962 -0.04787224531 0.1339243948 2.348204041e-38
0.1042533293 -0.1691766679 0.1617592275 2.348204041e-38
0.1133638173 -0.2807311118 0.1353003532 2.348204041e-38
0.1056744233 -0.186252147 0.139553383 2.348204041e-38
0.109155558 -0.1725008935 0.2256323993 2.348204041e-38
0.2321188748 -0.07804641128 0.1358636618 2.348204041e-38
0.1059281006 -0.02030488849 0.1314801574 2.348204041e-38
0.1072745323 -0.06922642887 0.2523137629 2.348204041e-38
0.1067101508 -0.07582211494 0.1762588173 2.348204041e-38
0.1937146485 -0.3425177336 0.1283667237 2.348204041e-38
0.0875190571 -0.03884641826 0.1916050017 2.348204041e-38
0.09718392044 -0.04959194362 0.1836413145 2.348204041e-38
0.1616236567 -0.2301420569 0.08427787572 2.348204041e-38
0.1132111773 -0.3094451129 0.1645714343 2.348204041e-38
0.1580798626 -0.2171606719 0.1449762881 2.348204041e-38
0.1248055175 -0.358782649 0.1182431728 2.348204041e-38
0.104850091 -0.1453507394 0.230140999 2.348204041e-38
0.1504140794 -0.3937680423 0.1131818965 2.348204041e-38
0.1002362743 -0.2920719683 0.1442119479 2.348204041e-38
0.1438294351 -0.1145488173 0.1443335414 2.348204041e-38
0.09623147547 -0.0521248579 0.1879854649 2.348204041e-38
0.1983821094 -0.05357448757 0.1353792548 2.348204041e-38
0.2061336637 -0.3458039165 0.1292753518 2.348204041e-38
0.09100368619 -0.3955821395 0.1157452241 2.348204041e-38
0.1075672209 -0.2283574343 0.2028590143 2.348204041e-38
0.1340384185 -0.06329733133 0.1361177415 2.348204041e-38
0.1046269387 -0.1318034679 0.1606763154 2.348204041e-38
0.09939305484 -0.03331826627 0.1678901613 2.348204041e-38
0.1101720482 -0.1496516168 0.2015571296 2.348204041e-38
0.1052745804 -0.3597084284 0.1525751203 2.348204041e-38
0.09264710546 -0.3502815366 0.159127146 2.348204041e-38
0.165458262 -0.172346741 0.07514523715 2.348204041e-38
0.08298072219 -0.3661860228 0.1130683795 2.348204041e-38
0.2608287334 -0.1442410052 0.1084649563 2.348204041e-38
0.2676511407 -0.2864963412 0.1373936385 2.348204041e-38
0.1034821868 -0.00274503231 0.1364946067 2.348204041e-38
0.1310142577 -0.123706013 0.10077326 2.348204041e-38
0.09830126166 -0.01212185621 0.1636094898 2.348204041e-38
0.1004017666 -0.3148675561 0.1736950129 2.348204041e-38
0.1225737706 -0.2527090013 0.1529148072 2.348204041e-38
0.2860831022 -0.2146773785 0.1153467596 2.348204041e-38
0.1032338738 -0.141950801 0.1514615864 2.348204041e-38
0.1890428364 -0.2835435271 0.1391236186 2.348204041e-38
0.1240322366 -0.09989486635 0.1029901579 2.348204041e-38
0.1619909108 -0.2601282001 0.1426317394 2.348204041e-38
0.1138008684 -0.08055306971 0.1353520304 2.348204041e-38
0.09697242826 -0.1902074516 0.272230804 2.348204041e-38
0.1006988734 -0.1689920425 0.2312862426 2.348204041e-38
0.150120765 -0.3525250256 0.1029792204 2.348204041e-38
0.213629663 -0.2929129303 0.09543410689 2.348204041e-38
0.1086719707 -0.3532469273 0.1383916438 2.348204041e-38
0.1031090245 -0.1637485325 0.1424237788 2.348204041e-38
0.1085215434 -0.07705754042 0.244365111 2.348204041e-38
0.1004279852 -0.1353974044 0.2753232718 2.348204041e-38
0.2416073382 -0.2796811759 0.1379825771 2.348204041e-38
0.1542486548 -0.02071386576 0.1302988827 2.348204041e-38
0.1977601349 -0.1376400143 0.1392897367 2.348204041e-38
0.1918007731 -0.3780187368 0.1086005345 2.348204041e-38
