# .PCD v0.7 - Point Cloud Data file format
VERSION 0.7
FIELDS x y z rgb
SIZE 4 4 4 4
TYPE F F F F
COUNT 1 1 1 1
WIDTH 836
HEIGHT 1
VIEWPOINT 0 0 0 1 0 0 0
POINTS 836
DATA ascii
0.2825585306 -0.4466480613 -0.162878409 5.820783626e-39
-0.2171532959 -0.4825979471 0.2433545142 5.820783626e-39
-0.1959771514 -0.343313992 0.2368434817 5.820783626e-39
-0.2038435191 -0.4419846833 0.4358723164 5.820783626e-39
0.00398246944 -0.4855183363 0.2001336068 5.820783626e-39
0.4558137059 -0.3996703923 0.1170652807 5.820783626e-39
-0.1945292503 -0.3001066446 0.4570564628 5.820783626e-39
-0.147764504 -0.2679622769 0.2053756416 5.820783626e-39
-0.1042678952 -0.4322540164 0.4072469771 5.820783626e-39
-0.0001866742969 -0.3630808592 0.2489732057 5.820783626e-39
0.4057328701 -0.4764050245 0.1002986729 5.820783626e-39
0.0976241231 -0.4287136197 -0.03604325652 5.820783626e-39
-0.04012955725 -0.3851873279 -0.003368806094 5.820783626e-39
0.3357911408 -0.4208408296 0.1551375389 5.820783626e-39
0.06894764304 -0.4433229566 0.2713715136 5.820783626e-39
-0.2035621852 -0.3194965124 0.3906117976 5.820783626e-39
-0.1575979441 -0.452075541 0.1387275457 5.820783626e-39
-0.03360085189 -0.4120929241 0.3303792179 5.820783626e-39
0.07225501537 -0.382535547 0.04402832687 5.820783626e-39
-0.1796720177 -0.3937812448 0.4408809543 5.820783626e-39
-0.1886673272 -0.2656177878 0.2882224321 5.820783626e-39
-0.1950211972 -0.2866938114 0.3076854944 5.820783626e-39
-0.1394402832 -0.2709881961 0.3346873522 5.820783626e-39
-0.2011829168 -0.3526386619 0.4440797269 5.820783626e-39
0.3593930304 -0.4772663713 0.1323795468 5.820783626e-39
-0.1645783782 -0.2505195439 0.2603261173 5.820783626e-39
-0.1681668758 -0.3140365481 0.4489947557 5.820783626e-39
-0.1696680337 -0.2660413384 0.4076792002 5.820783626e-39
0.3863034248 -0.3704965413 0.131204769 5.820783626e-39
0.1648890525 -0.4838320315 0.1517326683 5.820783626e-39
0.226221174 -0.4630214572 -0.1338243037 5.820783626e-39
0.4728488326 -0.4342912734 0.0187666975 5.820783626e-39
0.4376396537 -0.4816043973 0.01971592754 5.820783626e-39
0.4638430178 -0.4127873182 0.1097934991 5.820783626e-39
0.4551222026 -0.4387117922 0.0968426466 5.820783626e-39
0.3168359399 -0.3700572848 0.1525726616 5.820783626e-39
0.2766780555 -0.4456572831 0.1818397641 5.820783626e-39
0.2270422727 -0.4202888012 -0.1381134242 5.820783626e-39
0.4536036551 -0.3943454027 0.06079316884 5.820783626e-39
0.0981477946 -0.4768066704 0.2690296471 5.820783626e-39
0.009106572717 -0.3519152403 0.08889915049 5.820783626e-39
0.3505930901 -0.3368858993 0.1321157813 5.820783626e-39
0.09700372815 -0.4825788736 0.1168009192 5.820783626e-39
0.3873005807 -0.3466356099 0.138824001 5.820783626e-39
0.4509426057 -0.477494359 -0.01998708025 5.820783626e-39
0.1119809896 -0.4836787283 0.1296744645 5.820783626e-39
-0.1244265288 -0.3221619427 0.1716549248 5.820783626e-39
-0.1591472328 -0.4874345362 0.1848595142 5.820783626e-39
0.2303123176 -0.3480332494 0.1895108074 5.820783626e-39
0.4435191751 -0.3847248852 0.06642436981 5.820783626e-39
0.07212291658 -0.3458064198 0.2479991615 5.820783626e-39
-0.1611239314 -0.3404383957 0.1777075529 5.820783626e-39
-0.04301709682 -0.3819311857 0.008285576478 5.820783626e-39
-0.1363449991 -0.2553895414 0.2916602492 5.820783626e-39
-0.04142102227 -0.2940952778 0.2380713671 5.820783626e-39
-0.1552791893 -0.3618304133 0.1291692555 5.820783626e-39
-0.2149453163 -0.3891630471 0.3635482192 5.820783626e-39
0.1694234461 -0.4729423225 0.2160734534 5.820783626e-39
0.175046593 -0.3873348832 0.04994178563 5.820783626e-39
-0.1680600196 -0.3047067225 0.2165807784 5.820783626e-39
0.05454051867 -0.3888273537 0.2495037168 5.820783626e-39
0.2732888162 -0.4046794474 -0.1219079792 5.820783626e-39
-0.04423541576 -0.4648435116 0.3726359606 5.820783626e-39
0.2282991558 -0.4599985778 -0.1650119275 5.820783626e-39
0.3886382282 -0.3352893293 0.1125761122 5.820783626e-39
0.3929648697 -0.4079927802 0.1344932765 5.820783626e-39
-0.08882500231 -0.3553776741 0.1211762875 5.820783626e-39
-0.1959662586 -0.2403733879 0.3994084001 5.820783626e-39
0.130524978 -0.4134483933 -0.06962415576 5.820783626e-39
-0.02088979073 -0.3561764657 0.2584428489 5.820783626e-39
0.2620566487 -0.4865393639 0.01691625826 5.820783626e-39
0.1288685799 -0.4811210632 0.2273137718 5.820783626e-39
0.3781219721 -0.3252931833 0.140664652 5.820783626e-39
0.2134587616 -0.4103662968 0.2077242732 5.820783626e-39
-0.169088006 -0.3425192237 0.1497343183 5.820783626e-39
0.1714087725 -0.4708438814 0.2176552266 5.820783626e-39
-0.1349476725 -0.4240183532 0.4219904542 5.820783626e-39
0.03674790263 -0.4450127482 -0.09322287142 5.820783626e-39
0.3740633726 -0.3419623971 0.1361586154 5.820783626e-39
-0.04234052077 -0.3869069219 -0.01798493043 5.820783626e-39
0.3636808991 -0.4694235921 0.1332452148 5.820783626e-39
-0.04764495045 -0.433942616 -0.0386644043 5.820783626e-39
-0.1969308406 -0.3200306296 0.4555306137 5.820783626e-39
0.122178942 -0.3845529556 -0.1050801128 2.898180898e-39
-0.1171144098 -0.4824514985 0.1053171307 2.898180898e-39
0.2904808223 -0.4093120694 -0.07435545325 2.898180898e-39
0.4219535589 -0.4155364037 0.02159498073 2.898180898e-39
0.3744167089 -0.4086174667 0.06340478361 2.898180898e-39
-0.1915845275 -0.2412493378 0.426066041 2.898180898e-39
-0.07870601118 -0.4037336111 0.4019447565 2.898180898e-39
0.1040723324 -0.4187710583 0.2296536714 2.898180898e-39
0.23317945 -0.3802562654 0.08973973989 2.898180898e-39
-0.2048248053 -0.4289718866 0.4131462276 2.898180898e-39
0.2286076397 -0.4760021269 0.1043547839 2.898180898e-39
-0.2121320069 -0.3843770027 0.2451410741 2.898180898e-39
0.3439771831 -0.3742431402 0.08081239462 2.898180898e-39
-0.204426989 -0.3598232567 0.1737916917 2.898180898e-39
-0.1276622415 -0.3616748154 0.4361107647 2.898180898e-39
-0.2009561509 -0.2919528484 0.1802028567 2.898180898e-39
0.2530854344 -0.3616903126 0.08938741684 2.898180898e-39
-0.1907303333 -0.2413932681 0.4287723601 2.898180898e-39
-0.03848724812 -0.3692963719 -0.06075610593 2.898180898e-39
-0.01446636766 -0.3071606457 0.2206703424 2.898180898e-39
0.4051086307 -0.330291152 0.001662611961 2.898180898e-39
-0.2123690695 -0.408487916 0.2314152718 2.898180898e-39
-0.1643387973 -0.3816729784 0.4302917123 2.898180898e-39
0.184421584 -0.3595329821 0.1059910357 2.898180898e-39
0.4181273282 -0.4671050906 -0.03737230599 2.898180898e-39
0.2338424027 -0.4075074792 0.1286438107 2.898180898e-39
0.400003016 -0.4543073475 0.01042352617 2.898180898e-39
-0.0368206799 -0.2972581089 0.2513446212 2.898180898e-39
0.4598623514 -0.3754874766 0.03602921963 2.898180898e-39
0.4539152086 -0.4775187969 -0.1507705599 2.898180898e-39
-0.2065965235 -0.3225743175 0.2824902833 2.898180898e-39
-0.1988450289 -0.266346097 0.3747043908 2.898180898e-39
-0.2381867021 -0.4755880833 0.2524774969 2.898180898e-39
-0.1973954588 -0.4014241695 0.4255763292 2.898180898e-39
0.2659676373 -0.3808703125 0.08716951311 2.898180898e-39
-0.2099617422 -0.3885455132 0.2192361504 2.898180898e-39
-0.2005545497 -0.3493926525 0.1365161836 2.898180898e-39
0.1429246515 -0.4788653255 0.1635946631 2.898180898e-39
-0.1928909272 -0.2628780603 0.431622088 2.898180898e-39
0.4013880193 -0.4076828063 0.04493574053 2.898180898e-39
-0.1686476469 -0.399200201 0.09699320793 2.898180898e-39
0.4016270339 -0.3422027826 0.04558023065 2.898180898e-39
0.4643563926 -0.4646125436 -0.1188759506 2.898180898e-39
0.3282978535 -0.4647021294 -0.1701011509 2.898180898e-39
-0.09068258107 -0.2412079573 0.3226826191 2.898180898e-39
0.2960701883 -0.4541823268 -0.1475249529 2.898180898e-39
-0.2133674175 -0.4825270176 0.2856119275 2.898180898e-39
-0.2102518082 -0.3794832528 0.2311014086 2.898180898e-39
-0.2027219832 -0.366322577 0.4509684741 2.898180898e-39
-0.01316219568 -0.4847503006 0.2538460791 2.898180898e-39
0.4631533623 -0.3744025826 0.02959529683 2.898180898e-39
-0.192773357 -0.3233315945 0.4281544983 2.898180898e-39
-0.196069479 -0.2692632675 0.1781736016 2.898180898e-39
-0.118215248 -0.36610654 0.4320600033 2.898180898e-39
-0.04189475626 -0.2951748371 0.2584627569 2.898180898e-39
0.4271156788 -0.432276547 0.01080500986 2.898180898e-39
0.02283535898 -0.3923031688 -0.05586088821 2.898180898e-39
-0.1074881554 -0.3495185971 -0.006798317656 2.898180898e-39
0.2291380465 -0.3885058761 0.09972435236 2.898180898e-39
-0.005872361362 -0.39285326 0.3221194744 2.898180898e-39
-0.2072189152 -0.3553734422 0.3860046268 2.898180898e-39
-0.1780115515 -0.4674892128 0.1341454685 2.898180898e-39
-0.06504128873 -0.3474861681 0.3555005193 2.898180898e-39
-0.01428976282 -0.3659083545 0.0239685867 2.898180898e-39
-0.1818805635 -0.3231163323 0.4526386261 2.898180898e-39
-0.2036578208 -0.2786291242 0.2689347863 2.898180898e-39
-0.2063411027 -0.3061153293 0.2937609255 2.898180898e-39
-0.110435605 -0.2232775241 0.3321464956 2.898180898e-39
-0.1955390275 -0.3886071742 0.4231564105 2.898180898e-39
0.3676277101 -0.4444824457 0.0451352559 2.898180898e-39
-0.2010341436 -0.2532591522 0.2256937772 2.898180898e-39
-0.1563359052 -0.2663807273 0.4249799252 2.898180898e-39
-0.1529242545 -0.2221322358 0.3845204711 2.898180898e-39
0.3229503036 -0.3428263366 0.07608239353 2.898180898e-39
0.1317698807 -0.4818381667 0.1418913454 2.898180898e-39
0.2238527834 -0.4699786305 -0.147203207 2.898180898e-39
0.5047618747 -0.3838703334 -0.04977843538 2.898180898e-39
0.4703611434 -0.4228271246 -0.0579454191 2.898180898e-39
0.4689409137 -0.3840131164 0.02964391932 2.898180898e-39
0.4533836842 -0.3980538845 0.01474252064 2.898180898e-39
0.1908615679 -0.3423202634 0.1049349904 2.898180898e-39
0.2188176215 -0.4055109918 0.1399205625 2.898180898e-39
0.1662952602 -0.4232227206 -0.1236456782 2.898180898e-39
0.4694467187 -0.3597932756 -0.03063704073 2.898180898e-39
0.01744519919 -0.4213935137 0.3103854954 2.898180898e-39
-0.06610561907 -0.3166959286 0.05332173407 2.898180898e-39
0.2917175889 -0.3083061576 0.07391859591 2.898180898e-39
0.0701238662 -0.4842981398 0.1404965818 2.898180898e-39
0.3452908099 -0.319979459 0.06556220353 2.898180898e-39
0.4902127683 -0.4073964655 -0.08321002126 2.898180898e-39
0.07814866304 -0.4838038683 0.1526890695 2.898180898e-39
-0.1858174801 -0.2784578502 0.1349789053 2.898180898e-39
-0.1250225455 -0.486417532 0.2375075966 2.898180898e-39
0.07994090021 -0.3002249897 0.1239940822 2.898180898e-39
0.4545559585 -0.3504608274 -0.02831922099 2.898180898e-39
-0.01166300755 -0.2938339412 0.200948 2.898180898e-39
-0.2018004507 -0.325958699 0.1512736082 2.898180898e-39
-0.1114127785 -0.3491456509 0.001307940111 2.898180898e-39
-0.1134477854 -0.2154880464 0.2936629653 2.898180898e-39
-0.06570799649 -0.2571162581 0.2394613177 2.898180898e-39
-0.1799890548 -0.3793051839 0.1064545065 2.898180898e-39
-0.2195020169 -0.42775172 0.3683219254 2.898180898e-39
0.1262475848 -0.4452688098 0.2260356545 2.898180898e-39
0.1172899604 -0.3783043027 0.02882325463 2.898180898e-39
-0.1999476403 -0.2989640534 0.1944478601 2.898180898e-39
-0.01592755318 -0.3186041713 0.2413781881 2.898180898e-39
0.2285401523 -0.3932400048 -0.1197915077 2.898180898e-39
-0.06756514311 -0.3975899816 0.3994572759 2.898180898e-39
0.1991674751 -0.459002465 -0.1406061351 2.898180898e-39
0.377279222 -0.3204391599 0.01001521759 2.898180898e-39
0.3013876975 -0.3879313171 0.08219365776 2.898180898e-39
-0.1641850173 -0.3269257247 0.07545353472 2.898180898e-39
-0.201432094 -0.2479369044 0.3854543865 2.898180898e-39
0.04786047712 -0.3783183098 -0.08683721721 2.898180898e-39
-0.05328568816 -0.2873879969 0.274646014 2.898180898e-39
0.2890205681 -0.4822774529 -0.06388984621 2.898180898e-39
0.06841570139 -0.4486200511 0.27477476 2.898180898e-39
0.3400379717 -0.3024204373 0.06226174161 2.898180898e-39
0.09989793599 -0.3503363729 0.1596967876 2.898180898e-39
-0.1992162466 -0.3552774191 0.128591761 2.898180898e-39
0.1228539795 -0.4352739453 0.2261790335 2.898180898e-39
-0.1460270435 -0.3569306731 0.4403293431 2.898180898e-39
-0.001952355728 -0.4560764432 -0.0918610692 2.898180898e-39
0.329015553 -0.3139933348 0.06406770647 2.898180898e-39
-0.1045826524 -0.3468616307 -0.01801669225 2.898180898e-39
0.3542098105 -0.4312241971 0.06640289724 2.898180898e-39
-0.0789129585 -0.4447841048 -0.02967360616 2.898180898e-39
-0.1912945509 -0.3541691005 0.4186676443 2.898180898e-39
0.07102078199 -0.3722344637 -0.1462288499 6.490113838e-41
-0.179753989 -0.4610727429 0.02873641253 6.490113838e-41
0.258913368 -0.3972531855 -0.111216262 6.490113838e-41
0.4061012864 -0.4312167168 -0.04298702255 6.490113838e-41
0.3803455532 -0.4223636985 -0.01250800118 6.490113838e-41
-0.2014379203 -0.2480342388 0.38592574 6.490113838e-41
-0.1565711051 -0.4597206712 0.3549120128 6.490113838e-41
0.06074214354 -0.4663728476 0.2079586089 6.490113838e-41
0.2690773308 -0.4063278437 0.05576046184 6.490113838e-41
-0.2196799517 -0.4611726403 0.331497848 6.490113838e-41
0.1247356981 -0.4828948677 0.04295241088 6.490113838e-41
-0.1907458603 -0.3643993437 0.180157274 6.490113838e-41
0.3590635657 -0.3873143792 0.02409822308 6.490113838e-41
-0.1865505278 -0.3493745327 0.1097399294 6.490113838e-41
-0.1836775988 -0.4212979674 0.4034298658 6.490113838e-41
-0.181757167 -0.2975590825 0.1109916866 6.490113838e-41
0.2670132816 -0.3872905672 0.04008071125 6.490113838e-41
-0.2013099194 -0.2472831309 0.3910746574 6.490113838e-41
-0.07730680704 -0.3532322943 -0.1277144551 6.490113838e-41
-0.06224589795 -0.3610929847 0.2269168645 6.490113838e-41
0.4200163782 -0.3366431296 -0.06985469162 6.490113838e-41
-0.1934502125 -0.3871181011 0.1636841893 6.490113838e-41
-0.196338892 -0.45808357 0.3698385656 6.490113838e-41
0.2179599553 -0.3954188228 0.06544520706 6.490113838e-41
0.3123750389 -0.4724752903 -0.1002502888 6.490113838e-41
0.2114820331 -0.4580048025 0.1050863266 6.490113838e-41
0.3081546724 -0.4600122869 -0.05966698751 6.490113838e-41
-0.09100319445 -0.3598415256 0.2678312957 6.490113838e-41
0.4662590325 -0.3738567829 -0.03392434865 6.490113838e-41
0.3813449442 -0.4788816869 -0.1829878837 6.490113838e-41
-0.1880744249 -0.3200493455 0.2201194912 6.490113838e-41
-0.2002923787 -0.2698433995 0.3089149892 6.490113838e-41
-0.2053806335 -0.4459233284 0.1735110581 6.490113838e-41
-0.2040837407 -0.3711716533 0.3659035861 6.490113838e-41
0.2856765389 -0.4006995857 0.05282195285 6.490113838e-41
-0.1883092374 -0.367204994 0.1536853462 6.490113838e-41
-0.1887177229 -0.3414492607 0.05174019933 6.490113838e-41
0.04616204649 -0.4842312932 0.08207224309 6.490113838e-41
-0.1962778419 -0.2647895515 0.3961964846 6.490113838e-41
0.4013169706 -0.4173963666 -0.02175629139 6.490113838e-41
-0.1886221915 -0.3723015189 0.01262873784 6.490113838e-41
0.4253700376 -0.347550571 -0.02140796185 6.490113838e-41
0.3856066167 -0.47306934 -0.1746762991 6.490113838e-41
0.2382017523 -0.432696104 -0.167245537 6.490113838e-41
-0.1423978657 -0.2920458317 0.3412085474 6.490113838e-41
0.2187192142 -0.4095405638 -0.1615743786 6.490113838e-41
-0.2210797518 -0.4657139778 0.1898386329 6.490113838e-41
-0.1875525117 -0.3623809218 0.1668281704 6.490113838e-41
-0.2035487294 -0.4532487392 0.3919204473 6.490113838e-41
-0.1094502211 -0.4878491163 0.162504375 6.490113838e-41
0.4712450206 -0.3724753261 -0.04018779472 6.490113838e-41
-0.1950376332 -0.3126085401 0.3961932659 6.490113838e-41
-0.180582419 -0.2812170982 0.1097022444 6.490113838e-41
-0.1806132495 -0.4253683686 0.399503082 6.490113838e-41
-0.09437398612 -0.3592478037 0.2762818336 6.490113838e-41
0.3801897764 -0.4434184134 -0.06222479418 6.490113838e-41
-0.02556981146 -0.3863797188 -0.11944969 6.490113838e-41
-0.134980619 -0.3563763499 -0.09082348645 6.490113838e-41
0.2694843113 -0.4258522391 0.07570013404 6.490113838e-41
-0.04235868901 -0.4508235455 0.3195301592 6.490113838e-41
-0.2071662694 -0.3408549726 0.3131906092 6.490113838e-41
-0.1961184442 -0.4338493049 0.07120279968 6.490113838e-41
-0.1093080491 -0.4127684832 0.3699050546 6.490113838e-41
-0.02487804554 -0.3769088984 -0.04650393501 6.490113838e-41
-0.195043698 -0.4006382823 0.4139795005 6.490113838e-41
-0.1862501204 -0.2826564014 0.2023224533 6.490113838e-41
-0.189799577 -0.3058111668 0.2277310342 6.490113838e-41
-0.1591894627 -0.2644747496 0.3442279696 6.490113838e-41
-0.2024129629 -0.3580057621 0.3689074218 6.490113838e-41
0.3070337176 -0.4564917684 -0.02373898774 6.490113838e-41
-0.1889302284 -0.2664646804 0.1671174914 6.490113838e-41
-0.1855445355 -0.3049901128 0.4224561155 6.490113838e-41
-0.1772699952 -0.2539442182 0.3942608833 6.490113838e-41
0.3238761723 -0.3661547899 0.04062800854 6.490113838e-41
0.03203742951 -0.4843424559 0.05867608637 6.490113838e-41
0.1404081732 -0.4372040927 -0.1604590863 6.490113838e-41
0.4870222509 -0.3811394572 -0.1114705503 6.490113838e-41
0.4163093567 -0.4221454561 -0.1076099277 6.490113838e-41
0.4635431767 -0.3828756213 -0.04460247234 6.490113838e-41
0.4474514425 -0.406134814 -0.04923823848 6.490113838e-41
0.2051131427 -0.3766652346 0.04703070223 6.490113838e-41
0.1989065111 -0.4597660303 0.1154063046 6.490113838e-41
0.1013612598 -0.3854852319 -0.1571875215 6.490113838e-41
0.4663713276 -0.3549227118 -0.09572175145 6.490113838e-41
-0.03921765089 -0.4675289094 0.2735123932 6.490113838e-41
-0.06188791618 -0.3536853492 -0.003424514085 6.490113838e-41
0.3150011301 -0.3375312388 0.03625224531 6.490113838e-41
-0.03294254094 -0.485185951 0.05748427659 6.490113838e-41
0.3674283326 -0.3412888646 0.02289808728 6.490113838e-41
0.4419518411 -0.4005488157 -0.1300347596 6.490113838e-41
-0.0185835436 -0.4854806066 0.07484258711 6.490113838e-41
-0.1762554795 -0.2885053158 0.06564558297 6.490113838e-41
-0.2161247432 -0.4838660955 0.1502153724 6.490113838e-41
0.1023585945 -0.3549661636 0.08951351047 6.490113838e-41
0.455370307 -0.3471305072 -0.09476906061 6.490113838e-41
-0.05459336936 -0.3456688821 0.2040354609 6.490113838e-41
-0.1836862862 -0.3217324317 0.07322650403 6.490113838e-41
-0.1286363304 -0.3611255288 -0.08227989078 6.490113838e-41
-0.1561045349 -0.2394539565 0.3076454997 6.490113838e-41
-0.1081816703 -0.2818572521 0.2567735016 6.490113838e-41
-0.1897316128 -0.3590176702 0.02350653522 6.490113838e-41
-0.2237086892 -0.3958256245 0.2884219587 6.490113838e-41
0.04469524696 -0.4778884649 0.1677158028 6.490113838e-41
0.09155538678 -0.3962657154 -0.02098217234 6.490113838e-41
-0.1816680878 -0.3032338917 0.1291401684 6.490113838e-41
-0.06123356894 -0.380979538 0.2535929978 6.490113838e-41
0.1741032153 -0.3852456808 -0.1540178061 6.490113838e-41
-0.144495219 -0.4507137537 0.3625070155 6.490113838e-41
0.1267283261 -0.4097160995 -0.1588883698 6.490113838e-41
0.3878377974 -0.3295350671 -0.0662907958 6.490113838e-41
0.3232153356 -0.3994428515 0.04842215404 6.490113838e-41
-0.1579781175 -0.3241040111 0.01259358786 6.490113838e-41
-0.2019052356 -0.2517801821 0.319514066 6.490113838e-41
-0.003347251564 -0.3659076989 -0.1374865025 6.490113838e-41
-0.1021704376 -0.3531966507 0.2954727709 6.490113838e-41
0.1727950573 -0.4840897322 -0.1130930632 6.490113838e-41
-0.01868778095 -0.4813378751 0.2049635649 6.490113838e-41
0.3557554185 -0.3201643825 0.004732690752 6.490113838e-41
0.1092683375 -0.4139202833 0.1525661945 6.490113838e-41
-0.1891497076 -0.3460867107 0.04435368255 6.490113838e-41
0.05364038423 -0.4741733968 0.1793764681 6.490113838e-41
-0.1889132559 -0.4221829772 0.4047473669 6.490113838e-41
-0.0583970882 -0.4197008908 -0.1397030503 6.490113838e-41
0.3513139784 -0.3412783146 0.03118886799 6.490113838e-41
-0.1399838328 -0.3347446918 -0.1034391671 6.490113838e-41
0.3205954731 -0.4498865008 -0.00772350654 6.490113838e-41
-0.1314754039 -0.416880399 -0.1214878559 6.490113838e-41
-0.1973614097 -0.3313440681 0.3924507201 6.490113838e-41
0.1924434453 -0.3632459641 -0.188916266 3.015101038e-39
-0.07404504716 -0.4834094644 -0.004128523171 3.015101038e-39
0.2885984778 -0.3275221586 -0.1780087054 3.015101038e-39
0.4008988142 -0.4022486508 -0.06663563848 3.015101038e-39
0.381169498 -0.3975212872 -0.02878823131 3.015101038e-39
-0.2044176608 -0.2398119718 0.3410092294 3.015101038e-39
-0.09052962065 -0.4250222445 0.2887348831 3.015101038e-39
0.1188413054 -0.4336476922 0.1479126513 3.015101038e-39
0.236435473 -0.3628901243 0.02349810489 3.015101038e-39
-0.1911590695 -0.4446938038 0.3245940804 3.015101038e-39
0.2349158078 -0.471950978 0.03720206022 3.015101038e-39
-0.2089685053 -0.3993270993 0.1245843172 3.015101038e-39
0.320597589 -0.3472439051 -0.02012153342 3.015101038e-39
-0.2027243227 -0.3787454963 0.05033513904 3.015101038e-39
-0.1488077641 -0.3918699026 0.3135418594 3.015101038e-39
-0.2031556964 -0.3051005602 0.06016070023 3.015101038e-39
0.2330336422 -0.3375615478 0.006701979786 3.015101038e-39
-0.2046145499 -0.2399415523 0.349093467 3.015101038e-39
0.06463912129 -0.3670725822 -0.1915415823 3.015101038e-39
0.006909068674 -0.3162993789 0.1605274677 3.015101038e-39
0.2832145989 -0.3318215013 -0.1047180444 3.015101038e-39
-0.2103511244 -0.4180043936 0.1111862957 3.015101038e-39
-0.1654523313 -0.4140859842 0.3191681504 3.015101038e-39
0.1819659173 -0.342140913 0.01724495366 3.015101038e-39
0.3631215096 -0.4421905279 -0.119008705 3.015101038e-39
0.2171851248 -0.4175030291 0.05455109477 3.015101038e-39
0.3656925261 -0.4410597682 -0.06680501997 3.015101038e-39
-0.01341881603 -0.3162933886 0.1840385646 3.015101038e-39
0.3578780293 -0.3451342583 -0.09696471691 3.015101038e-39
0.3320552409 -0.3701776862 -0.2030863017 3.015101038e-39
-0.2020148635 -0.3374187946 0.1766849607 3.015101038e-39
-0.2084772736 -0.2761256099 0.2636604011 3.015101038e-39
-0.1947608888 -0.4827148318 0.154823944 3.015101038e-39
-0.2028897852 -0.4232082963 0.3390412033 3.015101038e-39
0.271073848 -0.3590657711 0.01259206608 3.015101038e-39
-0.2075870931 -0.3990414739 0.09299455583 3.015101038e-39
-0.2010879517 -0.3729083836 -0.01572463661 3.015101038e-39
0.1529813409 -0.4821792245 0.09269677103 3.015101038e-39
-0.2027004212 -0.2668913603 0.3595601916 3.015101038e-39
0.3938184083 -0.393938005 -0.04591787979 3.015101038e-39
-0.1856332272 -0.4221247435 -0.08179667592 3.015101038e-39
0.2640766501 -0.3330488801 -0.06377384067 3.015101038e-39
0.3412764072 -0.371902734 -0.1980414838 3.015101038e-39
0.2868801951 -0.4135266542 -0.1938535571 3.015101038e-39
-0.07575124502 -0.2619302571 0.2504286766 3.015101038e-39
0.2694011927 -0.3940602243 -0.1931929439 3.015101038e-39
-0.1671576202 -0.4848397374 0.1864981353 3.015101038e-39
-0.2066441029 -0.3938467205 0.1070691943 3.015101038e-39
-0.1887537986 -0.3874099851 0.352265805 3.015101038e-39
0.007641715929 -0.4808273911 0.1666226983 3.015101038e-39
0.3562678397 -0.3461540937 -0.1021101177 3.015101038e-39
-0.2081747651 -0.3306962848 0.3432586193 3.015101038e-39
-0.1946352422 -0.3039813936 0.06177649274 3.015101038e-39
-0.1400180012 -0.3941997886 0.3087365627 3.015101038e-39
-0.02156491205 -0.3148422837 0.1901455075 3.015101038e-39
0.3967853189 -0.4211293459 -0.07663056254 3.015101038e-39
0.1110796779 -0.3422393501 -0.1814201325 3.015101038e-39
-0.03077734075 -0.352519691 -0.1655396968 3.015101038e-39
0.2336206734 -0.3810222447 0.02978053503 3.015101038e-39
-0.002588342875 -0.4081151783 0.2249001116 3.015101038e-39
-0.218118906 -0.3790459633 0.2760034502 3.015101038e-39
-0.1628160924 -0.4780552387 0.009677326307 3.015101038e-39
-0.04960086197 -0.3761602938 0.2637747228 3.015101038e-39
0.03109267354 -0.373785466 -0.1321234852 3.015101038e-39
-0.1698402017 -0.3491182029 0.3448553383 3.015101038e-39
-0.2019561827 -0.2923983037 0.1668457687 3.015101038e-39
-0.1992221177 -0.3204292655 0.1877420843 3.015101038e-39
-0.0953105092 -0.2401802093 0.2582525015 3.015101038e-39
-0.2031306922 -0.4075237811 0.3353002965 3.015101038e-39
0.3581503332 -0.4351871014 -0.02346310765 3.015101038e-39
-0.2061586678 -0.2636043131 0.1302583367 3.015101038e-39
-0.1494999379 -0.2816199362 0.3275872469 3.015101038e-39
-0.1430608034 -0.236730665 0.3073421121 3.015101038e-39
0.2248737216 -0.3324030042 -0.00857976079 3.015101038e-39
0.1360405385 -0.4847432375 0.06364962459 3.015101038e-39
0.256218642 -0.4425196648 -0.1959259212 3.015101038e-39
0.3564939797 -0.3467050195 -0.1346889436 3.015101038e-39
0.3793659806 -0.3787610233 -0.1415066123 3.015101038e-39
0.371989876 -0.3480280042 -0.09604766965 3.015101038e-39
0.3933074176 -0.3715752363 -0.0930723995 3.015101038e-39
0.1698581874 -0.3204262853 0.003707880154 3.015101038e-39
0.2046323866 -0.4174106121 0.05689011514 3.015101038e-39
0.2164744139 -0.4002130628 -0.1887496412 3.015101038e-39
0.3167232871 -0.3480040133 -0.1275777519 3.015101038e-39
0.02966457233 -0.4365611076 0.2310226858 3.015101038e-39
-0.04800672084 -0.3859063089 -0.1022486389 3.015101038e-39
0.1535093337 -0.3125403523 -0.00208189711 3.015101038e-39
0.08341611922 -0.4854733944 0.05108616501 3.015101038e-39
0.1984866261 -0.3234119415 -0.02205197141 3.015101038e-39
0.3488343358 -0.3314913511 -0.1657210141 3.015101038e-39
0.08893018961 -0.4851157069 0.06996707618 3.015101038e-39
-0.1887993664 -0.3154068887 0.01383067388 3.015101038e-39
-0.1043144912 -0.4862264991 0.1421136856 3.015101038e-39
0.07908171415 -0.2954189479 0.04822942615 3.015101038e-39
0.3051801026 -0.3433961272 -0.1271177381 3.015101038e-39
0.007140893489 -0.3020755351 0.1478538215 3.015101038e-39
-0.2005898356 -0.339989841 0.01478862111 3.015101038e-39
-0.03793615848 -0.3552584052 -0.1562464982 3.015101038e-39
-0.09459498525 -0.2225128114 0.2312961221 3.015101038e-39
-0.04075570405 -0.2598521113 0.1817284673 3.015101038e-39
-0.1929138452 -0.4045956433 -0.0596720539 3.015101038e-39
-0.2230518162 -0.4403503537 0.2701311409 3.015101038e-39
0.1328748316 -0.4608712792 0.1528359652 3.015101038e-39
0.1509865671 -0.3610916436 -0.1135106832 3.015101038e-39
-0.2061091214 -0.3147871494 0.07393091917 3.015101038e-39
0.002444411628 -0.3331411183 0.1741308868 3.015101038e-39
0.2548140287 -0.3610935211 -0.1879939437 3.015101038e-39
-0.07615338266 -0.4181950688 0.286231935 3.015101038e-39
0.2423503846 -0.4262787998 -0.1905016154 3.015101038e-39
0.2775422931 -0.3071878552 -0.1148168892 3.015101038e-39
0.3162559271 -0.365021646 -0.0009701773524 3.015101038e-39
-0.1489684731 -0.3416554928 -0.07278420031 3.015101038e-39
-0.2102418989 -0.2499036193 0.27583009 3.015101038e-39
0.1355114728 -0.3710099161 -0.1950565279 3.015101038e-39
-0.03743216395 -0.3090049326 0.2050945461 3.015101038e-39
0.2779526412 -0.4870374203 -0.1453810483 3.015101038e-39
0.06905835867 -0.4632938802 0.20052737 3.015101038e-39
0.2242840081 -0.3110741973 -0.04054375365 3.015101038e-39
0.0974573791 -0.3581974208 0.07967250049 3.015101038e-39
-0.2006340474 -0.3844047487 -0.02722192928 3.015101038e-39
0.1310436875 -0.4508157969 0.1516818702 3.015101038e-39
-0.159400925 -0.3876747787 0.3217767477 3.015101038e-39
0.09430800378 -0.4710243642 -0.2005926669 3.015101038e-39
0.1827530116 -0.3216896653 -0.01496996731 3.015101038e-39
-0.04031340778 -0.3610769808 -0.1789383441 3.015101038e-39
0.3537944555 -0.426307112 -0.0116366744 3.015101038e-39
-0.02315170318 -0.473141849 -0.1967553794 3.015101038e-39
-0.2027770132 -0.373347342 0.3435596824 3.015101038e-39
0.2289627045 -0.3445446491 -0.1989591569 5.962428276e-39
0.05796105042 -0.4845449328 -0.07537098229 5.962428276e-39
0.2847662568 -0.3177718818 -0.1786656976 5.962428276e-39
0.4197536111 -0.414860487 -0.11289832 5.962428276e-39
0.4076649547 -0.4114282131 -0.07138900459 5.962428276e-39
-0.1781928837 -0.2308688462 0.2442587167 5.962428276e-39
0.05589363351 -0.4076193571 0.2540279925 5.962428276e-39
0.2047295123 -0.4274249673 0.1420715451 5.962428276e-39
0.2536019385 -0.3657878935 0.004131492227 5.962428276e-39
-0.1083218753 -0.4261668324 0.2453122735 5.962428276e-39
0.3513771594 -0.4834633172 0.02244669199 5.962428276e-39
-0.204982236 -0.4040895402 0.05182309821 5.962428276e-39
0.295348227 -0.3687104583 -0.06445646286 5.962428276e-39
-0.1760744452 -0.3832737207 -0.04882914945 5.962428276e-39
0.01063454337 -0.3741293252 0.2449168861 5.962428276e-39
-0.1838199347 -0.2864304185 -0.02599933371 5.962428276e-39
0.2330216616 -0.3488965333 -0.01954457536 5.962428276e-39
-0.1797584444 -0.23209095 0.2515971661 5.962428276e-39
0.1327869296 -0.3477765322 -0.2026512921 5.962428276e-39
0.05116024986 -0.2700256109 0.1645241082 5.962428276e-39
0.1545776725 -0.3404009044 -0.1633673459 5.962428276e-39
-0.1825837791 -0.4413433671 0.03441244364 5.962428276e-39
-0.02761247009 -0.3993960321 0.2453894317 5.962428276e-39
0.2025800496 -0.3413270116 0.02215832658 5.962428276e-39
0.4075299799 -0.4368356466 -0.1494531035 5.962428276e-39
0.2877172232 -0.4205256104 0.05111378431 5.962428276e-39
0.4313089848 -0.4483547807 -0.09392888844 5.962428276e-39
0.04670900851 -0.2666953802 0.1774271727 5.962428276e-39
0.3149653375 -0.3636004031 -0.1373016983 5.962428276e-39
0.3212921917 -0.31811288 -0.2228361368 5.962428276e-39
-0.2142419219 -0.3314138949 0.09065374732 5.962428276e-39
-0.194402352 -0.270447731 0.1708492339 5.962428276e-39
-0.07220223546 -0.4823874831 0.123833701 5.962428276e-39
-0.1656067222 -0.4464792013 0.248517558 5.962428276e-39
0.2689295113 -0.3663115799 -0.01791324094 5.962428276e-39
-0.1913627982 -0.4117298126 0.01478838548 5.962428276e-39
-0.1469336599 -0.3606613576 -0.09794533253 5.962428276e-39
0.2906752825 -0.4819867611 0.07085551322 5.962428276e-39
-0.1819237173 -0.2650332153 0.2587227821 5.962428276e-39
0.4129859209 -0.4071055353 -0.09259350598 5.962428276e-39
-0.08774404228 -0.4436030984 -0.1604319662 5.962428276e-39
0.2124447078 -0.348890394 -0.1284513772 5.962428276e-39
0.3347479105 -0.3288629055 -0.2206100523 5.962428276e-39
0.2921155393 -0.3846117854 -0.2178564668 5.962428276e-39
0.0008743973449 -0.2317744195 0.2101775855 5.962428276e-39
0.2812840641 -0.3716518879 -0.2136160582 5.962428276e-39
-0.01555540599 -0.4850091338 0.1879992783 5.962428276e-39
-0.2025819719 -0.3985527754 0.03108020872 5.962428276e-39
-0.1214733571 -0.3447046876 0.2512216568 5.962428276e-39
0.1613170803 -0.4810793698 0.1683431864 5.962428276e-39
0.3069312274 -0.360696733 -0.1418334246 5.962428276e-39
-0.1760787368 -0.3534305394 0.261831522 5.962428276e-39
-0.1647953093 -0.2807668149 -0.008290540427 5.962428276e-39
0.02076369897 -0.3767264187 0.2445650101 5.962428276e-39
0.04430150613 -0.2662247419 0.1808146536 5.962428276e-39
0.4257109463 -0.4252765775 -0.1181453168 5.962428276e-39
0.1602627635 -0.3233606219 -0.186277464 5.962428276e-39
0.05220168456 -0.316730082 -0.1783070862 5.962428276e-39
0.2730009258 -0.3845095634 0.01823028922 5.962428276e-39
0.09251201153 -0.3739364147 0.2115415931 5.962428276e-39
-0.1938924938 -0.3901920319 0.1749597639 5.962428276e-39
-0.03139575198 -0.481103301 -0.07108221948 5.962428276e-39
0.05620018765 -0.3413630128 0.2254893184 5.962428276e-39
0.1214233637 -0.3169191182 -0.141425401 5.962428276e-39
-0.06192027032 -0.3364580274 0.2444552183 5.962428276e-39
-0.2120245099 -0.2806300521 0.06669691205 5.962428276e-39
-0.2112423331 -0.312838763 0.09793612361 5.962428276e-39
-0.008237593807 -0.2184064537 0.2116232216 5.962428276e-39
-0.1680063903 -0.4337587357 0.2460297942 5.962428276e-39
0.4350439906 -0.4464537501 -0.05954022333 5.962428276e-39
-0.1848560721 -0.2598072886 0.03640245646 5.962428276e-39
-0.05253577605 -0.2679612637 0.2428968996 5.962428276e-39
-0.0461384058 -0.2175852954 0.2361042202 5.962428276e-39
0.2215286642 -0.3419492245 -0.05012619123 5.962428276e-39
0.2712772489 -0.4826263189 0.03617697582 5.962428276e-39
0.2767827213 -0.4228062034 -0.2236951739 5.962428276e-39
0.300680995 -0.339366138 -0.1863072515 5.962428276e-39
0.3518235087 -0.3512282968 -0.1857706457 5.962428276e-39
0.3415347338 -0.3693538904 -0.1405202746 5.962428276e-39
0.3848544657 -0.3855820298 -0.1466684043 5.962428276e-39
0.181008026 -0.3226480186 0.01246031281 5.962428276e-39
0.2743992507 -0.4200923443 0.06138755009 5.962428276e-39
0.2489884347 -0.3757064939 -0.2100230604 5.962428276e-39
0.231694445 -0.3477537632 -0.1775451899 5.962428276e-39
0.1287843436 -0.4149684906 0.2170821279 5.962428276e-39
0.05642780289 -0.3246800303 -0.1146509498 5.962428276e-39
0.1611194015 -0.3167131543 -0.0316857025 5.962428276e-39
0.218083933 -0.4833070636 0.01714126952 5.962428276e-39
0.1673334688 -0.3399950266 -0.06165957823 5.962428276e-39
0.3158516586 -0.3229993582 -0.209441185 5.962428276e-39
0.2305997163 -0.4829595983 0.03849439323 5.962428276e-39
-0.137956351 -0.2997238338 -0.04546024278 5.962428276e-39
0.05792472139 -0.4825335741 0.1356389523 5.962428276e-39
0.1120527685 -0.2857651711 0.07468289882 5.962428276e-39
0.2058000565 -0.3458919525 -0.1837607324 5.962428276e-39
0.04348562285 -0.2536501884 0.149851799 5.962428276e-39
-0.1725080907 -0.3204485178 -0.07090610266 5.962428276e-39
0.03948417306 -0.314458102 -0.1709297001 5.962428276e-39
-0.01619191654 -0.205480963 0.1881643683 5.962428276e-39
0.01304418221 -0.2201813757 0.1662244499 5.962428276e-39
-0.1054185629 -0.4169163108 -0.1403922737 5.962428276e-39
-0.1878739595 -0.4589139819 0.1934468299 5.962428276e-39
0.2416584939 -0.4627292752 0.141055882 5.962428276e-39
0.1940382272 -0.3077940345 -0.1255433708 5.962428276e-39
-0.1936319321 -0.2950226963 -0.02013160661 5.962428276e-39
0.06159898266 -0.2911186516 0.1801662743 5.962428276e-39
0.2637491822 -0.3480667174 -0.2036744356 5.962428276e-39
0.06327499449 -0.3948940337 0.2455041111 5.962428276e-39
0.2612581849 -0.3951312304 -0.2194296122 5.962428276e-39
0.1160461605 -0.3365992904 -0.1536698639 5.962428276e-39
0.3030950129 -0.3748393059 -0.03574370965 5.962428276e-39
-0.07133881748 -0.3273127079 -0.1031735092 5.962428276e-39
-0.1971026212 -0.2388752401 0.1722175032 5.962428276e-39
0.1850980967 -0.3565117419 -0.2032326907 5.962428276e-39
0.03593758866 -0.2638150752 0.1885914356 5.962428276e-39
0.3276114464 -0.4847906828 -0.1798772663 5.962428276e-39
0.1989328861 -0.4596309066 0.1875159442 5.962428276e-39
0.1276524365 -0.337711364 -0.08959722519 5.962428276e-39
0.1435940266 -0.3423510194 0.09900826216 5.962428276e-39
-0.1373912543 -0.3771837354 -0.1086773574 5.962428276e-39
0.2290489823 -0.4498972595 0.143130511 5.962428276e-39
-0.01062165108 -0.371640265 0.2449811995 5.962428276e-39
0.1648166031 -0.4565584958 -0.2344654799 5.962428276e-39
0.1638658345 -0.3347454071 -0.04856443033 5.962428276e-39
0.06204901263 -0.3406946957 -0.1917079687 5.962428276e-39
0.4231778681 -0.4366087914 -0.05047461763 5.962428276e-39
0.09077683091 -0.4678036571 -0.2332838178 5.962428276e-39
-0.1686862856 -0.3969723284 0.2633029222 5.962428276e-39
0.1191060096 -0.2944874167 -0.2430603504 8.906165387e-39
-0.1308457255 -0.4712857008 -0.1339756101 8.906165387e-39
0.2169425786 -0.2889114916 -0.2144354135 8.906165387e-39
0.2686741948 -0.4145774245 -0.1055714786 8.906165387e-39
0.2451504916 -0.3970106244 -0.05460046604 8.906165387e-39
-0.1912904233 -0.2246504128 0.1974763274 8.906165387e-39
0.02515056357 -0.4051660895 0.259306103 8.906165387e-39
0.1237396747 -0.3860032558 0.1675303727 8.906165387e-39
0.153421104 -0.3351905644 0.05155113712 8.906165387e-39
-0.164573431 -0.4807718992 0.1849669516 8.906165387e-39
0.174263224 -0.4651963413 -0.01352579519 8.906165387e-39
-0.1938009262 -0.3679858446 -0.01123883575 8.906165387e-39
0.1890259832 -0.3425875902 -0.0417492725 8.906165387e-39
-0.1870355904 -0.3343866467 -0.08864730597 8.906165387e-39
-0.02453737892 -0.3858016729 0.2467797846 8.906165387e-39
-0.1708065718 -0.2707011402 -0.07276304066 8.906165387e-39
0.1338698268 -0.310300976 0.02609089203 8.906165387e-39
-0.1869721711 -0.2276680917 0.2098550946 8.906165387e-39
0.02887124196 -0.3033667207 -0.2328723371 8.906165387e-39
0.08050782979 -0.2345005721 0.2028378546 8.906165387e-39
0.09744092822 -0.3317201138 -0.1894039661 8.906165387e-39
-0.1886528879 -0.386898011 -0.01921653748 8.906165387e-39
-0.07261775434 -0.4250434041 0.2429823577 8.906165387e-39
0.1377375871 -0.3080663979 0.07542988658 8.906165387e-39
0.2502137125 -0.4597141147 -0.1977235079 8.906165387e-39
0.1749494225 -0.3805081248 0.08362364024 8.906165387e-39
0.2552201748 -0.4486134052 -0.1279657185 8.906165387e-39
0.07212913036 -0.2346457094 0.2168417573 8.906165387e-39
0.2194653898 -0.3544983268 -0.142852217 8.906165387e-39
0.1955043525 -0.3747388422 -0.2502402663 8.906165387e-39
-0.2013041079 -0.3119909763 0.02022766694 8.906165387e-39
-0.2035815865 -0.2582299411 0.09311716259 8.906165387e-39
-0.1856975704 -0.4577682614 0.01377651189 8.906165387e-39
-0.2121236175 -0.3898240626 0.150541693 8.906165387e-39
0.1600386202 -0.3365033269 0.02647683769 8.906165387e-39
-0.1863552332 -0.3669704199 -0.04012450203 8.906165387e-39
-0.1702024937 -0.3219086528 -0.1248688847 8.906165387e-39
0.129230544 -0.4685747921 0.03103861772 8.906165387e-39
-0.1907841265 -0.2538993955 0.2224808931 8.906165387e-39
0.2529444993 -0.4005090892 -0.07406644523 8.906165387e-39
-0.1571047455 -0.3723403811 -0.1529204845 8.906165387e-39
0.1289807409 -0.3317151666 -0.1316756159 8.906165387e-39
0.2040923983 -0.3758988082 -0.2514208257 8.906165387e-39
0.1677651852 -0.3541236818 -0.2444284856 8.906165387e-39
0.0340753831 -0.2330366671 0.2378757894 8.906165387e-39
0.1734926403 -0.3301311731 -0.2444711924 8.906165387e-39
-0.1549472958 -0.4810937345 0.05471922457 8.906165387e-39
-0.1899784356 -0.3607880175 -0.02698507905 8.906165387e-39
-0.1578482836 -0.4361047745 0.2257928699 8.906165387e-39
0.03963120654 -0.472907424 0.09864546359 8.906165387e-39
0.2174791545 -0.3513570428 -0.1505309045 8.906165387e-39
-0.1983525753 -0.3147011101 0.1991889775 8.906165387e-39
-0.1544351131 -0.2522765696 -0.05832653865 8.906165387e-39
-0.00922674872 -0.3845566511 0.2484437823 8.906165387e-39
0.070063591 -0.2355141342 0.2199133933 8.906165387e-39
0.266335696 -0.43052876 -0.1325273365 8.906165387e-39
0.06486794353 -0.2809185088 -0.2345295548 8.906165387e-39
-0.01842798479 -0.289032042 -0.2045744658 8.906165387e-39
0.1653790176 -0.3519172668 0.06139110774 8.906165387e-39
0.08746473491 -0.3470328748 0.2270618379 8.906165387e-39
-0.2088639885 -0.3501749039 0.09092603624 8.906165387e-39
-0.1580729038 -0.4474596977 -0.1121400893 8.906165387e-39
0.06903629005 -0.3191625178 0.2391068339 8.906165387e-39
0.03869826719 -0.2728699148 -0.1995298117 8.906165387e-39
-0.08828267455 -0.3793705702 0.2362983227 8.906165387e-39
-0.1966495067 -0.2708154023 0.008313968778 8.906165387e-39
-0.1994041353 -0.2967961431 0.02667323127 8.906165387e-39
0.01571071148 -0.2265934795 0.231926173 8.906165387e-39
-0.2134777904 -0.3797237873 0.1479372233 8.906165387e-39
0.2527104914 -0.4352183938 -0.06715069711 8.906165387e-39
-0.1734659672 -0.2461033165 -0.01164331287 8.906165387e-39
-0.04398476332 -0.3088547289 0.239122048 8.906165387e-39
-0.03210024536 -0.2497568429 0.2300786078 8.906165387e-39
0.1310779154 -0.3100506663 -0.01770244539 8.906165387e-39
0.1168463081 -0.4820267558 -0.01412107423 8.906165387e-39
0.1297751516 -0.3624593616 -0.2455636859 8.906165387e-39
0.2340527326 -0.3255549669 -0.2172696739 8.906165387e-39
0.2542062104 -0.3793675303 -0.2187806368 8.906165387e-39
0.2357073575 -0.3677366078 -0.1435377449 8.906165387e-39
0.2623955607 -0.3920727074 -0.1407869607 8.906165387e-39
0.1205300689 -0.2855008245 0.06346230209 8.906165387e-39
0.1694698185 -0.3795567751 0.09830895066 8.906165387e-39
0.1373107284 -0.3179855645 -0.2425204217 8.906165387e-39
0.1811219901 -0.3405788541 -0.2070142031 8.906165387e-39
0.09336213768 -0.3837675154 0.2220015228 8.906165387e-39
-0.006160027813 -0.2818911672 -0.1729409397 8.906165387e-39
0.09325261414 -0.2887580693 -0.01009269431 8.906165387e-39
0.05060737953 -0.4830004573 -0.05190815404 8.906165387e-39
0.09718094766 -0.3103551865 -0.05358363315 8.906165387e-39
0.2376812845 -0.3261024952 -0.2422114313 8.906165387e-39
0.06999748945 -0.482329905 -0.02198790759 8.906165387e-39
-0.1283399463 -0.2732987702 -0.09248197079 8.906165387e-39
-0.08802159131 -0.4830127954 0.02393838018 8.906165387e-39
0.1046051532 -0.2537859082 0.1194530278 8.906165387e-39
0.1515994966 -0.3400709927 -0.2127896398 8.906165387e-39
0.08112417161 -0.2245969474 0.1937823296 8.906165387e-39
-0.1686531156 -0.2966408134 -0.1081276983 8.906165387e-39
-0.01880429685 -0.2895787954 -0.20008412 8.906165387e-39
0.0143976789 -0.2085814178 0.2204279453 8.906165387e-39
0.04525902495 -0.209199369 0.2089343369 8.906165387e-39
-0.1605360806 -0.3525156379 -0.1437597871 8.906165387e-39
-0.2175759524 -0.4043568075 0.07668852806 8.906165387e-39
0.1273771971 -0.4193157256 0.1462524086 8.906165387e-39
0.1101387143 -0.2523169518 -0.1842955798 8.906165387e-39
-0.1790571511 -0.2781960368 -0.06557993591 8.906165387e-39
0.08266861737 -0.2504987121 0.2096924484 8.906165387e-39
0.1649356633 -0.3062849343 -0.2433130741 8.906165387e-39
0.04409052059 -0.3875688612 0.2529752254 8.906165387e-39
0.1386923343 -0.3343638778 -0.2414701581 8.906165387e-39
0.08097337186 -0.3165622354 -0.1763874143 8.906165387e-39
0.1897071153 -0.3497180939 -0.001018155366 8.906165387e-39
-0.07661655545 -0.2990477085 -0.1424238831 8.906165387e-39
-0.2049408853 -0.2374629974 0.09674416482 8.906165387e-39
0.07414223254 -0.3017833233 -0.2401724756 8.906165387e-39
0.06590987742 -0.2380764931 0.2279075235 8.906165387e-39
0.161017254 -0.481738627 -0.2392629385 8.906165387e-39
0.1055434197 -0.4228108227 0.1793252826 8.906165387e-39
0.06707449257 -0.3204305172 -0.09274411201 8.906165387e-39
0.1271802336 -0.3101722002 0.1426752657 8.906165387e-39
-0.1668299288 -0.3278962374 -0.1292702407 8.906165387e-39
0.1289899498 -0.4083797932 0.1559130996 8.906165387e-39
-0.0521729216 -0.3905697465 0.2438428104 8.906165387e-39
0.006545308977 -0.3826997876 -0.2353564799 8.906165387e-39
0.09622050822 -0.303855449 -0.0372059904 8.906165387e-39
-0.02510946244 -0.3048402965 -0.2098136544 8.906165387e-39
0.2495215684 -0.4200586677 -0.04786356911 8.906165387e-39
-0.06341937929 -0.3944590688 -0.2222353667 8.906165387e-39
-0.1976428032 -0.3518307507 0.203221783 8.906165387e-39
0.10241431 -0.2897914946 -0.2681320906 1.184631237e-38
-0.1105634272 -0.4781057835 -0.2170535773 1.184631237e-38
0.1786547154 -0.2786898613 -0.2508167028 1.184631237e-38
0.2794977129 -0.4400891364 -0.1630149931 1.184631237e-38
0.2966119051 -0.4347638488 -0.0827371031 1.184631237e-38
-0.1944914013 -0.2539119124 0.1341822743 1.184631237e-38
0.08728688955 -0.4643917084 0.2131583542 1.184631237e-38
0.2354559302 -0.4408279061 0.1605958045 1.184631237e-38
0.2397173792 -0.3700282574 0.05751829594 1.184631237e-38
-0.1556946188 -0.4822928309 0.07276236266 1.184631237e-38
0.1888169795 -0.4834337831 -0.07546524704 1.184631237e-38
-0.1933687478 -0.3817260265 -0.09964939952 1.184631237e-38
0.2153686136 -0.3780456185 -0.03924601153 1.184631237e-38
-0.1841564476 -0.3438986838 -0.1687651873 1.184631237e-38
0.03967697918 -0.4391957223 0.226525262 1.184631237e-38
-0.1597850174 -0.2822349966 -0.1506491005 1.184631237e-38
0.2011180669 -0.3435830176 0.03617623076 1.184631237e-38
-0.1910803914 -0.2554198802 0.1534582376 1.184631237e-38
0.01910429075 -0.2955125868 -0.2679798305 1.184631237e-38
0.1364790797 -0.2636034489 0.1866309047 1.184631237e-38
0.0424141176 -0.3435535729 -0.1874829382 1.184631237e-38
-0.1948700994 -0.3978848457 -0.1172876954 1.184631237e-38
-0.01771062426 -0.4800597429 0.1718748659 1.184631237e-38
0.215163365 -0.3436566293 0.08655540645 1.184631237e-38
0.1999844611 -0.4568883479 -0.25293383 1.184631237e-38
0.287579298 -0.4255905449 0.08888354897 1.184631237e-38
0.2385858744 -0.4831234515 -0.1934284717 1.184631237e-38
0.1335419714 -0.2704474628 0.1950765103 1.184631237e-38
0.1775873154 -0.3653800189 -0.157075569 1.184631237e-38
0.1726495177 -0.3321708441 -0.2661210895 1.184631237e-38
-0.191824168 -0.3329654634 -0.05683485791 1.184631237e-38
-0.2024348527 -0.2849620581 0.01757576317 1.184631237e-38
-0.1793533713 -0.4700433016 -0.08552739024 1.184631237e-38
-0.2017225176 -0.4095700979 0.06665735692 1.184631237e-38
0.2311319709 -0.3666749895 0.02813178673 1.184631237e-38
-0.1939861029 -0.3786872029 -0.1289607137 1.184631237e-38
-0.1558825225 -0.3258447647 -0.1948240548 1.184631237e-38
0.1441423148 -0.4820518196 -0.03844692931 1.184631237e-38
-0.1899880767 -0.2684351504 0.1651321799 1.184631237e-38
0.2903387845 -0.4347334206 -0.1128842831 1.184631237e-38
-0.1407067925 -0.3643595576 -0.2224405259 1.184631237e-38
0.1059448272 -0.3477704525 -0.1274219751 1.184631237e-38
0.1820438355 -0.3249921799 -0.2667882442 1.184631237e-38
0.1504651457 -0.339155972 -0.2649039328 1.184631237e-38
0.09378659725 -0.2622680366 0.1978044957 1.184631237e-38
0.1513104886 -0.3348125815 -0.2639411986 1.184631237e-38
-0.136668697 -0.4808140397 -0.04425443336 1.184631237e-38
-0.1934879273 -0.3745703697 -0.1164943725 1.184631237e-38
-0.1380798519 -0.4745348692 0.1685604155 1.184631237e-38
0.02779408917 -0.4806931615 -0.001683523878 1.184631237e-38
0.1729035527 -0.3632079959 -0.1626342833 1.184631237e-38
-0.1844352186 -0.3314710259 0.1380816996 1.184631237e-38
-0.1436554044 -0.2650060356 -0.1456715614 1.184631237e-38
0.05412805453 -0.4386428595 0.2283612788 1.184631237e-38
0.1329829097 -0.2737750113 0.1973900944 1.184631237e-38
0.264521122 -0.4554170966 -0.192280218 1.184631237e-38
0.05694719031 -0.2719151378 -0.268271327 1.184631237e-38
-0.01348608546 -0.2764294744 -0.2592314482 1.184631237e-38
0.2629139423 -0.388448 0.06627373397 1.184631237e-38
0.1679214388 -0.397690177 0.2089004815 1.184631237e-38
-0.1949108839 -0.3755159974 0.006763866171 1.184631237e-38
-0.1462816596 -0.4580897987 -0.193535015 1.184631237e-38
0.1428106278 -0.368691802 0.2207427472 1.184631237e-38
0.03004774079 -0.2521452904 -0.2607021034 1.184631237e-38
-0.05046525225 -0.4222177267 0.2170799822 1.184631237e-38
-0.1864971966 -0.2920158207 -0.06740048528 1.184631237e-38
-0.1915638298 -0.3184025884 -0.04633846506 1.184631237e-38
0.07486872375 -0.2540567517 0.1916075051 1.184631237e-38
-0.2004817873 -0.3975668252 0.0633450374 1.184631237e-38
0.2830875814 -0.4799119234 -0.1200722903 1.184631237e-38
-0.1645220369 -0.2580370307 -0.09128379822 1.184631237e-38
0.0168224927 -0.3447394669 0.2177657187 1.184631237e-38
0.02781481668 -0.2768438458 0.207136035 1.184631237e-38
0.1681454331 -0.3407074809 -0.009913567454 1.184631237e-38
0.1055238098 -0.4828879535 -0.09407824278 1.184631237e-38
0.1118031442 -0.3419234455 -0.2659792602 1.184631237e-38
0.1946124882 -0.3123282194 -0.230025053 1.184631237e-38
0.2163346559 -0.3600012064 -0.2601011693 1.184631237e-38
0.202872932 -0.3779069483 -0.1659062058 1.184631237e-38
0.247987166 -0.4000318348 -0.173787415 1.184631237e-38
0.1801926196 -0.3155909181 0.07502192259 1.184631237e-38
0.2838306725 -0.4255697727 0.100722 1.184631237e-38
0.1161850989 -0.3132399917 -0.2664416432 1.184631237e-38
0.1280380934 -0.3300542533 -0.1956361085 1.184631237e-38
0.1786774099 -0.4497686625 0.1982847899 1.184631237e-38
-0.01000679005 -0.2481679618 -0.247128427 1.184631237e-38
0.1259398162 -0.3174062967 0.01300537493 1.184631237e-38
0.02948696166 -0.483877182 -0.1509713382 1.184631237e-38
0.1109484881 -0.3438559771 -0.03628642857 1.184631237e-38
0.2057927996 -0.2769451141 -0.2563470006 1.184631237e-38
0.05094531551 -0.48319152 -0.1182610393 1.184631237e-38
-0.119067058 -0.2644574642 -0.1738534123 1.184631237e-38
-0.1011484563 -0.4820146263 -0.07868555188 1.184631237e-38
0.1575645953 -0.2728154063 0.1308750063 1.184631237e-38
0.1047091931 -0.3357837498 -0.1964587867 1.184631237e-38
0.12413688 -0.2497290969 0.1731891483 1.184631237e-38
-0.1544365734 -0.3022549748 -0.1770051271 1.184631237e-38
-0.01556027401 -0.2701152563 -0.2575726807 1.184631237e-38
0.06737653911 -0.2376757562 0.1698723286 1.184631237e-38
0.09358391166 -0.2379462868 0.1682711542 1.184631237e-38
-0.1444803029 -0.3512021303 -0.2143949866 1.184631237e-38
-0.1990370452 -0.4250120819 -0.00559335202 1.184631237e-38
0.2247074693 -0.479845047 0.1127026379 1.184631237e-38
0.08199773729 -0.2431987524 -0.2548901737 1.184631237e-38
-0.1700725704 -0.2902903557 -0.142026782 1.184631237e-38
0.1502657235 -0.2913801372 0.1988639235 1.184631237e-38
0.1483528465 -0.3032228351 -0.26422894 1.184631237e-38
0.1107060164 -0.4467228055 0.2224755436 1.184631237e-38
0.1123007089 -0.3246810734 -0.2657430768 1.184631237e-38
-0.0001034745947 -0.3317981064 -0.1816950589 1.184631237e-38
0.2387956828 -0.3818086684 -0.00156985037 1.184631237e-38
-0.0810623616 -0.2626961768 -0.2132969797 1.184631237e-38
-0.2024192661 -0.2606244683 0.02675618418 1.184631237e-38
