# .PCD v0.7 - Point Cloud Data file format
VERSION 0.7
FIELDS x y z rgb
SIZE 4 4 4 4
TYPE F F F F
COUNT 1 1 1 1
WIDTH 832
HEIGHT 1
VIEWPOINT 0 0 0 1 0 0 0
POINTS 832
DATA ascii
0.006465435028 -0.3902022839 -0.01682085171 5.820783626e-39
-0.2188311219 -0.3741902113 0.1248160154 5.820783626e-39
0.07686468959 -0.3913561106 -0.07252499461 5.820783626e-39
0.02879143506 -0.4624450803 0.1379492134 5.820783626e-39
-0.08562920243 -0.4656329751 0.02660270408 5.820783626e-39
0.09676885605 -0.3871378303 0.002416691743 5.820783626e-39
-0.1191770062 -0.4638995826 0.2910034657 5.820783626e-39
-0.2203230262 -0.455712229 -0.09584214538 5.820783626e-39
0.02921224013 -0.4680193365 -0.1015169248 5.820783626e-39
0.1587656885 -0.4584189951 0.2688374519 5.820783626e-39
0.07935902476 -0.4632626176 0.1488592923 5.820783626e-39
0.1864138991 -0.3707216084 0.2832888067 5.820783626e-39
0.0295789931 -0.466201216 0.1866109967 5.820783626e-39
0.104715392 -0.4611791372 0.1402886659 5.820783626e-39
-0.1397612393 -0.452459991 0.1254833788 5.820783626e-39
-0.1878383607 -0.4615083039 0.2620161772 5.820783626e-39
0.05435951799 -0.4615186155 0.002620823681 5.820783626e-39
0.1143051237 -0.4664078951 -0.0865175277 5.820783626e-39
-0.008586348966 -0.4606784284 0.1280979961 5.820783626e-39
0.2040070146 -0.3891026378 -0.07116854936 5.820783626e-39
0.005799660459 -0.4633837342 0.2318272442 5.820783626e-39
0.01118630264 -0.3900547922 -0.02085124515 5.820783626e-39
0.225009501 -0.3734512925 0.1476007253 5.820783626e-39
-0.09017596394 -0.3877146244 -0.03936695307 6.490113838e-41
-0.2495315671 -0.3816920519 0.1227641702 6.490113838e-41
0.0290351063 -0.3881968558 -0.09900307655 6.490113838e-41
-0.1378847957 -0.4653810859 0.04782231897 6.490113838e-41
0.2064661682 -0.3716772795 0.2411808521 6.490113838e-41
-0.1201466396 -0.4636941254 0.2929857075 6.490113838e-41
0.1980177313 -0.4642117918 -0.07737607509 6.490113838e-41
-0.002873068675 -0.3727318048 0.1861684024 6.490113838e-41
-0.004444878548 -0.3883654177 0.0524006784 6.490113838e-41
0.1649322212 -0.4666202962 0.03269863129 6.490113838e-41
0.2045129985 -0.4551462829 -0.005786534399 6.490113838e-41
-0.121628888 -0.4586631954 -0.01829704829 6.490113838e-41
-0.1928807646 -0.3764855862 0.1278615147 6.490113838e-41
0.1162614822 -0.461192131 0.2612828314 6.490113838e-41
-0.007400268689 -0.3887104988 0.1038369909 6.490113838e-41
-0.04462070763 -0.391285032 -0.0348668918 6.490113838e-41
0.2078510076 -0.4689935148 0.06726870686 6.490113838e-41
-0.03771662712 -0.3902055621 0.07804664224 6.490113838e-41
-0.1849033684 -0.4629731178 0.06370145082 6.490113838e-41
-0.02015973441 -0.4611962438 -0.01050180383 6.490113838e-41
-0.1147782579 -0.4632293284 0.1687679738 6.490113838e-41
0.03426326439 -0.3890950382 -0.076404199 6.490113838e-41
-0.1071895882 -0.3751816452 -0.1593774855 6.490113838e-41
-0.1931511909 -0.4576374292 0.01762153953 6.490113838e-41
0.08321484923 -0.375282526 0.2497846931 6.490113838e-41
-0.0265922118 -0.4659790397 0.1956562996 6.490113838e-41
-0.2056971639 -0.448266834 0.135642603 6.490113838e-41
0.1895598173 -0.4574488997 0.2164429724 6.490113838e-41
0.09043034166 -0.4656072259 0.113181904 6.490113838e-41
0.1836498827 -0.4641714692 -0.07428313047 6.490113838e-41
-0.07421405613 -0.4641578794 -0.03411710262 6.490113838e-41
-0.1895413846 -0.4567683339 -0.03401841223 6.490113838e-41
0.09865275025 -0.3743933141 0.2570951879 6.490113838e-41
0.04057230055 -0.3846197128 -0.1172366887 6.490113838e-41
-0.09458100796 -0.4656803608 0.2669852376 6.490113838e-41
0.1871599853 -0.4209471345 0.299043566 6.490113838e-41
-0.1221205965 -0.3620924056 -0.1286306679 6.490113838e-41
-0.03807576746 -0.368314147 0.1597292274 6.490113838e-41
-0.1654263735 -0.3593532443 -0.115566954 6.490113838e-41
-0.1974973083 -0.4581252933 -0.120766595 6.490113838e-41
-0.09168720245 -0.4612503052 -0.02254674025 6.490113838e-41
0.09422635287 -0.4610500932 0.1307328045 6.490113838e-41
-0.1254820973 -0.3908135891 0.008292663842 6.490113838e-41
0.2066430449 -0.4461512268 0.2475343049 6.490113838e-41
-0.1961978674 -0.4599977136 0.2492749393 6.490113838e-41
-0.1080199704 -0.3716463447 0.1700234115 6.490113838e-41
-0.07805605978 -0.4695512354 0.09143815935 6.490113838e-41
-0.1765608341 -0.4596908689 -0.09528934956 6.490113838e-41
-0.2270035744 -0.4537934065 -0.03122642078 6.490113838e-41
0.2352666706 -0.3962184191 0.1174453124 6.490113838e-41
-0.1845978945 -0.3775220513 0.1084946468 6.490113838e-41
0.1491782069 -0.3685319126 0.1771957725 6.490113838e-41
-0.1244589463 -0.4657394588 0.2443691045 6.490113838e-41
-0.0174999889 -0.3772670925 0.1287906766 6.490113838e-41
0.02329684608 -0.4652265608 0.1487252861 6.490113838e-41
0.1121475697 -0.461060375 0.2684890032 6.490113838e-41
-0.132290259 -0.4553228021 0.1366089731 6.490113838e-41
-0.1049279943 -0.4656739831 0.1879177988 6.490113838e-41
-0.2296854258 -0.3724526167 -0.05012394488 6.490113838e-41
-0.1505524218 -0.3764569163 0.1200304627 6.490113838e-41
-0.0217889715 -0.390720129 0.07351110876 6.490113838e-41
-0.1279754192 -0.3839150667 -0.04388230294 6.490113838e-41
-0.0767569989 -0.4607221186 0.1126681492 6.490113838e-41
0.08762186021 -0.4587734342 0.2900393307 6.490113838e-41
-0.1014937088 -0.3753869236 -0.09852672368 6.490113838e-41
0.1922168136 -0.4564407766 0.2447010279 6.490113838e-41
0.06980577856 -0.4681584537 0.04616924375 6.490113838e-41
0.204314664 -0.3644823134 0.1548082381 6.490113838e-41
0.002321053296 -0.469401896 0.07278873026 6.490113838e-41
0.1245410964 -0.3708765209 0.3217928112 6.490113838e-41
0.07428187877 -0.4631905258 0.2385340482 6.490113838e-41
-0.1201154366 -0.3854260147 -0.03630847484 6.490113838e-41
-0.1570457518 -0.4596280158 0.01507443003 6.490113838e-41
-0.14753066 -0.4582188427 -0.02447379939 6.490113838e-41
0.1144423261 -0.3908574581 -0.07437906414 6.490113838e-41
0.01264249906 -0.4219222069 0.3544683754 6.490113838e-41
0.008931394666 -0.4633136094 0.2321823388 6.490113838e-41
-0.1149729416 -0.4624696374 0.01596231014 6.490113838e-41
-0.1011854932 -0.390393734 0.3000525236 6.490113838e-41
0.1350278556 -0.3772923946 0.0841954723 6.490113838e-41
0.02230316959 -0.3894692659 0.006395155098 6.490113838e-41
-0.05379255116 -0.4648068547 0.2473294884 6.490113838e-41
-0.01757532544 -0.4624190331 0.2712973952 6.490113838e-41
-0.2127720267 -0.3779655397 0.2218325883 6.490113838e-41
0.187403053 -0.4011950195 0.2952037752 6.490113838e-41
-0.2198109478 -0.3757928312 0.1866776943 6.490113838e-41
-0.2443752587 -0.4587009251 0.09343969077 6.490113838e-41
-0.09502381831 -0.3761535883 -0.09993294626 6.490113838e-41
0.09762009978 -0.4609201252 0.2738957405 6.490113838e-41
0.1384013444 -0.4647600055 0.118660368 6.490113838e-41
-0.2068553716 -0.4485960603 0.1463132352 6.490113838e-41
0.224989295 -0.4232669473 -0.0564699471 6.490113838e-41
-0.1613668501 -0.3689951301 0.2344547063 6.490113838e-41
-0.1642084569 -0.375379771 -0.145570159 6.490113838e-41
-0.04152522981 -0.4633285999 0.1102207005 6.490113838e-41
-0.1571488082 -0.3777766824 -0.06384881586 6.490113838e-41
-0.09372028708 -0.4639536738 -0.1200682074 6.490113838e-41
-0.1302849203 -0.3687277138 0.1929563433 6.490113838e-41
0.05354699492 -0.3735324144 0.2639300227 6.490113838e-41
0.04949188977 -0.3866181374 0.3389224708 6.490113838e-41
-0.0662311241 -0.3752552867 -0.1123594344 6.490113838e-41
0.2140186429 -0.399592042 -0.08635284752 6.490113838e-41
0.2146698385 -0.4635135829 0.02952653356 6.490113838e-41
0.1273134798 -0.3729736805 0.1982274801 6.490113838e-41
-0.1019615754 -0.3631752431 -0.1321268529 6.490113838e-41
-0.1844279915 -0.4615665972 0.2341067791 6.490113838e-41
0.09720593691 -0.3909504414 -0.07926310599 6.490113838e-41
0.1573349833 -0.3676910102 0.2965083122 6.490113838e-41
-0.06901133806 -0.3712376654 -0.157317847 6.490113838e-41
0.2120060027 -0.3704920411 0.2110705674 6.490113838e-41
0.2188133597 -0.4241743386 -0.09461785108 6.490113838e-41
0.2081047297 -0.3897079825 -0.07770135254 6.490113838e-41
0.1857140362 -0.4599185288 -0.02692092396 6.490113838e-41
-0.003367349505 -0.4257420003 0.3512565494 6.490113838e-41
0.1411142796 -0.4599793851 0.1542379856 6.490113838e-41
-0.1993638873 -0.4563295841 -0.03673310578 6.490113838e-41
0.03035395965 -0.4673449397 -0.04440505058 6.490113838e-41
-0.2299484015 -0.453532964 -0.03089001589 6.490113838e-41
-0.1995087862 -0.4546482563 -0.02513122372 6.490113838e-41
-0.144382 -0.3666852713 -0.1394243389 6.490113838e-41
-0.05127712339 -0.4085924327 -0.1817314774 6.490113838e-41
0.2188117653 -0.4533421695 -0.07533089817 6.490113838e-41
0.03675419092 -0.3955304623 0.3487616181 6.490113838e-41
-0.1649195403 -0.3654139042 -0.1293570548 6.490113838e-41
0.1932495534 -0.4561779797 0.2454674542 6.490113838e-41
-0.1326326728 -0.3815165758 -0.05691808462 6.490113838e-41
0.1218549609 -0.4655121267 0.1143062413 6.490113838e-41
-0.2178097367 -0.4466234148 0.1323978156 6.490113838e-41
0.236353159 -0.4450123906 0.05110058188 6.490113838e-41
0.2293907106 -0.4580968022 0.0844886899 6.490113838e-41
-0.03713037819 -0.3906247616 -0.005202798173 6.490113838e-41
0.1309124678 -0.373593688 0.2251055241 6.490113838e-41
-0.1768531203 -0.4571668804 0.002011215314 6.490113838e-41
0.09702450037 -0.4617959857 0.2662335634 6.490113838e-41
-0.1436934322 -0.3640235662 0.2204344273 6.490113838e-41
-0.21333538 -0.4513538182 0.1824063361 6.490113838e-41
0.2306233048 -0.4612873495 0.06177926809 6.490113838e-41
0.03512018546 -0.3835208416 -0.1407006383 6.490113838e-41
0.03041212074 -0.370059073 0.2821111381 6.490113838e-41
-0.1227363721 -0.3677737713 0.2494580746 6.490113838e-41
-0.1062856838 -0.4635592699 0.01948857494 6.490113838e-41
-0.2078039199 -0.4528753757 -0.01745983586 6.490113838e-41
-0.2678064704 -0.3875209689 0.06079063565 6.490113838e-41
-0.1646567434 -0.464258194 0.2475727499 6.490113838e-41
-0.07851731777 -0.4629665613 -0.02845281176 6.490113838e-41
0.06892096251 -0.3716384768 0.2848422527 6.490113838e-41
-0.2282434702 -0.4555242956 0.0202983804 6.490113838e-41
-0.2339836657 -0.4510278404 -0.02042214014 6.490113838e-41
-0.1987338811 -0.4555206001 0.1973875165 6.490113838e-41
-0.04356409609 -0.3913795948 -0.03893192112 6.490113838e-41
-0.1934382468 -0.4521776438 0.1572471112 6.490113838e-41
-0.08503717929 -0.4677279294 0.09966215491 6.490113838e-41
0.2069548368 -0.3942296207 -0.09717060626 6.490113838e-41
0.2230300158 -0.4019448757 -0.02410437725 6.490113838e-41
-0.2001246661 -0.3731622696 -0.0628919974 6.490113838e-41
0.1213120446 -0.3867874742 -0.1132953689 6.490113838e-41
0.2155977339 -0.4284827411 0.2398651838 6.490113838e-41
0.1872377992 -0.3742610812 0.07724627107 6.490113838e-41
-0.2307623029 -0.3702389002 -0.07094854116 6.490113838e-41
0.02838521823 -0.466157198 0.1066205949 6.490113838e-41
-0.1258966178 -0.4659988582 0.230946511 6.490113838e-41
0.1132465452 -0.4623219967 0.197654888 6.490113838e-41
-0.01658394374 -0.3709518313 0.1740699112 6.490113838e-41
-0.1727544516 -0.3730953932 0.1548073739 6.490113838e-41
-0.1903770715 -0.461350143 0.04636641592 6.490113838e-41
0.1977111399 -0.4491717815 0.2706766427 6.490113838e-41
0.2151798904 -0.4665271342 0.03574926034 6.490113838e-41
0.02840083092 -0.4695584178 -0.07519376278 6.490113838e-41
0.1760643423 -0.3993611932 0.3088428676 6.490113838e-41
0.1133497059 -0.4606841803 0.1390096396 6.490113838e-41
-0.2055344582 -0.4595630765 0.04235085845 6.490113838e-41
-0.1943949014 -0.4589418173 0.02892573923 6.490113838e-41
-0.06693015993 -0.3706755042 0.1540452987 6.490113838e-41
-0.01788130961 -0.4658155739 0.1971622407 6.490113838e-41
0.01989984512 -0.3809211552 0.3277598321 6.490113838e-41
-0.01452387683 -0.4683879614 -0.07016573101 6.490113838e-41
0.0499275215 -0.3885470033 0.02082352526 6.490113838e-41
0.07653045654 -0.3740209937 0.2620293796 6.490113838e-41
-0.04285482317 -0.4657714665 0.2004558146 6.490113838e-41
0.08912283182 -0.4671775103 0.09744606167 6.490113838e-41
0.05391462892 -0.3763231039 0.2272132188 6.490113838e-41
-0.02401907183 -0.3911496401 -0.02539499663 6.490113838e-41
-0.003384290263 -0.4687484503 0.05772650242 6.490113838e-41
0.08196102828 -0.4632389545 0.0127921449 6.490113838e-41
-0.1874244958 -0.3847654462 0.01824717037 6.490113838e-41
-0.08310239017 -0.4661126435 0.02942345105 6.490113838e-41
-0.1539640427 -0.4593125284 -0.03521923721 6.490113838e-41
-0.05919569731 -0.4656853676 0.2004171461 6.490113838e-41
0.04692985862 -0.3936081529 -0.02929515205 6.490113838e-41
-0.04311209172 -0.3729236722 0.1339411288 6.490113838e-41
0.1765294075 -0.3731835186 0.06565395743 6.490113838e-41
-0.2467971444 -0.4578264356 0.04961980879 6.490113838e-41
-0.01912012137 -0.4633590579 0.1157181188 6.490113838e-41
-0.1974598467 -0.4593409896 0.2354767323 6.490113838e-41
0.155343309 -0.3702954352 0.05963098258 6.490113838e-41
-0.2242999673 -0.4595958292 0.05409964919 6.490113838e-41
0.04569990188 -0.4590638578 0.2930508256 6.490113838e-41
-0.1488853097 -0.4576187134 0.1526887566 6.490113838e-41
-0.07459183782 -0.4661056399 0.1751745492 6.490113838e-41
0.237972185 -0.4083518684 0.08962438256 6.490113838e-41
0.2065029442 -0.4396265745 0.2571384907 6.490113838e-41
0.145716235 -0.3875574172 -0.085925892 6.490113838e-41
0.1180872694 -0.3686333299 0.1390617639 6.490113838e-41
-0.01262343861 -0.4635654986 0.2359226644 6.490113838e-41
-0.09204050153 -0.4555781782 0.127171576 6.490113838e-41
0.2274502814 -0.4664138258 0.07168978453 6.490113838e-41
-0.2574344277 -0.4528945088 0.01585453376 6.490113838e-41
-0.1957001686 -0.3635768592 -0.09021039307 6.490113838e-41
0.1010468081 -0.3722445965 0.2784383595 6.490113838e-41
-0.1673850417 -0.3859859705 -0.01941514015 6.490113838e-41
0.04342763871 -0.4628740847 0.2355818748 6.490113838e-41
0.209888801 -0.4588441253 -0.1135504022 6.490113838e-41
0.2009346634 -0.4616978765 -0.05258367956 6.490113838e-41
-0.1046463773 -0.3762727082 -0.09549824148 6.490113838e-41
-0.04248578846 -0.4664954841 0.02244682796 6.490113838e-41
-0.08312342316 -0.4658478498 0.2005829364 6.490113838e-41
0.03278521821 -0.4652385116 0.2000970989 6.490113838e-41
0.1052229404 -0.3844711185 0.00569881266 6.490113838e-41
0.005733812228 -0.4628207684 0.2472086996 6.490113838e-41
0.04917474836 -0.4605559111 0.2787924111 6.490113838e-41
-0.2139188796 -0.4474520087 0.1219629198 6.490113838e-41
0.1571284682 -0.4595615566 0.2356761396 6.490113838e-41
-0.01110874675 -0.4665546715 -0.1096587628 6.490113838e-41
0.06572756916 -0.3885136247 -0.09093227237 6.490113838e-41
-0.2175770998 -0.4591390491 0.1002130359 6.490113838e-41
0.03581174091 -0.4592354298 0.2969525158 6.490113838e-41
0.1467346996 -0.4585310519 0.2779104412 6.490113838e-41
-0.003989929333 -0.3766823113 0.1318677515 6.490113838e-41
0.1425140798 -0.3656333089 0.3138477504 6.490113838e-41
0.0131241614 -0.3896374106 0.06000330299 6.490113838e-41
0.009504688904 -0.4607827961 0.2878139019 6.490113838e-41
0.01862102561 -0.4682384729 -0.09461148828 6.490113838e-41
0.1904695779 -0.4644133747 0.1183678433 6.490113838e-41
0.006465435028 -0.3902022839 -0.01682085171 6.490113838e-41
-0.2188311219 -0.3741902113 0.1248160154 6.490113838e-41
0.07686468959 -0.3913561106 -0.07252499461 6.490113838e-41
0.02879143506 -0.4624450803 0.1379492134 6.490113838e-41
-0.08562920243 -0.4656329751 0.02660270408 6.490113838e-41
0.09676885605 -0.3871378303 0.002416691743 6.490113838e-41
-0.1191770062 -0.4638995826 0.2910034657 6.490113838e-41
-0.2203230262 -0.455712229 -0.09584214538 6.490113838e-41
0.02921224013 -0.4680193365 -0.1015169248 6.490113838e-41
0.1587656885 -0.4584189951 0.2688374519 6.490113838e-41
0.07935902476 -0.4632626176 0.1488592923 6.490113838e-41
0.1864138991 -0.3707216084 0.2832888067 6.490113838e-41
0.0295789931 -0.466201216 0.1866109967 6.490113838e-41
0.104715392 -0.4611791372 0.1402886659 6.490113838e-41
-0.1397612393 -0.452459991 0.1254833788 6.490113838e-41
-0.1878383607 -0.4615083039 0.2620161772 6.490113838e-41
0.05435951799 -0.4615186155 0.002620823681 6.490113838e-41
0.1143051237 -0.4664078951 -0.0865175277 6.490113838e-41
-0.008586348966 -0.4606784284 0.1280979961 6.490113838e-41
0.2040070146 -0.3891026378 -0.07116854936 6.490113838e-41
0.005799660459 -0.4633837342 0.2318272442 6.490113838e-41
0.01118630264 -0.3900547922 -0.02085124515 6.490113838e-41
0.225009501 -0.3734512925 0.1476007253 6.490113838e-41
-0.1489690691 -0.4206819236 -0.2180084288 5.962428276e-39
-0.3038653135 -0.4732014239 -0.01077757962 5.962428276e-39
-0.008489897475 -0.4323539734 -0.2574902177 5.962428276e-39
0.1690814793 -0.4534541667 -0.00616613403 5.962428276e-39
-0.08556351066 -0.3995029926 0.3103458285 5.962428276e-39
0.08644713461 -0.4742273986 0.3091830313 5.962428276e-39
0.06572344154 -0.3565712273 -0.2230845839 5.962428276e-39
-0.2874776721 -0.3786426187 0.1405033022 5.962428276e-39
-0.2329085469 -0.3732507825 -0.1304642707 5.962428276e-39
0.00722135976 -0.3615527749 -0.03606165946 5.962428276e-39
-0.004274532199 -0.3675244451 -0.1305904835 5.962428276e-39
0.1939599663 -0.4685008824 -0.1155513227 5.962428276e-39
-0.306411773 -0.4403963387 0.0005530947819 5.962428276e-39
0.06470385939 -0.3969886303 0.3379157782 5.962428276e-39
-0.2905986905 -0.3725888431 -0.02200731821 5.962428276e-39
-0.1255963147 -0.4088379741 -0.2179565728 5.962428276e-39
-0.06142917275 -0.3650961816 0.02715296485 5.962428276e-39
-0.2778239548 -0.3739070892 -0.08684065938 5.962428276e-39
0.05647761747 -0.4475339651 0.03363969177 5.962428276e-39
0.2556456029 -0.3727428317 -0.1210563332 5.962428276e-39
0.1324245483 -0.4463171065 0.183680445 5.962428276e-39
-0.03268214315 -0.4178769588 -0.2514081597 5.962428276e-39
-0.06085561961 -0.4879549444 -0.251339823 5.962428276e-39
0.0575998053 -0.4532189667 -0.04475890845 5.962428276e-39
-0.1833826452 -0.3919956982 0.2674013972 5.962428276e-39
0.25512591 -0.3834754229 0.2265834808 5.962428276e-39
-0.04061802477 -0.4079712629 0.1332101673 5.962428276e-39
-0.006589854136 -0.3788625002 0.3048273325 5.962428276e-39
0.1340392828 -0.3579600453 0.1332610995 5.962428276e-39
0.06982921809 -0.3552573025 -0.2174971998 5.962428276e-39
0.2292786688 -0.4533916116 -0.1466186196 5.962428276e-39
0.06703861058 -0.4746789038 -0.1272280067 5.962428276e-39
-0.1548767835 -0.3970703483 0.28614223 5.962428276e-39
0.02060221881 -0.4410586953 -0.2637007236 5.962428276e-39
0.1389900297 -0.4770802557 0.2922240794 5.962428276e-39
0.04783438891 -0.4344773889 0.3697885871 5.962428276e-39
-0.08280004561 -0.4730456173 -0.2448818833 5.962428276e-39
-0.3022718132 -0.3793759942 0.0842019096 5.962428276e-39
-0.1225839034 -0.4726359844 -0.2383229882 5.962428276e-39
0.03391408548 -0.4899455309 -0.2112832367 5.962428276e-39
0.2284809947 -0.4607682228 -0.1285246909 5.962428276e-39
0.1163134053 -0.3522460461 0.1770132482 5.962428276e-39
-0.2388173342 -0.4100073874 -0.1738665104 5.962428276e-39
-0.01464430802 -0.3988395929 0.331396699 5.962428276e-39
-0.04116027057 -0.4402647614 0.249429062 5.962428276e-39
-0.3037824035 -0.4057281911 0.08047497272 5.962428276e-39
0.2586902678 -0.4349337816 0.0520754382 5.962428276e-39
0.0617505163 -0.4868708849 -0.1892028898 5.962428276e-39
0.002645639703 -0.4667555988 -0.1142504662 5.962428276e-39
-0.1819974333 -0.3494232297 0.1159335896 5.962428276e-39
-0.3054749072 -0.4315640926 -0.02472370304 5.962428276e-39
-0.2276289165 -0.3674393296 0.1977831423 5.962428276e-39
0.08364519477 -0.4645811617 0.2646849453 5.962428276e-39
-0.2990033627 -0.3765639663 0.02694076672 5.962428276e-39
0.2373566777 -0.348253876 0.1832821369 5.962428276e-39
0.06888860464 -0.400976181 0.3430954218 5.962428276e-39
0.1093722954 -0.4290552139 0.1380676329 5.962428276e-39
0.1507092118 -0.4543366134 0.2131350338 5.962428276e-39
-0.2460648119 -0.4539088011 -0.1885764003 5.962428276e-39
-0.3069727123 -0.4146776795 -0.005566289648 5.962428276e-39
-0.2669920325 -0.3722240925 -0.09916939586 5.962428276e-39
-0.1719252169 -0.4291836023 -0.2157393992 5.962428276e-39
0.2448611408 -0.4362295568 0.1014010683 5.962428276e-39
0.1072470695 -0.4074924588 0.3549590409 5.962428276e-39
-0.09169168025 -0.4499040544 -0.2419769913 5.962428276e-39
0.0006244722754 -0.3944117427 0.3307097852 5.962428276e-39
0.1482881904 -0.3437416553 -0.02099375241 5.962428276e-39
-0.1980877817 -0.3612353206 0.1897515506 5.962428276e-39
0.2755948603 -0.3454542756 0.01854903437 5.962428276e-39
0.001689309254 -0.4574067891 0.3646424413 5.962428276e-39
0.1143814027 -0.3739205599 0.3124454319 5.962428276e-39
-0.1752829701 -0.4248817563 -0.2114800215 5.962428276e-39
0.1306201816 -0.4544300437 -0.05631390959 5.962428276e-39
0.1424842477 -0.472630471 -0.1215318441 5.962428276e-39
0.0009053070098 -0.3972483277 -0.2488194555 5.962428276e-39
-0.1323825568 -0.4667310715 0.3319362104 5.962428276e-39
0.218475759 -0.3595420718 0.2831626832 5.962428276e-39
0.2189121395 -0.4534027576 -0.06659398228 5.962428276e-39
-0.2339677513 -0.4643734694 0.2461538613 5.962428276e-39
-0.237513423 -0.3597337306 -0.0009624222293 5.962428276e-39
-0.1463894844 -0.3772090673 -0.1851174235 5.962428276e-39
0.2208885998 -0.4446063042 0.2808404863 5.962428276e-39
0.2089822441 -0.3893483579 0.3031333685 5.962428276e-39
-0.2932631075 -0.4764249027 0.1258279234 5.962428276e-39
0.02859417349 -0.4353962541 0.3646400571 5.962428276e-39
-0.3000934422 -0.4703909159 0.08139146864 5.962428276e-39
-0.08247742057 -0.4265778065 0.07998928428 5.962428276e-39
-0.08648259938 -0.4493035972 -0.2428067476 5.962428276e-39
0.08633480221 -0.4016291499 0.3448953927 5.962428276e-39
0.04530166835 -0.3572560549 0.1511473507 5.962428276e-39
-0.04501622915 -0.4105143547 0.1496639997 5.962428276e-39
0.0004326291382 -0.353707701 -0.2101411074 5.962428276e-39
-0.282774657 -0.4523189664 0.1552292109 5.962428276e-39
-0.1131556407 -0.487919867 -0.2429429144 5.962428276e-39
0.2788582742 -0.3911958933 0.09606620669 5.962428276e-39
-0.1712299883 -0.4420406818 -0.2241808474 5.962428276e-39
0.1504482627 -0.4862576425 -0.2281904519 5.962428276e-39
-0.2978499532 -0.4212996364 0.1089209467 5.962428276e-39
-0.183573693 -0.3977859318 0.2726977468 5.962428276e-39
-0.06442890316 -0.4621317387 0.3458732367 5.962428276e-39
-0.05929515511 -0.4495999217 -0.2470697016 5.962428276e-39
0.03528026491 -0.3754285574 -0.243441239 5.962428276e-39
-0.04638120532 -0.3650100827 -0.05031054467 5.962428276e-39
-0.2210761458 -0.3740797043 0.2180169225 5.962428276e-39
-0.06642239541 -0.4699691236 -0.2478372604 5.962428276e-39
-0.02637818269 -0.4382281303 0.2340966016 5.962428276e-39
0.00239738822 -0.4040285349 -0.2544629276 5.962428276e-39
-0.01779418997 -0.4370138645 0.3512149155 5.962428276e-39
-0.03115021996 -0.4784118533 -0.2544727921 5.962428276e-39
-0.1317410171 -0.3867886662 0.2802253664 5.962428276e-39
0.05723581463 -0.371048063 -0.2478686124 5.962428276e-39
0.02090324089 -0.3745979667 -0.2379801571 5.962428276e-39
0.03411788121 -0.3636997342 -0.1661570668 5.962428276e-39
-0.1552828252 -0.4669082463 0.3226211667 5.962428276e-39
0.02622749843 -0.3513815701 0.2301625758 5.962428276e-39
0.04968132824 -0.4740106761 -0.1280079782 5.962428276e-39
0.2184214741 -0.3717629313 -0.1764078438 5.962428276e-39
-0.002457739785 -0.4660679102 -0.1129870564 5.962428276e-39
0.05278452486 -0.4690110683 -0.1125307605 5.962428276e-39
-0.09545329213 -0.48362872 -0.2446275204 5.962428276e-39
-0.02293612994 -0.5032403469 -0.2611216009 5.962428276e-39
0.04617203772 -0.3567065299 -0.2255482972 5.962428276e-39
-0.08581294119 -0.4662882388 0.3422337174 5.962428276e-39
-0.1170881316 -0.4807152152 -0.2403956205 5.962428276e-39
0.0003255140036 -0.394882381 0.3312996328 5.962428276e-39
-0.1589724123 -0.435949564 -0.2244257778 5.962428276e-39
0.07812789083 -0.358345747 0.1411836743 5.962428276e-39
-0.05882836133 -0.4035253525 0.1262293905 5.962428276e-39
-0.110516496 -0.3630396426 -0.004652649164 5.962428276e-39
-0.1061282977 -0.3641867042 0.05251479894 5.962428276e-39
-0.1566896886 -0.3966239393 -0.1965455413 5.962428276e-39
-0.1834612936 -0.385212034 0.2567442358 5.962428276e-39
0.09118708223 -0.457336992 -0.07273421437 5.962428276e-39
0.08505502343 -0.3969804049 0.3389198184 5.962428276e-39
-0.287696898 -0.4359386563 0.1423232853 5.962428276e-39
-0.06695955247 -0.4156141281 0.1775294095 5.962428276e-39
-0.09588973969 -0.3638886809 0.01539187972 5.962428276e-39
0.03826358914 -0.4559696019 -0.2678525448 5.962428276e-39
-0.1675862521 -0.4136905372 0.2860338688 5.962428276e-39
-0.2709195912 -0.439955622 0.1824859232 5.962428276e-39
0.2316558063 -0.4456895292 -0.06276656687 5.962428276e-39
0.03761193901 -0.4627598822 -0.09610534459 5.962428276e-39
-0.2973340154 -0.4836266935 -0.06867544353 5.962428276e-39
0.005138386041 -0.4487987459 0.2515520751 5.962428276e-39
0.2302493602 -0.4531651437 -0.139252007 5.962428276e-39
-0.1232888773 -0.4178025126 0.3074332774 5.962428276e-39
-0.01513311453 -0.4495748281 -0.03345255554 5.962428276e-39
-0.01127662696 -0.4582531452 -0.09223236889 5.962428276e-39
-0.04754599929 -0.4232058525 0.1934808791 5.962428276e-39
-0.1206723377 -0.4102594554 -0.2207324505 5.962428276e-39
-0.02693179809 -0.4164287448 0.1636444181 5.962428276e-39
0.2465201914 -0.4426301718 0.06637687981 5.962428276e-39
0.04787541926 -0.3837818503 -0.2540734708 5.962428276e-39
-0.05068533868 -0.3564934134 -0.1772848666 5.962428276e-39
-0.2145559639 -0.4457941949 -0.2103319913 5.962428276e-39
0.05477995798 -0.4176086783 -0.2685054243 5.962428276e-39
-0.04055353254 -0.3986397386 0.3219032586 5.962428276e-39
-0.2081020474 -0.3542770445 0.004938188009 5.962428276e-39
-0.2341344357 -0.460793227 -0.2022047341 5.962428276e-39
0.2466846555 -0.3498696685 0.1003819183 5.962428276e-39
0.08375433087 -0.460265249 0.2516672611 5.962428276e-39
0.06475683302 -0.3580328226 0.2852461934 5.962428276e-39
-0.2950858772 -0.37801373 0.1159579754 5.962428276e-39
-0.3081583679 -0.4341932237 0.03919108212 5.962428276e-39
0.05669882149 -0.4496605694 0.005550717935 5.962428276e-39
0.01825514995 -0.4069794416 0.3503766954 5.962428276e-39
-0.05738827586 -0.3628122807 -0.02565722726 5.962428276e-39
0.2104826272 -0.3758108914 -0.2064622641 5.962428276e-39
0.05168718472 -0.4464444816 0.3752478063 5.962428276e-39
0.07921467721 -0.352966994 0.1998997331 5.962428276e-39
0.02694428526 -0.4489658773 -0.003878328018 5.962428276e-39
0.05566513538 -0.4524153471 -0.02942823805 5.962428276e-39
-0.3072077334 -0.383185178 0.06588816643 5.962428276e-39
0.2547894716 -0.375431627 0.231987834 5.962428276e-39
-0.105492346 -0.4544309378 0.3248496652 5.962428276e-39
0.2238921821 -0.4113417864 -0.1961702406 5.962428276e-39
-0.162466228 -0.3662758768 -0.1658526361 5.962428276e-39
-0.1657928228 -0.3973392844 0.2821598351 5.962428276e-39
0.2451341003 -0.4077996612 0.2317570597 5.962428276e-39
0.1384189874 -0.3602080941 0.1001151055 5.962428276e-39
-0.2331880927 -0.3831124902 0.2205960751 5.962428276e-39
-0.1242021099 -0.4005604982 -0.2120252699 5.962428276e-39
0.2691248655 -0.3472211361 -0.01695708185 5.962428276e-39
0.1409137994 -0.3566394448 -0.08545124531 5.962428276e-39
-0.2735929787 -0.4288993478 -0.1442453563 5.962428276e-39
0.2511763275 -0.4134146273 -0.05285684764 5.962428276e-39
0.1214532033 -0.4776279032 -0.1334335357 5.962428276e-39
0.2337286919 -0.4307361245 0.2324454039 5.962428276e-39
-0.08105356991 -0.3890040219 -0.2170733213 5.962428276e-39
-0.3040510714 -0.3798830509 0.03065448068 5.962428276e-39
-0.2039585859 -0.3531890512 -0.02104896121 5.962428276e-39
-0.06327031553 -0.4390176535 0.02328040451 5.962428276e-39
0.2877167761 -0.3660947084 0.1026999503 5.962428276e-39
-0.04458248615 -0.435593009 0.2340430915 5.962428276e-39
-0.2078782618 -0.3531969786 -0.0401910916 5.962428276e-39
-0.02282731794 -0.4436451495 0.026697319 5.962428276e-39
0.1526962817 -0.3966831565 0.3475222886 5.962428276e-39
0.05973324925 -0.4293043911 0.1604662687 5.962428276e-39
0.22606574 -0.4491343796 0.1972256452 5.962428276e-39
-0.1726575643 -0.3529187441 0.05009026825 5.962428276e-39
-0.007237592712 -0.403565824 0.3387828469 5.962428276e-39
0.02158676647 -0.3956423402 -0.2542698383 5.962428276e-39
-0.2605285048 -0.3645323813 0.1145659089 5.962428276e-39
0.2319754958 -0.3766644597 0.2779645324 5.962428276e-39
0.2053188831 -0.4383040369 0.1254794896 5.962428276e-39
-0.09127936512 -0.3655844629 0.03047802486 5.962428276e-39
-0.06934931129 -0.4439651966 -0.03197304159 5.962428276e-39
-0.171403423 -0.4600732625 -0.2284188569 5.962428276e-39
-0.1075172648 -0.4141902924 0.3126693666 5.962428276e-39
-0.2395006716 -0.426637888 -0.1862092167 5.962428276e-39
0.1653820276 -0.3622312844 0.3003248572 5.962428276e-39
0.1017775983 -0.3677426279 -0.2598857284 5.962428276e-39
0.03746825457 -0.3566690683 -0.1969029009 5.962428276e-39
-0.0960848406 -0.4489269257 -0.241080448 5.962428276e-39
0.2651620805 -0.3698235452 -0.07162080705 5.962428276e-39
0.2014276534 -0.4597476721 0.2322537899 5.962428276e-39
0.1944603324 -0.3534537256 0.262460053 5.962428276e-39
-0.1276288182 -0.3625907898 -0.1732772887 5.962428276e-39
0.2113302797 -0.3624543548 0.2951663733 5.962428276e-39
0.1489422172 -0.3916181922 0.33676669 5.962428276e-39
-0.0496359542 -0.4108579159 0.1146354005 5.962428276e-39
0.02826089412 -0.3854045272 0.3218878508 5.962428276e-39
0.2012682557 -0.4319853783 -0.2302408814 5.962428276e-39
0.00384612754 -0.4201134443 -0.2588154376 5.962428276e-39
-0.03818248212 -0.4291524291 0.0848313719 5.962428276e-39
0.1634791344 -0.394951582 0.345518738 5.962428276e-39
0.05291660875 -0.4081466496 0.3531986475 5.962428276e-39
-0.2975957394 -0.3752251565 0.03964155912 5.962428276e-39
0.00752709806 -0.4521429539 0.36450091 5.962428276e-39
-0.2378357947 -0.3696706891 -0.1121615916 5.962428276e-39
0.1877108216 -0.3818432093 0.327245295 5.962428276e-39
0.2062401175 -0.3868056536 -0.2223516405 5.962428276e-39
-0.04730197042 -0.3553082943 0.1411535889 5.962428276e-39
-0.1205816492 -0.3910461664 -0.2059509307 5.962428276e-39
-0.3053849041 -0.4540034831 -0.005093604326 5.962428276e-39
-0.01245546527 -0.4051066637 -0.2506686151 5.962428276e-39
0.2344490886 -0.3468173444 0.1664499938 5.962428276e-39
0.2481611222 -0.4169479609 -0.05605238676 5.962428276e-39
-0.1232759431 -0.3628961146 -0.1787905395 5.962428276e-39
0.08797673136 -0.4742779732 0.307199508 5.962428276e-39
0.01142963022 -0.4870114028 -0.1828128397 5.962428276e-39
0.1971409917 -0.3795791864 -0.2295697629 5.962428276e-39
0.0383098945 -0.4043138325 0.3475743234 5.962428276e-39
0.1325222254 -0.3543103039 0.2082771957 5.962428276e-39
-0.01720866002 -0.4259539843 0.3477778137 5.962428276e-39
0.2067507058 -0.352742523 0.2435822338 5.962428276e-39
0.09237739444 -0.3533370495 0.2002667934 5.962428276e-39
0.0986205712 -0.4260471463 0.1227482334 5.962428276e-39
-0.02833464183 -0.4461984336 0.2641759217 5.962428276e-39
0.1786444485 -0.3550685942 -0.1039921343 5.962428276e-39
0.1282879263 -0.3571072221 -0.2228750288 5.962428276e-39
0.2821404338 -0.3552934527 0.1274828017 5.962428276e-39
0.01080529019 -0.3725044131 -0.2331876308 5.962428276e-39
0.2223486006 -0.3612164259 0.2814207375 5.962428276e-39
-0.1120646819 -0.3921096027 -0.209702909 5.962428276e-39
-0.1807005703 -0.3587840796 0.1851909012 5.962428276e-39
-0.134814471 -0.4056863785 -0.2190662771 1.184631237e-38
-0.2793196738 -0.4771395028 -0.0332198143 1.184631237e-38
0.02021571621 -0.4122759104 -0.2477508038 1.184631237e-38
0.204336375 -0.446124047 0.00103972014 1.184631237e-38
-0.1043366864 -0.3447855711 0.2719244659 1.184631237e-38
0.07334008068 -0.458099246 0.2726024985 1.184631237e-38
0.07875528932 -0.3316547573 -0.2140178829 1.184631237e-38
-0.2789883316 -0.3554301262 0.1045335382 1.184631237e-38
-0.2225952893 -0.3405718803 -0.1385292262 1.184631237e-38
0.04395891726 -0.3284854293 -0.04495181888 1.184631237e-38
0.03897518292 -0.3278805912 -0.1278633028 1.184631237e-38
0.2272705436 -0.4507424235 -0.1017115489 1.184631237e-38
-0.2820454836 -0.4433557689 -0.02357554249 1.184631237e-38
0.06473326683 -0.3404235244 0.2946915627 1.184631237e-38
-0.2616301179 -0.3460012674 -0.03871896863 1.184631237e-38
-0.1135327592 -0.3914080858 -0.2204485834 1.184631237e-38
-0.02379939146 -0.3301845193 0.007936127484 1.184631237e-38
-0.264462918 -0.3502146006 -0.0952290222 1.184631237e-38
0.0890134722 -0.4401387572 0.03742031753 1.184631237e-38
0.2820450962 -0.3536047339 -0.1036636159 1.184631237e-38
0.1499503702 -0.4168152213 0.147623688 1.184631237e-38
-0.007604299113 -0.3982414603 -0.2425657064 1.184631237e-38
-0.01489668526 -0.4792702496 -0.2422792166 1.184631237e-38
0.09073797613 -0.4433228672 -0.03062046506 1.184631237e-38
-0.2029039115 -0.3493605554 0.2321305126 1.184631237e-38
0.2670584321 -0.3523285985 0.1814056635 1.184631237e-38
-0.04653499275 -0.3850656748 0.1104044318 1.184631237e-38
-0.00563572906 -0.315724045 0.255610168 1.184631237e-38
0.135332033 -0.3182514906 0.08652981371 1.184631237e-38
0.08723986894 -0.3281160593 -0.2084196359 1.184631237e-38
0.2626587451 -0.4311586022 -0.1328071803 1.184631237e-38
0.08280786872 -0.4552289844 -0.1114003062 1.184631237e-38
-0.1791565418 -0.3497424126 0.2489086092 1.184631237e-38
0.04691054672 -0.4204933643 -0.2532641888 1.184631237e-38
0.1441359669 -0.4573687017 0.25458318 1.184631237e-38
0.007885690778 -0.3786963224 0.3275995553 1.184631237e-38
-0.04402527958 -0.4584460855 -0.2363018095 1.184631237e-38
-0.2869069874 -0.360162437 0.04615686089 1.184631237e-38
-0.09313861281 -0.4613164961 -0.2292676121 1.184631237e-38
0.02408508025 -0.4675370753 -0.198479712 1.184631237e-38
0.2624286413 -0.4387642741 -0.1152829677 1.184631237e-38
0.1249800026 -0.303968519 0.1210075393 1.184631237e-38
-0.2244641483 -0.3994475901 -0.1787057072 1.184631237e-38
-0.02432842739 -0.3407319188 0.2861109674 1.184631237e-38
-0.0564416945 -0.4243462086 0.2138155401 1.184631237e-38
-0.2843720019 -0.400095582 0.04364639521 1.184631237e-38
0.2817448974 -0.4192067385 0.04604424536 1.184631237e-38
0.05848748237 -0.4633610547 -0.1769105047 1.184631237e-38
0.005120689049 -0.4515067339 -0.09871660918 1.184631237e-38
-0.1409242302 -0.2952443659 0.0707436353 1.184631237e-38
-0.2804765403 -0.4346904755 -0.04568552226 1.184631237e-38
-0.2013591975 -0.3244400024 0.157198146 1.184631237e-38
0.08387409896 -0.4472688138 0.2292394638 1.184631237e-38
-0.2781215608 -0.35127756 -0.001180277206 1.184631237e-38
0.2293985039 -0.3161537647 0.1346558034 1.184631237e-38
0.06762439013 -0.3453936577 0.2999944091 1.184631237e-38
0.1258501858 -0.4037770331 0.1109826043 1.184631237e-38
0.1689777374 -0.4273877442 0.1730908751 1.184631237e-38
-0.2253813446 -0.4594437778 -0.1859950572 1.184631237e-38
-0.2827373743 -0.4155378342 -0.02961383574 1.184631237e-38
-0.2547427416 -0.3434020281 -0.1070085317 1.184631237e-38
-0.1572141498 -0.4151044488 -0.215789929 1.184631237e-38
0.2596335411 -0.4078524411 0.07944053411 1.184631237e-38
0.09646372497 -0.3578328788 0.3129268885 1.184631237e-38
-0.05907141417 -0.434247613 -0.2323119938 1.184631237e-38
-0.003920473158 -0.3352833986 0.2834058404 1.184631237e-38
0.1629063934 -0.3231462836 -0.01787471958 1.184631237e-38
-0.1662957668 -0.3114696741 0.142806232 1.184631237e-38
0.2769144475 -0.3401927948 0.01167315058 1.184631237e-38
-0.02633789368 -0.4074458778 0.3265730441 1.184631237e-38
0.1113053486 -0.3226115108 0.2669797242 1.184631237e-38
-0.1628517061 -0.4101245999 -0.2145278454 1.184631237e-38
0.1659287661 -0.4439417422 -0.04340296239 1.184631237e-38
0.1706624776 -0.4531910717 -0.107145749 1.184631237e-38
0.01281655859 -0.374956727 -0.2458726317 1.184631237e-38
-0.1245172843 -0.4637162089 0.3042237163 1.184631237e-38
0.230008617 -0.3284884095 0.2385248989 1.184631237e-38
0.2567998171 -0.440916568 -0.05411799252 1.184631237e-38
-0.2310930789 -0.4553328454 0.2133347243 1.184631237e-38
-0.1915688813 -0.3251135945 -0.02191807516 1.184631237e-38
-0.1349446028 -0.3550171852 -0.1896422058 1.184631237e-38
0.2264763862 -0.4135513306 0.2403791696 1.184631237e-38
0.2248516679 -0.3675595522 0.2648681104 1.184631237e-38
-0.271995604 -0.4783703685 0.09021191299 1.184631237e-38
-0.01066173427 -0.3786687851 0.3227607012 1.184631237e-38
-0.2791333497 -0.4710922241 0.04534561932 1.184631237e-38
-0.07647719234 -0.420273304 0.07974549383 1.184631237e-38
-0.05283740163 -0.4332124591 -0.2331695557 1.184631237e-38
0.08323741704 -0.3479228616 0.3020271659 1.184631237e-38
0.05167444795 -0.3076426983 0.09276552498 1.184631237e-38
-0.05310005695 -0.3852314055 0.1213823557 1.184631237e-38
0.01174772438 -0.3238557875 -0.2047693878 1.184631237e-38
-0.268632412 -0.4475976825 0.1183425188 1.184631237e-38
-0.07203754783 -0.484937638 -0.2341962159 1.184631237e-38
0.2964496911 -0.3611595631 0.07013567537 1.184631237e-38
-0.1509171724 -0.4302366972 -0.2181745023 1.184631237e-38
0.1571460217 -0.4679829478 -0.2139105201 1.184631237e-38
-0.2800534666 -0.4166426957 0.07120703161 1.184631237e-38
-0.203316018 -0.3549463749 0.2384669185 1.184631237e-38
-0.08263377845 -0.4241894484 0.3111937046 1.184631237e-38
-0.01934034564 -0.4334105253 -0.2383215278 1.184631237e-38
0.04288093001 -0.3537916541 -0.2374997437 1.184631237e-38
-0.002742934972 -0.3276122808 -0.060362041 1.184631237e-38
-0.2099494189 -0.3305851221 0.1816138178 1.184631237e-38
-0.02556473203 -0.4541561604 -0.2387184948 1.184631237e-38
-0.03934153914 -0.4219891131 0.2007778287 1.184631237e-38
0.02015322819 -0.3822440505 -0.2476763278 1.184631237e-38
-0.04934876412 -0.383103013 0.3133502305 1.184631237e-38
0.01049456187 -0.4639267325 -0.2442748696 1.184631237e-38
-0.126742512 -0.326593101 0.2368218899 1.184631237e-38
0.06382911652 -0.350246191 -0.2401154488 1.184631237e-38
0.02702820674 -0.3529839516 -0.2326214164 1.184631237e-38
0.06789591163 -0.3249843121 -0.1607444882 1.184631237e-38
-0.1418591887 -0.4692337811 0.2969737649 1.184631237e-38
0.04539027438 -0.2904338539 0.1614805907 1.184631237e-38
0.06004241109 -0.4554697871 -0.1117134318 1.184631237e-38
0.2479043901 -0.3398427367 -0.1597104222 1.184631237e-38
-0.0007167328149 -0.4510505497 -0.09755072743 1.184631237e-38
0.07054740191 -0.4517553151 -0.096766904 1.184631237e-38
-0.05528942496 -0.4744513333 -0.2356929928 1.184631237e-38
0.03036632761 -0.5130091906 -0.2497647554 1.184631237e-38
0.05341550708 -0.3335236907 -0.2172223777 1.184631237e-38
-0.09605699778 -0.4393381476 0.3095839322 1.184631237e-38
-0.08325527608 -0.4718244076 -0.2314748019 1.184631237e-38
-0.004842568189 -0.336009562 0.2841136456 1.184631237e-38
-0.1394490004 -0.4226318896 -0.2193338871 1.184631237e-38
0.07951588184 -0.3140072823 0.08640132844 1.184631237e-38
-0.06572253257 -0.3846771717 0.1091530621 1.184631237e-38
-0.06469729543 -0.3274940848 -0.02151062898 1.184631237e-38
-0.0677139014 -0.3254257441 0.02103451639 1.184631237e-38
-0.144683972 -0.3771433234 -0.2014213949 1.184631237e-38
-0.1926823109 -0.3372977972 0.2194693536 1.184631237e-38
0.1218965203 -0.4435333014 -0.05997168273 1.184631237e-38
0.08358423412 -0.3427317142 0.2958018482 1.184631237e-38
-0.2739252746 -0.4306480587 0.1060584635 1.184631237e-38
-0.07999379933 -0.3925397098 0.1477314979 1.184631237e-38
-0.05101909488 -0.3298134804 -0.004989633337 1.184631237e-38
0.06506171077 -0.4362026453 -0.2565763891 1.184631237e-38
-0.1891273111 -0.3696392775 0.2526925504 1.184631237e-38
-0.2635865211 -0.4305611551 0.1483734846 1.184631237e-38
0.2652817965 -0.430057615 -0.05064383149 1.184631237e-38
0.05829378217 -0.4474835396 -0.08147945255 1.184631237e-38
-0.2723727524 -0.4905405343 -0.0842860043 1.184631237e-38
-0.006931351498 -0.4329773784 0.2184801549 1.184631237e-38
0.2642912269 -0.4307160974 -0.1262180209 1.184631237e-38
-0.1482498348 -0.3676950634 0.2735769153 1.184631237e-38
0.01197662391 -0.4420681 -0.01955515891 1.184631237e-38
-0.002621294931 -0.4459632933 -0.07815026492 1.184631237e-38
-0.05831540376 -0.402313441 0.1630616784 1.184631237e-38
-0.1086481139 -0.3928978443 -0.2229454964 1.184631237e-38
-0.03334535658 -0.391705811 0.1325710416 1.184631237e-38
0.2696218789 -0.4271077514 0.05476926267 1.184631237e-38
0.05675076321 -0.3618107438 -0.247904554 1.184631237e-38
-0.02569535188 -0.3169350624 -0.1760016978 1.184631237e-38
-0.1949994266 -0.4442542493 -0.2039507478 1.184631237e-38
0.07361511141 -0.3962777257 -0.2579829693 1.184631237e-38
-0.04892691225 -0.3390710354 0.2786673903 1.184631237e-38
-0.1546025872 -0.3228984475 -0.01682277583 1.184631237e-38
-0.2079278827 -0.4670666754 -0.1929087043 1.184631237e-38
0.2419881672 -0.321518302 0.06711871922 1.184631237e-38
0.08855736256 -0.4411412477 0.2154989243 1.184631237e-38
0.07860603184 -0.3050040305 0.2276367694 1.184631237e-38
-0.2827037871 -0.3571663797 0.0776951313 1.184631237e-38
-0.2838722169 -0.4353289008 0.009308690205 1.184631237e-38
0.09142202884 -0.4428802729 0.01382362656 1.184631237e-38
-0.01212543435 -0.3548544049 0.3058935404 1.184631237e-38
-0.01309513114 -0.3267478347 -0.04065440595 1.184631237e-38
0.2433376163 -0.348105371 -0.1927755773 1.184631237e-38
0.01260068174 -0.3913344741 0.3330812156 1.184631237e-38
0.09368713945 -0.2926152945 0.1361733228 1.184631237e-38
0.06191393733 -0.4422883391 0.007146602962 1.184631237e-38
0.09115859121 -0.4446770251 -0.01681868546 1.184631237e-38
-0.288277477 -0.3725001514 0.03017280065 1.184631237e-38
0.2674767971 -0.3471235037 0.1853724271 1.184631237e-38
-0.1263021678 -0.4120848775 0.2925015986 1.184631237e-38
0.2550413013 -0.3873847127 -0.1815872043 1.184631237e-38
-0.1534916908 -0.333576858 -0.1700193584 1.184631237e-38
-0.1883223653 -0.3521063924 0.2461816967 1.184631237e-38
0.2574546933 -0.3746230602 0.1865726411 1.184631237e-38
0.1379890144 -0.3270095587 0.0590750128 1.184631237e-38
-0.2446130812 -0.3505387306 0.1884623319 1.184631237e-38
-0.1128362641 -0.3814036846 -0.2147292644 1.184631237e-38
0.2743996084 -0.3412644863 -0.01139419712 1.184631237e-38
0.1649534851 -0.3236113787 -0.07454741001 1.184631237e-38
-0.2550398409 -0.4335811138 -0.1479616016 1.184631237e-38
0.2857170403 -0.4000268877 -0.04069761187 1.184631237e-38
0.1470899582 -0.4554787576 -0.1199805588 1.184631237e-38
0.2454146445 -0.3968019485 0.1884164363 1.184631237e-38
-0.0712171495 -0.3683845997 -0.217764318 1.184631237e-38
-0.2874270976 -0.3586453795 0.001736983657 1.184631237e-38
-0.1508526802 -0.323559761 -0.03543433547 1.184631237e-38
-0.04176472872 -0.4348495901 0.03263791651 1.184631237e-38
0.2989988625 -0.3392965198 0.07350148261 1.184631237e-38
-0.05984142423 -0.4185971022 0.1989806145 1.184631237e-38
-0.1589236259 -0.3218691349 -0.05084136873 1.184631237e-38
0.009310595691 -0.437186867 0.03392001241 1.184631237e-38
0.1508360207 -0.3542462587 0.3050235808 1.184631237e-38
0.07230380923 -0.4017731547 0.1300466955 1.184631237e-38
0.2376053333 -0.4126473069 0.1554700732 1.184631237e-38
-0.1201800629 -0.3202100396 0.01729041524 1.184631237e-38
-0.02813058905 -0.3478809595 0.2946555614 1.184631237e-38
0.03389656544 -0.3735430539 -0.2492924184 1.184631237e-38
-0.2194646746 -0.325469017 0.07487139106 1.184631237e-38
0.2476417273 -0.3508028388 0.235220477 1.184631237e-38
0.222560361 -0.4131174684 0.09982892871 1.184631237e-38
-0.04936613888 -0.3299515545 0.008195019327 1.184631237e-38
-0.05804131925 -0.4396205842 -0.01807119511 1.184631237e-38
-0.1482332349 -0.4504090846 -0.2200982869 1.184631237e-38
-0.1330969334 -0.3631030917 0.2784096599 1.184631237e-38
-0.2228404135 -0.4249129295 -0.1864163131 1.184631237e-38
0.164077282 -0.3270650506 0.2556762695 1.184631237e-38
0.1084119678 -0.3484503627 -0.2506519258 1.184631237e-38
0.05751559883 -0.3223237991 -0.1903399974 1.184631237e-38
-0.06463707983 -0.4335435331 -0.2314068824 1.184631237e-38
0.2900713384 -0.355297327 -0.056824781 1.184631237e-38
0.2188775539 -0.4311215281 0.1911455393 1.184631237e-38
0.1962353736 -0.3241651356 0.2081816196 1.184631237e-38
-0.1119590774 -0.3245701194 -0.1765219122 1.184631237e-38
0.224841401 -0.3354064822 0.2523590624 1.184631237e-38
0.147393316 -0.3453078866 0.2944852412 1.184631237e-38
-0.05432593822 -0.3924670219 0.1024196818 1.184631237e-38
0.02820815891 -0.3252899945 0.2749329507 1.184631237e-38
0.2329684347 -0.411303848 -0.2166919857 1.184631237e-38
0.02798504196 -0.3987978697 -0.249739632 1.184631237e-38
-0.02352912538 -0.4195674062 0.08142212033 1.184631237e-38
0.1684212983 -0.353870362 0.3029701412 1.184631237e-38
0.03819028288 -0.352868557 0.3105766177 1.184631237e-38
-0.2727614343 -0.3479728103 0.008276901208 1.184631237e-38
-0.02349597402 -0.4001013935 0.3257597983 1.184631237e-38
-0.2148032188 -0.3337879777 -0.1199738532 1.184631237e-38
0.1970897615 -0.3493837118 0.2863327265 1.184631237e-38
0.2394766062 -0.3625473976 -0.2083785236 1.184631237e-38
-0.02754320391 -0.2973466218 0.08219501376 1.184631237e-38
-0.1084241793 -0.3717496395 -0.209688589 1.184631237e-38
-0.2810204327 -0.4578508735 -0.02832858451 1.184631237e-38
0.004964662716 -0.3833613992 -0.2450918704 1.184631237e-38
0.2276018411 -0.3155320883 0.1197071522 1.184631237e-38
0.2829042077 -0.403008759 -0.04461802542 1.184631237e-38
-0.1108769253 -0.3319103122 -0.1814425439 1.184631237e-38
0.0759595409 -0.4581111968 0.2711182535 1.184631237e-38
0.002836927772 -0.4626055062 -0.1704776883 1.184631237e-38
0.2315079272 -0.3593575656 -0.2153300494 1.184631237e-38
0.02766067721 -0.3476628661 0.3037238419 1.184631237e-38
0.1415068209 -0.3047674 0.1482233703 1.184631237e-38
-0.05189926922 -0.3696873486 0.3086064458 1.184631237e-38
0.2061112225 -0.321452111 0.1891678423 1.184631237e-38
0.1062106267 -0.2954382598 0.1378565431 1.184631237e-38
0.1149811298 -0.4038287699 0.1013334617 1.184631237e-38
-0.04341724515 -0.4311855435 0.2277584672 1.184631237e-38
0.2001274079 -0.3227804005 -0.08764652163 1.184631237e-38
0.1627021134 -0.3266126513 -0.2088355869 1.184631237e-38
0.2874092758 -0.327314198 0.09507735819 1.184631237e-38
0.01620431617 -0.350948602 -0.2280058265 1.184631237e-38
0.2349345386 -0.331325978 0.236917153 1.184631237e-38
-0.1002625898 -0.3729160428 -0.2128884494 1.184631237e-38
-0.1485414505 -0.30306229 0.134495616 1.184631237e-38
-0.1697719991 -0.3063112199 -0.1709769964 1.771655483e-38
-0.2849902809 -0.4002971947 0.01592381299 1.771655483e-38
-0.02448885329 -0.3277383447 -0.2149334252 1.771655483e-38
0.06352686137 -0.4731980562 0.02887085639 1.771655483e-38
-0.0065496061 -0.261970371 0.2513637543 1.771655483e-38
-0.03139288723 -0.4640468657 0.2573179305 1.771655483e-38
0.2066236734 -0.281508714 -0.1419876963 1.771655483e-38
-0.1675609052 -0.2578280568 0.1284958869 1.771655483e-38
-0.1275092512 -0.2310065627 -0.0709245801 1.771655483e-38
0.2214422673 -0.2433384955 -0.0006939601153 1.771655483e-38
0.1938193887 -0.2390094697 -0.0533144176 1.771655483e-38
0.0732113868 -0.4690556526 -0.0481993854 1.771655483e-38
-0.28518641 -0.3485792875 0.03036905453 1.771655483e-38
0.1791613549 -0.2850005031 0.2502680421 1.771655483e-38
-0.1487871557 -0.2386390716 0.01146400254 1.771655483e-38
-0.1479687244 -0.2831647992 -0.1642396599 1.771655483e-38
0.1649798602 -0.2259688675 0.02061858214 1.771655483e-38
-0.1754113436 -0.2547885478 -0.03148400784 1.771655483e-38
-0.03968798369 -0.4729723632 0.0496596843 1.771655483e-38
0.2534429729 -0.4563994706 -0.04185608029 1.771655483e-38
0.01066550426 -0.4528698623 0.1426670998 1.771655483e-38
-0.04546868801 -0.3052093685 -0.198026672 1.771655483e-38
-0.06962452084 -0.4131746292 -0.2250981629 1.771655483e-38
-0.04022295773 -0.4705605209 -0.001555394381 1.771655483e-38
-0.09538310766 -0.2651642561 0.2338095158 1.771655483e-38
0.2174438238 -0.4624545276 0.1700625122 1.771655483e-38
-0.123334907 -0.4390351176 0.1148658395 1.771655483e-38
0.1185488477 -0.2301567346 0.2102585137 1.771655483e-38
0.2741727829 -0.2950278521 0.06838493794 1.771655483e-38
0.2199752033 -0.2920578718 -0.1376592368 1.771655483e-38
0.1364479661 -0.4711886942 -0.07198750228 1.771655483e-38
-0.05336300284 -0.4697755277 -0.06502109021 1.771655483e-38
-0.08054792136 -0.2719681263 0.2470028847 1.771655483e-38
0.006863377988 -0.3415973485 -0.2239128947 1.771655483e-38
0.01116322726 -0.465049237 0.2361493409 1.771655483e-38
0.04704711586 -0.3160645664 0.3121109903 1.771655483e-38
-0.1037259921 -0.3839398921 -0.217014581 1.771655483e-38
-0.194843784 -0.2667506635 0.0906592682 1.771655483e-38
-0.1507082731 -0.385286212 -0.2133325934 1.771655483e-38
-0.09201262891 -0.4641439915 -0.1545127481 1.771655483e-38
0.1210041046 -0.4704687893 -0.05686437339 1.771655483e-38
